# .PCD v0.7 - Point Cloud Data file format
VERSION 0.7
FIELDS x y z rgb
SIZE 4 4 4 4
TYPE F F F U
COUNT 1 1 1 1
WIDTH 625
HEIGHT 1
VIEWPOINT 0 0 0 1 0 0 0
POINTS 625
DATA ascii
0.79525936 -0.44434625 -0.38534668 11842742
0.79409099 -0.70522666 -0.37555215 10789036
0.79268014 -0.69525152 -0.37488484 11708600
0.79231024 -0.68487108 -0.37477389 14144220
0.79276919 -0.67514169 -0.37485698 14143963
0.79263991 -0.66552687 -0.37486622 14143963
0.79217225 -0.65514511 -0.37451577 14210013
0.79286206 -0.64489794 -0.37503526 14341342
0.79396158 -0.63540852 -0.37520504 14341599
0.79513037 -0.62541938 -0.37507299 14473184
0.79457128 -0.61472923 -0.37489289 14538719
0.79447621 -0.60491157 -0.37476036 14275804
0.7955218 -0.59544337 -0.37533879 14473184
0.79549998 -0.54484755 -0.37427863 14275287
0.79380006 -0.53446931 -0.37457865 14538974
0.79284006 -0.5246349 -0.37496236 14341598
0.79185003 -0.51461893 -0.37541988 14802403
0.79209083 -0.50503772 -0.37553394 14867940
0.79317242 -0.49513018 -0.37524754 14933477
0.79378271 -0.48539391 -0.37451819 14934245
0.79422736 -0.47521561 -0.37485698 14934500
0.79336363 -0.46456853 -0.37444913 14934500
0.7922917 -0.45470336 -0.37477896 14802914
0.79136002 -0.44488353 -0.37433416 14868707
0.79176193 -0.43505782 -0.37551004 14867937
0.79284632 -0.42492157 -0.37532118 14539228
0.79505002 -0.71538556 -0.36483684 10855341
0.79303837 -0.70536357 -0.36555645 10920364
0.79232132 -0.69471169 -0.36504111 12038335
0.79234362 -0.68483597 -0.36492616 14341600
0.79211527 -0.67458606 -0.36512947 14275805
0.79279989 -0.66523665 -0.36459807 14144219
0.7938571 -0.65529019 -0.36513537 14210269
0.79409367 -0.6451596 -0.36555588 14276318
0.79427278 -0.63515174 -0.3651529 14341854
0.79445463 -0.62515354 -0.36574477 14407390
0.79393345 -0.61494374 -0.36525282 14407134
0.79306668 -0.60498965 -0.36485419 14341340
0.79327762 -0.59493506 -0.36495203 14604768
0.79469997 -0.58483899 -0.36467546 14670560
0.79569244 -0.57510924 -0.36491591 14736352
0.7955218 -0.5450018 -0.36505169 14407387
0.79396665 -0.53504789 -0.3652665 14473436
0.79224128 -0.52473903 -0.3646324 14341853
0.79083371 -0.51442093 -0.36567545 14867941
0.79084873 -0.5046674 -0.36543015 14933734
0.79171425 -0.49519983 -0.36555463 14999527
0.79294097 -0.48494411 -0.36506966 15065319
0.7924813 -0.47488543 -0.36510068 14999781
0.79199988 -0.46511912 -0.36529079 14933987
0.79116011 -0.45536578 -0.36490306 14999780
0.79025024 -0.4451957 -0.36474726 15000037
0.78900003 -0.43011013 -0.36575413 15132135
0.7900306 -0.43515554 -0.36527887 14934757
0.78900003 -0.42567721 -0.36612353 15066342
0.7902416 -0.42421499 -0.36486188 15131879
0.79563421 -0.41522738 -0.36509943 13684431
0.79435009 -0.71475649 -0.35521752 10920878
0.79217231 -0.70432258 -0.35501054 10920109
0.79206443 -0.69490272 -0.35521215 12038338
0.79236656 -0.68483675 -0.35439268 14473186
0.7920689 -0.67481726 -0.35496429 14538723
0.79306662 -0.66532785 -0.35464302 14341343
0.79534221 -0.65483731 -0.35521883 14341599
0.79500002 -0.62507516 -0.35550782 14473183
0.79407996 -0.61505735 -0.35509643 14407390
0.79389673 -0.60485351 -0.35488567 14538721
0.79399997 -0.59476191 -0.35520238 14933221
0.7949667 -0.58503646 -0.35549271 14867682
0.79540008 -0.54439169 -0.35522142 14473437
0.79380012 -0.53493518 -0.3549726 14407644
0.79261529 -0.5247159 -0.35465577 14538719
0.79199988 -0.51517951 -0.35509333 14933990
0.7919696 -0.50538415 -0.35533267 15065833
0.79117256 -0.4949699 -0.35507494 15328491
0.79153854 -0.48501655 -0.3548167 15197160
0.79199988 -0.47491091 -0.35457206 14999781
0.79254526 -0.46493274 -0.35508341 14933988
0.79199994 -0.45492217 -0.35509223 14933987
0.791394 -0.44488907 -0.3550725 14933986
0.79090023 -0.43484929 -0.35459849 14934244
0.79243898 -0.42469496 -0.35494685 15263723
0.79541391 -0.70501852 -0.34509066 10919852
0.79318506 -0.69475913 -0.34492686 13222610
0.79233325 -0.68460155 -0.34524593 14538980
0.79243988 -0.67500514 -0.3450861 14604771
0.79390007 -0.66509497 -0.3447924 14407392
0.79567653 -0.65491408 -0.34529081 14407392
0.79542315 -0.63493431 -0.34474081 14407647
0.7943846 -0.62530714 -0.34550649 14407390
0.79318517 -0.61477703 -0.34520632 14341598
0.7932142 -0.60450393 -0.34562418 14604513
0.7944839 -0.59514952 -0.3450788 14933477
0.79505563 -0.58510196 -0.34529552 14802147
0.79488009 -0.54489213 -0.34503388 14473693
0.79299992 -0.53460872 -0.34518889 14144729
0.79195994 -0.52442425 -0.34487888 14671074
0.79143995 -0.51481533 -0.34465325 15131367
0.79128003 -0.50544953 -0.34458327 15197417
0.79034501 -0.49521828 -0.34462032 15328746
0.79056275 -0.4856723 -0.34490469 15394539
0.79189992 -0.47525597 -0.34485203 15131368
0.79262054 -0.46471497 -0.34529522 15065574
0.79226917 -0.45436361 -0.34487119 15000294
0.79199988 -0.44472411 -0.3448959 14934245
0.79140007 -0.43512326 -0.34463471 14802659
0.7934165 -0.42497891 -0.345099 15263465
0.79438102 -0.69419605 -0.33504012 14275552
0.79269987 -0.68450588 -0.33499557 14670565
0.79287487 -0.67502731 -0.33518523 14538978
0.79432362 -0.66528594 -0.33475089 14407647
0.79511541 -0.6547327 -0.33522791 14407647
0.79479164 -0.6452238 -0.33479342 14407647
0.79392004 -0.63537866 -0.33458167 14473439
0.79348272 -0.6251635 -0.33458775 14473183
0.79354268 -0.61511785 -0.33542731 14341597
0.79371899 -0.60484719 -0.33530578 14539234
0.79420698 -0.59540749 -0.33527601 14802405
0.79552948 -0.58468139 -0.33509374 14868198
0.7955417 -0.55488759 -0.33541998 14736354
0.79376191 -0.54535025 -0.33433813 14341596
0.79266649 -0.53509861 -0.33498073 14342111
0.79167855 -0.52443695 -0.33489344 14802917
0.79040027 -0.51413941 -0.33494818 15131881
0.7906335 -0.50429326 -0.33430442 15000038
0.79193944 -0.49525076 -0.33492273 15131624
0.79257554 -0.48536041 -0.33468619 15263466
0.79257572 -0.47524029 -0.33519235 15329003
0.79219985 -0.46523675 -0.33478171 15131880
0.79202765 -0.45493746 -0.33470991 15132136
0.7924332 -0.44496724 -0.33487982 15197930
0.79219997 -0.4355641 -0.33478147 14934757
0.79314983 -0.42517176 -0.33495167 15000551
0.79417658 -0.694969 -0.32528296 14406624
0.79199988 -0.68466836 -0.32437304 14736357
0.79203993 -0.67466486 -0.32451743 14605027
0.79303217 -0.66508818 -0.32504463 14342113
0.79396558 -0.65476912 -0.32517952 14407906
0.79400003 -0.64473534 -0.32532024 14407393
0.79385722 -0.63479567 -0.32472923 14473696
0.79474288 -0.62535018 -0.32477298 14407647
0.79548568 -0.61508083 -0.32512936 14276061
0.7947917 -0.55568159 -0.32479227 14539231
0.79292005 -0.54547858 -0.32487872 14473183
0.79199994 -0.53497905 -0.32470044 14670818
0.79120702 -0.52411616 -0.32436761 15066088
0.79133338 -0.51474577 -0.32515252 15329003
0.7919696 -0.50521308 -0.32499191 15263210
0.79300004 -0.49540919 -0.32491061 15065575
0.7930333 -0.48521909 -0.32492438 15131624
0.79455894 -0.47499156 -0.32461783 15329002
0.79422575 -0.46474653 -0.32462925 15394795
0.794294 -0.45465255 -0.32428926 15328745
0.79379988 -0.4449175 -0.32501325 15526124
0.79279166 -0.43534863 -0.32490185 15394794
0.79370272 -0.42478332 -0.32484472 15395307
0.79357898 -0.69514257 -0.3144896 14077659
0.79156673 -0.68445307 -0.31505805 14670308
0.79203832 -0.67452085 -0.31503153 14670051
0.79277766 -0.66508532 -0.31461132 14342112
0.79303211 -0.65490866 -0.31456313 14276575
0.79397154 -0.64550734 -0.31521791 14407904
0.79482353 -0.63538861 -0.31514928 14538976
0.79525 -0.62467223 -0.31486222 14473183
0.79551846 -0.61472285 -0.31456301 14275804
0.79542321 -0.60470945 -0.31487688 14604769
0.79400009 -0.55531073 -0.31458065 14276060
0.79207695 -0.54504234 -0.31504723 14868199
0.79100013 -0.53489816 -0.31483233 14868199
0.79150009 -0.52504349 -0.31503138 15000040
0.79243749 -0.51430303 -0.31505609 15263725
0.79299992 -0.50456327 -0.31486017 15460846
0.79289991 -0.49534717 -0.31466043 15263466
0.79257119 -0.48480272 -0.31466261 15131365
0.79461288 -0.47517261 -0.31458959 15197672
0.79523087 -0.46493945 -0.31479868 15263210
0.79465383 -0.45494378 -0.31449938 15263210
0.79331994 -0.44479629 -0.31486586 15263466
0.79405409 -0.43517312 -0.31478992 15197930
0.79285723 -0.69471973 -0.30470046 14341087
0.7916944 -0.68456268 -0.30491531 14539492
0.79251719 -0.67519826 -0.30507129 14473699
0.79329985 -0.66552347 -0.30460399 14342112
0.79356676 -0.65460038 -0.30470631 14342367
0.79468 -0.6452865 -0.3051343 14342367
0.79500002 -0.63531119 -0.3052578 14407647
0.79500002 -0.62507516 -0.3052578 14407646
0.79424006 -0.61518222 -0.30496758 14275804
0.79315996 -0.60506094 -0.30455193 14538976
0.79349989 -0.59510106 -0.30468282 15065320
0.79553133 -0.58504236 -0.30563861 15065320
0.79543477 -0.56550568 -0.30518329 14276317
0.79367995 -0.5552929 -0.30475193 14539233
0.79210341 -0.5447889 -0.30491278 15065578
0.79188567 -0.53470242 -0.30485585 14868455
0.79161292 -0.52437353 -0.3050327 15000553
0.79189992 -0.5150519 -0.30468506 15066345
0.79293329 -0.50551331 -0.30477253 15395309
0.79348159 -0.49529645 -0.30446714 15395309
0.79375863 -0.48550051 -0.30516374 15263722
0.79463345 -0.47503784 -0.30511791 15197672
0.79408002 -0.46448222 -0.30490544 15263721
0.79335999 -0.45477408 -0.30462709 15197929
0.79285187 -0.44513398 -0.30484432 15000550
0.79491669 -0.43503439 -0.305071 15000293
0.79500008 -0.70549649 -0.29458109 10919854
0.79204172 -0.69490957 -0.29469737 14341344
0.79170001 -0.68456775 -0.29472449 14670821
0.79352933 -0.67456484 -0.29474714 14539234
0.79576331 -0.66508693 -0.29520258 14473441
0.79582149 -0.65493107 -0.29545647 14407905
0.79482764 -0.64527982 -0.2951189 14342368
0.79477787 -0.63513321 -0.29494035 14342367
0.79480004 -0.62491864 -0.29494804 14341854
0.79334611 -0.61463284 -0.29512241 14210011
0.79260004 -0.60463405 -0.29505885 14670562
0.79293323 -0.59467727 -0.29518309 15000040
0.79428136 -0.58482176 -0.29516274 15131369
0.79425931 -0.57532305 -0.29526493 14802405
0.79307991 -0.56489706 -0.2952393 14341598
0.79204005 -0.55488527 -0.29485214 14736612
0.79170376 -0.54505199 -0.29452017 15197420
0.79219991 -0.53478146 -0.2949093 14934248
0.79293323 -0.52450973 -0.29431376 15197675
0.79352933 -0.51497132 -0.29469085 15329260
0.79375011 -0.50536829 -0.29488969 15329517
0.7931999 -0.49553424 -0.29528302 15395308
0.79309994 -0.485259 -0.2952463 15395307
0.79339999 -0.47436103 -0.29492393 15395051
0.79476482 -0.46488026 -0.29482275 15526636
0.79539996 -0.44477227 -0.29516724 15131877
0.79463333 -0.43504089 -0.29488593 15065827
0.79423815 -0.705226 -0.28477815 10986417
0.79137039 -0.69468045 -0.28492612 14407394
0.7913751 -0.68405455 -0.28499204 14736357
0.79447359 -0.67516536 -0.28503636 14604771
0.79490006 -0.64453709 -0.28474897 14408159
0.79387999 -0.63534611 -0.28438485 14342622
0.79355568 -0.62538445 -0.28447601 14276316
0.79299992 -0.61462694 -0.28459153 14342110
0.79299992 -0.60493845 -0.2849974 14736613
0.79302758 -0.59474874 -0.28500721 15065321
0.79388463 -0.58531213 -0.28459993 15262697
0.79317844 -0.57516688 -0.28472945 14737123
0.79189646 -0.56529427 -0.28476074 14276574
0.79068017 -0.55504328 -0.28509015 14671077
0.79121888 -0.54500026 -0.28493571 15394541
0.79310519 -0.53504914 -0.28483817 15065575
0.79470003 -0.52524406 -0.28523505 15131626
0.79500002 -0.51526976 -0.28478569 15329517
0.79359269 -0.5048638 -0.28469414 15461103
0.79273319 -0.49524334 -0.28490055 15263723
0.79258323 -0.48494324 -0.28484625 15263723
0.79385298 -0.47478664 -0.28502899 15460844
0.79537046 -0.46482176 -0.28512618 15657709
0.79504174 -0.44472721 -0.28495744 15328744
0.79361534 -0.43469825 -0.28414819 15196902
0.79385006 -0.70501417 -0.27508205 11381174
0.79193103 -0.69458234 -0.27486202 14538979
0.79178792 -0.68472826 -0.27515209 14670563
0.79362488 -0.67467546 -0.27517909 14604770
0.79376006 -0.63525128 -0.27504978 14276574
0.79236001 -0.62485552 -0.27456594 14079196
0.79211098 -0.61497378 -0.27427259 14539747
0.79289651 -0.60524231 -0.27487853 14802919
0.79348272 -0.59492874 -0.2750178 14934504
0.79439998 -0.58554929 -0.2752724 14933991
0.79332006 -0.5754686 -0.27489859 14605025
0.79223067 -0.56526339 -0.27473372 14407903
0.79090017 -0.55519801 -0.27498373 14736870
0.79185712 -0.54569662 -0.27491882 15395054
0.7941035 -0.53590512 -0.27529597 15131367
0.79396683 -0.52482235 -0.27512321 15131367
0.79431993 -0.51482934 -0.27524573 15263465
0.79380006 -0.50520128 -0.27506369 15395309
0.79373348 -0.49493653 -0.27504048 15329258
0.79439998 -0.48512572 -0.27527139 15131879
0.79428577 -0.47516093 -0.2754325 15395050
0.79411113 -0.46491191 -0.2749674 15592428
0.7945385 -0.45523351 -0.2754637 15526378
0.79325002 -0.44527236 -0.27471909 15197156
0.79233325 -0.4347083 -0.27455634 15197158
0.79523075 -0.70530838 -0.26531756 11907006
0.79426479 -0.6951524 -0.2649948 14605284
0.79393536 -0.68479186 -0.2648553 14736356
0.79396862 -0.67508668 -0.26501289 14670564
0.79523093 -0.66511232 -0.26524675 14407648
0.79506892 -0.63520706 -0.26523235 14144988
0.79349995 -0.6251567 -0.26487371 14079196
0.79303217 -0.61526376 -0.26533586 14671332
0.79391193 -0.60470414 -0.26488084 14802918
0.79392868 -0.5948934 -0.26555023 14868711
0.79356021 -0.58493084 -0.26569358 14868712
0.79251993 -0.57488853 -0.26534536 14671330
0.79171991 -0.56504041 -0.26507771 14473438
0.7917999 -0.55490142 -0.26510355 14934761
0.79369694 -0.54482573 -0.26523086 15592432
0.79538888 -0.53507304 -0.2653724 14934501
0.79420686 -0.52418065 -0.26488075 15197673
0.79441947 -0.5150727 -0.26513842 15197930
0.79464513 -0.50555879 -0.26497409 15526893
0.79420024 -0.49509636 -0.26510879 15329514
0.79430014 -0.48506507 -0.26501024 15131879
0.79284006 -0.47489339 -0.26545221 15591916
0.79334378 -0.4647454 -0.26527181 15657707
0.79496974 -0.4551892 -0.26497987 15394535
0.79337031 -0.44508159 -0.2650089 15131620
0.79241925 -0.43460613 -0.26512986 15131108
0.79575008 -0.63513601 -0.2554051 14079196
0.79413038 -0.62512004 -0.25481078 14079196
0.7930311 -0.61465102 -0.25489864 14605539
0.793037 -0.60489762 -0.25465336 14671332
0.79299992 -0.59460455 -0.25504738 14671333
0.79220682 -0.58470064 -0.25507373 15000297
0.79100013 -0.57471138 -0.25557837 14671332
0.79035741 -0.56466156 -0.25517187 14473953
0.79109395 -0.55498534 -0.25485489 15066090
0.79222852 -0.54531634 -0.25470361 15592433
0.79520005 -0.51540005 -0.25507161 15263722
0.79540002 -0.5052883 -0.25513655 15329515
0.79500002 -0.49479759 -0.25500783 15197928
0.79468 -0.48529744 -0.25490403 15132392
0.79299998 -0.4748095 -0.25514302 15526636
0.79321212 -0.46498606 -0.25522211 15592172
0.79376918 -0.45479435 -0.25475886 15394537
0.79374987 -0.44477639 -0.25460854 15131365
0.79364526 -0.43497854 -0.25535122 15065571
0.79569232 -0.69446689 -0.24498686 14736612
0.79526097 -0.67530429 -0.24505539 14539746
0.79500008 -0.66485608 -0.24535392 14342367
0.79556006 -0.65523881 -0.24431306 14276573
0.7948572 -0.64498913 -0.24503933 14079195
0.79380006 -0.6352824 -0.24533367 14144988
0.79283994 -0.62523371 -0.24503607 14210781
0.79282755 -0.61517441 -0.24515957 14803172
0.7926538 -0.60488856 -0.24483575 14671586
0.79191315 -0.5951637 -0.24499159 14408160
0.78900003 -0.58218503 -0.24076952 14868454
0.79031825 -0.585401 -0.24467672 14802918
0.78899992 -0.5746429 -0.24177 14473953
0.79000002 -0.57513994 -0.2476247 14473953
0.78900009 -0.56578541 -0.24149714 14539746
0.79000014 -0.56396031 -0.24652427 14671331
0.79060018 -0.55498564 -0.24434336 15066089
0.79146671 -0.54540271 -0.24460986 15592690
0.79397064 -0.53520882 -0.24549548 14934758
0.79525006 -0.52474004 -0.24524906 15197930
0.795138 -0.51548767 -0.24497528 15461102
0.79456007 -0.50568473 -0.24556792 15329516
0.79348141 -0.49529693 -0.24544153 15197930
0.7941429 -0.48556352 -0.24523959 15395565
0.7948612 -0.47517312 -0.24472816 15526893
0.79425007 -0.46478233 -0.24487181 15526635
0.79171437 -0.4545387 -0.2448649 15395049
0.78900003 -0.44356737 -0.24094544 15395307
0.79084218 -0.44563174 -0.24558853 15263464
0.78900003 -0.43842193 -0.24015383 15198185
0.79219365 -0.43489763 -0.24489726 15197928
0.79512507 -0.70498365 -0.23480651 13025743
0.79257691 -0.69460404 -0.23567864 14539490
0.79296434 -0.68459976 -0.23566122 14671074
0.79343766 -0.67451936 -0.2347724 14539744
0.79437518 -0.66508818 -0.23487298 14342622
0.79428571 -0.65453058 -0.23472233 14211035
0.79333329 -0.64419526 -0.23497286 14078936
0.79239273 -0.63422263 -0.23502526 14144731
0.79203832 -0.62474376 -0.23530197 14408160
0.79183996 -0.61517638 -0.23545775 14868710
0.79108018 -0.60532653 -0.23523302 14934759
0.78900003 -0.59218991 -0.23138028 14211036
0.79028583 -0.59590846 -0.23561256 14276830
0.7889998 -0.58484364 -0.2341928 14408160
0.79000002 -0.58908755 -0.23799233 14408160
0.78889269 -0.5753566 -0.23477912 14473696
0.78862953 -0.56509036 -0.23429874 14605026
0.78899986 -0.55673671 -0.23389432 14736356
0.79000002 -0.55256182 -0.23598884 15065834
0.79113346 -0.54517215 -0.23524803 15658227
0.79251599 -0.53484488 -0.23547935 15131625
0.79331249 -0.5249117 -0.23485112 15066344
0.79350001 -0.51456296 -0.23416054 15263466
0.79281473 -0.50478107 -0.23533525 15395307
0.79203987 -0.4948096 -0.23551676 15329514
0.7930606 -0.48498091 -0.23531392 15526636
0.79463333 -0.47503617 -0.23442864 15723757
0.79384613 -0.46427554 -0.23476771 15526378
0.79089999 -0.45429176 -0.23517707 15329000
0.78899986 -0.44427094 -0.2348765 15329001
0.79000002 -0.44868696 -0.23352295 15263208
0.78900009 -0.43800214 -0.23511639 15263721
0.79150009 -0.43303698 -0.23471369 15263721
0.79453343 -0.70469123 -0.22509794 13617625
0.79206431 -0.69490367 -0.22517388 14670819
0.79225701 -0.68491769 -0.22551155 14736610
0.79354835 -0.6751675 -0.22499704 14605023
0.79552186 -0.65495986 -0.22561991 14276059
0.79464006 -0.64525598 -0.22512697 14144472
0.79340738 -0.63489914 -0.22518986 14144472
0.79265505 -0.62496006 -0.22533235 14539744
0.79189992 -0.61522329 -0.22527772 14934759
0.79106677 -0.60531658 -0.22503968 15066344
0.78900003 -0.5922823 -0.22833264 14408414
0.79024017 -0.59587711 -0.2240285 14671586
0.78899986 -0.58495557 -0.22660869 14342366
0.79000002 -0.58560896 -0.22143577 14671586
0.78895634 -0.57527381 -0.22616783 14342366
0.79000002 -0.57490879 -0.22103949 14474207
0.78880936 -0.56507283 -0.22637752 14538976
0.79000002 -0.56473708 -0.22103949 14473695
0.78894109 -0.55621195 -0.22666405 14604769
0.79005885 -0.55351847 -0.22295964 14868455
0.79086137 -0.54498488 -0.22498205 15592434
0.79199988 -0.53477973 -0.22517486 14868709
0.79191995 -0.52439636 -0.2243586 14803172
0.79260719 -0.51497751 -0.22475235 15000549
0.79226661 -0.50441104 -0.22482686 15132135
0.79160005 -0.49453503 -0.22519475 15197928
0.79196763 -0.48513401 -0.22508958 15395306
0.79282141 -0.4750801 -0.2245488 15592171
0.79262501 -0.46533188 -0.22440416 15460585
0.79215145 -0.45543003 -0.22509584 15328743
0.79146874 -0.44506186 -0.22526798 15131363
0.79251432 -0.43520319 -0.22531791 15263719
0.79449999 -0.70550638 -0.21553689 13025741
0.79324132 -0.69502592 -0.21544665 14540001
0.79340631 -0.68406969 -0.21485236 14474207
0.79451621 -0.6750927 -0.21501334 14474207
0.79505885 -0.66535664 -0.21501179 14342621
0.79485714 -0.65513414 -0.21528991 14145242
0.7942 -0.64489853 -0.21570946 14145242
0.79320002 -0.63480246 -0.21543737 14144986
0.79260004 -0.62504369 -0.21527411 14342365
0.79236001 -0.61558068 -0.21520835 15065832
0.7920689 -0.60531485 -0.215 15197418
0.79192597 -0.59484917 -0.2150874 15000038
0.79188895 -0.58479625 -0.2150086 14671585
0.79211098 -0.57500225 -0.21534349 14408412
0.79192001 -0.56518346 -0.21508591 14276571
0.79120016 -0.55540854 -0.21489193 14737124
0.7917667 -0.54560983 -0.21504617 15592433
0.79171997 -0.53538579 -0.2150345 14868966
0.79106688 -0.52475733 -0.21485654 15132137
0.79140002 -0.51478922 -0.21494819 14868708
0.79134625 -0.50527769 -0.21507597 15000037
0.79131043 -0.49511936 -0.21479404 15132135
0.7921111 -0.48516884 -0.21493244 15066086
0.79217845 -0.47509274 -0.21535634 15263721
0.79246652 -0.46446437 -0.21523596 15395050
0.79390895 -0.4542982 -0.21461235 15394793
0.79438704 -0.44468454 -0.21491574 15066084
0.79390329 -0.43482035 -0.21484606 15263720
0.79475003 -0.7151162 -0.20469542 10855341
0.79274994 -0.7047652 -0.20477609 12959948
0.79277766 -0.69477963 -0.20511444 14670817
0.79345447 -0.68448013 -0.20486619 14473950
0.79400003 -0.67447561 -0.20450033 14539743
0.79354167 -0.66495317 -0.20453839 14473951
0.79274988 -0.65485561 -0.204445 14210779
0.79238695 -0.64510149 -0.20516369 14079450
0.79150009 -0.63498527 -0.2047846 14145243
0.79115635 -0.62442565 -0.20498444 14408159
0.79219431 -0.61452222 -0.20496257 15000039
0.79299992 -0.60493845 -0.20517102 15197161
0.79347205 -0.59508103 -0.20529124 15131368
0.79396671 -0.58523053 -0.2054192 14933988
0.79329032 -0.57526696 -0.20527646 14539230
0.79258609 -0.56553149 -0.20503262 14341851
0.79132146 -0.55569273 -0.20506807 14671073
0.79089677 -0.54517037 -0.20568174 15592430
0.79085207 -0.53486586 -0.20519863 15263468
0.79100019 -0.52471352 -0.20465356 15592431
0.79100019 -0.51452887 -0.20465358 15460330
0.79136378 -0.50499648 -0.20449339 15394537
0.79251349 -0.49495181 -0.20506868 15328743
0.79406267 -0.48526779 -0.20567536 15000292
0.79323322 -0.47512913 -0.20523073 15197671
0.79285687 -0.46482697 -0.20526712 15263208
0.79331028 -0.45467937 -0.20458116 15197928
0.79388011 -0.4450359 -0.2044725 14935013
0.79296416 -0.43472314 -0.20403586 15263464
0.79545462 -0.715496 -0.19496836 10920363
0.79255998 -0.7047959 -0.19485176 13025739
0.79227573 -0.69449931 -0.19491082 14539230
0.79303569 -0.68459529 -0.19503734 14407901
0.79295653 -0.67512304 -0.19471006 14473950
0.79219985 -0.66552907 -0.19476515 14605023
0.79196656 -0.6551351 -0.19470683 14408157
0.79187995 -0.64486831 -0.19468559 13947608
0.79068017 -0.63463676 -0.19439057 14078681
0.79018778 -0.62446982 -0.1949053 14408160
0.79142314 -0.61506426 -0.19443153 14934503
0.79239994 -0.60540718 -0.19481421 15000553
0.79413342 -0.59557521 -0.19524002 15065831
0.79496002 -0.58596265 -0.19544233 14999781
0.79372001 -0.57575905 -0.19513741 14605023
0.7924 -0.5655272 -0.19481318 14341852
0.78900003 -0.55016929 -0.19028313 15789043
0.79030788 -0.5547114 -0.19486807 14670817
0.78900003 -0.54601336 -0.19143756 15328748
0.79000002 -0.54481399 -0.19640879 15592175
0.79000038 -0.53527868 -0.19501568 15132139
0.79007715 -0.52481228 -0.1943846 15658223
0.79103345 -0.51510322 -0.19423027 15658222
0.7926895 -0.50526059 -0.1950116 15592171
0.79247993 -0.49508417 -0.19483417 15394791
0.79313332 -0.48527944 -0.19499491 15263206
0.79251999 -0.47470215 -0.19484377 15263205
0.79164004 -0.464908 -0.19462751 15328742
0.79155552 -0.45518109 -0.19481285 15066083
0.79080015 -0.44516104 -0.19442198 15066337
0.7912426 -0.43469664 -0.19436151 15132390
0.79321051 -0.70508212 -0.18543334 14144474
0.79133344 -0.69519538 -0.18522133 14407900
0.79121417 -0.68487585 -0.18532906 14342108
0.79114306 -0.67449558 -0.18504676 14342623
0.79124016 -0.66472155 -0.18526635 14474208
0.79196656 -0.65513515 -0.18543635 14671330
0.79167998 -0.64470613 -0.18536974 14276317
0.79028016 -0.63431567 -0.18504192 14012375
0.79000014 -0.62484276 -0.18497609 14341854
0.79026693 -0.61487764 -0.18503936 14868966
0.79128581 -0.60488689 -0.18547651 15066088
0.79229993 -0.59494281 -0.18551633 15131367
0.79318517 -0.58506632 -0.18551835 15065831
0.79322213 -0.57532853 -0.18531881 14605280
0.79212004 -0.56532758 -0.18547274 14407901
0.78900003 -0.55016929 -0.18843606 15394285
0.79025012 -0.55489606 -0.18488032 14144730
0.78900003 -0.54616731 -0.18782037 15394542
0.79000002 -0.54483169 -0.18400273 15526382
0.7900002 -0.53566033 -0.18497607 15000553
0.78899986 -0.52504921 -0.18418784 15526894
0.79000002 -0.52520609 -0.18636315 15526894
0.7908752 -0.51496464 -0.18535562 15658478
0.79242843 -0.50492394 -0.1853473 15657707
0.79199988 -0.49478447 -0.18544437 15460328
0.79199988 -0.48551404 -0.18544437 15328741
0.79140007 -0.47495759 -0.18530484 15328741
0.79016024 -0.46403915 -0.18501402 15262947
0.79000014 -0.45469752 -0.18497609 15131617
0.79000014 -0.44545051 -0.1849761 15065568
0.79173684 -0.43501019 -0.18494125 15526375
0.79400009 -0.70494097 -0.17517026 12631748
0.79117256 -0.6950658 -0.1750285 12829382
0.79073566 -0.68498594 -0.17507321 13421261
0.79102874 -0.67459595 -0.17516211 13684691
0.7919032 -0.66509861 -0.17507459 14079450
0.79199988 -0.65503043 -0.17537937 14737378
0.79159999 -0.6446411 -0.17515831 14671329
0.79060024 -0.63457203 -0.17493582 14407902
0.79022616 -0.62484229 -0.17470397 13881561
0.79034317 -0.61480498 -0.17501093 14605795
0.79093355 -0.60521317 -0.17501061 15132137
0.79102796 -0.59510064 -0.17503199 14737122
0.79166669 -0.58446044 -0.17517398 14803171
0.79210705 -0.57465392 -0.17493889 14802913
0.79193324 -0.56519288 -0.17523161 14539484
0.79093349 -0.55522126 -0.17500988 14276314
0.79026687 -0.54550308 -0.17486235 15066343
0.79000032 -0.53572458 -0.17497776 15132392
0.78899974 -0.52490413 -0.17537467 15527149
0.78899997 -0.51578546 -0.17351748 15658734
0.79012501 -0.51384372 -0.17760685 15526893
0.78900003 -0.50676328 -0.1718125 15395307
0.79056531 -0.50450933 -0.17650022 15395050
0.79110014 -0.4950237 -0.17560601 15526121
0.79084384 -0.48515275 -0.17476216 15328742
0.78900003 -0.47197691 -0.17304386 15460581
0.79025006 -0.47611672 -0.17624797 15328740
0.7888332 -0.46479866 -0.17423896 15263202
0.79000002 -0.46579397 -0.17896552 15197409
0.78896278 -0.45519498 -0.1751565 15000030
0.79000002 -0.45099875 -0.17850317 15263202
0.78900003 -0.44796512 -0.17396742 14934750
0.79018539 -0.44363573 -0.1754963 14934752
0.79238236 -0.43516839 -0.17478624 14935010
0.79537952 -0.68482608 -0.16484746 10922415
0.79483348 -0.67518049 -0.1647034 10790316
0.79485303 -0.66529191 -0.16476279 10790315
0.79407138 -0.65508324 -0.16474512 10724521
0.79280639 -0.64484304 -0.16425455 10855850
0.79293942 -0.63498336 -0.16411352 11119021
0.79296976 -0.62488163 -0.16439991 11579828
0.79309356 -0.61487031 -0.16422659 12172221
0.7931515 -0.60499507 -0.16460852 12830151
0.79375756 -0.59509653 -0.16433957 12895687
0.79471064 -0.58479333 -0.16457839 13289930
0.79466671 -0.56521374 -0.16497952 13552331
0.79229164 -0.55540305 -0.16464339 13354954
0.79088014 -0.54555619 -0.16481556 13618896
0.78900003 -0.53169864 -0.16442426 14934756
0.79004365 -0.53610086 -0.1648023 13421517
0.78877407 -0.52582902 -0.16544978 14145496
0.78814292 -0.51530612 -0.16503724 14803424
0.7885586 -0.50490475 -0.16536492 14869219
0.7888664 -0.49522716 -0.16488917 15132134
0.78899997 -0.48644558 -0.16402845 15000289
0.79000002 -0.48428804 -0.16505946 15131875
0.78893518 -0.47469905 -0.16524494 15263460
0.79000002 -0.47873977 -0.16093384 15922159
0.78803337 -0.46463454 -0.16514505 15000286
0.78847212 -0.45473969 -0.16523702 15000286
0.78899992 -0.44684231 -0.16507615 15066593
0.79000002 -0.44267645 -0.16463265 15263972
0.79162872 -0.43524417 -0.16497205 15000287
0.79496431 -0.54535282 -0.15548901 11053483
0.79280013 -0.53487647 -0.15500042 11119531
0.78900003 -0.52361774 -0.1581904 11250347
0.79231828 -0.52507883 -0.15347494 10856359
0.78900003 -0.51548553 -0.15806215 10921641
0.79256523 -0.51506078 -0.15338345 10988202
0.78900003 -0.50491619 -0.15795954 11382449
0.79220015 -0.50510734 -0.15303156 10987947
0.78900003 -0.49545002 -0.1581904 12238013
0.79226935 -0.49487779 -0.15340129 11185322
0.79193777 -0.48524132 -0.15506358 11448494
0.78900003 -0.47259262 -0.15888305 13882317
0.79185736 -0.47549444 -0.15428863 11186350
0.78892314 -0.46473312 -0.15730467 12830404
0.79123533 -0.46521422 -0.15235712 10593441
0.7888822 -0.45524871 -0.15712097 13093063
0.79127777 -0.45460844 -0.15203293 11250860
0.78900003 -0.4485808 -0.15888305 15132386
0.79156262 -0.44505495 -0.1544711 13093062
0.79375619 -0.43505162 -0.15530238 15132389
