# .PCD v0.7 - Point Cloud Data file format
VERSION 0.7
FIELDS x y z rgb
SIZE 4 4 4 4
TYPE F F F U
COUNT 1 1 1 1
WIDTH 1085
HEIGHT 1
VIEWPOINT 0 0 0 1 0 0 0
POINTS 1085
DATA ascii
0.50758332 -0.025181005 -0.031413041 14802392
0.51000005 -0.020529401 -0.031860873 14737113
0.51096296 -0.014586284 -0.032586116 14079440
0.5107857 -0.0047031962 -0.032736789 14277333
0.50752944 0.005682867 -0.031544589 13816268
0.51108825 0.0046341415 -0.035215266 13158595
0.5077619 0.014487603 -0.032005694 13158594
0.51046431 0.015358972 -0.035660777 13421768
0.45833343 0.047476958 -0.031374983 13553610
0.45666674 0.055258799 -0.032330703 14013905
0.45560876 0.065580398 -0.033227652 14737372
0.4545531 0.075255953 -0.034895357 14869213
0.45292765 0.084970839 -0.035018336 15724525
0.45470005 0.094036505 -0.034833692 15592943
0.45266679 -0.12434525 -0.021452887 14276310
0.45422736 -0.11507277 -0.020852804 15198180
0.45846155 -0.10585512 -0.020743392 15329765
0.46166664 -0.10324126 -0.021997541 15131872
0.45877784 -0.095439836 -0.020426847 15461608
0.4623 -0.097255327 -0.022208339 15000543
0.45775002 -0.086111508 -0.020381087 15593193
0.46000001 -0.081154555 -0.020481266 15461606
0.46157143 -0.07424771 -0.020551234 15000798
0.46377781 -0.064990677 -0.02064947 14868955
0.46311113 -0.055140674 -0.020619787 14671833
0.46400002 -0.047100812 -0.020659365 14606297
0.50627035 -0.03433932 -0.027090659 14935262
0.50565857 -0.025583636 -0.026936028 14802649
0.51000005 -0.020131428 -0.029871007 14539477
0.50822222 -0.016622426 -0.025869343 14473428
0.51000011 -0.014287508 -0.028991276 14342099
0.46371433 -0.0055896356 -0.020801818 13553609
0.50862497 -0.0038559451 -0.027557725 14145233
0.51005894 -0.0064375545 -0.028891221 14211282
0.46150002 0.001769473 -0.020548053 12303544
0.49862504 0.0067280694 -0.024098422 12961217
0.50370592 0.0051166154 -0.027772479 13487560
0.45860004 0.018183751 -0.02063337 12961217
0.461 0.014177486 -0.020525791 13619147
0.50520843 0.014660205 -0.028360346 12763836
0.45492312 0.026729347 -0.021648305 13552584
0.509 0.020421702 -0.028620856 13421766
0.45589092 0.03565976 -0.02307697 13421511
0.45561257 0.045220226 -0.02435106 13553098
0.44878572 0.056502201 -0.021483051 14277077
0.45372978 0.054687034 -0.026223976 14014161
0.44772339 0.065794639 -0.023060368 14868957
0.45222723 0.064338148 -0.027645981 14606042
0.44635355 0.075133599 -0.024815649 15263972
0.45020002 0.072023034 -0.029319573 14869214
0.44609416 0.084854394 -0.025059832 15790318
0.45000002 0.089689702 -0.029517144 16053492
0.44686803 0.094119169 -0.023950947 15592686
0.45105883 0.095120244 -0.028718218 15526893
0.42900002 -0.12740673 -0.010062338 12564923
0.43775007 -0.12300416 -0.011123604 14605272
0.44510198 -0.12418743 -0.015342061 15000543
0.45080003 -0.12163796 -0.018805619 14934237
0.43783334 -0.1156742 -0.010440811 14802906
0.44515684 -0.11499503 -0.013781657 15790315
0.45206669 -0.11446144 -0.018013241 15131872
0.43885714 -0.10641062 -0.010293539 14211282
0.44500005 -0.10487762 -0.01280359 15592679
0.45402643 -0.10496046 -0.017396275 15263715
0.43900001 -0.094920695 -0.010296891 14079955
0.44522229 -0.095663168 -0.012532323 15592937
0.45449021 -0.094732836 -0.016802225 15329764
0.44590914 -0.084405474 -0.011125923 14869214
0.45519707 -0.084739327 -0.016109621 15526886
0.46000001 -0.080616117 -0.019404398 15724521
0.44766667 -0.071642704 -0.011200915 14736856
0.4575882 -0.075972125 -0.015180339 15395299
0.4605 -0.074143134 -0.018527614 15658728
0.44775006 -0.065888263 -0.010677311 15000030
0.45562506 -0.065215603 -0.01392717 14934235
0.46145722 -0.06482093 -0.017925208 15395556
0.44878572 -0.054411214 -0.010826737 15000542
0.45452937 -0.056090839 -0.013831978 14935005
0.46137503 -0.055337172 -0.018518876 15198434
0.44900003 -0.046629276 -0.010531444 14737883
0.45510638 -0.044503674 -0.013564085 15198178
0.46204171 -0.045637231 -0.018501738 15264485
0.45651931 -0.035239585 -0.013244619 14935263
0.461 -0.036045149 -0.01757876 14935521
0.45691898 -0.02558263 -0.012254477 14277334
0.46195349 -0.023966175 -0.016750319 14277077
0.4563159 -0.014246372 -0.012593041 13882576
0.46192098 -0.015474393 -0.017241323 13948111
0.45588687 -0.0052707703 -0.013401891 13750733
0.46138465 -0.0054192906 -0.018426098 13816783
0.4489091 0.0066413102 -0.010815978 12895424
0.45437706 0.0047632088 -0.014784779 13158596
0.46033335 0.00050806673 -0.019059503 13619404
0.44815394 0.015314871 -0.01144116 13158340
0.45498145 0.015057192 -0.016343249 12960960
0.44715387 0.025427055 -0.012183703 13421771
0.45280015 0.024611717 -0.016921705 12895168
0.44581482 0.035258073 -0.012783404 13816528
0.45237929 0.034691889 -0.017698912 13289925
0.43900001 0.049472131 -0.010296891 14079702
0.4446331 0.045307584 -0.014266298 13816528
0.45110002 0.042174183 -0.01850177 13553354
0.4390001 0.055895299 -0.01068228 14474460
0.44371438 0.054820746 -0.015912315 14342870
0.43873921 0.065517895 -0.011050383 14803421
0.44270277 0.064872161 -0.016372569 15066079
0.43763635 0.075410798 -0.012504154 14803421
0.4415209 0.074496187 -0.017595278 15329508
0.43613321 0.084948286 -0.01357494 14803679
0.44075009 0.084964775 -0.018765502 15198436
0.43682683 0.094677567 -0.01274892 15198182
0.44162071 0.094614752 -0.017990805 15197928
0.43766665 0.10055115 -0.011290982 14934243
0.41628572 -0.12230909 -0.0012068626 14473687
0.42385414 -0.12432594 -0.0057550222 14342357
0.43150002 -0.12259278 -0.0091108251 14342100
0.41589737 -0.11510365 -0.0015209918 14408405
0.42355266 -0.11560483 -0.0054791179 14210769
0.43290475 -0.11374471 -0.0082271555 14539735
0.41448721 -0.10480498 -0.0013678018 14277075
0.42457703 -0.10468245 -0.0050707269 14277076
0.43276009 -0.10542512 -0.0080064395 14079697
0.41603225 -0.095747739 -0.00099619734 14540247
0.42465222 -0.094729796 -0.0045655319 14277075
0.43357688 -0.094838701 -0.0081041921 14079954
0.41758335 -0.086620919 -0.000263881 14671833
0.42423904 -0.084859975 -0.0027264406 14474454
0.43336114 -0.084848009 -0.0070708427 14145234
0.44000003 -0.083634712 -0.0092902975 14868957
0.42542866 -0.075642116 -0.0015191879 14803420
0.4331072 -0.074614547 -0.0062944852 14408406
0.44050002 -0.07307031 -0.009300855 14210512
0.42631996 -0.065731689 -0.00081987714 15132385
0.43400002 -0.065080099 -0.0047217645 14737626
0.4425455 -0.064038001 -0.008640036 14473685
0.42738464 -0.056193843 -0.00025087778 15198179
0.43478426 -0.055000052 -0.0032032777 14869215
0.44352633 -0.054664932 -0.0078129675 14605785
0.43499997 -0.045285862 -0.0018551584 14540507
0.44418871 -0.044763237 -0.0070337467 14737884
0.4364737 -0.035322946 -0.0014764367 14474713
0.44494119 -0.034901649 -0.0062806625 14869214
0.4506667 -0.034667298 -0.0095155183 14342868
0.4375667 -0.024954289 -0.0010466047 13750988
0.44446945 -0.025230182 -0.0052322745 14145491
0.45155558 -0.024694534 -0.0090660835 13948111
0.43750012 -0.014709937 -0.001046602 13750732
0.44456905 -0.014802708 -0.0056663277 13750990
0.45090911 -0.015497902 -0.0093290983 13685197
0.4378182 -0.0047023874 -0.0014203354 13750732
0.44504178 -0.005172051 -0.0061740461 13882319
0.45000002 -0.0061749849 -0.0095014414 13421768
0.43714288 0.0051126503 -0.0013392026 12961217
0.44415385 0.004621265 -0.0065106186 13158596
0.43695757 0.015201505 -0.0019403601 13092806
0.44292468 0.014971261 -0.0071091303 12895427
0.43657699 0.025338423 -0.0021882148 13618894
0.44195452 0.024878193 -0.0073143542 13421770
0.43633825 0.035170425 -0.0034400742 13684940
0.44107133 0.033735394 -0.0082082925 13684942
0.43494695 0.045184299 -0.0045986967 13816271
0.44000003 0.041344445 -0.0092902975 13882066
0.42889994 0.054859292 -1.9365467e-05 14079186
0.43413332 0.054960988 -0.0051168553 14342615
0.42766666 0.065736867 -0.00059274782 14473684
0.43334574 0.064800404 -0.0055806665 14605528
0.42694598 0.075475723 -0.0013731446 14605270
0.43242431 0.074816026 -0.0063770558 14539734
0.42653468 0.085131198 -0.0023834857 14935008
0.43093026 0.084666513 -0.00741234 15000801
0.42731041 0.093344599 -0.0017124149 15263976
0.43224588 0.095790371 -0.0060651768 15066597
0.43317643 0.10118787 -0.0045054997 13684690
0.39566663 -0.13194172 0.0084724221 13222849
0.39650008 -0.12529242 0.0079392744 14210772
0.4048056 -0.12261119 0.0037370403 14276564
0.41200003 -0.12091123 0.00094589702 14473684
0.39699998 -0.11486862 0.0087898988 14803162
0.40518343 -0.11525023 0.0050606607 14539991
0.41119054 -0.11515058 0.0014474688 14408404
0.39719996 -0.10494536 0.0088146087 14737113
0.40545315 -0.10486659 0.0047428487 14606040
0.41050005 -0.10468359 0.0012166867 14474455
0.39775008 -0.095682934 0.0089199301 14935007
0.40492311 -0.094860531 0.0053360574 14737627
0.41140917 -0.095212348 0.0014254067 14540248
0.39900002 -0.088607043 0.009322647 15132386
0.40456757 -0.085194208 0.0064568943 14869214
0.41296771 -0.08434505 0.0019731829 14803419
0.4056834 -0.075379759 0.0074449237 14737627
0.41402629 -0.074312851 0.0033664797 14935006
0.42057148 -0.073704161 0.0009655758 14474456
0.40804762 -0.066278607 0.008850689 14540249
0.41365668 -0.064974487 0.0054345657 14803421
0.42171428 -0.063936844 0.0016247996 14935006
0.40900001 -0.057794832 0.0095562972 14474713
0.41481823 -0.055267863 0.0073182322 14672091
0.42306122 -0.054471459 0.0029259948 15066591
0.41665792 -0.045346346 0.0083708409 14671833
0.42381641 -0.045323137 0.0040796045 14935263
0.43016672 -0.04265837 0.00098760508 14935007
0.41750005 -0.035332847 0.0091429176 14540248
0.42401826 -0.03523599 0.005457093 14540505
0.43112513 -0.033962443 0.0017872147 14343126
0.41780004 -0.024803769 0.009761909 14079698
0.42413342 -0.025180958 0.0064232522 14145746
0.43206903 -0.024798103 0.0019655132 13948367
0.41862506 -0.016032349 0.0097811855 14013905
0.42423734 -0.015446779 0.0063680541 14343127
0.43217647 -0.01402193 0.0020002341 13882575
0.42533985 -0.0052396362 0.0075806272 13948111
0.43233338 -0.0050773602 0.0028761628 13816526
0.42599994 0.0044432278 0.0078397235 13355975
0.43168008 0.0046868357 0.0030070711 13158596
0.4253594 0.014870356 0.007393735 13158340
0.43155268 0.014574628 0.0024229353 12961218
0.42545083 0.024895657 0.0069569568 13553354
0.43133333 0.024878813 0.0019977016 13553100
0.41850001 0.03883376 0.0097782649 12500666
0.42475647 0.035165064 0.0064315856 13290182
0.43072727 0.033779204 0.0018129308 13487561
0.41743478 0.0458498 0.0091147842 13487561
0.4243167 0.044834986 0.0044806907 13553097
0.43000001 0.040908113 0.00098722253 13421768
0.41717944 0.055375785 0.0083426181 13882319
0.42384613 0.054875657 0.003542416 14145234
0.41654345 0.065362602 0.0080322586 14276819
0.42291224 0.064871192 0.0032910223 14211025
0.41590369 0.075009525 0.0077839224 14737626
0.42217305 0.07515119 0.0029593892 14474199
0.4170408 0.084755346 0.007748046 15132389
0.42166671 0.0852542 0.0029588342 15001060
0.41822225 0.092059702 0.0090096425 15067112
0.42307594 0.095195763 0.0049220752 15067113
0.42574999 0.10105247 0.0047067069 14078935
0.3928 -0.14111364 0.018093785 14605019
0.38783336 -0.13212863 0.018895376 13881297
0.39396417 -0.13515207 0.01459711 13815502
0.38633823 -0.12437617 0.017170243 14868959
0.39230177 -0.12532769 0.012020553 14473945
0.38585725 -0.11493737 0.016607519 15066334
0.39161551 -0.11482163 0.01133307 14868957
0.3860876 -0.10522417 0.017067667 15131871
0.39227268 -0.10467702 0.011932507 14934493
0.38694033 -0.095157266 0.01780984 15263714
0.39316428 -0.094757043 0.012569866 15000286
0.38825586 -0.085287869 0.018687587 15132128
0.39411116 -0.084850848 0.013592079 15131872
0.40000001 -0.081337862 0.010282419 14869214
0.38863638 -0.077620171 0.019335859 15198179
0.39432958 -0.07508906 0.015448457 15132129
0.40063995 -0.073999129 0.011010821 14868957
0.39512819 -0.065294482 0.016599059 15001056
0.40304455 -0.064694062 0.011780796 14540506
0.39628565 -0.055700127 0.01783146 15198178
0.40368491 -0.054623939 0.013225683 14672092
0.39750004 -0.046008606 0.018824225 14803421
0.40420833 -0.045102283 0.015135772 14737627
0.4119201 -0.04394991 0.011397425 14540248
0.40453526 -0.035173465 0.017176481 14408663
0.41315544 -0.034835257 0.012334479 14145490
0.40522984 -0.025091097 0.017559644 14079955
0.41370371 -0.024954811 0.012600408 13882576
0.40628585 -0.01543934 0.017961936 14211541
0.41403332 -0.014629831 0.013089562 13948369
0.40819997 -0.0077972724 0.019092472 14211540
0.41446748 -0.0052453154 0.015290606 14211284
0.42092857 -0.003521828 0.011312693 14013391
0.41511258 0.0051994901 0.016271058 13092290
0.4209657 0.0045876838 0.011669774 13158339
0.40883335 0.016880462 0.019123266 12763838
0.41482452 0.015028778 0.015715694 12697790
0.42085004 0.015406783 0.011310825 13027010
0.40740621 0.025075002 0.019084601 13158339
0.41450003 0.025073973 0.014933772 13290182
0.42058825 0.024636367 0.011216519 13355975
0.40665966 0.03543428 0.018307526 13223619
0.41442192 0.034875274 0.013599027 13158339
0.42020002 0.032597132 0.01080168 12829631
0.40658471 0.045056041 0.017032428 13750734
0.41321734 0.044628102 0.012236012 13355975
0.40601388 0.054998763 0.017159121 14342870
0.41253653 0.054945085 0.012108878 13948368
0.40641105 0.064956546 0.017059946 14868701
0.41183335 0.064955853 0.011984362 14408406
0.40704307 0.074827202 0.017209074 15132645
0.41157135 0.075034127 0.012136988 14935008
0.40819997 0.083080575 0.01840416 15395562
0.41253954 0.08542753 0.013952387 15198183
0.41520661 0.094952539 0.015089137 15132648
0.42000002 0.098950416 0.010796539 15264750
0.41620007 0.10049097 0.016542505 13880785
0.42050004 0.10103759 0.011301006 11249067
0.38675681 -0.14194731 0.02625338 14934495
0.39044449 -0.14215852 0.020699862 13683915
0.37844446 -0.13129279 0.028233014 14736092
0.38418186 -0.13541152 0.024571113 14472920
0.39000002 -0.13910572 0.020068325 14868191
0.37697774 -0.12475511 0.026608236 15328998
0.38117138 -0.12523644 0.02162651 15131874
0.37618625 -0.11500817 0.026479315 15461096
0.38097224 -0.11485218 0.021509768 15526887
0.37661117 -0.10511589 0.026894458 15263715
0.38110402 -0.10476127 0.02189482 15460837
0.37690276 -0.095399559 0.027685089 15263971
0.38221431 -0.094588473 0.022768479 15263971
0.37774488 -0.085709423 0.028560702 15395301
0.3832747 -0.084706336 0.023754435 15132128
0.37877777 -0.077514045 0.029047675 15132129
0.38391855 -0.074744746 0.024631288 15066592
0.39000002 -0.070630938 0.020068325 14803678
0.38498226 -0.065232284 0.025566187 15132128
0.39085719 -0.064618595 0.020547299 15395814
0.38513198 -0.055285752 0.025985569 15066591
0.39174196 -0.054215763 0.021072995 15066335
0.38648757 -0.045280058 0.027060797 14869213
0.39290196 -0.045080956 0.021961026 14803421
0.38739213 -0.035880476 0.028145865 14540504
0.39382428 -0.034935221 0.023690527 14474455
0.40000001 -0.033581089 0.020582898 14606042
0.38854998 -0.026843604 0.029316466 14145489
0.39450499 -0.024787296 0.025077589 14145491
0.40006673 -0.024282856 0.020836035 14145491
0.39501169 -0.01511695 0.026302638 14013905
0.40123531 -0.014176133 0.021721954 13948369
0.39545652 -0.0057242974 0.027707174 13816526
0.40404481 -0.0046369373 0.022755215 13816526
0.39641869 0.0047900281 0.028314846 12763838
0.40480518 0.0047585261 0.023597125 13158339
0.41033337 0.0058965012 0.020154024 13092546
0.3965919 0.015267778 0.028058216 12500409
0.40375316 0.014958211 0.022990769 12500410
0.39593926 0.025377264 0.027290482 13421768
0.40238783 0.024639653 0.022526026 13158340
0.39567992 0.035066511 0.026873054 13619147
0.40159082 0.034912612 0.022071399 13290182
0.39602399 0.045019634 0.026423248 14013650
0.4005428 0.044895433 0.021654453 13750734
0.39654553 0.05479249 0.026800307 14737375
0.40076312 0.055212058 0.021953531 14539996
0.39754173 0.06428764 0.027898541 15066340
0.40137899 0.065364294 0.023154555 15066338
0.39875001 0.071657807 0.029503113 15724527
0.40194342 0.075239204 0.025110794 15395816
0.40447217 0.085065715 0.024928521 15329767
0.4067716 0.094146915 0.026023993 15198183
0.41137505 0.095998041 0.021528354 15132133
0.40742859 0.10109774 0.028048737 14013399
0.41250002 0.10056329 0.021708364 14407385
0.37899998 -0.14157039 0.039021701 15789546
0.38158923 -0.14318644 0.034909505 14736604
0.37612337 -0.13436297 0.036176085 14539226
0.38122731 -0.13816728 0.032392904 14802398
0.36900002 -0.12254514 0.039719779 15461098
0.3721208 -0.12498061 0.03506409 15197414
0.36899999 -0.11779404 0.039719779 15592684
0.37172627 -0.11484317 0.035053324 15658475
0.3717792 -0.10497299 0.03520938 15197922
0.37210408 -0.094898157 0.03525183 15395301
0.37335235 -0.084906116 0.035276324 15066593
0.3746182 -0.07506334 0.03507727 15066592
0.37582031 -0.065137744 0.035291083 15132129
0.38026673 -0.064029776 0.03048723 15198435
0.37656367 -0.055036359 0.035794884 15000799
0.38060006 -0.054689884 0.030881822 15000800
0.37680778 -0.045485504 0.037092764 14869469
0.38176182 -0.044415876 0.032365482 14869212
0.37798125 -0.035370264 0.038113434 14671833
0.38250011 -0.034709245 0.033312883 14606297
0.37836367 -0.025482927 0.039036062 14145748
0.38331407 -0.024792524 0.034066875 14211282
0.37885714 -0.01748809 0.039767154 14145489
0.38449162 -0.015273539 0.035013225 14079696
0.39036369 -0.013912001 0.030305369 14013905
0.38492379 -0.0054097055 0.035753258 13487561
0.39103705 -0.0048546754 0.030902246 13553353
0.38534346 0.0046452545 0.036125377 13026755
0.39170596 0.0048471997 0.031211769 12829630
0.38591745 0.01504487 0.036388911 13158342
0.39166674 0.014444532 0.031436402 12632252
0.38587624 0.02516789 0.035880536 13619151
0.39126927 0.024010796 0.031018101 13355977
0.38640013 0.034841545 0.036260031 14145495
0.39116672 0.035534799 0.031318743 13750734
0.38753518 0.044784334 0.037185978 14408666
0.39149129 0.045405637 0.032184664 14277335
0.38842314 0.054458823 0.038049113 14869215
0.39191985 0.055274811 0.033092245 14935264
0.38900003 0.060957827 0.038776383 15329765
0.39297271 0.06514369 0.034734838 15329767
0.39570895 0.074922986 0.035349574 15461351
0.40000001 0.078787766 0.030883377 15527144
0.39712986 0.084477246 0.036753252 15263974
0.40057138 0.086024374 0.031863447 15198437
0.39800009 0.09256538 0.038530309 15197667
0.401618 0.095323175 0.034032166 15198441
0.40240002 0.10130328 0.035675563 14342363
0.37803394 -0.14326175 0.045038156 14868446
0.38013342 -0.14659205 0.042104937 13816016
0.36850002 -0.1312214 0.048615083 15723756
0.37355915 -0.13528647 0.044593174 14473432
0.3675124 -0.12454227 0.045492981 15263207
0.370125 -0.12898403 0.042223155 16249331
0.3674711 -0.11507261 0.045159224 15526634
0.37 -0.11118385 0.040693596 15658219
0.36772406 -0.10492864 0.045448534 15329252
0.37000003 -0.10728605 0.0406936 15657958
0.36773333 -0.095016718 0.045470376 15197921
0.37 -0.092994131 0.040693596 14935007
0.36777279 -0.085194446 0.04604828 14934750
0.37025923 -0.084406585 0.041363716 14935007
0.36777368 -0.075125411 0.04652806 15000799
0.37064868 -0.074806809 0.041678701 15198178
0.36802572 -0.065214776 0.047542494 15066848
0.37115064 -0.064710014 0.042423632 15000800
0.36820978 -0.055214506 0.047960747 15001055
0.37168196 -0.054922011 0.042840268 14935006
0.36851358 -0.046138514 0.048899833 14803677
0.37196466 -0.044811435 0.043836087 14869213
0.36900002 -0.037716474 0.04922197 14014162
0.37264451 -0.034958147 0.0448207 14474713
0.37387139 -0.024956707 0.044941083 14211540
0.3749631 -0.01495179 0.045274071 14145491
0.38000003 -0.012331126 0.040014252 13816524
0.37577501 -0.0052588754 0.045741249 13553355
0.38056526 -0.0046789707 0.040615566 13553354
0.37624797 0.0049998425 0.046018694 13224391
0.38058066 0.0048946491 0.040821947 13355976
0.37674737 0.014796387 0.046379983 13421772
0.38102496 0.015821993 0.041369133 13289929
0.37775764 0.024644632 0.047264665 14079959
0.381212 0.025355075 0.042397317 13948116
0.37852633 0.033913665 0.048393179 14276825
0.38159576 0.03527797 0.04359743 14211288
0.37900001 0.040048826 0.049668655 15066599
0.38253078 0.04495861 0.045194894 14606046
0.38504153 0.055069339 0.045065489 15066596
0.38743809 0.064413324 0.045411002 15329511
0.39061111 0.067998633 0.041384567 15592937
0.38873473 0.073579997 0.047860481 15461097
0.39145955 0.075620838 0.043309137 15263972
0.38900003 0.080263734 0.049157862 14868961
0.3926847 0.084943697 0.044935346 15132644
0.39464596 0.094677046 0.045082375 15066597
0.40000001 0.099388726 0.040247448 14803425
0.39557144 0.10165925 0.04759711 12697025
0.40014288 0.10169969 0.04146678 13881299
0.37641576 -0.14460765 0.055474728 14671068
0.36797684 -0.13208283 0.056032099 15065572
0.37158734 -0.13693947 0.054936156 14078419
0.36571997 -0.12488381 0.055202611 15000292
0.3652187 -0.11494272 0.055067185 15197671
0.36516091 -0.1049902 0.055092722 14934754
0.36473024 -0.094984919 0.055132557 15000546
0.36487713 -0.085077308 0.054961115 14934752
0.36473095 -0.075127512 0.055077646 14935007
0.36499339 -0.065070122 0.055109404 14803678
0.36548594 -0.054963216 0.05522877 14737885
0.36595911 -0.044798288 0.055155329 14737628
0.36663482 -0.034945305 0.054862879 14343128
0.37 -0.030196331 0.05022154 14474460
0.36699998 -0.025245167 0.056015845 14211287
0.37028563 -0.02398574 0.050796527 14013909
0.36753651 -0.015258243 0.05652215 13948116
0.37054548 -0.014448448 0.051536642 14079702
0.36804289 -0.0053448533 0.05707987 13355979
0.37091941 -0.0047529824 0.05240294 13487308
0.36864525 0.0033223769 0.058527984 12961734
0.3712655 0.0053283614 0.054133169 13158857
0.37194815 0.015002063 0.055097722 13619152
0.37386128 0.024840124 0.054931305 14080216
0.37627995 0.035141706 0.054855753 14277337
0.37798971 0.044457469 0.056084126 14540253
0.3804231 0.04722172 0.052183565 14606046
0.37875006 0.052569218 0.058324575 15000804
0.38158327 0.055361304 0.054170355 15132390
0.38404736 0.064884476 0.055052493 15395561
0.3865715 0.075052001 0.055055872 15461098
0.38843822 0.084409676 0.055725962 15198183
0.39030433 0.087207928 0.051268801 15461353
0.38887501 0.092243858 0.057590727 15198442
0.39126828 0.095791779 0.05399764 15198698
0.39426124 0.10418777 0.055186473 11513008
0.38022226 -0.15079942 0.064861029 11184296
0.37617046 -0.1452817 0.065085478 14407895
0.36695081 -0.13355793 0.064791724 14276824
0.37061292 -0.13855854 0.065082364 14210516
0.36448473 -0.12481293 0.064824224 14934756
0.36437505 -0.1149464 0.065089889 14934756
0.36399952 -0.1051202 0.065171555 14539997
0.36389816 -0.095072314 0.065042101 14474458
0.36302158 -0.085090011 0.065102555 14606044
0.3628678 -0.075061403 0.064964265 14540252
0.36306921 -0.06490279 0.065002479 14737630
0.36327058 -0.054734539 0.065038219 14606044
0.36404243 -0.044737726 0.065081239 14342874
0.36499211 -0.034956221 0.064921863 13619407
0.3652201 -0.025103241 0.064962439 13356236
0.36527649 -0.014780949 0.064893804 13356237
0.36629575 -0.0050249761 0.064721733 12961478
0.36733356 0.0048515489 0.06490466 13027273
0.36848593 0.014439718 0.066170782 13422030
0.37009993 0.016957657 0.06210462 13684946
0.36900005 0.02085158 0.069090188 13750737
0.37119389 0.025195815 0.064690687 14014166
0.37362805 0.035030171 0.065029889 14145752
0.37548795 0.045055769 0.064855576 14606046
0.37764543 0.0547917 0.065136202 14935011
0.38020003 0.059045173 0.060862411 15066597
0.37840006 0.062287189 0.067327678 15132134
0.38116276 0.066219032 0.064111456 15329769
0.38354009 0.074942075 0.064955018 15198440
0.38569304 0.084757403 0.064884841 15198183
0.38783491 0.094751358 0.064960167 15263977
0.39000002 0.099414751 0.06092494 14409183
0.38899997 0.10125675 0.066556193 14343138
0.39124 0.103005 0.062258653 12961742
0.3784 -0.15047042 0.077580638 13684684
0.38000005 -0.15146253 0.072840013 11644847
0.37535644 -0.14500929 0.074919164 14144982
0.36721537 -0.13335669 0.075340688 14473690
0.37065718 -0.13821927 0.074928954 13749966
0.36500055 -0.12506184 0.074749865 14868705
0.36460531 -0.11527883 0.074722715 15066084
0.36399963 -0.10512022 0.07497108 14605533
0.36373752 -0.095219441 0.074959323 14342616
0.36245108 -0.085160084 0.075078189 14211031
0.36209691 -0.074901193 0.075003639 14211286
0.36295125 -0.064882077 0.0751798 14079703
0.3633405 -0.054827668 0.074950263 14211545
0.36531466 -0.044967964 0.075005636 13488594
0.36700013 -0.034900386 0.074840464 8488583
0.36699244 -0.025039567 0.074631967 8684934
0.36607888 -0.014785181 0.074840486 12172220
0.36532611 -0.0050119529 0.074818924 12566464
0.3667087 0.0048431209 0.075100385 12764100
0.3680076 0.015197952 0.07493484 13224651
0.36899999 0.021283496 0.07582809 13817044
0.37064853 0.026028326 0.074878812 13882323
0.37219867 0.035001103 0.074874453 13948117
0.37423509 0.044804063 0.074888267 14145753
0.3761839 0.054629125 0.075005606 14606304
0.37807664 0.064524524 0.075289056 14935013
0.38030005 0.0689428 0.071561322 15461099
0.37899998 0.070860453 0.078463808 14935526
0.38125902 0.075339235 0.074745484 15132392
0.38341781 0.08486864 0.074850768 15000549
0.38568693 0.09442734 0.075060792 15001063
0.38899997 0.10070796 0.074701756 14474465
0.3908751 0.10335687 0.075130574 8420482
0.37833339 -0.15073967 0.085303664 13552846
0.38057142 -0.15273452 0.085892156 11382192
0.37447834 -0.14469098 0.085051946 13684432
0.36741796 -0.13292298 0.085109994 14079960
0.37069234 -0.13814989 0.085138589 13092809
0.36457783 -0.12460671 0.084817991 14605790
0.36403069 -0.11494963 0.084886439 15000546
0.36399952 -0.10512021 0.084770553 14671583
0.36389437 -0.095249422 0.084780797 14539997
0.36300761 -0.085216261 0.084970854 14408668
0.36297721 -0.075083852 0.084957562 14342618
0.36314383 -0.064915486 0.084997118 14539997
0.36421278 -0.054792043 0.084921136 14539997
0.36695707 -0.044957142 0.08499223 13355981
0.36788329 -0.035004042 0.084701382 2699308
0.36736 -0.025079301 0.084798686 2895661
0.36738986 -0.015037829 0.084978864 11251116
0.36600018 -0.0050223218 0.085236356 12369084
0.36655504 0.0047320789 0.085123807 12698564
0.36818746 0.015205988 0.084884495 13028041
0.36899999 0.021008642 0.083696865 13619922
0.37056747 0.025655741 0.085138999 13750995
0.37218764 0.034977417 0.084934682 13817043
0.37419027 0.044798922 0.084953956 14211545
0.37592793 0.054704521 0.084946468 14474460
0.37780964 0.064689882 0.084891342 14606303
0.37879995 0.071775176 0.085379459 14737888
0.38039741 0.076834902 0.084694929 14671840
0.38168609 0.085013129 0.084866315 14803170
0.3849709 0.094936602 0.085106738 14540255
0.38845834 0.10091632 0.084551729 10526370
0.39060003 0.10290752 0.081361309 6447461
0.37825 -0.1507432 0.092073008 13355466
0.37486753 -0.14443189 0.094763771 13355722
0.36755556 -0.13236134 0.094841681 14013909
0.37114635 -0.13756418 0.095749505 12763586
0.36531168 -0.12470976 0.094956145 13948117
0.36423802 -0.11483406 0.095100805 14408668
0.36379123 -0.10506122 0.094941571 14474203
0.36321959 -0.095117554 0.094790697 14277082
0.36287981 -0.085157044 0.094923206 14276825
0.36264086 -0.075014241 0.095062576 14408411
0.36322576 -0.064987183 0.094868399 14540254
0.36436117 -0.05489609 0.095088772 14737633
0.36694506 -0.04498747 0.09515316 12500672
0.36634767 -0.034993619 0.095098317 2567980
0.36618349 -0.025242599 0.095030621 2698540
0.36723641 -0.014928147 0.094979145 11053481
0.36600009 -0.0050223218 0.095089667 12238012
0.36674851 0.0049514491 0.095024548 12566978
0.36813378 0.015141726 0.095145784 13224908
0.36900011 0.02159626 0.095005251 13553871
0.37062746 0.026347378 0.094914533 13751251
0.37274826 0.035094988 0.095013686 13685201
0.37429255 0.044750627 0.09497869 14145751
0.37610462 0.054801967 0.09494634 14474717
0.37793136 0.064709574 0.095093578 14540510
0.3789179 0.072236292 0.094679937 14540510
0.38021305 0.07737191 0.095353737 14606046
0.38135403 0.08487691 0.094984919 14474974
0.38516864 0.094535485 0.09457732 14211805
0.38833332 0.1006569 0.093544573 8880776
0.38000003 -0.15021709 0.10050616 11974069
0.37710819 -0.14313385 0.1043033 11974584
0.36850002 -0.13057381 0.10177901 12632260
0.37455767 -0.13571393 0.10632351 12237757
0.36738205 -0.12413578 0.10425589 13356237
0.37061107 -0.12799761 0.10795297 13092552
0.36578265 -0.1148822 0.10513569 13685203
0.36482677 -0.10509333 0.10497272 13751251
0.36409059 -0.09483093 0.10468999 13948117
0.36339355 -0.085115336 0.10510708 13684944
0.36281031 -0.075050294 0.10530715 13948117
0.36315468 -0.064858027 0.10504521 14277083
0.36414048 -0.054923348 0.10519668 14408669
0.36610743 -0.044775486 0.10510705 10987689
0.36378923 -0.034829639 0.10503753 2370602
0.3637121 -0.024949184 0.1049966 2501161
0.36696354 -0.014711445 0.10500376 10461602
0.36659867 -0.0050306232 0.10511652 12238269
0.36708423 0.0048135957 0.10522112 12566979
0.3682313 0.01527166 0.10507495 13158859
0.36899999 0.021197114 0.10312532 13290958
0.37066963 0.025740966 0.10531454 13685202
0.37285066 0.03493797 0.10496955 13816788
0.37434977 0.044882286 0.10506172 14014424
0.37640148 0.054725047 0.10488608 14343132
0.37815365 0.064642556 0.10517838 14474461
0.37899992 0.071634784 0.10320759 14474717
0.3804999 0.076181404 0.10569387 14409182
0.38150012 0.084872626 0.10511249 14277853
0.38446671 0.09259133 0.10540877 13751254
0.37800002 -0.14079866 0.11125971 10395296
0.37542495 -0.13455382 0.11214433 11316655
0.36885715 -0.12188133 0.11088172 12830152
0.371398 -0.12509198 0.11516894 12369343
0.36840007 -0.1146635 0.11260241 12632772
0.37076664 -0.11558048 0.1169878 12040891
0.36806101 -0.10479085 0.11386979 12633028
0.37026307 -0.1059012 0.11864332 11975611
0.36739177 -0.094818629 0.11429913 12632514
0.37028572 -0.096720099 0.11929862 12172476
0.3662096 -0.085064791 0.11490323 12829894
0.36544225 -0.075159937 0.115054 13027273
0.36479208 -0.065016158 0.11505804 13553617
0.36501497 -0.05493344 0.11526912 13816788
0.3663286 -0.044980004 0.1150094 10198174
0.36191595 -0.034644421 0.11509296 2107430
0.36149639 -0.025155768 0.11480518 2107173
0.36709315 -0.014865508 0.11510053 10000794
0.36699203 -0.0050359503 0.11510743 12106170
0.36742124 0.0048878961 0.11520496 12304063
0.36850441 0.014313593 0.1145175 13093323
0.36999997 0.018598286 0.11792767 13290959
0.37072426 0.024895016 0.11504593 13356238
0.37296844 0.035156149 0.11503012 13487823
0.37465009 0.044818621 0.11484288 13948117
0.37726644 0.054922272 0.11483566 14079960
0.37872833 0.063960083 0.11429881 14211289
0.38011548 0.068231709 0.11699961 14211288
0.38082668 0.075012915 0.11498976 14211804
0.38223147 0.084656626 0.11514846 14277855
0.38502234 0.091882221 0.11447312 13618901
0.37257147 -0.12248345 0.12084543 10593703
0.37311772 -0.11697796 0.12108855 11514803
0.37099996 -0.10236491 0.12180732 10659239
0.37105888 -0.094630674 0.12226021 11251119
0.36894998 -0.081890687 0.12258843 11975100
0.37108073 -0.086164869 0.12415516 11711927
0.36820212 -0.074770875 0.12381545 11843515
0.37 -0.070560165 0.1285239 11054511
0.36780724 -0.064833753 0.12366543 12501186
0.37038457 -0.06551002 0.12851146 11712953
0.36742571 -0.054719474 0.12454466 12961479
0.37022221 -0.056217194 0.12931359 12304064
0.36757031 -0.04534829 0.12500539 9474450
0.35826075 -0.032970171 0.12644272 2107430
0.36114293 -0.035906732 0.12352715 2107430
0.35849997 -0.027175957 0.12644768 2107429
0.36095613 -0.023704894 0.1240779 2107430
0.36735165 -0.014769113 0.12491968 9803415
0.36778525 -0.0050462168 0.12483013 11251888
0.3683019 0.0042765075 0.12422369 11843769
0.37029994 0.0072295018 0.12854166 11317938
0.36892864 0.012458005 0.12194576 12698821
0.37085071 0.015588822 0.12568107 12172991
0.37237719 0.02504185 0.12500542 12699336
0.37469929 0.035119861 0.12511326 12896459
0.37672308 0.045105007 0.12477876 13554132
0.37850007 0.054175362 0.12406442 13948632
0.38010719 0.057772357 0.12773837 13685717
0.37899998 0.061076552 0.12189045 14014938
0.38088796 0.065692455 0.12520155 13817046
0.38172814 0.075032808 0.12482938 13422287
0.38347051 0.084901184 0.12509502 13488852
0.38518181 0.090706833 0.12622415 13422806
0.37167999 -0.063425884 0.13147737 10264996
0.37374035 -0.054617707 0.13448121 10790824
0.36805412 -0.042755768 0.1336747 7631989
0.37085533 -0.046323415 0.13569799 9671573
0.35900006 -0.03434116 0.13024974 2042151
0.36533344 -0.035770677 0.13485397 1449500
0.37061536 -0.032448195 0.13920286 792337
0.36521319 -0.024112694 0.13415609 1515809
0.37081245 -0.026520086 0.13925582 791824
0.36775324 -0.016019097 0.13360333 9211793
0.37060976 -0.01240657 0.13666378 9869723
0.36899999 -0.0053658308 0.13081124 10725800
0.37160257 -0.0051699365 0.13578136 10067872
0.37285092 0.0050652297 0.1350545 10001823
0.37382185 0.014854622 0.13371418 10660010
0.37649998 0.024916239 0.13471623 11251634
0.38000003 0.029479455 0.13964799 9080978
0.37764803 0.034777381 0.13343219 12040893
0.38071433 0.035648689 0.13828771 10791340
0.37847731 0.044364586 0.13186003 12830408
0.38090473 0.045429841 0.13674155 12041408
0.37900001 0.051139399 0.13040802 12633800
0.38168925 0.055065919 0.13503507 12896459
0.38338679 0.06492535 0.13509263 12896202
0.38511229 0.074742541 0.13459335 12567236
0.38629007 0.084763423 0.13457471 12501701
0.3874211 0.090964384 0.13416828 13224915
0.36561537 -0.040897828 0.14619103 5657937
0.37037504 -0.042694028 0.1405538 7039595
0.36600959 -0.036122069 0.14698416 857103
0.37068516 -0.033507727 0.14346364 726286
0.36554939 -0.024768062 0.14803682 857102
0.37088177 -0.026498936 0.14433928 659980
0.36669999 -0.019025126 0.14119717 5720909
0.37120003 -0.012563865 0.1404106 9803158
0.37400004 -0.00431243 0.14053658 10988203
0.37500003 0.004081009 0.14066318 8883086
0.37899998 0.026296517 0.14016773 10001570
0.38033333 0.029208787 0.14125468 9014414
0.38158336 0.03396019 0.14112332 8751242
0.382 0.044390045 0.14038299 10001826
0.38440004 0.056283347 0.14090474 11252406
0.38547063 0.064885542 0.14102161 11515065
0.38763636 0.075285211 0.14080495 11777464
0.38800001 0.080965713 0.1407713 10988465
0.36178955 -0.041361522 0.15483555 1778204
0.359 -0.032240093 0.15945452 725514
0.36164281 -0.035051551 0.15483789 989202
0.36105719 -0.025004815 0.15501115 1054225
0.36200002 -0.019374058 0.15845652 1383192
0.34707144 -0.041383456 0.16828462 2370080
0.35612497 -0.040872552 0.16628897 593932
0.36100003 -0.041293334 0.16055413 1645845
0.34749016 -0.034959562 0.16875482 1910557
0.355656 -0.034491416 0.16526423 1186581
0.36026326 -0.037570119 0.1612912 1054222
0.34799996 -0.025931709 0.16938218 2041374
0.35505781 -0.025677746 0.16689101 1054482
0.36063641 -0.025009418 0.16277111 1580570
0.356875 -0.019621525 0.16884533 1185044
0.36100003 -0.019320538 0.16449094 988437
0.33833334 -0.041208599 0.17931509 2567720
0.34285486 -0.041624136 0.17413743 2566948
0.33841667 -0.038446169 0.17909563 2370340
0.34365174 -0.035306562 0.17306511 2238238
0.34406626 -0.025243012 0.17253059 1975069
0.74725002 -0.12658671 0.26936245 13685197
0.78633338 -0.15130825 0.27854094 8553086
0.77400011 -0.14440918 0.2764338 8815490
0.74900001 -0.13126406 0.27788365 12237494
0.7539286 -0.13389796 0.27516967 12039604
0.76233339 -0.13895468 0.27568719 11578542
0.74717635 -0.12482378 0.27545762 13816528
0.74830776 -0.11483449 0.2774249 13816530
0.74900001 -0.10846957 0.27876034 13750737
0.78718185 -0.15186264 0.28509578 8684672
0.76900005 -0.1419701 0.28440365 9144458
0.77737498 -0.14670296 0.28431872 8552831
0.74900001 -0.13126408 0.28489733 12895168
0.75518185 -0.13508303 0.28491631 12565690
0.76160002 -0.13882101 0.28523502 12171192
0.74719346 -0.12496749 0.28491536 13553357
0.7483055 -0.11449838 0.2846325 13882323
0.74899995 -0.10634041 0.28301868 13948116
0.75060004 -0.10354497 0.2866194 14079702
0.75263649 -0.097620972 0.28652385 13816530
0.75000006 0.077496536 0.28966713 12960964
0.74900001 0.083311006 0.28599322 13290186
0.75018191 0.086616352 0.28734207 13487308
0.75471431 0.094901688 0.28782651 13553612
0.7628001 0.10418455 0.28889212 12500666
0.78740007 -0.15089698 0.29489854 8618623
0.77440006 -0.14441939 0.29401892 8749953
0.78200006 -0.14803146 0.29562181 8684159
0.74816674 -0.13111804 0.29508901 13092807
0.75600004 -0.1345568 0.29463685 12565949
0.76300001 -0.1382852 0.29587749 11908015
0.74716645 -0.12482181 0.29469478 13553101
0.74763876 -0.11439554 0.29488063 14013909
0.74900001 -0.10846957 0.29629457 14211031
0.75196779 -0.10412414 0.29491264 14013652
0.75589305 -0.094803475 0.29523054 13882323
0.74890006 0.073175594 0.2973066 13092807
0.75005007 0.076097205 0.29504204 13158343
0.75153863 0.084830269 0.29533908 13158345
0.75545162 0.094954528 0.29485294 13487307
0.76368761 0.10416999 0.29461291 12631737
0.77099997 0.10854524 0.2959744 10131347
0.77490002 0.11236284 0.29620045 10132115
0.78366667 0.11828017 0.29777721 10198421
0.78850007 0.12485433 0.29853725 10198420
0.79000002 0.12909772 0.29895136 10330262
0.79125005 0.13609485 0.29726261 9935764
0.78900003 0.14912888 0.29401684 8225668
0.79038894 0.1439625 0.29693973 10001558
0.78900003 0.15376705 0.29590496 9014923
0.79012501 0.15470636 0.29915288 10527131
0.79100007 0.16460095 0.29809526 10658718
0.78900003 -0.1512036 0.30103567 8618879
0.77714288 -0.14503418 0.30457148 8487037
0.78620005 -0.14882651 0.30549124 8553086
0.74849999 -0.13117644 0.30398309 13158342
0.75477791 -0.13424335 0.30583891 12500669
0.7638889 -0.13844723 0.30436677 12237240
0.74735284 -0.12464745 0.30500925 13750736
0.74730539 -0.11434583 0.30524611 14013909
0.74808002 -0.10525407 0.30629566 14211031
0.75125003 -0.10278309 0.30172622 14145238
0.74800009 -0.097182147 0.30831447 13750480
0.75335008 -0.096485786 0.30347487 13947859
0.7470001 0.067568466 0.30599585 13027014
0.74822205 0.073486999 0.30545753 13092550
0.75000006 0.078813359 0.30371323 13224393
0.75257152 0.084624179 0.30531946 13421516
0.75640005 0.09490934 0.30498841 13619151
0.76325005 0.10355051 0.30549723 13420999
0.77222228 0.10811644 0.30487859 11250341
0.77600002 0.11136933 0.30455443 10197909
0.78408337 0.11605049 0.30527726 10198165
0.78858346 0.12194408 0.30349275 10263959
0.79041177 0.12695234 0.30582008 10263959
0.79162073 0.13554128 0.30529439 10329751
0.79140002 0.14476486 0.30565843 10395545
0.79207695 0.15458952 0.30542085 10395801
0.77675003 -0.14521924 0.31363443 8158332
0.78583336 -0.14875709 0.31546196 8487295
0.75482357 -0.13405818 0.31512007 12500671
0.76566672 -0.13956226 0.31453815 11382446
0.74774057 -0.12371983 0.31550425 13684944
0.75000006 -0.12924463 0.3151257 13619665
0.74703217 -0.11501043 0.31554282 13684944
0.7468856 -0.10541644 0.31563973 13948116
0.74654168 -0.096753985 0.31541869 13684944
0.74775004 0.068511561 0.31461895 13027014
0.74854827 0.074691296 0.31516594 13158857
0.75000006 0.079252295 0.31161419 13158600
0.74900001 0.080900043 0.31821236 13159372
0.75069708 0.085451685 0.31506935 13225165
0.75436842 0.095055841 0.31500351 13619665
0.75849998 0.10190265 0.31558883 14079445
0.7639001 0.10522338 0.31470063 11776688
0.77350008 0.1088972 0.3141332 9868434
0.77700001 0.11120891 0.31191844 10197652
0.78654552 0.11592659 0.31432489 10198166
0.79033333 0.11866781 0.31634665 10066580
0.79286367 0.12436492 0.31499892 10198166
0.7927857 0.13507585 0.3152073 10263959
0.79239988 0.14494967 0.31531772 10329752
0.78900003 -0.1512036 0.3278181 8355964
0.77649999 -0.14517251 0.32626128 8355707
0.78460008 -0.14852363 0.32507113 8355964
0.74900001 -0.13126406 0.32697946 12434878
0.75525004 -0.13442712 0.32440138 11908277
0.76514286 -0.13921262 0.32494357 10723744
0.7475453 -0.12512513 0.32499135 13487566
0.74664003 -0.11512043 0.32507524 13684944
0.74596685 -0.10541106 0.32478181 13553101
0.7456001 -0.096631907 0.32462233 13750737
0.74800003 0.068534471 0.32531714 13093578
0.74886119 0.0747495 0.32516566 13093322
0.74899989 0.083272323 0.32465875 13093579
0.75000006 0.087529473 0.32478237 13290958
0.75242317 0.095367119 0.32494891 13488336
0.75779998 0.10136481 0.32461205 13882580
0.76154554 0.10446093 0.32491824 12632255
0.77050006 0.10847484 0.32193479 9737107
0.77577788 0.11184345 0.3264592 10132118
0.78728575 0.11663103 0.32565492 10198166
0.79079998 0.11873789 0.32393542 10132373
0.79291999 0.14504394 0.32480726 10264214
0.7924999 0.15538806 0.32528764 10264471
0.7928822 0.16556451 0.32495028 10330521
0.79368562 0.17491254 0.32511321 10395802
0.78900003 -0.1512036 0.33243576 8355964
0.77666664 -0.14520366 0.33541954 8355707
0.78500003 -0.14859934 0.33534464 8290171
0.75507694 -0.13369387 0.33445436 12369598
0.76328576 -0.13861994 0.33538193 11053224
0.74842852 -0.12365577 0.33273789 13158601
0.75066668 -0.12599215 0.3367871 13027529
0.74755996 -0.11491214 0.33422795 13093065
0.75000006 -0.11914898 0.3388285 13225165
0.74656254 -0.10511288 0.33416456 12698821
0.7463184 -0.096566468 0.33399048 12763843
0.74900001 0.075201422 0.33245888 12698563
0.75066668 0.077419303 0.3367883 12435134
0.75160003 0.085053578 0.33427629 12830406
0.75492865 0.094927512 0.33512363 13093579
0.75866669 0.10148073 0.33208832 13684689
0.76237506 0.10376442 0.3345986 12764100
0.77200001 0.10868602 0.33702022 9605776
0.77555567 0.1118106 0.33463848 10066582
0.78507704 0.11675128 0.33501685 10132374
0.78855562 0.12086259 0.33594 10001045
0.79152387 0.12573038 0.33429036 10066580
0.79286665 0.15524104 0.33530316 10264471
0.79247993 0.16537142 0.33575806 10330263
0.79291999 0.17474329 0.33594403 10395800
0.78900003 -0.1512036 0.34813577 8224121
0.76900005 -0.14016984 0.34381166 10790052
0.77499998 -0.14334132 0.34648985 9145481
0.7852 -0.14863721 0.34554094 8224121
0.75800002 -0.13248786 0.34279758 11448754
0.76362503 -0.13606486 0.34475917 10659494
0.75561535 -0.12535013 0.34368151 11909307
0.76050007 -0.12348875 0.34891313 11448756
0.74900001 -0.11109971 0.34013012 12633030
0.75366664 -0.11561234 0.34323233 11646135
0.76000005 -0.11540011 0.34868374 11448755
0.74900001 -0.10759286 0.34013012 11843512
0.75599992 -0.10559183 0.34578943 11448754
0.76000005 -0.10294589 0.34868374 11448754
0.74900001 -0.094442196 0.34013012 12369086
0.75575006 -0.096176468 0.34496462 12237501
0.76033336 -0.097650409 0.34883666 10725031
0.75125003 0.068832248 0.34379315 11777205
0.7536 0.075049639 0.34525689 11119017
0.75609523 0.085040376 0.34445202 11645619
0.75780004 0.094388723 0.34318101 12040891
0.76071441 0.095394745 0.34799442 11185582
0.76388896 0.10198288 0.34430793 12369855
0.77400005 0.10819171 0.34604841 9803157
0.77733332 0.11125662 0.34390023 10066584
0.7852143 0.11593508 0.34528062 10001045
0.78866673 0.1205717 0.34460476 9935508
0.79095 0.12533551 0.34520027 10066838
0.79359376 0.15514989 0.34516874 10133144
0.79300004 0.1654789 0.3452597 10198937
0.78900003 -0.1512036 0.35090637 8289914
0.77750003 -0.14171568 0.35398769 9869721
0.78530014 -0.1471888 0.3553285 8224380
0.76400006 -0.13031578 0.35051891 11119791
0.77320004 -0.13695192 0.35401922 10791337
0.78000003 -0.13852289 0.35968563 11119787
0.76639998 -0.1253408 0.35305694 10922412
0.77240002 -0.12487582 0.35762823 10527653
0.76550007 -0.11534097 0.35299918 11185584
0.77200001 -0.11541494 0.35780379 10725033
0.76566672 -0.10460735 0.35307601 11185582
0.77200001 -0.10276409 0.35780379 11053483
0.76850003 -0.097799927 0.35438257 10461859
0.77300006 -0.09837319 0.35826728 10461602
0.75654542 0.074957147 0.35241163 9540238
0.76033336 0.077971205 0.35714337 9211272
0.75900006 0.082868576 0.35089019 11184810
0.76220006 0.085181691 0.35457343 10197914
0.76520002 0.094474778 0.35357973 11185067
0.77100009 0.095913105 0.35824221 10001303
0.76900005 0.1010627 0.35281289 10855845
0.77554548 0.10572641 0.35597932 10132373
0.78685713 0.11534478 0.35521311 10000787
0.79118526 0.1245614 0.35517004 10001044
0.79303843 0.16527246 0.354702 10067865
0.78788894 -0.14422931 0.36291429 8882055
0.79150003 -0.14612454 0.36684245 8948615
0.77900004 -0.13469799 0.36104813 10528424
0.7858001 -0.13495611 0.36640924 9277585
0.79000002 -0.13844942 0.36984515 9211792
0.77680004 -0.12522836 0.36184698 10198431
0.78360009 -0.1244892 0.36684895 9211792
0.77583337 -0.11507972 0.3613967 10527652
0.78280002 -0.11519655 0.36647445 9211792
0.77540004 -0.10503189 0.36119485 9869208
0.78333336 -0.10518882 0.3667241 9079692
0.77566671 -0.097805411 0.36131907 10197917
0.78350008 -0.097875834 0.36680216 9408399
0.76500005 0.079046465 0.36172298 9474443
0.76800001 0.082952246 0.36134359 9540236
0.77315384 0.086157337 0.36544281 9474700
0.77516675 0.094011195 0.36396265 9737616
0.78100002 0.097152397 0.36837542 9934994
0.77700007 0.10211699 0.36193958 9803408
0.78350008 0.10553874 0.36625344 9934994
0.78772002 0.11488564 0.36501691 10000786
0.78900003 0.12200782 0.36676037 10001043
0.79031825 0.12631908 0.36461112 10001298
0.79330295 0.13532469 0.36463565 10001555
0.78840005 -0.12525082 0.37094179 9211790
0.78833342 -0.11508738 0.37091041 9145997
0.78860009 -0.10497238 0.37103587 9079947
0.79346669 -0.10562269 0.37704179 9211787
0.78833342 -0.097557068 0.37091041 9145227
0.79266667 -0.099948168 0.3766613 9277579
0.77700001 0.083924346 0.37103498 9409420
0.78342867 0.086978115 0.37594217 9475215
0.78631824 0.095225975 0.37573883 9672592
0.7882666 0.10494863 0.3737098 9869457
0.79012501 0.10730747 0.3779963 9738385
0.78890002 0.11475941 0.37210059 9738385
0.7902 0.11494805 0.37733874 9738385
0.78900003 0.12268947 0.37201568 9935764
0.79004365 0.12578121 0.37629873 9869971
0.79151869 0.13531883 0.3746731 10001557
0.78720003 0.085671596 0.38576669 9409422
0.78847998 0.094469108 0.38478646 9475728
0.79000002 0.09827432 0.38833919 9541776
0.79096562 0.10503726 0.38517538 9672849
0.79188001 0.11519245 0.38555816 9804178
0.79160726 0.12501337 0.38522628 9869971
0.79209995 0.13543804 0.38529271 9935508
0.79344451 0.16515924 0.38466784 10132630
0.79299998 -0.11478415 0.39501897 9343629
0.78844994 0.08608415 0.39496177 9409676
0.78891677 0.092445225 0.39411712 9541006
0.79000002 0.096548222 0.39586014 9541006
0.79134387 0.10469609 0.39490482 9672592
0.79275995 0.11532073 0.39526409 9804178
0.79300004 0.12463722 0.39538345 9934994
0.79289985 0.13483135 0.3953338 10000787
0.78833324 0.087362759 0.40461767 9409420
0.78874999 0.091964096 0.40618858 9606799
0.79020005 0.096203059 0.40434584 9606542
0.79190624 0.10500223 0.40503421 9803408
0.79308009 0.11536718 0.40470627 9869201
0.79339987 0.12470093 0.40486863 9935507
0.79339975 0.13491501 0.40486902 9935251
0.79255551 0.14518161 0.40485054 9935251
0.79130566 0.15493611 0.40472612 9935507
0.79248387 0.16543388 0.40475771 10066838
0.77900004 0.08778768 0.41575772 9409422
0.78230006 0.087062329 0.41238743 9409421
0.78718519 0.094106659 0.41473025 9606543
0.79000002 0.09827432 0.41145676 9671822
0.79248148 0.10435944 0.41491237 9606799
0.79299998 0.12484343 0.4143602 9803922
0.79297203 0.13484329 0.41486114 9935251
0.79292589 0.14497554 0.4150089 10000787
0.79223329 0.15511714 0.41540381 10000788
0.79219222 0.16545306 0.41516718 10066580
0.79329026 0.17494689 0.41481385 10066580
0.77540004 0.09609431 0.4276287 9541008
0.78614289 0.097135499 0.42481545 9606801
0.79000002 0.09827432 0.42347789 9475215
0.78775007 0.10214388 0.42872244 9541008
0.79303849 0.1048687 0.42495888 9606801
0.79299992 0.13484785 0.42508602 9804180
0.79299998 0.14491521 0.42487139 9804180
0.79299992 0.15526852 0.42508605 9803923
0.79255998 0.16538577 0.42484969 9869715
0.79128587 0.1754408 0.42496014 9935252
0.77400005 0.097191095 0.43120867 9738387
0.77833337 0.10137901 0.43331966 9606544
0.78562504 0.10616291 0.43476543 9606801
0.79149997 0.10865255 0.43076599 9738387
0.78823537 0.11422888 0.43729246 9672594
0.79295248 0.11534742 0.43283358 9672593
0.78850007 0.12485376 0.43744016 9672594
0.7917273 0.12494163 0.4329091 9738386
0.78900003 0.13201274 0.43894973 9672594
0.79135495 0.13525538 0.43400127 9804179
0.79231024 0.14480555 0.43475747 9738386
0.79338706 0.16501775 0.43506101 9804180
0.79203832 0.17440632 0.43548191 9804180
0.78371429 0.1069297 0.44264874 9541008
0.78531832 0.11515675 0.44235846 9606802
0.7865237 0.1251999 0.44265524 9672340
0.78878564 0.133736 0.44432586 9606545
0.79000002 0.13793376 0.44279394 9738387
0.79244006 0.1449597 0.44482031 9738387
