# .PCD v0.7 - Point Cloud Data file format
VERSION 0.7
FIELDS x y z rgb
SIZE 4 4 4 4
TYPE F F F U
COUNT 1 1 1 1
WIDTH 1056
HEIGHT 1
VIEWPOINT 0 0 0 1 0 0 0
POINTS 1056
DATA ascii
0.51075006 -0.035108142 -0.031409677 12897483
0.509 -0.026049843 -0.031202609 14737369
0.5101819 -0.024371592 -0.031835981 14539992
0.51117849 -0.014450398 -0.032675941 14079698
0.509 -0.0010267034 -0.031004013 14277077
0.51106894 -0.0050330497 -0.032904938 14211284
0.50728571 0.0054218001 -0.031749383 13881804
0.51083332 0.0049479739 -0.035501979 13224131
0.50823075 0.013253978 -0.031781737 13355716
0.51068574 0.0157758 -0.034899268 13421511
0.51197904 0.024739163 -0.034182951 13355974
0.51338649 0.034120686 -0.03452212 13750733
0.45805886 0.047391769 -0.031684607 13488330
0.45651421 0.055046681 -0.032418899 13816525
0.45640001 0.065600216 -0.033444967 14671577
0.45479077 0.075348556 -0.034962382 14934750
0.44900003 0.085811488 -0.03050267 15658987
0.45270881 0.084983811 -0.035122104 15790061
0.45440003 0.093902357 -0.034899652 15658222
0.45300013 -0.12410972 -0.02163483 14210773
0.45423809 -0.11585476 -0.020933598 15329508
0.4585385 -0.1058733 -0.020746818 15592936
0.46066666 -0.10283801 -0.021589378 15657959
0.45810002 -0.094981462 -0.020719027 15263970
0.46188891 -0.097409189 -0.022248561 15000542
0.45614287 -0.086338811 -0.020309528 15724778
0.461 -0.081869014 -0.020525791 15395813
0.46199998 -0.076099649 -0.020570315 15461606
0.46360007 -0.06507504 -0.020750176 14935005
0.46322224 -0.05515312 -0.020624734 14540247
0.5070371 -0.033074837 -0.026447523 14935261
0.51020014 -0.037099771 -0.028330628 15001569
0.50576186 -0.025908314 -0.026502034 14868955
0.51000005 -0.020529401 -0.029473035 14605270
0.46550003 -0.011835228 -0.021271609 14606041
0.50842851 -0.017007681 -0.025018673 14671320
0.51051724 -0.014875434 -0.028294876 14276562
0.46340004 -0.0048423512 -0.020632651 13422025
0.50800002 -0.0015008494 -0.028328186 14342355
0.51045001 -0.0063483045 -0.028583467 14276562
0.46100003 0.0017681406 -0.020525791 12105908
0.49837506 0.006723599 -0.02379466 13157824
0.50342101 0.005181965 -0.027505655 13684168
0.45900002 0.018684274 -0.020705374 13027010
0.46000001 0.017917328 -0.021558136 12368824
0.50628579 0.014393928 -0.028469572 12829629
0.51000005 0.019267907 -0.029274048 13027008
0.45669559 0.026641741 -0.022008069 13158342
0.51145464 0.024223035 -0.029629946 13027008
0.45673352 0.035254128 -0.023083666 13421769
0.45538291 0.045311868 -0.024419948 13487561
0.44876924 0.056552012 -0.021436075 14342614
0.45358679 0.054608896 -0.026249062 14079698
0.44802636 0.065556303 -0.02257267 14869214
0.45248005 0.064611129 -0.027311936 14606042
0.4464348 0.075267173 -0.024051078 15329509
0.45133337 0.073849902 -0.028901068 15000800
0.44579324 0.084901698 -0.025091875 15921902
0.44668967 0.094114609 -0.024314979 15395564
0.45090905 0.095341846 -0.029001951 15395565
0.43757147 -0.1232963 -0.011363158 14736858
0.4449304 -0.12404406 -0.015363012 15132130
0.45100003 -0.12192951 -0.018629408 14540254
0.43792313 -0.1157785 -0.010508794 14803422
0.44522008 -0.11510535 -0.013871529 15724523
0.45224148 -0.11429972 -0.018020425 15132130
0.43880001 -0.10771745 -0.010292199 14079698
0.44513893 -0.10533214 -0.012648135 15789545
0.45382938 -0.10482127 -0.017129222 15197921
0.43900001 -0.095434546 -0.010296891 14145491
0.44665223 -0.095406212 -0.012524461 15592422
0.45430017 -0.094807625 -0.016767407 15263971
0.44691673 -0.083903439 -0.01135734 15000799
0.45475391 -0.084927902 -0.016044874 15461349
0.46000001 -0.080975078 -0.019045442 15593192
0.44742864 -0.072428301 -0.011095224 14474712
0.45709085 -0.075082324 -0.014715211 15198177
0.46081489 -0.075004779 -0.018440714 15592935
0.44830003 -0.065442383 -0.010515024 15065821
0.45578566 -0.065429792 -0.013707343 14868699
0.46146157 -0.065082029 -0.017806327 15461349
0.449 -0.054189224 -0.01077401 15131872
0.45461765 -0.056073185 -0.013771531 14935006
0.46145841 -0.05534621 -0.018522387 15132899
0.44866666 -0.046243504 -0.010873999 14672092
0.45464867 -0.04403419 -0.013809505 15198179
0.46235293 -0.04709363 -0.018487377 15264228
0.45655176 -0.035247497 -0.013537288 15000799
0.46057147 -0.035359044 -0.01796687 15001055
0.45690003 -0.025307998 -0.012379861 14408662
0.46167511 -0.024083441 -0.016939446 14277077
0.45618609 -0.014383148 -0.012792811 13948112
0.46205878 -0.015342291 -0.017554807 14014162
0.45562288 -0.004957675 -0.013810935 13619404
0.46135002 -0.0059566377 -0.018706605 13816526
0.44883332 0.0072371089 -0.011053092 12829632
0.45425406 0.0042432542 -0.014886752 13158596
0.46000001 0.00014900271 -0.019404398 13816783
0.44782144 0.015006342 -0.011516794 13027013
0.45423919 0.015522178 -0.016188696 12829378
0.44697151 0.025224911 -0.011922991 13487563
0.45320377 0.024841333 -0.016766323 12829633
0.44546294 0.035229567 -0.012773801 13816527
0.45285186 0.034696992 -0.01773233 13289929
0.43900001 0.048444424 -0.010296891 13948112
0.44452566 0.045142073 -0.014392302 13750990
0.45122221 0.042396072 -0.018682448 13487308
0.4390001 0.055895299 -0.010682282 14474457
0.44375011 0.054824788 -0.015913989 14408406
0.43865392 0.065782622 -0.011197718 14934750
0.4428196 0.064816654 -0.016471431 15000286
0.43747449 0.075455077 -0.012783142 14868957
0.44151163 0.0743424 -0.017810635 15329508
0.43627024 0.084948763 -0.01352731 14803680
0.44060004 0.085051157 -0.018711045 15263973
0.43710518 0.094769575 -0.013005524 15066854
0.44153839 0.094364047 -0.018191095 15066342
0.43800005 0.10096952 -0.010615223 13749969
0.49718189 -0.16289254 -0.0030913106 10125162
0.41563642 -0.12254853 -0.0010854196 14342613
0.42390558 -0.12450582 -0.0055325027 14408407
0.43066669 -0.12117986 -0.0084221391 14342871
0.41580018 -0.11514562 -0.00093052251 14342868
0.42368191 -0.11558719 -0.0046254555 14145233
0.43248394 -0.11429514 -0.007959431 14474200
0.41570002 -0.10489886 -0.00096298003 14277332
0.42413169 -0.10434762 -0.0045727384 14277333
0.43262506 -0.10645706 -0.0078727724 14145492
0.41691664 -0.09567219 -0.00067118811 14540247
0.42430913 -0.094761863 -0.0041640797 14277334
0.43235993 -0.094756581 -0.0080803009 14079698
0.4184286 -0.087041296 -1.8892664e-05 14672090
0.42467281 -0.084723704 -0.0028312476 14408919
0.4327715 -0.084984332 -0.0072906748 14013905
0.44000003 -0.08174628 -0.0092902975 14869214
0.42510414 -0.075261906 -0.0017677884 14737884
0.43314591 -0.074615233 -0.006513393 14277334
0.44125003 -0.073190629 -0.0093166903 14342870
0.42600006 -0.065471545 -0.00098502554 15132384
0.43421826 -0.064947613 -0.0049824356 14803419
0.44324997 -0.063668624 -0.0087770298 14342868
0.42763636 -0.055735197 -0.00011060811 15198178
0.43482351 -0.055164471 -0.0031438365 14869470
0.44376329 -0.054693609 -0.0078178439 14540248
0.43482611 -0.045285691 -0.00188685 14540763
0.44413224 -0.044756949 -0.0070318426 14737885
0.43651292 -0.035227835 -0.0015180208 14474712
0.44527984 -0.034983065 -0.0063474085 14869214
0.45133337 -0.034716506 -0.0095295943 14277077
0.43746674 -0.024948468 -0.0010466002 13750735
0.44439581 -0.025191575 -0.0052532144 14211027
0.45177782 -0.024704345 -0.0090703852 14079441
0.43763334 -0.014713952 -0.001046686 13685197
0.44395751 -0.014180982 -0.0053837667 13750990
0.45123082 -0.015782665 -0.0092031071 13684940
0.43755555 -0.0049808491 -0.0010465091 13816526
0.4446111 -0.0050021461 -0.0057959314 13882061
0.45000002 -0.0056482563 -0.0095014414 13553354
0.43729421 0.0051106657 -0.0013782926 13027010
0.44407699 0.0046195113 -0.0065093525 13093060
0.43689376 0.015198645 -0.0019398594 13092804
0.44267935 0.0149627 -0.0071045267 12961220
0.4366785 0.025407344 -0.0024000299 13618892
0.44182497 0.024707595 -0.0075233206 13487306
0.43647882 0.035299122 -0.0036136988 13684939
0.4407917 0.033376355 -0.0083193965 13750733
0.43497908 0.045118924 -0.0046098139 13816526
0.44000003 0.04082942 -0.0092902975 13750733
0.42850003 0.056813676 -1.9347406e-05 14079955
0.43396795 0.054835472 -0.0049004401 14408407
0.42779168 0.065649234 -0.00073020457 14342869
0.43338463 0.064769462 -0.0057285605 14605785
0.42697442 0.075384699 -0.0014578638 14474456
0.43230161 0.074720636 -0.0064683165 14474200
0.42670685 0.085165739 -0.0023842601 14869216
0.43106663 0.084702305 -0.0074225958 14935266
0.42743337 0.093833707 -0.0015224668 15263977
0.43222034 0.095700413 -0.0061154473 15000805
0.43329409 0.10115596 -0.0048665735 13289420
0.39599997 -0.13193971 0.0083255088 13091776
0.39680496 -0.12595493 0.0077743041 14079442
0.40382987 -0.12303998 0.0041361763 14145234
0.41100001 -0.12157815 0.00094360113 14145491
0.39725009 -0.11560376 0.0088622458 14671576
0.40488228 -0.11483262 0.0051121996 14474455
0.41129419 -0.11512487 0.001339771 14408406
0.39731586 -0.10478082 0.0088417036 14606041
0.40485939 -0.10502537 0.0049285106 14540247
0.41164288 -0.10428745 0.0011510866 14408661
0.39773342 -0.096391648 0.009044121 14935006
0.40485066 -0.094965577 0.0056128129 14737883
0.41224 -0.094710179 0.0016009966 14540248
0.39900002 -0.089541107 0.009322647 15066593
0.4042857 -0.085055366 0.0068922299 14935007
0.41337833 -0.084577218 0.0022251692 14737626
0.40576807 -0.075295791 0.0075395703 14671835
0.41395122 -0.074197747 0.0034714814 14869469
0.4204286 -0.073679127 0.00096524786 14606297
0.4078421 -0.065995872 0.009025923 14540250
0.41381946 -0.065038234 0.005298255 14737884
0.42163157 -0.063861936 0.0014866069 14869468
0.40900001 -0.058273569 0.0095562972 14672092
0.41485187 -0.055379607 0.007437238 14540761
0.42329422 -0.054496273 0.0030247159 15001055
0.4164063 -0.045159135 0.0086603751 14540504
0.4238548 -0.045362659 0.0042415522 14935263
0.43014291 -0.042296637 0.0011313559 14935263
0.41724995 -0.035342392 0.0089448337 14540248
0.42428562 -0.035133246 0.0053841518 14606041
0.43150008 -0.034239784 0.0018436073 14408661
0.41781825 -0.025205754 0.0096731624 14079698
0.42465529 -0.025108509 0.0064317039 14145748
0.43213335 -0.024881061 0.0020342639 13816783
0.4182857 -0.016509483 0.0097732591 14079698
0.42391673 -0.015143992 0.0067186598 14343127
0.43266666 -0.01420665 0.0019460091 13816784
0.42549062 -0.0054796017 0.0076787178 13948113
0.43233329 -0.0050556143 0.0028761113 13750734
0.42626926 0.0047808108 0.0078427019 13224390
0.43191668 0.0045204875 0.0029246693 13092804
0.42538723 0.014752651 0.0075056907 13092804
0.43172508 0.014793445 0.0025033639 12961218
0.42518041 0.024938662 0.0074467682 13618890
0.43129998 0.02487695 0.0025013336 13553098
0.41850001 0.03883376 0.0097782649 12698045
0.42460522 0.035277259 0.0064948965 13355719
0.43074992 0.033540197 0.0019960699 13487561
0.41713792 0.045960307 0.0088022817 13487561
0.42455232 0.044417325 0.004357697 13487561
0.43000001 0.04241807 0.00098722253 13882319
0.41635555 0.054913484 0.0080129709 13882319
0.42415687 0.055616669 0.0030087954 14079954
0.41649997 0.065355465 0.008031344 14342355
0.42294744 0.064876713 0.0032913079 14277075
0.41609088 0.075049281 0.0076262527 14606043
0.4222708 0.075201564 0.0028382447 14408920
0.41702077 0.084846772 0.0078084134 15132389
0.42162013 0.085256092 0.0030169361 15000803
0.34416667 0.098739944 0.0077708815 8947582
0.41828576 0.091622815 0.0089335013 15132391
0.42306578 0.095153153 0.0051041231 15132648
0.34293947 0.10294521 0.0079879602 10459792
0.42533335 0.10070128 0.005105284 14407900
0.39290908 -0.14110316 0.017957237 14539737
0.38783333 -0.1323563 0.018971266 13552588
0.39411765 -0.13526133 0.014495584 13815501
0.38583937 -0.12382612 0.01748905 14868959
0.39244056 -0.12530114 0.012263063 14539992
0.38591868 -0.11484089 0.016706619 15131616
0.39220458 -0.11484743 0.011413109 14935005
0.38582498 -0.10506322 0.017055899 15132127
0.39245102 -0.10466101 0.011866577 14869212
0.38670594 -0.095164075 0.017763119 15263969
0.3935478 -0.094848737 0.012581721 15000541
0.38824394 -0.085350402 0.018757267 15132127
0.39415362 -0.084920377 0.013666227 15066335
0.40000001 -0.081337862 0.010282419 14935007
0.38863638 -0.077620171 0.019335859 15394787
0.39427945 -0.07510896 0.015401279 15066592
0.4005833 -0.073990583 0.010960898 14869213
0.39512336 -0.065280281 0.0164735 15066593
0.40284616 -0.064645961 0.011728981 14540506
0.39628005 -0.055695362 0.017789714 15132388
0.40376061 -0.05483469 0.013229324 14672091
0.41033337 -0.051738586 0.010548048 14475481
0.39750004 -0.045774702 0.018902162 14869213
0.40423617 -0.045092847 0.01522828 14737626
0.41203848 -0.044123035 0.011406554 14540503
0.40443435 -0.034958456 0.016973499 14277332
0.41260529 -0.035274923 0.012127805 14145490
0.40506569 -0.025174506 0.017428394 14079954
0.41316989 -0.024848009 0.012476292 13882574
0.40622813 -0.015464441 0.017910533 14146004
0.41389838 -0.014578437 0.013044747 13948369
0.40809089 -0.0077693854 0.019174092 14211283
0.4143334 -0.0052054957 0.015436379 14211029
0.42082354 -0.0040918412 0.011338794 14013906
0.41517505 0.0051406329 0.016347282 13092547
0.42126676 0.0046719443 0.011715488 13093060
0.40900001 0.018324533 0.019131061 12961217
0.41484419 0.015054897 0.01585903 12763582
0.42090005 0.01540949 0.011312226 12895425
0.40760711 0.025653977 0.019098094 13027011
0.41429859 0.024986723 0.015110913 13289927
0.42061114 0.024807453 0.011249372 13224390
0.40666658 0.035331953 0.018425016 13092804
0.41446036 0.03495222 0.013600588 13224133
0.42040005 0.032612182 0.010806821 12828861
0.40686685 0.045072731 0.017022878 13684941
0.41302088 0.044626001 0.01232437 13355975
0.40610999 0.055011522 0.017162941 14277078
0.41221437 0.054908384 0.0120878 14013905
0.40643683 0.065071262 0.017140387 14803165
0.41188639 0.06482292 0.012097344 14342613
0.40710169 0.074801937 0.017254502 15198180
0.41158134 0.075109102 0.012190536 14934753
0.40821743 0.082734227 0.018386753 15329769
0.41251954 0.085431777 0.014045419 15198183
0.34266672 0.099047877 0.01067986 9013632
0.41515121 0.094682269 0.015306785 15198183
0.4201667 0.098334394 0.011128566 15198184
0.3413637 0.10432067 0.011316177 10130315
0.41700006 0.10052066 0.015919993 14078420
0.42100003 0.10066437 0.01131503 14538716
0.3864325 -0.14199862 0.026525458 14934496
0.39088887 -0.14221977 0.02072325 13683915
0.37828574 -0.13106878 0.028446019 15064801
0.38411236 -0.13530895 0.024775041 14473432
0.39000002 -0.13864921 0.020068325 14934238
0.3768943 -0.12459712 0.026746515 15329254
0.38123071 -0.1255084 0.0218578 15131620
0.37633654 -0.1150957 0.026525728 15460841
0.38099995 -0.11479013 0.021556228 15526632
0.37673664 -0.10509849 0.026869705 15263972
0.38127664 -0.1048772 0.021858312 15461094
0.37691554 -0.095443919 0.027716205 15198435
0.38228175 -0.09459465 0.022816697 15263714
0.37782982 -0.085728817 0.028567368 15329765
0.3832936 -0.084665589 0.023799241 15066591
0.37888888 -0.076945662 0.029154841 15066850
0.38413939 -0.074783199 0.024612116 15066591
0.39000002 -0.070630938 0.020068325 15066590
0.38490358 -0.065175876 0.025574502 15066592
0.39080957 -0.064611696 0.020544741 15461605
0.38537863 -0.055289902 0.026139362 15000542
0.39185721 -0.054099675 0.021288643 15000545
0.3865734 -0.045230076 0.02719656 14868955
0.39279309 -0.044735841 0.022187633 14803420
0.38733968 -0.035628643 0.028122693 14540247
0.39412171 -0.035032813 0.023409875 14540247
0.40000001 -0.031240074 0.020582898 14737626
0.38828579 -0.026266025 0.029101225 14211282
0.394779 -0.024588075 0.024704747 14079698
0.40015391 -0.024513196 0.020734878 14079955
0.39513096 -0.015197878 0.026376102 14014162
0.40119445 -0.014058762 0.021842245 13948369
0.39569813 -0.0054783872 0.027590331 13816526
0.40409535 -0.0046537379 0.022643922 13882319
0.39679071 0.004881938 0.028277649 12763838
0.40432376 0.0046813223 0.023895822 13092803
0.41053334 0.0053234845 0.020419801 13157826
0.39698115 0.015296353 0.027910547 12565689
0.40386856 0.014980914 0.02287101 12631739
0.41000003 0.010690798 0.020137653 12039345
0.39618185 0.025166897 0.027335241 13355977
0.40258488 0.024824567 0.022451226 13092804
0.39570269 0.035366286 0.026925601 13618891
0.40154344 0.034562171 0.022191059 13224391
0.39616475 0.045050997 0.026112093 14079442
0.40055546 0.045034114 0.021339975 13750733
0.39648706 0.054868974 0.02669004 14671839
0.40075675 0.055279572 0.02191313 14474459
0.39745998 0.06418357 0.027762275 15066597
0.40131748 0.065522425 0.023076804 15132130
0.39875001 0.071657792 0.029503113 15592941
0.40205675 0.075260885 0.025117362 15395559
0.40476644 0.085151315 0.024897555 15329766
0.40686503 0.094453029 0.026024679 15198183
0.41131997 0.095810272 0.021202948 15066596
0.40700001 0.10065105 0.027611487 14408155
0.41200003 0.1004414 0.022164885 14407640
0.37891665 -0.14173163 0.038938988 15460839
0.38193089 -0.14347202 0.034472976 14473688
0.37632889 -0.13443656 0.036052678 14473431
0.3811053 -0.13849132 0.032614242 14934496
0.36899999 -0.12297706 0.039719779 15329512
0.37209731 -0.12496262 0.035021774 15197669
0.36899999 -0.11779404 0.039719779 15461098
0.37178683 -0.11482236 0.035037629 15658219
0.37191156 -0.10493896 0.035240278 15198179
0.37230748 -0.094914153 0.035273671 15395301
0.37335506 -0.084940724 0.03525994 15000801
0.37457862 -0.075124718 0.035085302 15066592
0.37551937 -0.065068893 0.035091363 15066592
0.38027278 -0.064052001 0.03033136 15328994
0.37641126 -0.055092998 0.035969555 15066592
0.38069996 -0.054566693 0.031115551 15066335
0.37696013 -0.045446347 0.03718156 14935006
0.38176924 -0.044462793 0.032428056 15000542
0.37792307 -0.035401359 0.038142972 14540505
0.38243389 -0.034693774 0.033347894 14540248
0.37831253 -0.025505019 0.038922455 14211284
0.38314688 -0.024794312 0.034106717 14211283
0.37874997 -0.017609648 0.039660811 14276566
0.38461983 -0.015285891 0.034899157 14079698
0.39033338 -0.013071442 0.030339917 14079698
0.38468865 -0.0053977431 0.035690844 13487561
0.39119226 -0.0048718089 0.030871348 13487561
0.38500005 0.0046132361 0.036233563 13027011
0.39197302 0.0050633522 0.031377114 12763838
0.38600004 0.015029086 0.036456957 13092806
0.39204881 0.014541667 0.031542301 12697532
0.38586399 0.02505642 0.03600755 13553868
0.39130002 0.024553163 0.031064887 13290440
0.38646165 0.035001565 0.036349926 14079957
0.39107907 0.035278108 0.031349082 13816527
0.38744 0.044762313 0.037091095 14408666
0.39137033 0.045377795 0.032046292 14277335
0.38838467 0.054348465 0.038027868 14803682
0.39175996 0.055326473 0.033090889 14935266
0.38900003 0.060532853 0.03883709 15330022
0.39302725 0.065055482 0.034783527 15329766
0.39555955 0.074807577 0.03544832 15461352
0.40000001 0.078600481 0.031070655 15658734
0.39725003 0.084537923 0.037175804 15198181
0.40066671 0.085688934 0.03212798 15198183
0.39808336 0.092584431 0.0385384 15132388
0.40168151 0.095312178 0.034094796 15132905
0.40261903 0.10138579 0.035611898 13553362
0.37781441 -0.14342865 0.045123924 14868190
0.38000005 -0.14636222 0.041595742 14144470
0.36857146 -0.13090771 0.04830097 15723244
0.37368479 -0.13510291 0.044380639 14539226
0.36758342 -0.12452149 0.045471609 15263206
0.37025002 -0.12902759 0.04245374 16052719
0.36743683 -0.11499681 0.045111693 15526890
0.36766669 -0.10498762 0.04559518 15329509
0.36999997 -0.10531747 0.040693592 15329765
0.36760947 -0.094974764 0.045648642 15132385
0.36999997 -0.094798677 0.040765774 15198179
0.36761707 -0.085070968 0.046209317 14869213
0.37033331 -0.085216761 0.041423194 14869471
0.36774534 -0.075208798 0.046532996 15001055
0.37057886 -0.074692361 0.041715313 15132386
0.36811548 -0.06512031 0.047565471 15001057
0.37089053 -0.06491594 0.042382695 15000799
0.36832148 -0.055372138 0.048190646 14869472
0.37146905 -0.054862212 0.043050319 14869213
0.36847827 -0.047285955 0.049076639 15000545
0.37194306 -0.044716686 0.044195741 14869212
0.36900005 -0.033858009 0.049221974 14014162
0.37258092 -0.035047721 0.044894069 14474713
0.37358677 -0.024959337 0.044931989 14211286
0.37483072 -0.014978133 0.045233425 14079701
0.38000003 -0.012331126 0.040014252 13553354
0.37592685 -0.0052221278 0.045645397 13487820
0.38045007 -0.0048192395 0.040461965 13421769
0.3763155 0.0049004708 0.045848042 13224136
0.38057694 0.0053667957 0.040622696 13421515
0.3771278 0.014785497 0.04639136 13421772
0.38092855 0.015771313 0.041426517 13224393
0.37792432 0.024655398 0.047286157 14145495
0.38121206 0.02535522 0.042397317 13948115
0.37853655 0.033992007 0.048288506 14277081
0.38163733 0.035282969 0.043479174 14145495
0.37900001 0.040714264 0.049446844 14671840
0.38275003 0.045047693 0.045073245 14606046
0.38487387 0.055006351 0.045067467 15066597
0.38725248 0.064361565 0.045565885 15263975
0.39077279 0.067616113 0.041438695 15461352
0.38868752 0.073755555 0.04786627 15461352
0.39149344 0.075610012 0.043273058 15263972
0.38900003 0.081174389 0.049157862 14804195
0.39255041 0.085053608 0.04489189 15198182
0.39465764 0.094703034 0.045123678 15132135
0.40000001 0.098920524 0.040247448 14803171
0.39700001 0.10142913 0.04726778 14407903
0.40161541 0.1031916 0.043229111 12893892
0.37638476 -0.14458162 0.055527098 14605277
0.36788636 -0.13204125 0.055899516 15065828
0.37150002 -0.13691568 0.054982103 14012626
0.36560637 -0.12484545 0.055185121 15000549
0.365188 -0.11486658 0.055123229 15197926
0.3651343 -0.10494471 0.055048168 14934754
0.36454895 -0.094971932 0.055084486 15066083
0.36477023 -0.085016266 0.05494903 14935008
0.36495763 -0.075101323 0.055092171 14935007
0.36537108 -0.065065429 0.05515942 14803677
0.3653743 -0.054912943 0.055233981 14737885
0.36589259 -0.044747744 0.055033077 14803422
0.36670172 -0.034854963 0.054884434 14343128
0.36699197 -0.025106173 0.056118563 14211288
0.37038085 -0.024528719 0.050726965 14145494
0.36751345 -0.015351209 0.056388095 14013909
0.37063417 -0.014120703 0.051512957 14013909
0.36810783 -0.0053152023 0.057293788 13421772
0.37100017 -0.0048310091 0.052596986 13421515
0.36859474 0.0038288324 0.058449075 12961478
0.37132695 0.0052632778 0.053897221 13158857
0.37220848 0.015024297 0.055016495 13684945
0.37409097 0.024867881 0.054926887 14014423
0.37638155 0.035183236 0.054765292 14277081
0.37794113 0.044545025 0.055988658 14540253
0.38031825 0.047432825 0.052066542 14671839
0.37865224 0.05280859 0.05825562 15000804
0.3813906 0.055345476 0.054025192 15132390
0.38384897 0.064850554 0.055024654 15395561
0.38646683 0.075071022 0.05504977 15395561
0.38833645 0.084442042 0.055450235 15263720
0.39017648 0.08792159 0.051240355 15461356
0.38873813 0.09271279 0.05755236 15329770
0.3913919 0.095866337 0.053665962 15198698
0.39428198 0.10368703 0.055294354 12565440
0.38000005 -0.15085252 0.064922683 10920867
0.37613985 -0.14528431 0.065083608 14342361
0.36680323 -0.13337809 0.064694554 14408153
0.37067741 -0.13849871 0.065317228 14144723
0.36428246 -0.12484621 0.06505391 14868963
0.36469322 -0.11496575 0.064967878 14934756
0.36399955 -0.10505419 0.065231569 14605533
0.36367106 -0.094942369 0.065017186 14539996
0.36305135 -0.085025497 0.065097548 14605787
0.36282623 -0.075053118 0.064956106 14540251
0.36297885 -0.064885661 0.064985693 14737374
0.36327752 -0.054736104 0.065039471 14605789
0.36385575 -0.045019109 0.065074794 14342874
0.36483741 -0.035274886 0.064920567 13619407
0.36524281 -0.025104426 0.064967632 13356237
0.36534366 -0.014784998 0.064905755 13421774
0.36636385 -0.0050257319 0.06473466 13027015
0.36738908 0.0048522335 0.064915568 13027016
0.36847606 0.01434218 0.066173024 13487566
0.37016121 0.017032398 0.06223496 13684945
0.36900002 0.02085158 0.06865827 13619151
0.37110344 0.025164235 0.06463369 14014166
0.37334645 0.035038598 0.065092057 14211288
0.37543195 0.045049828 0.064846046 14606046
0.37774393 0.054856259 0.065082476 14935011
0.38000003 0.059428874 0.060771275 15132391
0.37850007 0.062148798 0.067323469 15198183
0.38114604 0.066244341 0.064182788 15263977
0.38330376 0.07501509 0.065004773 15263976
0.38555536 0.084917828 0.064902902 15198183
0.38770187 0.094872817 0.065030672 15198441
0.39000002 0.099642999 0.061153188 14474977
0.38900003 0.1004803 0.068099514 14869222
0.39104259 0.10283364 0.064117506 12962001
0.37833333 -0.15044391 0.077035576 13684430
0.38025004 -0.15165146 0.072976649 11447212
0.37531003 -0.14501838 0.07491184 14079445
0.36727694 -0.13340545 0.075274438 14473690
0.37071431 -0.13831495 0.07494086 13749966
0.36494207 -0.12497618 0.074978568 14737633
0.36469126 -0.11526555 0.07466203 15066342
0.36399963 -0.1051202 0.074971072 14605534
0.36381799 -0.095274918 0.07493414 14342361
0.36236107 -0.085139133 0.075058602 14211030
0.36211082 -0.074904121 0.075007133 14211288
0.36299983 -0.064891227 0.075189941 14145496
0.36327189 -0.054832585 0.074972428 14277083
0.3651 -0.045041181 0.074867383 13422801
0.36715701 -0.034863707 0.075037993 8356740
0.3670159 -0.025041902 0.07463558 8685191
0.36603597 -0.014783487 0.074831173 12237500
0.36518976 -0.0050106663 0.074787647 12435391
0.36671364 0.0048103817 0.075067848 12698563
0.36803034 0.015197888 0.074939065 13290187
0.36887503 0.021492392 0.076082237 13816531
0.37063545 0.026152449 0.07476487 13882580
0.37212101 0.034943599 0.074942857 13948373
0.37417451 0.044797193 0.07487575 14145752
0.37617308 0.054621529 0.075082235 14671839
0.37813386 0.064382821 0.075430468 14935011
0.38020006 0.068717018 0.071957909 15198440
0.37899998 0.070836261 0.078592859 15000804
0.38112292 0.075315319 0.074707083 15132390
0.38328901 0.084963061 0.074941278 15066342
0.38563135 0.094448164 0.07500425 15001063
0.38899997 0.1007535 0.074656218 14473952
0.39093339 0.10348272 0.075179815 8156796
0.37889999 -0.15066925 0.085580572 13487563
0.38036367 -0.15246604 0.085302718 12171450
0.37436464 -0.1445563 0.08496853 13684688
0.36753327 -0.13333283 0.084989771 14013654
0.37069234 -0.13823891 0.085116245 13158344
0.36449999 -0.12482666 0.084825002 14605790
0.36409414 -0.11497709 0.084962636 15000290
0.36399952 -0.10512021 0.08477056 14737374
0.36393392 -0.095117517 0.08473897 14605788
0.36294484 -0.085089937 0.084983625 14408667
0.36289033 -0.075136542 0.085123263 14342617
0.36324227 -0.064932965 0.085020527 14539997
0.36407834 -0.054757062 0.084923513 14540255
0.36686352 -0.044989001 0.085044563 13355981
0.36771655 -0.035100155 0.084708765 2699566
0.3673805 -0.025183564 0.084756181 2830383
0.36727959 -0.015033718 0.08495333 11251117
0.36594638 -0.0049625365 0.085152403 12303549
0.36657277 0.0047674584 0.085089132 12632771
0.36810413 0.015202303 0.084865071 13027786
0.36900008 0.021427466 0.084639229 13685458
0.37057304 0.026256533 0.085108303 13751251
0.37226951 0.035045911 0.085026793 13816787
0.37414074 0.044734668 0.08500047 14145752
0.37560475 0.054685388 0.084990747 14474716
0.37776005 0.064681776 0.084880225 14671839
0.37899986 0.071687646 0.085385017 14737889
0.38037956 0.076694682 0.084622525 14671840
0.38172731 0.085022256 0.084875405 14803427
0.38478839 0.094897993 0.085131362 14540256
0.38835296 0.10066604 0.083833195 11973561
0.39042857 0.10288747 0.081718683 6117726
0.37816668 -0.15067299 0.091610759 13224137
0.38000003 -0.15021709 0.099616572 11907506
0.37495124 -0.14482628 0.09416312 13421516
0.3675738 -0.1326258 0.094823368 13882068
0.37072977 -0.13761662 0.095263265 12697793
0.36547574 -0.12476519 0.094999738 13948118
0.36427468 -0.11497606 0.095072508 14408667
0.36383983 -0.10507438 0.094954148 14474203
0.36345434 -0.095180623 0.094853744 14277081
0.3625524 -0.08509443 0.094907068 14211288
0.3624568 -0.074911483 0.095185608 14408412
0.36299309 -0.064989254 0.094951503 14539998
0.36416644 -0.054867532 0.09503825 14671841
0.36690304 -0.044966992 0.095177762 12566465
0.3663289 -0.034973878 0.095056862 2567724
0.36581853 -0.025197035 0.094969466 2698540
0.36719477 -0.014925476 0.094968662 11053481
0.36615458 -0.0050888108 0.095045872 12238011
0.36677715 0.0049531269 0.095032476 12566977
0.36829281 0.015111816 0.095118694 13224908
0.36899999 0.021036686 0.094264843 13422543
0.37066942 0.025823189 0.095080994 13751507
0.37276044 0.035031475 0.095103733 13685201
0.37422329 0.044803023 0.095035605 14146008
0.37582099 0.054739658 0.094916321 14540254
0.37791625 0.064707145 0.095089845 14540255
0.37883991 0.071782589 0.094611816 14606047
0.38043231 0.077005409 0.095240235 14540511
0.38130251 0.084843561 0.094933696 14540512
0.38445464 0.094345123 0.094471686 14145244
0.37697443 -0.14273094 0.10478003 11843512
0.38000003 -0.14799312 0.10228533 11908537
0.36866668 -0.13164088 0.10124877 12698050
0.3744182 -0.13569872 0.10625498 12172220
0.36745456 -0.12416504 0.10431723 13421774
0.37064704 -0.12809502 0.10788424 13027016
0.36556417 -0.11486035 0.10510525 13750738
0.36479494 -0.10508448 0.10496361 13816532
0.36414978 -0.094813265 0.10468438 14013653
0.3632558 -0.085065313 0.10514364 13750481
0.3627952 -0.075047031 0.1053028 14013652
0.36303613 -0.064785153 0.10514855 14277083
0.36405554 -0.054883622 0.10520582 14474205
0.36623615 -0.044790447 0.10514398 11053226
0.36386561 -0.034857258 0.10501803 2304809
0.36332387 -0.024942782 0.10492286 2501419
0.36697793 -0.014708454 0.10491595 10527137
0.36671239 -0.0050318986 0.10514963 12238011
0.36704963 0.0047849882 0.10517745 12566976
0.36830875 0.015312512 0.10502142 13093579
0.36899999 0.02085158 0.10364362 13093579
0.37074125 0.025577031 0.10515703 13554130
0.37295312 0.034947306 0.10499834 13816788
0.37438032 0.044836324 0.1051488 14014166
0.37605682 0.054645911 0.1048324 14408668
0.37809461 0.064623602 0.10512295 14539998
0.37899989 0.071868688 0.10379065 14539998
0.38016856 0.076477535 0.10550985 14408926
0.38141194 0.084861465 0.10506669 14278111
0.38405409 0.092197508 0.10624912 13817305
0.37800002 -0.14101988 0.11103848 10198689
0.37544444 -0.13465631 0.11191817 11251379
0.36866665 -0.12207549 0.1111741 12764101
0.37131116 -0.1251585 0.11525729 12303807
0.3682678 -0.1148823 0.11258391 12632772
0.37080646 -0.1152508 0.11714635 11975098
0.36807901 -0.10475618 0.11362609 12567236
0.37012896 -0.10525429 0.11832793 12172991
0.3674632 -0.094681218 0.11430102 12632516
0.37019998 -0.097291708 0.11906056 12106943
0.36619806 -0.085018679 0.11488308 12895430
0.36579832 -0.075097345 0.11520836 13093065
0.36489245 -0.064950645 0.11499109 13553359
0.36493963 -0.054920997 0.11530866 13816788
0.36641693 -0.045071028 0.11499295 10263966
0.36176375 -0.034664795 0.11504536 2041637
0.36175823 -0.025050091 0.11495191 2172709
0.3672224 -0.01495604 0.1150971 9869465
0.36700028 -0.0050360444 0.11510996 12106426
0.36743301 0.0049170582 0.11517001 12369856
0.36838788 0.014381438 0.11462384 12962506
0.37 0.018694527 0.11826453 13290960
0.37085363 0.024882 0.11505207 13290958
0.37303996 0.035162266 0.11505134 13487824
0.37484178 0.044725772 0.11491667 13882582
0.37740317 0.054971382 0.11491705 14014424
0.37874678 0.06332314 0.11445218 14211289
0.38015002 0.068137154 0.11580902 14211288
0.38093415 0.075032964 0.11502213 14277339
0.38207483 0.084592901 0.11514913 14343391
0.38516676 0.092097692 0.11427043 13553106
0.37380004 -0.12238499 0.12170751 10593705
0.37425005 -0.11733612 0.12149175 11449012
0.37099996 -0.10248072 0.12157573 10726059
0.3708801 -0.09458743 0.12217958 11316913
0.36899999 -0.082672298 0.12164776 12304065
0.37105983 -0.085763678 0.12448886 11711414
0.36846799 -0.07476116 0.1239693 11843513
0.37 -0.070906632 0.12904361 9935515
0.3678354 -0.064972341 0.12361138 12436163
0.37035713 -0.065493673 0.12842555 11713209
0.36726815 -0.054737967 0.12460328 12895943
0.37 -0.056951564 0.1295248 11975355
0.3675335 -0.045385528 0.12502402 9474707
0.3583084 -0.033229508 0.12644498 2172965
0.36123452 -0.03612268 0.12314523 2106917
0.35847992 -0.02700584 0.12665272 2238502
0.36077788 -0.023742789 0.12405268 2107174
0.36721718 -0.014754337 0.12493759 9738135
0.36785957 -0.0050472184 0.12485594 11317424
0.36824301 0.0043578157 0.12420289 11778233
0.37026307 0.0069188671 0.12872484 11317682
0.36881262 0.012828338 0.12207343 12501955
0.37076211 0.015723845 0.12598446 12107455
0.37240648 0.025068635 0.12497652 12764871
0.37457153 0.035130106 0.1250293 13027272
0.37682128 0.045243494 0.12479424 13619666
0.37867033 0.054190043 0.12418699 14014168
0.38003579 0.057920076 0.12768246 13685205
0.37900001 0.060810376 0.12135811 13948118
0.38080376 0.065497927 0.12507775 13816789
0.38173905 0.075036339 0.12487438 13422287
0.38323808 0.084966451 0.12499332 13488852
0.38469237 0.090597562 0.12634215 13357012
0.37179163 -0.063591056 0.13141225 10331043
0.37376064 -0.054456204 0.13449056 10790825
0.38100001 -0.058743827 0.13912354 11974322
0.36802781 -0.042962804 0.13352409 7632243
0.37071657 -0.046214256 0.13575861 9540756
0.35840002 -0.033446144 0.13087107 1713441
0.36604923 -0.03542966 0.13551527 1449497
0.37042856 -0.032212146 0.13947551 791821
0.36511597 -0.024385273 0.13474956 1514780
0.37083337 -0.027226873 0.13975179 725774
0.36759529 -0.016049143 0.13407274 8948364
0.37053847 -0.012112275 0.13666153 9869468
0.36899999 -0.0067294566 0.13079272 10725032
0.37147209 -0.0049689151 0.13546459 10199203
0.37272573 0.0050217877 0.13497573 10067361
0.37362155 0.014790822 0.13382223 10659753
0.37659585 0.024953485 0.13468178 11317426
0.38000003 0.029479455 0.13920319 9606810
0.3776716 0.034794182 0.13332602 12171965
0.3806451 0.035367772 0.13824694 10856877
0.37844902 0.044494197 0.13200913 12895944
0.38103428 0.045399241 0.13700083 12106941
0.37900004 0.051583022 0.13040802 13159374
0.38162744 0.054947436 0.13519794 12765387
0.3833234 0.064693473 0.13502681 12830666
0.38531247 0.074845038 0.13494556 12435652
0.38643864 0.084842801 0.1349313 12435651
0.38756004 0.091216326 0.13448185 12434883
0.36406249 -0.04100059 0.14697492 4670781
0.37025002 -0.042027462 0.14072353 7303022
0.36525741 -0.03550604 0.14618449 857359
0.37038305 -0.033915531 0.14194275 791822
0.36522022 -0.024855362 0.14670087 856846
0.3705366 -0.027024932 0.14272755 725772
0.36570001 -0.019057993 0.14200206 5390402
0.37166667 -0.011478574 0.14064562 9671060
0.37393337 -0.0046628243 0.14062819 10856619
0.37525004 0.0050177895 0.14064708 8619656
0.377 0.011154165 0.14031062 8356485
0.37900004 0.025261397 0.14016773 10922155
0.38033333 0.029208785 0.14095815 9079694
0.38137501 0.034667302 0.1405994 8750475
0.38218182 0.044857036 0.14044981 10264994
0.38436365 0.056819271 0.14084212 11186613
0.38568756 0.065192945 0.14100449 11712441
0.38830769 0.076001599 0.14116314 11580601
0.38866672 0.082923412 0.14116496 11251892
0.36128578 -0.041301802 0.155048 1580567
0.36160675 -0.035150338 0.15467072 1120018
0.36109245 -0.024859924 0.15428668 1120018
0.36153334 -0.018390043 0.15520708 1710103
0.34692857 -0.041307252 0.16833146 2370595
0.35654998 -0.04095041 0.16624148 594189
0.36100003 -0.040870778 0.16055413 988944
0.34762967 -0.035195585 0.16871074 1909788
0.35323751 -0.034815937 0.16697422 659980
0.36050007 -0.03659641 0.16075346 1184782
0.34797433 -0.025684224 0.16921309 1975326
0.35362822 -0.025321728 0.16754003 856847
0.35687503 -0.019517642 0.16936649 1447702
0.36100003 -0.019320538 0.16816011 855829
0.33872727 -0.041413132 0.17912237 2436133
0.34277049 -0.04158761 0.17405479 2567461
0.33858335 -0.038399097 0.17892003 2238753
0.34314835 -0.035165045 0.17345752 2107166
0.3435207 -0.025240863 0.17303522 2040605
0.34300002 -0.019963127 0.17342585 1647648
0.35800001 -0.019159978 0.17011498 1447446
0.3354091 -0.041488577 0.18390633 2238754
0.33380267 -0.035412401 0.18708552 1843995
0.33362785 -0.026554873 0.18730345 1843739
0.74625003 -0.12641555 0.26900196 13750990
0.78600001 -0.15062869 0.27873057 8750464
0.77311116 -0.14353544 0.27646977 8947590
0.78133339 -0.14790525 0.27798948 8684672
0.74774998 -0.13104501 0.277419 12500155
0.75392312 -0.13403298 0.27502263 12104885
0.76316673 -0.13910657 0.27598599 11578798
0.74625731 -0.12479439 0.27524424 13750733
0.74758339 -0.11672134 0.27735797 13750735
0.75000006 -0.11154068 0.27854729 13882064
0.78737497 -0.15158483 0.28474519 8618878
0.76900005 -0.1419701 0.28440365 9276302
0.77712512 -0.14642915 0.28490981 8618370
0.78000003 -0.14765285 0.28116786 8684672
0.74760002 -0.13101873 0.28524131 12697790
0.75536352 -0.13511574 0.28498375 12500155
0.76140004 -0.13878456 0.2851592 12236986
0.74647063 -0.12449957 0.28542554 13619149
0.74785286 -0.11447969 0.28497383 13882321
0.75000006 -0.11037016 0.28264409 13882066
0.74893737 -0.10583038 0.2868458 13948114
0.75000006 -0.10409959 0.28302032 13882321
0.74900001 -0.098825753 0.28314391 13882576
0.75005269 -0.096885026 0.28682271 13882578
0.75000006 -0.089301005 0.28966713 13816530
0.74900001 0.077831559 0.28884253 12829888
0.74900001 0.081484519 0.28752747 13027011
0.75046158 0.085654058 0.28727677 13421769
0.75523531 0.094372004 0.28742391 13684941
0.76320004 0.1042404 0.28904289 12500921
0.78740007 -0.150897 0.29489762 8553087
0.77357143 -0.14410996 0.29437852 8618625
0.78125006 -0.14788948 0.29533741 8552832
0.74716669 -0.13094278 0.2946938 13158598
0.7561667 -0.13517846 0.29558378 12500670
0.76380002 -0.13922203 0.29499698 11776690
0.7455678 -0.12462632 0.29535934 13553356
0.74573535 -0.11487635 0.29515409 14145494
0.74743235 -0.10573312 0.29496223 14079445
0.74885708 -0.097679533 0.29698902 13948116
0.75014293 -0.094000384 0.29407018 13948116
0.75080001 -0.089396261 0.29524809 13816530
0.74900001 0.076892219 0.29203627 12961476
0.75011122 0.075167127 0.29634422 13158600
0.7506538 0.084730141 0.29498908 13224136
0.75468576 0.094797574 0.29485658 13487308
0.75900006 0.10152532 0.29491997 14013391
0.76383328 0.10486128 0.29470435 12039856
0.77000004 0.10840445 0.29829288 9934991
0.7747274 0.11253595 0.29624984 10329750
0.78320003 0.1183323 0.29735866 10001042
0.78850007 0.12300786 0.29899901 10066834
0.79000002 0.12601538 0.29956782 10198420
0.78875005 -0.1511557 0.30371088 8553343
0.7755 -0.14468434 0.30466175 8487039
0.78440011 -0.14848576 0.30479276 8553087
0.74663645 -0.13164535 0.30457509 12961221
0.75550002 -0.13564785 0.30387723 12303034
0.76200008 -0.13889392 0.30393085 11974069
0.74529052 -0.12464958 0.30512682 13684944
0.74500006 -0.11486653 0.30517662 13816786
0.74562877 -0.10523633 0.3046844 14079700
0.74679166 -0.096785687 0.30503374 13816527
0.75000006 -0.089301005 0.30020171 13684940
0.74880004 0.067731522 0.30585581 12961221
0.74888891 0.071732849 0.30696389 13092550
0.75035727 0.075715557 0.30404621 13158343
0.7523334 0.08458858 0.30505013 13355723
0.75509363 0.09482149 0.30489236 13750224
0.75900006 0.10152532 0.30558094 14013139
0.76325011 0.10448008 0.30490556 12565691
0.77160007 0.1086297 0.30523768 10000273
0.77570003 0.11211494 0.30413204 10329493
0.78375006 0.11699283 0.30522722 10132371
0.78823078 0.12175973 0.30471671 10132886
0.79100007 0.1267461 0.30550081 10198422
0.77625 -0.14512578 0.31343544 8420733
0.78640002 -0.14886436 0.31477195 8487040
0.74785721 -0.13156477 0.31384924 12697792
0.75544441 -0.13534445 0.3153429 12368829
0.76200002 -0.13889392 0.31511655 11579313
0.74594462 -0.12461938 0.31516889 13684943
0.74500018 -0.11486652 0.314769 13750735
0.7450003 -0.10527422 0.31476891 13948115
0.74508333 -0.096564621 0.31480366 13619151
0.74850005 0.068580285 0.31361756 13027014
0.7484687 0.074491337 0.31497359 13158600
0.75000006 0.078667045 0.31132156 13290187
0.74853331 0.084705457 0.31748784 13224652
0.75104558 0.085597433 0.31300461 13290700
0.74900001 0.091420583 0.31908908 13224395
0.75381088 0.095208265 0.31474122 13619666
0.75772727 0.10216167 0.31522557 14079448
0.76337498 0.10546228 0.31425887 11579312
0.77200001 0.10868602 0.31171849 9869205
0.77580005 0.11140189 0.3134315 9934740
0.7856667 0.11659256 0.31493601 10132373
0.78900003 0.12031468 0.31304157 10198166
0.79152185 0.12473025 0.31545237 10198166
0.7762 -0.14511642 0.32522458 8487040
0.78633338 -0.14885174 0.32486618 8552320
0.74733335 -0.13097198 0.32450238 12829637
0.75475001 -0.13492629 0.32506523 11974327
0.76300001 -0.13907619 0.32594487 10460832
0.74650002 -0.12471124 0.32501438 13422029
0.74588019 -0.11500215 0.32474491 13685201
0.74540013 -0.10533073 0.32453677 13487566
0.74535006 -0.096599102 0.32451493 13750738
0.74800009 0.068534471 0.32479182 13092807
0.74783307 0.074646026 0.32471943 13290442
0.74788886 0.085157864 0.32474485 13290443
0.74863642 0.092173211 0.32466966 13487822
0.75187504 0.097054735 0.32471251 13487822
0.75718188 0.10208912 0.32483125 13816530
0.76160014 0.10543893 0.32445925 11119017
0.77400005 0.11077954 0.32067984 9737107
0.78685719 0.11656769 0.32442555 10132374
0.79000002 0.11861777 0.32638419 10066837
0.79203695 0.12483133 0.32519877 10066837
0.78866673 -0.15113972 0.3378334 8355452
0.77442867 -0.14452741 0.33535433 8421503
0.78285712 -0.14819372 0.33533722 8355453
0.74833328 -0.13114724 0.33282074 12960966
0.75510001 -0.13481203 0.3349438 12105914
0.76200002 -0.13889392 0.33533329 10658210
0.74718511 -0.1244042 0.33373591 13027273
0.75050008 -0.12889096 0.33817649 12369086
0.74660009 -0.11511324 0.33379829 13027529
0.74662852 -0.1053796 0.33456123 12698822
0.74647838 -0.096404284 0.3338967 12764100
0.74860007 0.075950064 0.33223814 12830150
0.75066668 0.077565037 0.33708048 12369343
0.74900001 0.082215115 0.33180138 12633026
0.75158834 0.08552701 0.33551258 12764357
0.75420833 0.095078349 0.33499441 12830920
0.75850004 0.10145844 0.33290297 13684944
0.76128572 0.10335975 0.33450612 13224392
0.77149999 0.10861562 0.33680254 9803408
0.77657145 0.11192881 0.33524618 10132373
0.78620005 0.11676268 0.33585379 10066580
0.79000002 0.11861777 0.3319324 10066580
0.78900003 0.12031468 0.33705342 10066579
0.79100001 0.12483051 0.33487788 10132373
0.78820008 -0.1510503 0.34501594 8224378
0.77400005 -0.14367174 0.34449503 8684674
0.78250003 -0.14812611 0.34527069 8289914
0.75666672 -0.13261001 0.34213647 11250863
0.76349998 -0.13678926 0.34462658 10790053
0.74900001 -0.12162025 0.34013012 12369856
0.75654548 -0.12501621 0.34533155 11777206
0.76050007 -0.12704885 0.34891313 11579570
0.74900001 -0.11460656 0.34013012 12106684
0.75663638 -0.11537141 0.34617686 11514290
0.75625008 -0.10509265 0.34608126 11448755
0.74900001 -0.094442196 0.34013012 11974328
0.75560004 -0.096690252 0.3452515 11777463
0.76000005 -0.096718788 0.34868374 10922409
0.75520003 0.076178931 0.34507161 11316655
0.75661111 0.084972121 0.34418005 11776949
0.76050007 0.088373967 0.34891313 10527652
0.75800002 0.093900561 0.34224576 12172734
0.76188898 0.094978169 0.3469747 11909305
0.76420003 0.10150594 0.34345791 12500672
0.77400005 0.10806221 0.34514287 9671572
0.778 0.11135204 0.34328336 10000789
0.78606248 0.11596105 0.3449991 10066580
0.78900003 0.12031468 0.34444165 9935251
0.79159105 0.12500905 0.34515163 10001300
0.78900003 -0.1512036 0.35182989 8092792
0.77700001 -0.14344701 0.3510263 9408399
0.78537506 -0.14660555 0.35526931 8618880
0.79000002 -0.14954583 0.35874873 8158585
0.77362508 -0.1362565 0.35493863 10922154
0.76499999 -0.12512073 0.3527686 10921640
0.7713334 -0.12314131 0.3574948 10461088
0.76316667 -0.11498746 0.3519232 11118762
0.77160007 -0.11535515 0.35761839 11053224
0.76416665 -0.10440104 0.35238433 10987432
0.7713334 -0.10628442 0.3574948 10790824
0.76600003 -0.097482353 0.35322973 10527137
0.77200001 -0.098245919 0.35780379 10001306
0.75800002 0.075282849 0.35207561 9540241
0.76033336 0.077971205 0.3553634 9277066
0.75900006 0.081091747 0.35000178 11184810
0.76373327 0.084401205 0.35445306 10526879
0.77100003 0.088691063 0.35914525 9145480
0.76720005 0.092921928 0.35342631 11909048
0.77255559 0.096908279 0.35625559 11053739
0.77542865 0.10424589 0.35316676 10658979
0.78250003 0.10741708 0.3580901 9737617
0.78730011 0.11453122 0.35475722 9934994
0.79000002 0.11861777 0.35782403 10066580
0.79230773 0.12453309 0.35515922 10000787
0.78840005 -0.14444527 0.36208242 8882053
0.79277778 -0.14615567 0.366198 9013894
0.77900004 -0.13469799 0.36104813 10461089
0.78633332 -0.13555528 0.36588201 9605778
0.79000002 -0.1347506 0.36984515 9211020
0.77640003 -0.12516527 0.36166066 10526879
0.78420007 -0.12458686 0.36712986 9408399
0.77516669 -0.11498201 0.36108616 10461087
0.78260005 -0.11516899 0.36638081 9211020
0.77520001 -0.10500388 0.36110169 10000789
0.7828334 -0.10511994 0.36649004 9013894
0.77500004 -0.098627709 0.36100852 10461340
0.78400004 -0.098855384 0.36703622 9803410
0.76700002 0.079253122 0.3608731 9343627
0.77322227 0.085532449 0.36339876 9408908
0.78000003 0.08790037 0.36881557 8948869
0.77550006 0.093144357 0.36184737 9934999
0.78242862 0.096024819 0.36682528 9671823
0.77900004 0.10055325 0.36104813 9474443
0.78627777 0.10589378 0.36544701 9803665
0.78881818 0.11290085 0.36358428 10001044
0.79020005 0.11630521 0.36611584 9935251
0.79229635 0.12473585 0.36494255 10001044
0.78900003 -0.12349766 0.37122408 9276813
0.78800005 -0.11503989 0.37075356 9211019
0.78840005 -0.10494576 0.37094179 9145480
0.78900003 -0.099485844 0.37122408 8751492
0.78714287 0.08738967 0.37588146 9409420
0.78771436 0.094699018 0.37325495 9737615
0.79033333 0.095644154 0.37822446 9672079
0.78875005 0.10319708 0.3715682 9672081
0.79116666 0.10572591 0.37574381 9803666
0.79231828 0.11550965 0.37514937 9869972
0.78900003 0.083373412 0.38637 9343627
0.79000002 0.087177888 0.38516882 9409420
0.79128003 0.094730996 0.38526371 9606799
0.79195833 -0.10673491 0.39493749 9277836
0.78899997 0.085748203 0.39484009 9475213
0.79000002 0.087970495 0.39335901 9541006
0.79070026 0.094661027 0.395161 9606799
0.79103577 -0.11475796 0.40491804 9541008
0.78900003 -0.10613526 0.40594888 9607057
0.79009998 -0.10720827 0.40355515 9475728
0.78900003 0.086539812 0.40367964 9409420
0.79000002 0.0890273 0.40498385 9475213
0.7904802 0.094634764 0.40523025 9541006
0.79108357 0.15489291 0.40461022 9935764
0.78900003 -0.11056822 0.41185948 9541265
0.79086375 -0.11503926 0.41493666 9672594
0.78900003 -0.10733586 0.41232127 9672850
0.79000002 -0.10700954 0.41792971 9672594
0.78900003 0.087067544 0.41093594 9409420
0.79000002 0.088657424 0.4134911 9409420
0.79050022 0.094707936 0.41477716 9475727
0.79060024 0.15479824 0.41454697 9935507
0.79203993 0.16528027 0.41530192 10001044
0.79248375 -0.1249417 0.42456806 9606801
0.79223996 -0.11473137 0.42468035 9606801
0.79064709 0.096395656 0.42469573 9475729
0.79111135 0.10489552 0.4249962 9541265
0.7919414 0.11531185 0.42467621 9607314
0.79203838 0.20442906 0.42513973 4801602
0.78900003 0.10784701 0.43448603 9541008
0.79000002 0.10641171 0.43235502 9672594
0.78900003 0.11261859 0.43279281 9672594
0.79000002 0.11560031 0.43496361 9606800
0.79096794 0.12479778 0.43456692 9738385
0.79158819 0.20480616 0.43479365 4736065
0.79220575 -0.19495969 0.44434649 9409678
0.79154998 0.11533044 0.44460139 9606801
0.79137933 0.12514852 0.44446957 9737873
0.79134625 0.13527878 0.44472006 9803410
0.79068011 0.14463352 0.44420239 9738387
0.79086685 0.15485218 0.44430688 9738643
0.79167861 0.18499359 0.4445644 9934994
0.792 0.19493619 0.44494358 9869714
