# .PCD v0.7 - Point Cloud Data file format
VERSION 0.7
FIELDS x y z rgb
SIZE 4 4 4 4
TYPE F F F U
COUNT 1 1 1 1
WIDTH 749
HEIGHT 1
VIEWPOINT 0 0 0 1 0 0 0
POINTS 749
DATA ascii
0.79325014 -0.03522962 0.084782533 12105133
0.78900003 -0.023756251 0.088623412 14473679
0.79140013 -0.024939654 0.084443435 12368559
0.78900003 -0.014520934 0.088623412 15197144
0.79220009 -0.014579125 0.084342614 12565938
0.78900003 -0.0071326806 0.088623412 15658208
0.79283339 -0.0048463135 0.084407069 12171696
0.7925337 -0.055404104 0.095506214 13684164
0.78900003 -0.043150418 0.099705793 15130583
0.79159397 -0.045378882 0.09481696 14275788
0.78869992 -0.03390279 0.096435986 15064790
0.7902 -0.036741953 0.092457704 15131098
0.78681248 -0.025189079 0.094587609 13485758
0.77674991 -0.013539723 0.098307587 14934230
0.78419238 -0.015490682 0.093582354 14604752
0.77680004 -0.0066571916 0.098162442 15329502
0.78460878 -0.0048563946 0.093391955 15395550
0.78717399 0.0037847266 0.096427418 15132637
0.79153848 0.0068157469 0.092613101 13421764
0.78900003 0.011337951 0.099705793 15789796
0.79333329 -0.11489286 0.10489237 12631990
0.78900003 -0.071779892 0.10894111 15526111
0.79182363 -0.075037397 0.10441911 14736594
0.78884202 -0.063990518 0.10639187 15657182
0.79037499 -0.066586189 0.10242277 15657694
0.78843993 -0.055117358 0.10517088 15656925
0.78849989 -0.04496884 0.10517891 15262168
0.78669232 -0.034599427 0.10514821 14406602
0.77686673 -0.023635171 0.10617192 12696240
0.78240001 -0.026979007 0.10363104 12827569
0.77431256 -0.015386819 0.10475572 14342092
0.7747407 -0.0049856431 0.10475124 15592931
0.77766669 0.0012642613 0.10656549 15065819
0.78365397 0.005904878 0.10460182 15065818
0.78826314 0.014242548 0.10592457 14868695
0.791125 0.017619882 0.10228754 15000283
0.78900003 0.020573268 0.10894111 15790566
0.79132009 -0.1146015 0.11481694 14341324
0.79107708 -0.10508696 0.11463788 15460060
0.79262507 -0.09507104 0.11459439 15855076
0.79071999 -0.084895685 0.11472951 15723490
0.78900003 -0.073473036 0.11402053 15526110
0.79000002 -0.077419087 0.11505417 15526111
0.78879982 -0.065299325 0.11445402 15394010
0.78855997 -0.055125464 0.11441986 15262168
0.78827274 -0.044705406 0.11488055 14933202
0.77780002 -0.031067129 0.11758932 12958900
0.78452003 -0.035308089 0.11441816 13485243
0.77430016 -0.025131604 0.11506352 12827570
0.76582146 -0.014160902 0.11629905 14670545
0.77123082 -0.016556172 0.11162489 13947077
0.76692319 -0.0074843219 0.11638402 15789542
0.77178955 -0.0038365577 0.11369549 15592420
0.77576476 0.0019633954 0.11501608 15197405
0.78325003 0.0077061933 0.11513657 15329246
0.78800005 0.014817551 0.11493032 14473937
0.78899997 0.022420332 0.11514197 14408145
0.79093754 0.027684737 0.11418299 15132381
0.79265523 -0.13533337 0.12505278 15591904
0.78900003 -0.12452383 0.12782219 15657697
0.79125005 -0.12551829 0.12286383 15920869
0.7889998 -0.11485004 0.12674008 15657698
0.79007691 -0.11555676 0.12160992 15920870
0.7889998 -0.10509806 0.12535155 15526113
0.79000002 -0.10469779 0.1201756 15789285
0.78900003 -0.098254472 0.12535943 15591906
0.7900002 -0.093858249 0.12455939 15460062
0.79030025 -0.084848754 0.12484794 15393755
0.79011464 -0.074788384 0.12494981 15393755
0.7889998 -0.063874461 0.12386536 15459549
0.79000002 -0.067555591 0.12726499 15525342
0.78899974 -0.054892447 0.12437724 15262169
0.79000002 -0.05892504 0.12849793 15393756
0.78799987 -0.045196187 0.12490059 14209738
0.77656251 -0.03258767 0.12551476 13025463
0.78292304 -0.036968764 0.12459469 13222842
0.76700008 -0.022197235 0.12601022 12959414
0.77236849 -0.026303738 0.12472426 12827827
0.75900006 -0.012191975 0.12967452 14933976
0.76181823 -0.015160182 0.12496348 14604239
0.76467997 -0.0056162737 0.12526968 15723493
0.77050006 -0.0015541748 0.12352121 14868186
0.77527273 0.0028972207 0.12519231 15131869
0.78333336 0.008202468 0.12481561 15724005
0.788423 0.015094378 0.12490451 14605011
0.79000002 0.018749937 0.12942263 14736597
0.78899974 0.025330853 0.12455719 14209740
0.79000002 0.023681683 0.12572382 14605267
0.78884202 0.034856629 0.12651095 14473427
0.79054546 0.036261354 0.12160382 15263967
0.78900003 0.042738024 0.12820333 15263969
0.79169571 0.045302723 0.12397561 14079438
0.7904349 -0.13514824 0.13528606 15854821
0.78899992 -0.12480148 0.13425675 15394526
0.79000002 -0.12550358 0.13866964 15789285
0.7889998 -0.11594879 0.13407724 15197147
0.79000002 -0.11282195 0.13734864 15328733
0.78900003 -0.10634636 0.13189748 15065560
0.79000002 -0.10464641 0.13610104 15460318
0.79036701 -0.095030993 0.13503389 15526111
0.79128015 -0.084953278 0.13519019 15394269
0.79110014 -0.074750438 0.13516024 15459804
0.79016012 -0.064486779 0.13499886 15525342
0.78899997 -0.053309258 0.13414034 14735826
0.79000002 -0.057580017 0.13581148 15262171
0.78615153 -0.044593018 0.13481331 13551551
0.76700002 -0.030276086 0.13912016 13090489
0.77474076 -0.034081548 0.13491343 13025208
0.78100002 -0.038142055 0.13160487 12960184
0.75774997 -0.02215107 0.13788481 13551551
0.76313633 -0.025092728 0.1342739 13091001
0.7713334 -0.028641434 0.13177931 12959928
0.75657147 -0.014682936 0.13557845 14604753
0.76050007 -0.019337445 0.13082039 13749700
0.75830001 -0.00774216 0.13629892 15526114
0.7624501 -0.0037648305 0.13409913 14999771
0.76900005 0.00024909366 0.13768387 14868441
0.77449995 0.0032484315 0.13467905 14737111
0.78372729 0.0085953372 0.1352331 15724005
0.78826678 0.013297146 0.13418309 15197661
0.79000002 0.017640296 0.1357106 14736854
0.7889998 0.026618201 0.13454813 14078925
0.79000002 0.021292867 0.13566436 14605013
0.78816009 0.035311487 0.13465697 14078926
0.78870821 0.044415664 0.13490342 14933979
0.79000002 0.048340406 0.13127203 15855591
0.78900003 0.050588042 0.13710882 15328479
0.79213798 0.055829775 0.13443637 14605013
0.79041404 -0.13469517 0.1450589 15920615
0.78900003 -0.12626827 0.14034118 15855076
0.79000026 -0.12543751 0.14547278 16118249
0.79000038 -0.11533184 0.14514256 15789284
0.79000026 -0.10516016 0.14514256 15723491
0.79025036 -0.095017433 0.1451879 15723490
0.79124147 -0.085076474 0.14521022 15526111
0.79216659 -0.074849509 0.14461388 15656925
0.79199988 -0.064637601 0.14458492 15525340
0.78900003 -0.051726066 0.14509077 13880260
0.79030442 -0.056294043 0.14515895 14275275
0.77900004 -0.041691687 0.14950438 13551551
0.7865715 -0.04598375 0.14483897 13485758
0.76464301 -0.032105356 0.14572296 12959415
0.77440012 -0.037010089 0.14426866 13156793
0.78100002 -0.03997039 0.14074653 13288379
0.74800003 -0.021208458 0.14749366 13748931
0.75503707 -0.024965594 0.14496553 13156795
0.76033336 -0.028826036 0.14354734 12762036
0.7475 -0.015108139 0.14687632 14802133
0.75131255 -0.014265827 0.14232002 14736596
0.74900001 -0.008524497 0.14900708 15724521
0.75595236 -0.0062390836 0.14507522 15460578
0.76133341 -0.0021287426 0.14433259 14868955
0.76816672 0.00024882375 0.14472841 14671319
0.7753334 0.0037337996 0.14426203 15066333
0.78490907 0.0082758516 0.14546052 16053226
0.78866667 0.01194885 0.14397524 15592419
0.79000002 0.016372133 0.14553888 15065818
0.78899986 0.02743379 0.14535463 14210765
0.79000002 0.022078866 0.14458773 14605524
0.7882334 0.035314567 0.14481732 14013387
0.7881667 0.044538625 0.1448051 14342097
0.78885704 0.052667804 0.14576745 14803162
0.7902 0.05772562 0.14400701 15132127
0.79241371 0.065059841 0.14542177 15198176
0.78900003 -0.13088591 0.15604122 16183786
0.7907728 -0.13572612 0.15504521 15459551
0.78899997 -0.12692793 0.15590928 16315628
0.79000002 -0.12348606 0.1543055 16249835
0.79000026 -0.11533184 0.15531428 16184043
0.79000014 -0.10516016 0.15531425 15920870
0.79003358 -0.094992258 0.15532097 15789284
0.79115397 -0.084796153 0.15532818 15657697
0.79261094 -0.074889936 0.15490048 15591389
0.79309982 -0.064727969 0.1549954 14867410
0.78887504 -0.052146696 0.15578517 13683137
0.79070586 -0.05669257 0.15512599 14077894
0.77600008 -0.042592779 0.15588905 13025720
0.78488892 -0.047114834 0.15430528 13419965
0.75828582 -0.032214932 0.15693939 12696244
0.7635625 -0.035172854 0.15458448 12762293
0.77222228 -0.038918994 0.15362227 13091514
0.74639136 -0.023312131 0.15509559 13551552
0.75357157 -0.028489223 0.15406917 12827829
0.74407709 -0.014585786 0.1551238 14999770
0.74700004 -0.0071263877 0.15560199 15592165
0.75516671 -0.0040234532 0.15421264 15000028
0.7608 -0.0015346089 0.15491575 14671064
0.76749998 0.00024860774 0.15538083 14802650
0.77411115 0.0026687607 0.15460619 15526628
0.78568751 0.007501706 0.15481102 15921382
0.78900003 0.011337951 0.15465592 15789796
0.79004771 0.015756568 0.15541169 15328989
0.78899992 0.027730638 0.1548868 14408144
0.79000002 0.022316646 0.15557848 14868695
0.78820008 0.035312999 0.15496039 14276559
0.7876668 0.044918559 0.1550595 14342353
0.78796428 0.055002123 0.1547146 14539477
0.78847367 0.06437391 0.1559844 14802906
0.79042858 0.06687171 0.15196125 15066590
0.78900003 0.072598882 0.15819612 15328993
0.79159266 0.075343437 0.15411361 15395555
0.78900003 -0.13088591 0.16065887 15985894
0.79120827 -0.13511454 0.1649677 14077643
0.78900003 -0.12657611 0.16209547 16315627
0.79000002 -0.12481006 0.16583276 16249835
0.79000026 -0.11533184 0.16456129 16315114
0.79000014 -0.10516015 0.16456129 15986149
0.7906667 -0.095066786 0.16470133 15854820
0.79243994 -0.085077174 0.16507068 15723233
0.79340005 -0.06475345 0.16527085 14406347
0.78731817 -0.053869203 0.16525608 13551551
0.79042858 -0.058428608 0.16385697 14208968
0.76900005 -0.041156493 0.16828799 12630449
0.77452177 -0.044690661 0.16503958 12828341
0.7828334 -0.048922628 0.16275787 13025721
0.75800002 -0.032583736 0.16499351 12499122
0.76400006 -0.037317023 0.16480453 12630706
0.74468005 -0.023192748 0.16495128 13880775
0.75200003 -0.028885914 0.1649676 12564658
0.73815382 -0.015313541 0.16785042 15065563
0.74145836 -0.013861731 0.16392225 15131612
0.74514294 -0.0062346701 0.16518381 15394786
0.755 -0.0022268542 0.16451584 14999515
0.76350003 0.0002473121 0.16529134 14802136
0.77441669 0.0029720867 0.16493775 15855080
0.78483337 0.0076086614 0.16501181 15921127
0.78900003 0.011337951 0.16527653 15526369
0.79000002 0.015975829 0.16456129 15394782
0.78900003 0.02873113 0.16481477 14473938
0.79000002 0.023465918 0.1648387 14671317
0.78869987 0.035335317 0.16521443 14408145
0.78730571 0.045408383 0.16492203 14473939
0.78566647 0.055432048 0.16457853 14342611
0.78660011 0.064707242 0.16477281 14407891
0.78839391 0.074641719 0.16551258 14737112
0.79000002 0.079163812 0.16147895 15263457
0.78900003 0.08214204 0.1692785 15066075
0.79164016 0.085806109 0.16452974 15395042
0.79248148 -0.13497204 0.17476714 12696504
0.79023355 -0.12554158 0.17478497 15920616
0.79000038 -0.11533185 0.174733 16183529
0.78900003 -0.10872115 0.17543538 16183271
0.7902416 -0.10506377 0.17475507 16051685
0.79171419 -0.095325045 0.17498024 15920099
0.77750003 -0.050712116 0.17742577 13025208
0.78565001 -0.05446903 0.17487369 13353916
0.79000002 -0.05892504 0.17380832 13814467
0.76780003 -0.041811895 0.17593215 12696242
0.77359998 -0.046477426 0.17454404 12762036
0.75719994 -0.032194681 0.17598251 12564914
0.7623809 -0.036727306 0.17486817 12630450
0.73513341 -0.022022462 0.1769902 14012874
0.74486369 -0.025682734 0.17473453 13354175
0.75250006 -0.029411098 0.17377646 12696244
0.73352402 -0.014355356 0.17511156 15131100
0.73677784 -0.0070426902 0.17742759 15526886
0.74333334 -0.0048087961 0.17431363 15328992
0.75633335 0.00054112944 0.17731397 14605524
0.76375008 0.002038857 0.17608264 15724005
0.77430004 0.0042415438 0.17542925 15921128
0.78421438 0.0078635002 0.17476289 15921128
0.78890896 0.014778898 0.17591859 15526370
0.79000002 0.016372131 0.17090212 15328734
0.78899974 0.025190923 0.17543538 14737110
0.79000002 0.023373449 0.17010953 14934233
0.7889998 0.035349771 0.17543539 14473939
0.78823084 0.044753119 0.17512354 14605270
0.78765523 0.05480909 0.17526489 14539477
0.78760016 0.064787716 0.17512541 14539477
0.7881667 0.074983247 0.17524992 14474196
0.78900003 0.082449883 0.17543539 14935259
0.79100001 0.08728981 0.17495421 14079951
0.79030788 -0.12533987 0.18511946 15722979
0.79034501 -0.11522203 0.18485905 15920870
0.79104012 -0.10529736 0.18514967 15855076
0.7925483 -0.095143311 0.18532234 15789028
0.78875005 -0.060678281 0.18738103 13683139
0.79296154 -0.06529066 0.18452349 13946311
0.77740014 -0.051617421 0.18559547 12894135
0.78547376 -0.056559976 0.18461737 13419967
0.76654547 -0.041842356 0.18528567 12696756
0.77247059 -0.046663508 0.18505663 12762293
0.73800004 -0.030859031 0.18914551 12828343
0.7458334 -0.032206286 0.1856194 12631219
0.75615382 -0.035296764 0.18487604 12565170
0.76125008 -0.038514532 0.18396495 12499378
0.72862506 -0.021299303 0.18738286 14342095
0.73267859 -0.025251759 0.18459392 13617859
0.74300009 -0.028894467 0.18216437 12762806
0.72661293 -0.014800468 0.18547985 14868698
0.73019999 -0.012754251 0.18150643 15329249
0.72750008 -0.0084904935 0.18751928 15592935
0.73333335 -0.004780822 0.18479866 15395299
0.74275005 -0.001931874 0.18210468 15263200
0.74620003 0.00076703273 0.18565258 14408145
0.75633347 0.003197795 0.18528578 15395040
0.76370007 0.0056139268 0.1850059 15987176
0.77400017 0.0080572879 0.18407963 15789796
0.78350008 0.0094247283 0.18063036 15789798
0.7766667 0.011767435 0.18693268 15658210
0.78588897 0.015453667 0.18461657 15395039
0.78868556 0.02504986 0.18538699 14802903
0.78886181 0.035470814 0.18540178 14605524
0.78892291 0.044439014 0.18486533 14802646
0.78844118 0.05470382 0.18519112 14671062
0.78800005 0.064820528 0.185359 14473940
0.78840739 0.074562155 0.18419069 14539988
0.79033333 0.079197466 0.18806666 13421763
0.78900003 0.081526354 0.18097657 14803930
0.79226094 0.085576154 0.18543668 12040368
0.79186654 -0.12487411 0.19461206 15262429
0.79195994 -0.11469159 0.19463497 15986150
0.79211992 -0.10544178 0.19467306 15985894
0.79279989 -0.095324382 0.19483937 15788258
0.79280007 -0.085117884 0.19483918 14998742
0.79221213 -0.074601986 0.19519885 14143689
0.78854555 -0.061670039 0.19513655 13551809
0.7909444 -0.066403113 0.1953074 13880518
0.77700001 -0.050940018 0.19485298 12697013
0.78409994 -0.055829667 0.19536176 13091772
0.74750006 -0.040880192 0.19858056 12696244
0.75525004 -0.04130492 0.19798557 12696501
0.76450008 -0.04283696 0.19542311 12696757
0.773 -0.047043324 0.19479913 12697014
0.73409998 -0.033020936 0.19656366 12959929
0.74409097 -0.036024749 0.19458288 12696244
0.75550002 -0.038077354 0.19303977 12630964
0.76000005 -0.038895644 0.19033727 12631221
0.72625935 -0.022879878 0.19598663 14013132
0.73107141 -0.027513953 0.19372554 13552580
0.72162503 -0.015131449 0.19471094 14802649
0.72441179 -0.00649192 0.19553399 15461092
0.73124999 -0.0023297679 0.19297923 15131868
0.72900003 0.0002361369 0.19963953 14144460
0.73442852 0.0004847055 0.19547129 14342351
0.74371433 0.0017344726 0.19371542 14539216
0.75800002 0.0052159806 0.19445381 16052456
0.76512504 0.0080876155 0.19385442 15855077
0.77050006 0.0092683509 0.19747689 15657698
0.77565008 0.013420409 0.19480124 15460319
0.78233337 0.017958011 0.19470641 15197403
0.78653127 0.025118357 0.19513786 14868438
0.788077 0.035166156 0.19531076 14736852
0.78855169 0.044687629 0.19487756 14736854
0.7888748 0.054735564 0.19537625 14671318
0.78870583 0.064118855 0.19448605 14407891
0.79028571 0.066330545 0.19845085 14539477
0.78900003 0.071921632 0.19095071 14539477
0.79161906 0.075180709 0.19508241 12105393
0.79340732 -0.11469659 0.20468977 15920358
0.79170001 -0.10538688 0.20476145 15920357
0.79161102 -0.095181756 0.20473725 15459807
0.79196662 -0.085027441 0.20483208 14538703
0.79148489 -0.075039424 0.20512889 13946309
0.78888893 -0.061509889 0.20475481 13551552
0.79018748 -0.066107519 0.20541306 13617600
0.76450002 -0.051653899 0.20756343 12696242
0.77445465 -0.052658699 0.20483412 12828085
0.78481257 -0.056820977 0.20447253 13157050
0.73533338 -0.042082351 0.20610416 12564913
0.74428588 -0.044689905 0.20456871 12630706
0.75520003 -0.047135003 0.2045093 12762035
0.76333338 -0.048001122 0.20278472 12827828
0.77150005 -0.048514672 0.20134304 12762292
0.72526324 -0.032116953 0.20611435 13354687
0.732261 -0.036733586 0.20373309 12696500
0.71899992 -0.023790842 0.20715319 14078667
0.72236365 -0.025980413 0.203273 13881289
0.71869689 -0.01526708 0.20502506 14670805
0.72000003 -0.018729024 0.20096731 14210512
0.71862501 -0.0070563736 0.20604952 15394785
0.72114289 -0.0037437975 0.202309 15328992
0.71900004 0.00023289771 0.20700015 14473938
0.72320002 0.00023425817 0.20312186 14276302
0.73200005 0.0019507338 0.20046109 14473425
0.75800002 0.0055690054 0.20048332 16184041
0.77400005 0.0093104523 0.20471986 15723490
0.77750003 0.012539266 0.20200001 15460318
0.78383344 0.015548809 0.20609489 15328732
0.78744835 0.025303395 0.20471436 14933717
0.78855997 0.035329875 0.20487551 14868181
0.78883982 0.044576511 0.20494752 14671062
0.78899992 0.053012311 0.20360313 14473684
0.79035711 0.056821357 0.20692752 14539476
0.79263645 0.065206051 0.20500812 12434358
0.79307139 -0.1150542 0.21472947 15854307
0.79068017 -0.10525243 0.21467954 15854307
0.79050022 -0.095046557 0.21463154 15130584
0.79267997 -0.085102364 0.21522407 14143688
0.79263324 -0.074896097 0.21521166 13946309
0.78858346 -0.061588999 0.21503311 13485758
0.79046667 -0.066362768 0.21462254 13617344
0.75833338 -0.051237244 0.21418297 12762035
0.76416665 -0.053420305 0.21552682 12762292
0.77466673 -0.056575332 0.21667774 13025207
0.78350008 -0.058440216 0.21364221 13354172
0.7337274 -0.041768923 0.21514282 12630707
0.74445462 -0.046183374 0.21464199 12564913
0.75175005 -0.04903258 0.21555158 12696242
0.71887499 -0.030900925 0.21643007 14078667
0.72328001 -0.034652039 0.2145265 13486272
0.73071426 -0.038863324 0.21403804 12696500
0.71681577 -0.024941884 0.21523857 14078667
0.71478724 -0.01575488 0.2151024 14341839
0.71607482 -0.0056739119 0.21507888 15328991
0.78769237 0.015150055 0.21550108 15460062
0.78883308 0.025186189 0.21510252 14933975
0.78899974 0.035349775 0.21514721 14802390
0.78899997 0.042474158 0.21395983 14736597
0.79000002 0.046799239 0.2152658 14736853
0.79193324 0.054952689 0.21502224 12895165
0.79086685 -0.11453375 0.22491248 15460062
0.79070014 -0.10525246 0.2248657 15722720
0.79188561 -0.095345989 0.22507191 14670289
0.79312003 -0.085151203 0.22462557 13947079
0.79278785 -0.074657626 0.22503647 13749186
0.78693336 -0.062383559 0.22569463 13288892
0.79092854 -0.066798419 0.22400455 13552064
0.74540007 -0.050713144 0.22785695 12433842
0.75639999 -0.05216945 0.22537474 12565170
0.76342863 -0.054391738 0.22489488 12630963
0.7743637 -0.057761729 0.22507863 12894391
0.72577786 -0.04110989 0.22706835 12762550
0.73350006 -0.044803057 0.22553377 12433842
0.74427277 -0.047279667 0.22330037 12499634
0.75100005 -0.048983663 0.22060704 12630707
0.7176522 -0.033735506 0.2255273 14078667
0.7224167 -0.037960682 0.22361849 13025722
0.70900005 -0.021347506 0.22735809 14144460
0.71216673 -0.026033066 0.22489612 14078667
0.708 -0.01531056 0.22568832 14210510
0.71000004 -0.015560184 0.22103028 14210255
0.7074616 -0.0061407504 0.22724377 14803162
0.71185726 -0.0046880064 0.22247784 15197921
0.70650005 0.00022884872 0.22903672 15526370
0.71000004 0.00022998244 0.22601663 15329763
0.78756255 0.015697045 0.22431621 15459549
0.78829998 0.025169866 0.22510572 14998999
0.7889998 0.034846023 0.22505426 14736341
0.79000002 0.039093386 0.22744106 14868183
0.79088897 0.044625416 0.22474983 13289153
0.79096007 -0.11454711 0.23512498 15328221
0.79036009 -0.10520713 0.23494521 15262426
0.79151618 -0.095019497 0.23510878 14143944
0.79226655 -0.085060053 0.2345838 13881027
0.79141945 -0.075349018 0.23454128 13552319
0.76800001 -0.06087989 0.23908626 13222586
0.77460003 -0.062129498 0.23551194 13157050
0.78621054 -0.06629961 0.23487015 13354685
0.79000002 -0.06817206 0.23113987 14012870
0.73766667 -0.051567782 0.2382753 12367792
0.74450004 -0.052919149 0.23438165 12368049
0.75477779 -0.055709489 0.23437282 12499635
0.76357144 -0.057974119 0.23386499 12630707
0.77333337 -0.059492279 0.23169154 12828600
0.71875006 -0.040570542 0.23763531 13486530
0.72404188 -0.043628532 0.23542331 12697014
0.73173338 -0.048185218 0.23430207 12433585
0.71489477 -0.035183478 0.23566782 14144458
0.70760715 -0.024146644 0.23619668 14078667
0.71114296 -0.028191615 0.23351336 14144460
0.70539522 -0.015442993 0.23514333 14275790
0.70448774 -0.0056442749 0.2356797 14867926
0.70433342 0.0019853148 0.23630176 13947338
0.78116673 0.0093966611 0.23495807 15723489
0.70100003 0.010073389 0.23956218 11251108
0.78461546 0.015094764 0.23486222 15460318
0.78815627 0.024935117 0.23463683 14868439
0.78900009 0.032998964 0.23370181 14671318
0.79021436 0.037254415 0.23556373 11711403
0.79284006 0.044805642 0.23494087 11053473
0.79132164 -0.11440188 0.24508934 14143946
0.79010028 -0.10517395 0.24504179 14802131
0.79052806 -0.095050357 0.24517351 14012101
0.79113346 -0.084938534 0.24536109 13814979
0.78890002 -0.072879031 0.24633101 13420478
0.79030001 -0.076894231 0.2442708 13551807
0.76242864 -0.060438242 0.24448392 12565169
0.77425003 -0.064096957 0.24464864 13222586
0.78666663 -0.068807162 0.24489252 13420221
0.72244447 -0.051256157 0.2472616 12236462
0.73325002 -0.05276021 0.24435396 12235948
0.74511117 -0.054996789 0.243002 12236205
0.75450003 -0.058043443 0.24635866 12302254
0.70900005 -0.041264888 0.24893527 13815493
0.71589285 -0.044305231 0.24536197 13091514
0.72322226 -0.047926977 0.24207023 12498864
0.70727772 -0.034865294 0.24565949 14276044
0.71142864 -0.038790643 0.24217162 14209993
0.70462501 -0.025261406 0.24520798 14144458
0.70156407 -0.015568261 0.24505734 14472911
0.69835716 -0.006079488 0.2485844 14867929
0.70075005 -0.0052203126 0.24392736 14933207
0.70204866 0.0042368281 0.24472928 13947597
0.78200006 0.0094066849 0.24161394 15526624
0.70211118 0.010819754 0.24523936 11053473
0.78686661 0.016346727 0.24398188 15328988
0.78886658 0.024017643 0.24262743 14934487
0.79056257 0.026283219 0.24680459 12829369
0.79200006 0.03548624 0.2447072 11185058
0.79159266 -0.11484545 0.25528505 11841450
0.79080009 -0.10526718 0.2554408 14144457
0.79026693 -0.095020264 0.25526878 13749700
0.79024017 -0.084842466 0.25525856 13486528
0.78866661 -0.074212179 0.25505903 13354942
0.79000002 -0.078740083 0.25438949 13420478
0.76100004 -0.060324997 0.25115922 12170668
0.77316666 -0.064007379 0.25336233 12565426
0.78590912 -0.068824403 0.25519848 13223356
0.71790004 -0.050858073 0.2559216 12368048
0.72400004 -0.053496294 0.25538033 12104877
0.73314291 -0.056156304 0.25446898 12104876
0.74500006 -0.059056669 0.25634298 11973289
0.70740002 -0.042276721 0.25565746 14144458
0.71365225 -0.046769246 0.25462821 13223100
0.70457488 -0.035073511 0.25537634 14473167
0.69768763 -0.023253392 0.2573137 13947336
0.70146424 -0.026401194 0.25379264 14012872
0.69705552 -0.014913898 0.25525293 14407889
0.7001667 -0.017530605 0.25129735 14407630
0.69721627 -0.0053750132 0.25524929 14473939
0.69825 0.0014525773 0.25823691 15000028
0.70168746 0.0049542435 0.25473434 15000028
0.70563638 0.011643798 0.25691655 13749961
0.79304171 -0.11469567 0.2652944 10525591
0.79147995 -0.10535827 0.26492503 13880772
0.79096794 -0.094955638 0.26493201 13749184
0.78900003 -0.081015207 0.26778853 13485756
0.79014832 -0.085244097 0.26509508 13354683
0.78751618 -0.07521677 0.26472354 13354685
0.73600006 -0.060066223 0.26358414 11710119
0.74800003 -0.062796637 0.26963276 11973289
0.75533342 -0.0625313 0.26520672 12038825
0.76166672 -0.06394399 0.26385841 12039082
0.77525008 -0.067582518 0.26629296 12828341
0.78400004 -0.069489658 0.26333439 13025722
0.70900005 -0.05122358 0.26885265 13156793
0.71600002 -0.052961782 0.26546627 12433070
0.72381824 -0.057227317 0.26646093 11973289
0.73214293 -0.058282945 0.26366726 11973290
0.74300003 -0.058898125 0.2608729 11973291
0.69850004 -0.041471954 0.26977664 13815493
0.70553845 -0.044796742 0.26537222 13881286
0.71140003 -0.049399145 0.26209965 12762035
0.69684625 -0.033845812 0.26637369 14473423
0.70157897 -0.036600281 0.26275083 14538960
0.69532555 -0.025102245 0.26513875 13881287
0.69423819 -0.015215142 0.26487795 14473426
0.69449985 -0.0054644919 0.2649776 14407891
0.6961714 0.003814351 0.26542774 15000028
0.70116663 0.0073414757 0.26205194 15000028
0.69766665 0.010570165 0.26891011 14474454
0.70406055 0.01341714 0.26512343 14079181
0.79192859 -0.10522088 0.27494019 13354428
0.78900003 -0.090250522 0.27887091 13354170
0.79026508 -0.09529303 0.27469173 13682878
0.78899992 -0.08378581 0.27644664 13288377
0.79000002 -0.086460613 0.27326518 13288377
0.77700007 -0.071051501 0.27789992 12959413
0.78546154 -0.075284019 0.27464634 13288377
0.72250009 -0.060655847 0.27819973 11710117
0.73660004 -0.061839581 0.2758646 11446946
0.74514294 -0.063555054 0.27458349 11644324
0.75533342 -0.065477468 0.274634 12170155
0.76500005 -0.066373356 0.27253252 12301740
0.77366668 -0.068573765 0.2743468 12827828
0.69650006 -0.050728992 0.27878612 14209483
0.70486665 -0.052025702 0.27541688 13025209
0.71520007 -0.055360179 0.27466118 12302254
0.72237504 -0.058321889 0.27413133 11907497
0.73000002 -0.059576549 0.27510688 11775912
0.69557148 -0.043974578 0.27585256 14276045
0.7029286 -0.047495298 0.2726582 14144202
0.69326675 -0.034617379 0.27492565 14210253
0.68900001 -0.02316476 0.27901122 14210766
0.69194764 -0.02505436 0.27482808 14078667
0.68900007 -0.015099953 0.27901122 14802902
0.69141692 -0.01515321 0.27432066 14473425
0.68900001 -0.0086481078 0.27901122 14144458
0.69174999 -0.0052801296 0.27501935 14671317
0.69432563 0.0048391609 0.27511811 14935004
0.69727778 0.012197957 0.27492574 14540248
0.70142108 0.016909052 0.27496484 14276819
0.70480001 0.021348963 0.27716109 13224387
0.79253852 -0.10557314 0.28511637 11973036
0.7889998 -0.093021117 0.2853356 13288377
0.79000002 -0.098687232 0.28477257 13420221
0.78879988 -0.084688716 0.28526288 13157048
0.77322227 -0.071351141 0.28415141 12959413
0.78653342 -0.077328123 0.28413445 13156791
0.71900004 -0.060362011 0.28442699 11578531
0.73300004 -0.061537344 0.28481182 11644324
0.74524999 -0.064748771 0.28216025 11775910
0.75250006 -0.066697657 0.28358504 12038825
0.76466674 -0.069566153 0.28637812 12433070
0.69600004 -0.051643714 0.28211626 13222587
0.70366669 -0.054132849 0.281652 13024953
0.69356531 -0.044182517 0.2834703 13815493
0.68850011 -0.032147992 0.28391236 12829370
0.69080001 -0.036541454 0.28264999 13683909
0.68796664 -0.024740679 0.28342253 13355201
0.68818915 -0.015015719 0.2844725 13750215
0.68900001 -0.009131996 0.28320488 14407888
0.69128579 -0.0050326688 0.28542918 14210766
0.69407696 0.0047691008 0.28486013 14803673
0.697375 0.013901827 0.28546458 14540249
0.7008667 0.018604483 0.2841436 14408662
0.70571429 0.021942208 0.28460047 13816268
0.7924816 -0.10549513 0.29494217 10722969
0.78899992 -0.092328474 0.29526365 12959413
0.79000002 -0.097993687 0.29540667 13091000
0.78851998 -0.084659211 0.29531443 13090999
0.77457142 -0.073839478 0.29514316 12893108
0.78514296 -0.078258738 0.29562473 13156279
0.74750006 -0.064504571 0.29307693 11446945
0.75650001 -0.066611499 0.29438573 11644324
0.76599997 -0.069331147 0.29476231 11906726
0.68900001 -0.011067549 0.29030195 13093058
0.69258338 -0.0050380728 0.29181075 11908527
0.69636369 0.0030439382 0.29266369 12105392
0.70277786 0.0060807085 0.29702267 12039598
0.69800001 0.01166587 0.29082593 14539734
0.70360005 0.014606911 0.29481164 12500151
0.70628577 0.021251788 0.29498821 12829630
0.72300005 0.027315091 0.29362583 13422020
0.73450005 0.029469039 0.29829562 13422020
0.79000002 0.029846365 0.29032081 11448487
0.79144007 0.035461061 0.29455447 10921889
0.78899992 -0.092220739 0.30436036 12762035
0.79033333 -0.097681113 0.30561575 12696500
0.78786218 -0.084461227 0.30505344 12893363
0.77569234 -0.072806686 0.30475849 12498863
0.78344446 -0.077797592 0.30563915 12893107
0.76200002 -0.065755837 0.30322105 11512738
0.77100003 -0.067434937 0.30770487 11578531
0.70600003 0.0043617543 0.30077022 9210498
0.71125001 0.014800299 0.30134177 13026238
0.72075003 0.014577467 0.30705401 10066323
0.73333335 0.029422231 0.30211505 13882317
0.74000001 0.029689707 0.30832547 14211539
0.74655563 0.033061597 0.30736744 13553350
0.75366664 0.034942698 0.30695769 13422019
0.76200008 0.039491653 0.30946225 13948364
0.77566671 0.037779335 0.30926344 13421771
0.78800005 0.037149396 0.30849069 10592672
0.79125005 0.036724094 0.30293429 10658717
0.78900003 0.040890962 0.30842394 10921891
0.79241377 0.044908293 0.30495694 10790303
0.78900003 -0.091174059 0.31488866 12762033
0.79123807 -0.096860185 0.31512073 11578274
0.78788465 -0.084733553 0.31515244 12827826
0.77850002 -0.072192386 0.3120653 12104361
0.78377783 -0.075692512 0.31555596 12695728
0.77650005 -0.067914821 0.31262895 11315359
0.78200006 -0.068702154 0.31789288 11183516
0.72850001 0.0079098316 0.31206107 9211016
0.74100006 0.0089134956 0.31915033 9408652
0.72875005 0.013031475 0.31216818 9013894
0.73557138 0.015247868 0.3163206 9277064
0.74700004 0.025587 0.31562096 11580076
0.74800003 0.032638468 0.31165874 14079953
0.75530773 0.036287334 0.31484237 13159107
0.76000005 0.039388001 0.31843778 13290437
0.77100003 0.03995809 0.31041226 14080207
0.78500003 0.03884596 0.3105357 9605778
0.75900006 0.041113008 0.3135767 13618886
0.76311111 0.042529609 0.31537375 13553094
0.77400011 0.04434301 0.31433412 10856096
0.78589988 0.045235004 0.31336606 10264216
0.79033333 0.047744334 0.3114118 10461338
0.78860009 0.051578045 0.31786713 10527131
0.78900003 -0.090712287 0.32273868 12960182
0.79128581 -0.095874421 0.32559127 10657944
0.7883749 -0.084489673 0.32463741 12828597
0.79000002 -0.088515505 0.32915828 12829111
0.7869091 -0.075526208 0.32469106 12302252
0.78690481 -0.065709762 0.32541624 10131858
0.78900003 -0.057926923 0.3278181 9144451
0.79000002 -0.055226225 0.32915828 9276037
0.773 -0.0042747986 0.32931358 9013637
0.75680006 0.0076839603 0.32737219 9342602
0.7626667 0.0038131929 0.32907525 9539981
0.77000004 0.00024941759 0.32983807 9408395
0.7446 0.014188508 0.32244393 9605772
0.75300008 0.014349481 0.32784429 9540236
0.75600004 0.021926805 0.32472417 9737358
0.76450008 0.025609056 0.32688239 9934738
0.76450008 0.036936458 0.32301077 10790822
0.77350008 0.035561882 0.3295266 10132635
0.76850003 0.042526543 0.32289937 12172214
0.77516675 0.046378899 0.3246406 12237494
0.78300005 0.04974509 0.32990775 12829631
0.78689998 0.053127013 0.32381362 10527131
0.79125005 0.057911627 0.32527873 10395802
0.78900003 -0.081015207 0.3305887 11842986
0.79184222 -0.085210621 0.33470953 10592411
0.78900003 -0.074858338 0.33089653 12106159
0.79130006 -0.074767329 0.33618599 10197908
0.78900009 -0.065567046 0.33142832 11316645
0.79118752 -0.064454436 0.33683249 9868943
0.78900003 -0.058850452 0.3305887 10000530
0.79176205 -0.055436235 0.33510223 9605516
0.78750008 -0.012652506 0.33825639 9342344
0.79075003 -0.017330758 0.33780128 8750721
0.77564287 -0.0040311455 0.3342033 9342344
0.78250003 -0.0084480979 0.33748445 9868687
0.75900006 0.0082416013 0.33134502 9342857
0.76477784 0.0064113671 0.33496201 9671823
0.77250004 0.0013783055 0.33611012 9606029
0.75787497 0.014439082 0.3324073 10132373
0.76242864 0.014783015 0.33679491 10132373
0.76500005 0.022633782 0.33352247 10066580
0.77409095 0.026777029 0.33504984 10198166
0.78100002 0.029506342 0.33820671 10329752
0.778 0.033947449 0.33326495 9934994
0.7856667 0.036732625 0.33777848 10132373
0.77750003 0.041206785 0.33123064 9935513
0.78633338 0.045200106 0.33607125 10198424
0.7881667 0.052534137 0.33300743 10330268
0.79147369 0.056234799 0.33591634 10330524
0.78837508 -0.011972353 0.34347749 9342857
0.79113334 -0.016043464 0.34543517 9013892
0.77900004 -0.0015713201 0.34098795 10132373
0.78543752 -0.0056096856 0.34495899 9671822
0.79000002 -0.008991125 0.3495017 9869201
0.77492309 0.0052706948 0.34353083 9737615
0.78266668 0.0026952026 0.34808886 9672079
0.76900005 0.013750916 0.34201142 10263959
0.77233338 0.014712982 0.34440026 10066580
0.76900005 0.020051764 0.34021118 9540236
0.77500004 0.022541877 0.34338501 10132373
0.78363645 0.027274929 0.34585321 10198166
0.78799999 0.032641411 0.34390417 10198166
0.79092866 0.036760528 0.34634179 10329752
0.78900003 -0.0025150229 0.35090637 9672079
0.79224998 -0.0060029649 0.35559964 9803408
0.78750008 0.0048606489 0.35361946 9869457
0.79139996 0.0032205465 0.35753229 9803921
0.77900004 0.014841557 0.35010621 10066580
0.78455567 0.014947403 0.35362712 10000787
0.79100001 0.015070182 0.35920286 9935764
0.78784621 0.024944114 0.3535147 10132373
0.79100001 0.02641066 0.35735255 10198422
0.79204553 0.035741922 0.35462153 10330009
0.78900003 -0.23986264 0.41924775 3093813
0.78870004 -0.2388479 0.42610365 2633258
0.78765219 -0.23712446 0.43536264 2171943
0.79166675 -0.23226877 0.43412915 5133142
0.78647071 -0.23670404 0.44313619 1514268
