# .PCD v0.7 - Point Cloud Data file format
VERSION 0.7
FIELDS x y z rgb
SIZE 4 4 4 4
TYPE F F F U
COUNT 1 1 1 1
WIDTH 779
HEIGHT 1
VIEWPOINT 0 0 0 1 0 0 0
POINTS 779
DATA ascii
0.50175005 -0.023034623 -0.050530709 12500664
0.50075001 -0.014198189 -0.050723206 14342868
0.49900001 -0.0010065323 -0.050253756 14606040
0.50186372 -0.0051229228 -0.051718723 14211283
0.49900001 0.0019138874 -0.050253756 14342611
0.50242859 0.0020081371 -0.051944457 14013647
0.43283334 0.057937011 -0.052542243 13355205
0.42793551 0.067579724 -0.052598968 15065822
0.43057898 0.063269161 -0.053788178 13947341
0.42559633 0.074860707 -0.053140808 16316661
0.42651722 0.083461776 -0.05276861 16185079
0.50491673 -0.063270621 -0.04080255 15197662
0.50636739 -0.05453483 -0.043477889 14671062
0.4987143 -0.041868757 -0.04155251 15460321
0.50371426 -0.045720059 -0.044724084 14934236
0.49755993 -0.034341458 -0.043706991 15526372
0.50033337 -0.034589566 -0.04791436 14802393
0.48900002 -0.020447243 -0.040088601 14473938
0.49633333 -0.025562398 -0.043215755 15197406
0.50078261 -0.02486337 -0.048140198 14934748
0.48699999 -0.013716294 -0.040874314 14407888
0.49614286 -0.015170484 -0.04486211 14539476
0.50029415 -0.015822966 -0.048592929 14737370
0.48623806 -0.0045608757 -0.041978236 14078667
0.49533331 -0.0052149976 -0.046799883 14474196
0.5 -0.0092021124 -0.04918395 14737626
0.48555559 0.0035699648 -0.043220207 13486530
0.4944286 0.0034736984 -0.047321919 14013389
0.44400004 0.019892648 -0.040557116 12894141
0.43433335 0.035384241 -0.041233081 14342869
0.43298572 0.045881368 -0.043958481 14342869
0.42753336 0.056549691 -0.042157166 14539735
0.4312239 0.054211933 -0.046249155 14539992
0.42478719 0.06539128 -0.044778727 15000543
0.43000004 0.061208639 -0.04867357 15263200
0.41881257 0.076058827 -0.040646397 16579834
0.42196634 0.074786387 -0.045611441 16316661
0.41900003 0.080568418 -0.040235266 16711422
0.4225806 0.083602667 -0.044929124 16250871
0.50251585 -0.075237103 -0.034841154 15724004
0.49825004 -0.060784087 -0.031808838 16118508
0.50269061 -0.065122858 -0.036478862 16052457
0.49788892 -0.055268571 -0.033523921 16315630
0.50188005 -0.0559064 -0.037433717 16315886
0.47900003 -0.040213358 -0.030298015 15065308
0.48500001 -0.043178916 -0.032387517 15854822
0.49508333 -0.045204073 -0.03689111 16381679
0.50100005 -0.047926128 -0.039899524 16710900
0.47800002 -0.035098851 -0.030234762 15262687
0.48542309 -0.034936693 -0.033681341 15657955
0.49242854 -0.035495199 -0.037737705 16052969
0.47488239 -0.023454931 -0.032134563 14013387
0.48430005 -0.02493993 -0.036042333 14999767
0.49133334 -0.028086789 -0.038491614 15394526
0.46771428 -0.01377371 -0.031227557 14276559
0.47443911 -0.015503674 -0.035030264 13947594
0.48283339 -0.014353427 -0.039114073 14276559
0.45733333 -0.0028901126 -0.032314602 13618630
0.46375 -0.0072770528 -0.031777237 14342352
0.47644445 -0.0078956522 -0.036336422 13947337
0.48137498 -0.0054790508 -0.038900625 14144461
0.44826666 0.0075582699 -0.031853244 12500406
0.45351726 0.003840222 -0.034108117 12697527
0.46150002 0.0044745193 -0.037295699 12565428
0.43900001 0.019668631 -0.030851027 13618375
0.44383833 0.015628153 -0.034020793 12499638
0.43608448 0.026186367 -0.03433245 13618632
0.44104996 0.021927323 -0.036831371 12894910
0.4283846 0.037397508 -0.03110842 13684681
0.43217438 0.034580912 -0.035520233 13947597
0.42623883 0.045748405 -0.03372746 14013902
0.43024141 0.043274395 -0.037807584 14211025
0.41844445 0.058801193 -0.031148711 15526372
0.42322838 0.054828208 -0.03528906 14539477
0.4167223 0.065763518 -0.033680543 15526630
0.42091191 0.062936634 -0.037609082 15132129
0.4154256 0.074964978 -0.035019245 16053491
0.41571879 0.08397916 -0.034197267 15921908
0.42040005 0.085562259 -0.039188895 16119286
0.41500002 0.09048602 -0.030135933 6973803
0.45450002 -0.090824738 -0.020236382 15724521
0.45422226 -0.083915047 -0.020992909 15527142
0.45377436 -0.07421463 -0.021883707 15593191
0.50080001 -0.076045178 -0.028980767 15461604
0.45321032 -0.064758092 -0.022731462 15658728
0.45321956 -0.055903789 -0.022876054 15987692
0.45427275 -0.045291372 -0.020811731 16185071
0.46428576 -0.043317974 -0.024169063 15986921
0.4734616 -0.042734269 -0.027735244 15592163
0.48000002 -0.045915753 -0.029237578 14934235
0.45641175 -0.034864016 -0.020826334 15724521
0.46458063 -0.035040904 -0.024514368 15592420
0.47315007 -0.035680696 -0.028103048 15263199
0.44900003 -0.02192802 -0.021042615 14802649
0.45430776 -0.025050662 -0.022482852 15000028
0.46425009 -0.024709085 -0.027151018 14736855
0.47155559 -0.026467491 -0.029336819 14605268
0.44826669 -0.014200089 -0.021358462 14539221
0.45466661 -0.014901115 -0.024509726 14539477
0.46340907 -0.015732316 -0.028427266 14539475
0.44633332 -0.0042007184 -0.02331573 13618375
0.45396006 -0.0066576381 -0.027273878 13947596
0.46000001 -0.0095428117 -0.029096212 14276305
0.43645838 0.0066907648 -0.021991918 13026495
0.44376272 0.00420787 -0.02605271 12894909
0.42833334 0.016515467 -0.020408563 13026239
0.43430981 0.015261416 -0.024649952 12960446
0.44114286 0.012533401 -0.028273329 12828859
0.4270238 0.026149543 -0.022777269 13750476
0.43180394 0.023957985 -0.026980128 13355203
0.4245806 0.035301145 -0.024867671 13947853
0.43000001 0.031093396 -0.02896025 13749961
0.41813332 0.046334188 -0.022207435 14145489
0.42178565 0.044311266 -0.026572378 14276818
0.40900001 0.059496015 -0.020125471 14144460
0.41538772 0.055394679 -0.024409467 14473940
0.42041671 0.052134287 -0.028889388 14671833
0.40820509 0.066067845 -0.021655742 14868958
0.41235617 0.064527914 -0.026471412 15000029
0.40804625 0.074832112 -0.023623452 15856110
0.41102499 0.074993744 -0.028381798 15987697
0.40830311 0.083350539 -0.021598505 16316663
0.41181442 0.085481673 -0.02635574 15987701
0.41276926 0.090964489 -0.024634261 12039608
0.45706666 -0.13209948 -0.012008991 15855082
0.46083331 -0.13173588 -0.016294396 16052718
0.45856529 -0.12568526 -0.01169017 16184561
0.46164802 -0.12473148 -0.01593578 16382196
0.45844454 -0.11413055 -0.011867118 15986924
0.46139997 -0.11602409 -0.015875902 16316147
0.4575814 -0.10455658 -0.013354558 15921130
0.46000001 -0.1052862 -0.017446456 16184302
0.45551243 -0.095059477 -0.014983945 15724008
0.4489091 -0.083067566 -0.011007091 15263456
0.45253628 -0.085220411 -0.015472065 15461348
0.44780493 -0.074722409 -0.012399009 15527141
0.45185363 -0.075345986 -0.01712919 15527142
0.44582808 -0.064713605 -0.013614859 15592679
0.4507778 -0.066103488 -0.018371204 15658728
0.43900001 -0.051757 -0.010296891 16644853
0.44471955 -0.054993607 -0.014905354 15461349
0.45000002 -0.059374616 -0.018982563 15395556
0.43776199 -0.044269539 -0.011050308 15592934
0.4440189 -0.045536689 -0.015485389 15329763
0.45080003 -0.043121614 -0.019016311 15263970
0.43684998 -0.035141446 -0.011784393 15460834
0.44397292 -0.034798224 -0.016179461 14869212
0.45155558 -0.035797983 -0.01904818 15198177
0.43609291 -0.02462274 -0.011943965 14737368
0.44452956 -0.025074879 -0.017170411 14408661
0.42875004 -0.011655169 -0.010307548 14276305
0.43450004 -0.014707435 -0.013077051 14276818
0.44342503 -0.015535566 -0.018087763 13816267
0.42750004 -0.0048684743 -0.011612608 13947340
0.43382606 -0.0053326739 -0.015486131 14013646
0.44153845 -0.0061411699 -0.019262744 13224131
0.42593101 0.0053616255 -0.013588619 13092288
0.43206894 0.003550092 -0.01777669 13290181
0.41900003 0.01926301 -0.010808671 13552584
0.4237605 0.014856146 -0.014973778 13289154
0.41833332 0.026394272 -0.011916897 14144721
0.42217109 0.024658022 -0.016659265 13816012
0.41689193 0.035621103 -0.013846364 14145233
0.42072421 0.033486586 -0.018292094 14145232
0.40836364 0.048625827 -0.011403874 13487302
0.41434011 0.044619165 -0.015433239 14013390
0.40562966 0.055763826 -0.013732634 14210512
0.4116129 0.052786078 -0.017644713 13947339
0.40394589 0.06503351 -0.014735291 15197921
0.40335345 0.075027592 -0.015146661 16119282
0.40510878 0.084830679 -0.014718357 15987699
0.40833333 0.091671646 -0.014042247 15658479
0.41092858 0.093378864 -0.016922375 13552846
0.44829175 -0.13331068 -0.0015088362 15789801
0.45188653 -0.13376693 -0.0063973907 15591652
0.44783792 -0.12501121 -0.0015814898 16448246
0.4533684 -0.12516159 -0.0069737444 16250097
0.44671431 -0.11464119 -0.0018680692 16315889
0.45370606 -0.11545683 -0.0071509541 15921131
0.44606358 -0.10457712 -0.0032123222 15986922
0.45252001 -0.10583299 -0.0084130755 15592165
0.43900001 -0.090296008 -1.9821495e-05 14868442
0.44515395 -0.094833635 -0.0040828148 15592421
0.45114285 -0.096341088 -0.0090737557 15460579
0.43766674 -0.083878323 -0.0012363971 14934748
0.44437093 -0.085241176 -0.0061740349 15460836
0.43546802 -0.074582435 -0.0022182765 14869212
0.44279078 -0.075408362 -0.0073532593 15724008
0.42799997 -0.06298662 -0.000270399 14868698
0.43486959 -0.065010518 -0.0042104316 15066590
0.44081253 -0.066098221 -0.0087277591 15987691
0.42652005 -0.054779973 -0.00082035421 14934748
0.43425703 -0.055046327 -0.0058142976 15329506
0.44000003 -0.059600256 -0.0092902975 16250349
0.42545462 -0.044797178 -0.0017683759 14935005
0.43267924 -0.045080274 -0.0068487232 15066334
0.42466089 -0.034960657 -0.00240789 14935005
0.43173805 -0.034922637 -0.0074837198 15000541
0.41900006 -0.022915112 -1.8918467e-05 14606040
0.42411944 -0.025113882 -0.003469357 14342868
0.43095645 -0.025523661 -0.0082672713 14342611
0.41807148 -0.014198966 -0.00029879538 14605270
0.42436576 -0.015262067 -0.0050012753 14276818
0.43000001 -0.018483512 -0.0090791546 14145489
0.4173333 -0.0047788112 -0.0013508825 14144717
0.42324993 -0.0054379702 -0.006647801 13881803
0.41617399 0.0054987902 -0.0026804931 13355458
0.4216347 0.0044027655 -0.0079378001 13223616
0.41538602 0.015421814 -0.0044910964 13552839
0.42033339 0.012927476 -0.0095313145 13420996
0.40875003 0.029077919 -0.00025782472 13552582
0.41428444 0.024840383 -0.0049459706 14013391
0.40651858 0.036199443 -0.0022625241 13289152
0.41274637 0.03397591 -0.0069322228 13881804
0.39775005 0.047498751 -0.00083380373 13684426
0.40422782 0.044759333 -0.005111773 13354688
0.41083333 0.041648302 -0.0093159033 13486530
0.39659464 0.055481467 -0.0028093811 14934235
0.40153995 0.053966783 -0.0076159532 14342098
0.3957527 0.064885214 -0.0036668384 15790317
0.40000007 0.064150244 -0.0088400012 15790572
0.39703485 0.074929513 -0.0036024074 16185076
0.39999995 0.075546362 -0.0086978348 16119284
0.39802134 0.083455458 -0.0023396632 16119284
0.4011147 0.086046852 -0.0065171993 15856113
0.40351346 0.091965988 -0.0052176826 15066341
0.43700013 -0.13433856 0.0077511761 15000288
0.44268748 -0.13328175 0.0031804028 15657704
0.43733341 -0.12490349 0.0077970433 15526373
0.44266677 -0.1250224 0.0032859438 15921131
0.43597773 -0.11464784 0.0069356877 15263455
0.44202942 -0.11532836 0.0025024891 15592165
0.42705002 -0.10393629 0.0091762347 14474454
0.43470365 -0.10487893 0.0051127952 15132125
0.44107145 -0.10621309 0.0014544247 15395297
0.4258621 -0.094641387 0.008089249 14342354
0.43444902 -0.095685109 0.0038287782 14671576
0.44000003 -0.098742075 0.0010101813 15198431
0.41799998 -0.082622938 0.0094866632 14540247
0.42360008 -0.08503481 0.006642221 14342611
0.43294737 -0.084417082 0.0017370776 14539991
0.41570005 -0.0745354 0.0081266854 14671832
0.42402276 -0.074940115 0.003784796 14540247
0.43050003 -0.077463247 0.0012400299 14540247
0.41442633 -0.064946376 0.0072395927 15000798
0.42348734 -0.065169722 0.0024408686 14935261
0.41428995 -0.054808043 0.006927467 15066332
0.42179418 -0.055218808 0.0021561056 15066076
0.40863636 -0.044656202 0.0092866709 14933977
0.41466182 -0.045046534 0.0055081467 15066076
0.42093751 -0.045441516 0.0013355657 14868699
0.40796301 -0.034497924 0.0087525928 14869212
0.41453534 -0.035058942 0.0042333626 14671833
0.42000002 -0.037226599 0.00096426392 15197921
0.40752634 -0.024949048 0.0081633953 14540248
0.41407698 -0.024979664 0.0035354742 14540247
0.40754539 -0.015132969 0.0080883289 14408662
0.4133215 -0.014796585 0.003393288 14408404
0.40733349 -0.0049546012 0.0076855556 14079696
0.41271162 -0.0053309258 0.0029855219 14211282
0.40685716 0.0051504299 0.0069142524 13420996
0.41170001 0.0044933874 0.0022681758 13355459
0.40529642 0.015155158 0.0063288352 13486788
0.410909 0.014691574 0.0015547171 13684424
0.39752945 0.027222198 0.0086854035 13223873
0.40500012 0.024768675 0.0046530296 13289410
0.41000003 0.021728698 0.00094130525 14078926
0.39512861 0.035946507 0.0065540993 13355460
0.40215901 0.033587828 0.0027380185 13092030
0.38883331 0.046017706 0.0092364866 14605530
0.39317521 0.044786453 0.0045716804 14145235
0.40000001 0.040863279 0.00091834657 13091773
0.38892302 0.054405011 0.0088068191 15658988
0.39187935 0.055268385 0.0038338152 15198438
0.38899997 0.06258183 0.0096202139 15987952
0.3917397 0.065148458 0.0049284864 15856367
0.3929441 0.074958622 0.0049947244 16053488
0.39536738 0.084908202 0.0049897274 16053745
0.39767501 0.092132121 0.0061228261 14737375
0.40000001 0.092365675 0.00091834657 15657192
0.40833333 -0.13720043 0.019417474 14408154
0.4131363 -0.13369894 0.017230285 14868960
0.42547065 -0.13233268 0.013568606 15197922
0.43230435 -0.13477182 0.011022961 15197923
0.41427508 -0.12521157 0.017892834 14934494
0.4242802 -0.1249264 0.013955649 15197408
0.43224996 -0.12493075 0.010654235 15197407
0.41472501 -0.11520283 0.017936591 14934749
0.42423397 -0.11482938 0.013705387 14868443
0.43121433 -0.11631459 0.010507251 15197407
0.40875003 -0.10177738 0.019119367 14803673
0.41446507 -0.10494452 0.017257564 14737368
0.42306247 -0.10556836 0.012849134 14474454
0.4073824 -0.09456455 0.018716084 14802904
0.41437262 -0.095004752 0.014636521 14671574
0.42106253 -0.095972791 0.011377796 14408659
0.40498275 -0.084707186 0.017495636 14671574
0.41400006 -0.08540497 0.012762658 14605525
0.42000002 -0.08884605 0.010796539 14473684
0.39807144 -0.073759273 0.019218504 14803417
0.4037632 -0.074724913 0.015388316 14671832
0.41161114 -0.076475956 0.01132924 14474196
0.39735484 -0.064477719 0.018614605 15132383
0.40404764 -0.065084741 0.013680452 15000540
0.39680964 -0.054899268 0.018048331 15197661
0.40400013 -0.054734349 0.013264558 15066076
0.39647835 -0.044786502 0.01791531 15197662
0.40344286 -0.04519099 0.013111988 15000027
0.39620355 -0.035030585 0.017634599 15000796
0.40268248 -0.03497339 0.012633495 15000027
0.39596814 -0.0247238 0.017234011 14540248
0.40229094 -0.025245134 0.012424183 14605784
0.39529222 -0.014748515 0.017057326 14277076
0.40258175 -0.014948816 0.012227607 14474455
0.39598289 -0.0050873244 0.017241377 14079440
0.40226921 -0.0050140391 0.012326838 14013904
0.39513695 0.0050540715 0.016749332 13158080
0.40170836 0.0043594623 0.011968168 13355460
0.38841176 0.017508147 0.018915789 13157825
0.39432964 0.014878784 0.014874239 12894909
0.40040004 0.012876073 0.010854702 13026496
0.38683566 0.025439952 0.017492706 13552839
0.39298409 0.024348728 0.012430749 13158082
0.38543224 0.035254627 0.015762135 13882576
0.39108333 0.03373063 0.010777167 13552840
0.38506514 0.045027241 0.015242832 14935010
0.38634211 0.055058867 0.015427317 15724780
0.38801742 0.064902797 0.015340248 15987695
0.39000002 0.068144605 0.010025358 16119536
0.38829902 0.074477032 0.016377993 15856109
0.39022866 0.075846896 0.01115318 15987693
0.38862756 0.08371979 0.017819956 15725038
0.39165714 0.085595816 0.012970754 15790319
0.38900003 0.09028095 0.019106213 16054262
0.39335138 0.091888927 0.01378172 14605790
0.38900003 -0.14041857 0.028516324 15197157
0.38900003 -0.13920437 0.029123429 14868191
0.39422783 -0.13493438 0.026452746 14999775
0.40472502 -0.13359311 0.021669857 14933983
0.38900003 -0.12008058 0.029123429 15329763
0.39390141 -0.12506859 0.026802855 15066079
0.40492749 -0.12486921 0.021997165 14934494
0.38861111 -0.11414883 0.029447546 15329506
0.39412975 -0.1151143 0.026696954 14934749
0.40464407 -0.11514396 0.022416621 14868700
0.41000003 -0.11216583 0.020137653 15460835
0.38850001 -0.10491915 0.029540151 15065565
0.39426786 -0.10500503 0.02675676 14868442
0.40416667 -0.10478064 0.022268714 14802906
0.38900003 -0.099135496 0.029123429 15328993
0.39424622 -0.094844729 0.027005181 14868954
0.40245646 -0.095212586 0.022465428 14934234
0.38854998 -0.084467173 0.029498478 14869212
0.39427376 -0.084499538 0.025240222 15131357
0.40082356 -0.086971737 0.021397118 14605781
0.38757509 -0.074345879 0.028560245 15066077
0.39365047 -0.075239845 0.023553684 14868442
0.38662317 -0.06468907 0.027311375 15329504
0.39277193 -0.065512404 0.022350451 15263711
0.38535953 -0.054985929 0.026537726 15263712
0.39206985 -0.054986339 0.021516174 15328991
0.38514736 -0.044831652 0.026325492 15263712
0.39196977 -0.044835828 0.021085653 15461090
0.38558686 -0.035088513 0.026421268 14935004
0.39154291 -0.035228234 0.02148062 15001053
0.38540605 -0.025081513 0.026245588 14343125
0.3914572 -0.024983559 0.021188805 14277333
0.38550484 -0.015115569 0.025800604 14474199
0.39091313 -0.015509747 0.020750636 14342869
0.38486889 -0.0052819271 0.026095022 13816267
0.39103034 -0.0053659338 0.021035187 14013388
0.37853336 0.0068569421 0.028871069 13290435
0.38484469 0.0046549835 0.02506813 13092544
0.3908422 0.0041203783 0.020496322 13223873
0.37794444 0.015996803 0.028711842 13290437
0.38424987 0.014742254 0.023684084 13158595
0.37761912 0.025141187 0.027916867 14079698
0.38201451 0.02491498 0.022931417 13750736
0.37778652 0.034982841 0.027167076 14606046
0.38074994 0.034754883 0.022005111 14408408
0.37850004 0.0424967 0.027671466 15461353
0.38124445 0.045514286 0.023987412 15658733
0.38328904 0.054862507 0.025098154 15856109
0.38416928 0.065007128 0.025241837 15658986
0.384 0.07502424 0.025157267 15658731
0.38531604 0.085027255 0.025074398 15724527
0.38669455 0.091328532 0.024964651 15132393
0.38351616 -0.14163771 0.036345944 15526374
0.37863636 -0.13291763 0.039467365 15921136
0.38448355 -0.13512518 0.034430433 15394789
0.39000002 -0.13317123 0.030111292 14934237
0.37831444 -0.12505619 0.038975637 15855339
0.38419464 -0.1249624 0.033649784 15460837
0.37797886 -0.11473993 0.038255688 15723752
0.38348231 -0.11524848 0.033334158 15197921
0.37696779 -0.10506695 0.037526634 15592423
0.38373914 -0.10502772 0.032742716 15131871
0.37602571 -0.094856396 0.037094075 15395300
0.38466662 -0.095087737 0.032075342 15131614
0.37587926 -0.085503742 0.037342217 15395299
0.38359138 -0.084752828 0.032831881 15131871
0.37630883 -0.075054295 0.037441909 15395042
0.3826834 -0.074847385 0.03267457 15000028
0.37646687 -0.064800173 0.036567517 15263714
0.3814888 -0.065351844 0.031753615 15263455
0.3763499 -0.05494263 0.036095392 15329506
0.38072717 -0.055137336 0.031177167 15132382
0.37522984 -0.044740435 0.036146097 15000797
0.38063329 -0.045559105 0.031021051 15197919
0.37487113 -0.035022121 0.035973981 14869468
0.38060874 -0.03485702 0.030741656 14803675
0.37500778 -0.024956699 0.035815857 14408661
0.38060004 -0.025136417 0.030676961 14408661
0.37459069 -0.014887595 0.035930466 14277076
0.38055006 -0.015421914 0.030672859 14342612
0.37454447 -0.0050821304 0.035387319 13750475
0.38022226 -0.006109409 0.030246474 13750732
0.37406436 0.0049391915 0.03497275 13421510
0.37333101 0.014884923 0.035195705 13553355
0.37238878 0.024965772 0.035276972 14277338
0.37294638 0.035013784 0.03529349 14935010
0.3757132 0.044956516 0.034824852 15330280
0.38000003 0.049495161 0.030228795 15987952
0.37704134 0.054730155 0.036300633 15592937
0.38063887 0.055841275 0.031343166 15592681
0.37762219 0.0648598 0.03701089 15724010
0.38088453 0.065282702 0.031977728 15790317
0.37797582 0.074708976 0.03699242 15790574
0.38079241 0.075459115 0.032056399 15658990
0.37845165 0.083118021 0.038335584 15592940
0.38146165 0.085471779 0.033912975 15724785
0.3835001 0.092892349 0.035272062 13947861
0.3856 -0.15218967 0.046948254 14342100
0.37689471 -0.14241907 0.046762135 15723500
0.38264444 -0.14615303 0.043474469 14802652
0.37508747 -0.13497913 0.045273017 15789549
0.38000003 -0.13865246 0.040014252 15065570
0.37371418 -0.12502369 0.045040332 15855340
0.37285081 -0.11502372 0.044927143 15790059
0.36894444 -0.1032376 0.048926495 15724010
0.37208489 -0.10514307 0.044256065 15592423
0.36825433 -0.094448283 0.048127517 15658473
0.37171787 -0.095284194 0.042964257 15658472
0.36791664 -0.084996037 0.047074534 15658729
0.37106574 -0.085138679 0.041932937 15526886
0.3677952 -0.075162023 0.047366526 15526885
0.37123603 -0.075054355 0.042129654 15526885
0.36772418 -0.064771622 0.047138087 15592934
0.37138104 -0.065195285 0.041973256 15395043
0.36747205 -0.054995649 0.046896406 15395556
0.37137288 -0.055004615 0.041740261 15329507
0.36736897 -0.044884812 0.046585236 15263457
0.37078044 -0.045609739 0.041646026 15132128
0.36708012 -0.035003196 0.046355117 14803420
0.37044442 -0.035003331 0.041608918 14803419
0.36688009 -0.0249795 0.046307255 14474712
0.37056667 -0.025385201 0.041535947 14408663
0.36683735 -0.015018102 0.045782559 14277334
0.37019992 -0.014481718 0.041062061 14342870
0.36674798 -0.0049435222 0.045700718 13619406
0.3702352 -0.0056937854 0.041025177 13816526
0.36646903 0.0047982186 0.045542166 13619406
0.36999995 0.0058737383 0.040879197 13553614
0.36693281 0.015186668 0.04546174 13948116
0.36999997 0.014844853 0.040693592 13750480
0.36724269 0.025052272 0.045109842 14474458
0.36763802 0.034653295 0.046486937 14803424
0.37051609 0.036188155 0.041700888 14869217
0.36834487 0.042759672 0.048450038 15000804
0.37140194 0.045481231 0.043939073 15329766
0.3724182 0.054969992 0.044807516 15658989
0.37388742 0.064933643 0.045087446 15856112
0.37483585 0.074860588 0.045219511 15921905
0.37641013 0.084463917 0.045253608 15658993
0.38020003 0.089306578 0.041102815 15132649
0.37829041 0.091966867 0.047117129 15132907
0.38105267 0.092239901 0.041625932 15329259
0.37833333 -0.15103465 0.057748839 14803166
0.38273805 -0.15362726 0.054269701 14276309
0.37374476 -0.14443089 0.055132098 15460584
0.38033333 -0.14916195 0.051030289 14538964
0.36849061 -0.13416144 0.057519127 15987183
0.37084943 -0.13564751 0.05306942 15724014
0.36791274 -0.12499511 0.05610624 15921135
0.37054285 -0.12533768 0.051260933 15986671
0.36742249 -0.11480244 0.055369429 15855855
0.36999997 -0.11697149 0.050457772 15987185
0.36700022 -0.10512791 0.055007629 15724010
0.3657842 -0.094970241 0.055220831 15461095
0.36501473 -0.085010521 0.055063207 15395559
0.36437908 -0.075093776 0.055046305 15395558
0.36430264 -0.065057769 0.05504543 15330023
0.36424309 -0.054882005 0.054977354 15330022
0.36378363 -0.044942375 0.054844096 15329766
0.36373684 -0.035253603 0.054966278 14737629
0.36372182 -0.02500168 0.054899678 14277335
0.36309013 -0.014758436 0.054801948 14013907
0.36228362 -0.004918844 0.055030346 13487819
0.36240354 0.004785079 0.055119932 13488078
0.36343718 0.015008209 0.054856401 13816787
0.36392155 0.025152447 0.055012733 14277081
0.36516446 0.035062928 0.055002809 14606557
0.36722922 0.044813365 0.055208854 15001061
0.37 0.049203198 0.050510269 15592941
0.36826837 0.054171052 0.056565557 15592942
0.37041527 0.05597816 0.052272674 15921905
0.3689 0.061435431 0.058708012 15593199
0.37110993 0.065348938 0.054719832 15922160
0.37246415 0.075013518 0.055078637 15658990
0.37412083 0.084817193 0.055028688 15527148
0.37793759 0.092083611 0.054653946 15131879
0.38000005 0.095054708 0.05717057 9736086
0.37839401 -0.15221365 0.065560706 14737116
0.38117856 -0.1561663 0.065185323 14145237
0.36849999 -0.14087254 0.066837713 15855600
0.37321633 -0.14589193 0.064789273 15197155
0.36738655 -0.13491219 0.064915001 15987441
0.36660931 -0.1251471 0.064741977 15921391
0.36563668 -0.11500885 0.065034106 15592429
0.36474812 -0.10484969 0.064960644 15395305
0.36399952 -0.094894662 0.065171584 15132389
0.3634392 -0.084966585 0.065070577 15066339
0.36288175 -0.075065918 0.064970359 15000545
0.36227745 -0.064762481 0.064860433 15000545
0.36224598 -0.054928344 0.064791664 14869218
0.36226737 -0.045187388 0.064921893 14671840
0.36320996 -0.035273191 0.064835571 13948374
0.36333817 -0.024792591 0.064753175 13290443
0.36199287 -0.014716361 0.064813823 13093064
0.36123577 -0.0050194687 0.065018408 12829892
0.36137116 0.004770644 0.065126702 13093065
0.36222199 0.014960323 0.064853497 13488079
0.36352745 0.025226377 0.065087266 14014679
0.36452815 0.035013724 0.065003082 14212058
0.3660365 0.045219474 0.06488283 14737890
0.36726534 0.055147517 0.064895749 15330025
0.36845994 0.063805297 0.065598585 15527149
0.37029997 0.068257071 0.063466221 15922163
0.37099957 0.074909449 0.064835131 15461611
0.37220487 0.084675215 0.064884014 15264235
0.37517643 0.091569819 0.0647856 13290450
0.37722045 -0.1534313 0.075354494 13948114
0.38100001 -0.15685745 0.070445098 13947859
0.36824331 -0.14158614 0.075076528 15395563
0.37233961 -0.14686579 0.075616978 14539997
0.36654913 -0.13465096 0.075018294 15329771
0.36595476 -0.12496097 0.074945152 15526892
0.36500055 -0.11480813 0.074749827 15395306
0.36496198 -0.10503018 0.074814558 15131877
0.3642498 -0.094961576 0.075024292 14934755
0.36378613 -0.084973663 0.074826777 14540253
0.36334077 -0.075159527 0.074838258 14539997
0.36321187 -0.06492959 0.074813552 14474204
0.36337101 -0.054748639 0.074846223 14277596
0.36468279 -0.045006681 0.074979469 13948888
0.36707324 -0.034837861 0.075019069 8488325
0.36662003 -0.025119631 0.074710026 8553861
0.36462405 -0.014590041 0.075086862 11842998
0.36304945 -0.0049839625 0.074780792 12303805
0.36240414 0.0047778576 0.074795224 12435647
0.36315146 0.014997317 0.074799247 13290699
0.36434683 0.024978707 0.074962728 13817043
0.36544886 0.034984287 0.07508447 13948116
0.36651844 0.044988036 0.074841894 14343131
0.36769122 0.055126887 0.074935615 14737889
0.36860269 0.063136496 0.074419327 14803682
0.37006006 0.067744792 0.076081149 14869219
0.37096906 0.074773923 0.075067654 15000804
0.37267792 0.084753737 0.075017214 14803682
0.37391305 0.090965956 0.073665954 13157578
0.37727275 -0.15221678 0.084723555 13355976
0.38000003 -0.15466502 0.088941529 11975095
0.3687143 -0.14082357 0.081614979 14145496
0.37290373 -0.14537118 0.08528199 13948116
0.36753994 -0.13470314 0.084879212 14474717
0.37 -0.13933459 0.088766396 14211290
0.36683503 -0.1250172 0.085108414 14737633
0.36663029 -0.11505449 0.084892757 14803170
0.36596033 -0.10501922 0.084873021 14540254
0.36566955 -0.09501949 0.084717266 14539997
0.36540636 -0.084922254 0.084697261 14408412
0.3648884 -0.075130388 0.084917977 14474204
0.3645488 -0.06516768 0.084901713 14671583
0.36523989 -0.055088311 0.084996 15066341
0.36731136 -0.04493349 0.084998861 14145496
0.36823773 -0.034828868 0.08485993 2896687
0.36788723 -0.024894815 0.084848925 3093298
0.3670727 -0.014925993 0.085056566 11448239
0.36463672 -0.0050058966 0.084920935 12435133
0.36417809 0.0048123081 0.084947944 12567234
0.36449993 0.015052872 0.084889635 13422286
0.36538196 0.024892952 0.085058942 13751508
0.36687902 0.034907348 0.085013792 14079700
0.36812189 0.044968955 0.085063532 14342874
0.36883867 0.053626984 0.082639322 14672096
0.37013453 0.056157965 0.086568452 14541024
0.36900005 0.060875963 0.080608003 14541023
0.37099159 0.065231331 0.085284971 14737633
0.37229812 0.075024448 0.085049942 14606305
0.37427792 0.084709749 0.084677644 14408671
0.37500003 0.090872496 0.082174756 11709621
0.37841669 -0.15084654 0.092631817 12960965
0.38070005 -0.15227602 0.094988577 12303549
0.37556767 -0.14466913 0.094505467 13224138
0.38083336 -0.14831746 0.099092521 12105914
0.36899999 -0.13279599 0.091146797 14342874
0.37169331 -0.13515896 0.095556572 14079703
0.36862513 -0.12490185 0.091430686 14671583
0.37079039 -0.12499355 0.096272938 14079959
0.36848944 -0.11494202 0.091828212 14211548
0.37077796 -0.11479308 0.096911624 14014166
0.36831084 -0.10440876 0.093105763 14342876
0.37044686 -0.10571932 0.098109521 14145497
0.36775011 -0.094722413 0.094680443 14474204
0.37 -0.099490471 0.099593602 14869218
0.36748868 -0.085085548 0.095084414 14277081
0.36608478 -0.074944042 0.095165931 14671839
0.36513674 -0.064866632 0.095163263 14803426
0.36546898 -0.055082962 0.095201015 15198185
0.36743075 -0.045035545 0.095030062 13356238
0.36640325 -0.034968227 0.095039912 2765103
0.36577463 -0.025170209 0.094991192 2830384
0.3668372 -0.014994576 0.094977781 10987688
0.36524633 -0.0049187243 0.095098585 12632769
0.36500055 0.0048178243 0.095256977 12896198
0.36543101 0.014983118 0.095129669 13619665
0.36686906 0.025063422 0.095275789 13948375
0.36797848 0.03490204 0.095004804 13948117
0.36888468 0.042069178 0.092817202 14276568
0.37056708 0.046108004 0.09588442 14540254
0.37115419 0.054798249 0.094779052 14671839
0.37269193 0.064717375 0.094856568 14540255
0.37450022 0.074868821 0.094893843 14474717
0.37672639 0.083497189 0.094627723 13948376
0.38380003 -0.15136062 0.10223226 11974584
0.3782917 -0.14175662 0.10337653 13027272
0.38125581 -0.14563237 0.10473762 12040377
0.37644836 -0.13465305 0.10460994 13488593
0.38057145 -0.1388613 0.10905788 12698306
0.37493655 -0.12505266 0.10484204 13882581
0.37360725 -0.11501101 0.1048816 14079959
0.3717728 -0.10493092 0.10488639 14013910
0.3689 -0.092890911 0.10154301 14605786
0.37068427 -0.095693268 0.10572647 13948115
0.3682636 -0.084911145 0.1048099 14474203
0.37 -0.088554978 0.10901328 13881552
0.36672887 -0.074907139 0.10501835 14474204
0.36521164 -0.064923368 0.10506187 14671838
0.36542252 -0.054970752 0.1050923 15066597
0.36688915 -0.044972025 0.10519717 11974328
0.3640815 -0.034890171 0.10503948 2567980
0.36364114 -0.024958264 0.10507459 2632748
0.36664119 -0.014847599 0.10508374 10922151
0.3652738 -0.0050745322 0.10495957 12567233
0.36476493 0.0047094258 0.1051958 12961735
0.3658348 0.015215606 0.10506462 13619665
0.36706278 0.024947574 0.10509931 13948374
0.36844888 0.033875752 0.10448304 14080474
0.3700937 0.038349722 0.10644233 14146010
0.37113214 0.045029484 0.10514227 14409182
0.37346232 0.055271313 0.10497531 14474462
0.37553576 0.065213278 0.10480899 14540254
0.37714821 0.074674524 0.104655 14408926
0.38025001 0.07912609 0.10880682 14803427
0.37866667 0.082170911 0.10123688 14277340
0.38112494 0.083343029 0.10565727 13355985
0.38173336 -0.14166744 0.11204669 11908535
0.37899998 -0.1316966 0.11114211 13553358
0.38140738 -0.13461435 0.11498064 12830149
0.37815693 -0.12464963 0.11234466 13553873
0.38101804 -0.12535261 0.11761159 12961478
0.37739143 -0.11460634 0.11454397 13356237
0.38020006 -0.11852127 0.11836062 13027530
0.37565708 -0.10510257 0.11476026 13290187
0.37345386 -0.094919331 0.1149882 13422029
0.36877272 -0.082091033 0.11229198 13816528
0.37133351 -0.085995726 0.1156798 13356491
0.36784342 -0.074686527 0.11349881 14079958
0.37057135 -0.076006189 0.11880213 12961992
0.36695847 -0.064892814 0.11502317 13948116
0.36635965 -0.055050716 0.11481813 14342876
0.36711961 -0.044941142 0.1152256 10658725
0.36200705 -0.034537625 0.11502067 2304293
0.36208591 -0.025019933 0.11510774 2172709
0.36640781 -0.014975779 0.1150383 10330016
0.36532336 -0.0050145262 0.11501443 11777720
0.36531565 0.0048377342 0.11494073 12501441
0.36652285 0.015137364 0.11496479 13290701
0.36792785 0.025038365 0.1147132 13487823
0.37 0.028920224 0.11929913 12829894
0.3687098 0.031889841 0.11264008 13685459
0.37100017 0.035803575 0.11585145 13553874
0.37317258 0.04464275 0.11495128 13948888
0.37575898 0.054761607 0.11472194 14080218
0.37801245 0.064265549 0.11378177 14014424
0.3804231 0.067088678 0.11819053 13553873
0.37870374 0.072492652 0.11188588 14211546
0.38101137 0.075799316 0.11601058 13817303
0.38255772 0.082604423 0.11487781 13685721
0.38239998 -0.13236791 0.1204768 12040891
0.38178262 -0.12395528 0.1213398 11974071
0.37899998 -0.1114167 0.12140882 11974585
0.38060713 -0.11625091 0.12179644 12105914
0.37751716 -0.10410886 0.12176069 11711927
0.37681818 -0.094667301 0.12317821 11909819
0.37547508 -0.08485119 0.1242993 11514547
0.37219098 -0.074579976 0.124153 11514804
0.36857146 -0.062961102 0.12173562 12895943
0.37075022 -0.06554243 0.12558194 11777463
0.36829093 -0.055059303 0.12241423 13093322
0.37071693 -0.05498885 0.12755901 12040377
0.36789331 -0.04447576 0.12349699 9474963
0.37054056 -0.046581578 0.12749858 10658980
0.35833323 -0.032976594 0.1266015 2304808
0.36128592 -0.0357752 0.12347792 2370344
0.35868889 -0.027014399 0.12642269 2305066
0.36075273 -0.023787016 0.12435345 2239017
0.3669281 -0.014982694 0.12462463 9540500
0.37 -0.012006623 0.12990978 10000795
0.36757454 -0.0052278708 0.1244948 11186351
0.36999995 -0.0050105816 0.12950999 10658983
0.36777908 0.0045147198 0.12354698 11580597
0.37053335 0.006338703 0.12830482 10792108
0.36827278 0.014150288 0.12207396 12436162
0.37148154 0.015662737 0.12679403 11515319
0.36899999 0.022255315 0.12059639 13421775
0.37182686 0.025129763 0.12515183 12172993
0.37432346 0.03514557 0.12494969 12435907
0.37697932 0.044962499 0.12471455 12962251
0.38000003 0.048309043 0.1291212 13159887
0.37829736 0.053068202 0.1222453 13357010
0.38128784 0.055994458 0.1263974 12962253
0.38267314 0.064876601 0.12482453 13159116
0.38422441 0.07502991 0.12501739 12962250
0.3848668 0.082294084 0.12422045 13422802
0.37100002 -0.053695749 0.13106512 10527394
0.36808699 -0.041392516 0.13501024 8357252
0.37126422 -0.046141662 0.13299499 9869720
0.35900006 -0.032940447 0.13052988 2239015
0.36581823 -0.035750523 0.13544242 1581086
0.37043744 -0.033212591 0.13916953 792082
0.36443752 -0.024505733 0.13426045 1712159
0.37054542 -0.027401621 0.13924956 659470
0.36558068 -0.018011557 0.1334848 8816521
0.37114292 -0.012989565 0.13448665 9738137
0.3712334 -0.0050761853 0.13289364 9869722
0.37266111 0.0043506138 0.13274197 9804184
0.37413326 0.014914237 0.13194609 10133408
0.37405562 0.023911107 0.13099323 10462373
0.37779421 0.036100302 0.13158014 10659495
0.37852943 0.042241246 0.13139334 11054766
0.38061115 0.047200244 0.13195249 11514805
0.38300005 0.054944586 0.1316662 11383477
0.38593107 0.065398321 0.13142236 11843515
0.38715398 0.07398957 0.13129744 11778234
0.36350003 -0.040797204 0.1466794 5527382
0.36503354 -0.035385668 0.1462065 857360
0.37057897 -0.032822024 0.14223504 660753
0.36443755 -0.024762211 0.14701186 1118989
0.37093189 -0.027095197 0.14316233 725776
0.36100003 -0.018686706 0.14872263 4791063
0.35900003 -0.040224135 0.15798378 1119756
0.36041933 -0.041145053 0.15490368 1514518
0.35877788 -0.034824617 0.15838939 1119759
0.36088291 -0.034909062 0.1538536 1186324
0.35900003 -0.028962437 0.15899229 922382
0.36086869 -0.024837621 0.15479051 1251346
0.36100003 -0.018792346 0.15284252 3681318
0.34533337 -0.041072108 0.16867258 2633513
0.35715792 -0.040765382 0.16591942 593676
0.36050004 -0.04123731 0.16159941 2699044
0.34699997 -0.03538071 0.16845715 1910046
0.35582739 -0.034665368 0.164591 1383701
0.34766665 -0.025748072 0.16902116 1975330
0.35538933 -0.026463332 0.16564773 1317909
0.36022735 -0.02491305 0.16147491 1449495
0.34216076 -0.041597757 0.17471953 2501416
0.34284282 -0.035169818 0.17340797 2304289
0.3432622 -0.025456985 0.17251141 2041378
