# .PCD v0.7 - Point Cloud Data file format
VERSION 0.7
FIELDS x y z rgb
SIZE 4 4 4 4
TYPE F F F U
COUNT 1 1 1 1
WIDTH 782
HEIGHT 1
VIEWPOINT 0 0 0 1 0 0 0
POINTS 782
DATA ascii
0.79140007 -0.064587593 0.11483081 11843245
0.78900003 -0.1336565 0.15881181 15328220
0.79240745 -0.13509239 0.15399522 12565429
0.78728569 -0.12441673 0.15793669 14737110
0.77616674 -0.11240578 0.15895285 15000026
0.78585005 -0.11518502 0.15623882 14737625
0.79176927 -0.11509106 0.15166762 13027264
0.76800007 -0.10103303 0.15937851 15000282
0.77474993 -0.10483105 0.15718544 15000282
0.78528577 -0.1051871 0.15385707 14408660
0.79155564 -0.10557296 0.15088293 12566711
0.76529998 -0.094709411 0.15851863 14934489
0.77417654 -0.095164582 0.15571749 14606551
0.78536379 -0.094850734 0.153062 12106161
0.79163641 -0.094764858 0.15091695 12435125
0.75900006 -0.083265282 0.15988068 14539731
0.76300007 -0.085002728 0.15796043 14671830
0.7725715 -0.085528836 0.15588844 14672087
0.78527278 -0.084805883 0.15354639 11579817
0.7924 -0.085071556 0.15114693 12171953
0.75816661 -0.075187869 0.15970512 14539731
0.76254553 -0.075212747 0.1580279 14672087
0.77433336 -0.075401679 0.15609579 13158592
0.78620005 -0.075210616 0.15437898 11579560
0.75799996 -0.064523406 0.15967001 14737108
0.76408339 -0.065039776 0.15826476 14869208
0.77430004 -0.065002963 0.15675752 12500407
0.78563637 -0.065451935 0.15545687 11382180
0.75900006 -0.054835957 0.15988068 14737365
0.76300001 -0.055123072 0.15893707 14868694
0.77475005 -0.056422461 0.15798023 12236974
0.78575003 -0.055618264 0.15746528 10789786
0.74799997 -0.043536305 0.15931465 14802901
0.75575 -0.045751814 0.15963529 14671573
0.76216674 -0.045254704 0.15876348 14803672
0.77649999 -0.047920771 0.15811357 9934991
0.78528565 -0.044129994 0.15780032 10921885
0.74760002 -0.036508542 0.15922946 14671315
0.75566673 -0.034548607 0.15947114 14737108
0.76133341 -0.034506582 0.1585899 14473679
0.77399999 -0.032728143 0.15796551 10855066
0.7859 -0.034701511 0.15726432 11447972
0.75866669 -0.02817031 0.15981047 14868694
0.76400006 -0.027473692 0.15914537 14013385
0.77430004 -0.025123954 0.15856971 11380895
0.78659999 -0.02552403 0.1574052 11250081
0.79082614 -0.024859499 0.15314046 11316644
0.77588898 -0.016097303 0.15919788 11972775
0.78522235 -0.014452707 0.15866138 11184287
0.79072726 -0.014298719 0.15411 11184802
0.78775001 -0.0075802202 0.15901962 11052960
0.79214823 -0.0050987904 0.15429135 11053475
0.78900003 -0.14122948 0.16620007 12894654
0.79185009 -0.14545092 0.16420305 11118500
0.77900004 -0.13105069 0.16865274 14933977
0.78568965 -0.1351613 0.1646722 14473428
0.77604353 -0.1244733 0.16544163 14276048
0.78288895 -0.12702133 0.16165045 14276303
0.77370977 -0.11520559 0.16461052 13749958
0.76760006 -0.1021804 0.16528709 13486788
0.77076477 -0.10758918 0.16522427 13881801
0.76246417 -0.094168194 0.1647547 13552582
0.75862509 -0.08344698 0.16490731 13684168
0.76009101 -0.0879144 0.16480207 13749960
0.75573534 -0.074742362 0.16512142 13815496
0.74900001 -0.061127171 0.16741803 13881547
0.75225019 -0.065168642 0.16436502 14144717
0.74728125 -0.054374922 0.16550189 14079181
0.75233334 -0.056504145 0.16101792 14605523
0.7450335 -0.045107465 0.16478573 13947595
0.74438894 -0.035482481 0.16464284 13947594
0.74461102 -0.025033737 0.16468978 14210508
0.75500005 -0.025375932 0.16080555 15131353
0.76066667 -0.022902371 0.16023175 14868694
0.74484849 -0.014817789 0.16513914 14276560
0.75577772 -0.013911325 0.16155776 15328989
0.76300007 -0.015317609 0.16046609 14999766
0.74705881 -0.0062368503 0.1666225 14342870
0.75620002 -0.0045349435 0.16495332 14408406
0.76350003 -0.0054175612 0.16290897 14145232
0.77583331 -0.0055033057 0.16160642 12236720
0.78575003 -0.0036535175 0.1611436 10789531
0.76100004 0.00024650231 0.16920954 10790305
0.77399999 0.00085547619 0.16726513 11053476
0.78762507 0.0030219171 0.16591044 11053475
0.79222739 0.0064992611 0.16367427 10921889
0.78883338 -0.14224616 0.17601323 12038831
0.79141182 -0.14621866 0.17477235 10460313
0.77775002 -0.13129632 0.17611828 14868442
0.78415 -0.1367878 0.17490429 14407635
0.77433336 -0.12483049 0.17489293 14670807
0.77296567 -0.11555947 0.17492774 13815754
0.76835722 -0.10176633 0.17534198 13815497
0.77111119 -0.10716055 0.17526865 13815498
0.76360714 -0.094567232 0.17495862 13618119
0.75878572 -0.082861528 0.17404667 13354946
0.76043755 -0.087095447 0.17609391 13683655
0.75659376 -0.075256646 0.17498492 13223361
0.74900001 -0.061127171 0.17004816 13815754
0.75232011 -0.064923875 0.17467976 13486532
0.74748147 -0.05446079 0.17443496 13684168
0.7502501 -0.0590339 0.17779687 13815498
0.74503583 -0.044920754 0.17494307 13486789
0.74419439 -0.035474036 0.17505568 13618118
0.74383324 -0.025008759 0.17497066 13946827
0.74427795 -0.014567286 0.17507513 14210512
0.74676198 -0.0059992657 0.17503464 14211284
0.75500005 -0.0015229098 0.17552821 14013652
0.76225001 0.00069696788 0.17439075 10724258
0.78700006 0.0057820678 0.17498975 10921889
0.79190916 0.0085164765 0.17473444 10856096
0.78752947 -0.14354922 0.18584181 11446694
0.79079998 -0.14821729 0.18453668 10394520
0.7762 -0.13303536 0.18503401 14736600
0.78240001 -0.13840061 0.18440202 14209999
0.77332157 -0.12447154 0.185203 14802393
0.77223325 -0.11545154 0.18526475 14276305
0.76820004 -0.1022595 0.18519805 13881034
0.77050006 -0.10797645 0.18484879 13947340
0.76434612 -0.094524294 0.18482047 13815241
0.75900006 -0.081488453 0.18120266 13617862
0.76087499 -0.08540222 0.18536216 13749448
0.75862503 -0.074419476 0.18407382 13288897
0.76000005 -0.078630529 0.18737198 13486533
0.75624996 -0.06526316 0.18497422 13486276
0.74833339 -0.051924843 0.1823552 13486276
0.75195462 -0.056251477 0.18568271 13552326
0.74715382 -0.045303565 0.18483418 13354690
0.75000006 -0.048918441 0.18958861 13355203
0.74533349 -0.035530262 0.18492012 13552069
0.7439999 -0.025013907 0.18545927 13947084
0.74512911 -0.014723183 0.18503809 14078926
0.74773335 -0.0065252096 0.18364859 14145232
0.75340003 -0.0032777872 0.18638757 14079438
0.76275003 0.00069654459 0.18387708 11908528
0.77200001 0.0020573311 0.18972805 14145743
0.78833342 0.0057918639 0.18820566 10856096
0.78690481 -0.14449137 0.19497038 11249314
0.79000002 -0.14954583 0.19507647 10328726
0.77627259 -0.13315572 0.19490932 14802392
0.78160012 -0.13880703 0.19574825 14275792
0.77385193 -0.12495273 0.19521582 14868442
0.77223992 -0.11545298 0.19521135 14407634
0.76877779 -0.10233568 0.19523469 13947340
0.77046674 -0.10797179 0.19476271 14078926
0.76600009 -0.094988838 0.19484973 13815754
0.76207387 -0.085058451 0.19482243 13749961
0.75900006 -0.071419738 0.19215982 13157567
0.76051724 -0.076065846 0.19525588 13420996
0.75813788 -0.064690873 0.19501218 13355203
0.76000005 -0.069141597 0.19923314 13289410
0.75489295 -0.054668397 0.19493043 13355203
0.74841666 -0.042391222 0.1937155 13223617
0.75181258 -0.046728704 0.19620904 13157825
0.74651617 -0.034938022 0.19446106 13420996
0.74493343 -0.025046067 0.19528535 13947597
0.74658829 -0.01461 0.19484439 14013903
0.74900001 -0.008524497 0.19108923 14211282
0.75471431 -0.0053842333 0.19481546 14079440
0.76075006 -0.0015345081 0.19675922 13816011
0.76420003 0.00024753885 0.19497041 13618631
0.77362502 0.0036517982 0.19714405 14802646
0.78562504 0.0073843417 0.19675225 12631991
0.79196674 0.065146424 0.19555791 10790046
0.78733337 -0.14326827 0.20467775 11841708
0.79079998 -0.14840221 0.20545653 10328726
0.77664715 -0.13279538 0.20487906 15065564
0.78150004 -0.13787627 0.20559974 14407635
0.77416003 -0.12480062 0.20475769 14933978
0.77289665 -0.115425 0.20517208 14473428
0.76875001 -0.101882 0.20467679 14013133
0.7709049 -0.10751858 0.20518519 14210512
0.76642317 -0.094708651 0.20471324 13881547
0.76341176 -0.084857106 0.20485899 13881547
0.76053572 -0.074342251 0.20528674 13750216
0.75838715 -0.063842274 0.20516707 13420994
0.76000005 -0.069141597 0.20457068 13421250
0.75674081 -0.054870673 0.20507106 13289666
0.75430006 -0.044788968 0.20480448 13158080
0.7481001 -0.032332473 0.20417039 13420996
0.75125009 -0.036690902 0.20584428 13355203
0.74655557 -0.025101645 0.20532142 13815754
0.74708819 -0.0148259 0.20520985 14144975
0.75000006 -0.010291643 0.20012319 14079696
0.75480002 -0.0057547861 0.2050758 14145233
0.76040006 -0.001533802 0.20467691 13947597
0.76516658 0.0011462177 0.20506068 13947596
0.77445 0.0056044166 0.20510352 14671060
0.7832858 0.0091606257 0.2040198 15065561
0.78742856 0.01289723 0.20628789 14539219
0.79124999 0.016928446 0.20371798 10723740
0.79194283 0.054814488 0.20495707 10658717
0.79218191 0.064912438 0.2053113 10658717
0.78745461 -0.14269663 0.2151455 12236209
0.79079998 -0.14692131 0.21471313 10196627
0.77643746 -0.1323256 0.21479008 14999770
0.78230006 -0.13801697 0.21515246 14407893
0.7743448 -0.12495554 0.21474555 15065562
0.77307695 -0.11571696 0.21512082 14671061
0.76900005 -0.1012846 0.2120339 14078926
0.77069241 -0.10585331 0.21529061 14210512
0.76785713 -0.095024772 0.21477492 13947340
0.77000004 -0.098892696 0.21988046 14078926
0.76328123 -0.085191585 0.21505611 13947340
0.75900006 -0.071493767 0.21562882 13947340
0.76047832 -0.076694384 0.21483888 13947340
0.75778133 -0.064285807 0.21494953 13552582
0.75666678 -0.054668471 0.21518716 13289410
0.74900001 -0.040086098 0.21826728 13355203
0.75400007 -0.044795811 0.21463838 13223617
0.74762487 -0.034180254 0.21516687 13486789
0.75116676 -0.037272278 0.21215673 13355203
0.74620014 -0.025088726 0.21483044 13815754
0.74717855 -0.014997252 0.21461269 14210511
0.75025004 -0.010295074 0.21687609 14210511
0.7557084 -0.0053497571 0.2147647 14210767
0.76000005 -0.0015329953 0.21791446 14144973
0.76447058 0.0019378414 0.21535155 14013387
0.77366674 0.0073981234 0.21468638 14342096
0.77750009 0.011476639 0.21686256 14473683
0.78544015 0.015484896 0.21464986 14670804
0.79000002 0.018749937 0.21079642 14933722
0.78857148 0.023727821 0.21793075 14144203
0.79169554 0.02612449 0.21374306 10921375
0.79132009 0.044715442 0.21485193 10462108
0.79220003 0.054969318 0.21509351 10527901
0.78830004 -0.14276588 0.22510691 12697018
0.79136366 -0.14694218 0.22463454 10196628
0.77700007 -0.13225552 0.22397567 15131355
0.78369236 -0.13791195 0.22562307 14473171
0.77412009 -0.12479362 0.22468168 14999770
0.77338731 -0.11463098 0.22493596 14736856
0.77153331 -0.10481215 0.22483452 14341841
0.76703709 -0.094592609 0.22515126 13947340
0.77000004 -0.098892696 0.22168306 14210512
0.76203847 -0.085248306 0.22494866 13947340
0.75900006 -0.071419731 0.22384667 13947084
0.76037037 -0.076692134 0.22543801 13947340
0.75814706 -0.064746857 0.22474404 13815497
0.75581485 -0.054412745 0.22506873 13223617
0.7485714 -0.04131544 0.22515275 13289410
0.75168186 -0.046631671 0.22464567 13092031
0.7469666 -0.034732535 0.22467011 13486789
0.74658328 -0.025099942 0.22455603 13881803
0.74783337 -0.016776964 0.22366717 14210511
0.7517693 -0.01261408 0.22631659 14276560
0.75668424 -0.006090553 0.22437671 14276304
0.76042861 -0.0020421951 0.2255398 14144974
0.76553851 0.0019072138 0.22467057 14079180
0.7728824 0.0071716406 0.22496019 14210510
0.77725005 0.012383702 0.22543754 14079181
0.78264707 0.016853396 0.22467336 14013646
0.78658819 0.024902061 0.22526354 14210769
0.78881818 0.032991666 0.2260931 12039600
0.79015791 0.03676511 0.22368966 10461338
0.79185182 0.044542313 0.22467984 10527131
0.78841668 -0.14278667 0.23529035 12895167
0.79136372 -0.14711075 0.23473707 10066069
0.77718759 -0.13245383 0.2350094 15065564
0.78375 -0.13796823 0.2349683 14276049
0.77429998 -0.12482316 0.23470373 15000027
0.77370608 -0.11497882 0.23478919 14802649
0.77219993 -0.10460107 0.23497124 14342098
0.76768422 -0.094152272 0.23435409 14013133
0.77014291 -0.097880997 0.23692039 14144719
0.76403439 -0.084870212 0.23495558 13947340
0.76096147 -0.074780606 0.23497772 14012876
0.75880772 -0.063431427 0.23451693 14012620
0.76000005 -0.068548538 0.23629928 14078413
0.75682151 -0.054871283 0.23503876 13618119
0.74900001 -0.040086098 0.23141794 13355203
0.75220007 -0.044840768 0.235283 13025982
0.74849987 -0.034405254 0.23437105 13552583
0.75000006 -0.037798602 0.23816472 12960447
0.74817228 -0.025303885 0.23454604 13881804
0.75000006 -0.020826222 0.23874997 14145491
0.74900001 -0.019045033 0.23141794 14210512
0.75338715 -0.014482176 0.23516095 14145234
0.7583077 -0.0075371745 0.23484081 14276306
0.76228571 -0.0031920366 0.2351414 14342098
0.76714289 0.00076251262 0.23445912 13947339
0.77358335 0.0063679512 0.23516501 14276304
0.77791673 0.012545839 0.23443483 13947851
0.7814616 0.017000234 0.23497485 13816779
0.78578138 0.025324855 0.23507933 13882573
0.78864706 0.033597201 0.23497932 11776942
0.79022223 0.03828242 0.23449296 10395289
0.78750008 -0.14262077 0.24515684 13157825
0.79091668 -0.14694312 0.24529417 10131348
0.77730775 -0.13216735 0.24450332 14934235
0.78285712 -0.13759391 0.2455416 14473171
0.77479994 -0.12490416 0.24483135 14934235
0.77374208 -0.11462495 0.24467181 14736856
0.77280009 -0.10468049 0.24510409 14342098
0.76900005 -0.091563299 0.24119781 14013133
0.77099997 -0.095701844 0.24536389 14013133
0.76672417 -0.084674731 0.24469267 13947340
0.77000004 -0.089879774 0.24782053 14013133
0.76177776 -0.074457556 0.24467956 14013133
0.75900006 -0.06016646 0.24250339 13946827
0.76034379 -0.065224595 0.24510294 13881291
0.75788462 -0.054622032 0.24501356 13683911
0.75268573 -0.044670355 0.2450401 13026238
0.74899989 -0.033072412 0.24486086 13421254
0.75000006 -0.036628101 0.24460253 13092032
0.74900001 -0.026179651 0.24441744 13684940
0.75000006 -0.021077046 0.24552222 13882319
0.75216228 -0.014692686 0.24485928 14145491
0.75776929 -0.0073947264 0.24558829 14145491
0.76243752 -0.0030962985 0.24426836 14145235
0.76800007 0.00024876973 0.24537893 13816270
0.77416664 0.0052420129 0.2446301 14013648
0.78000003 0.009382627 0.24829996 14013133
0.77850008 0.011187065 0.24144438 13947597
0.78395462 0.015274973 0.24513997 13684938
0.78790909 0.024235861 0.2443638 12961472
0.79028571 0.027479019 0.24840283 9671822
0.78900003 0.033810552 0.24131395 9737871
0.79111111 0.036164865 0.24546058 10264216
0.79196012 0.044753484 0.24469341 10461594
0.78733343 -0.14361651 0.25513723 12434106
0.79087496 -0.14878619 0.25546357 10065298
0.7776112 -0.132842 0.25593176 14868442
0.78208333 -0.13767418 0.25414968 14473684
0.77473325 -0.12489324 0.2547839 14934235
0.77388591 -0.11492106 0.25463533 14671063
0.77284002 -0.10468578 0.25506645 14342098
0.76900005 -0.091563299 0.25920027 13815754
0.7710346 -0.095541954 0.25521621 13947340
0.76803464 -0.08481767 0.25509322 13881547
0.77000004 -0.089879774 0.25322828 13947340
0.7644074 -0.074979968 0.25513715 14144719
0.76133329 -0.064809814 0.25483534 14078926
0.75829178 -0.054195035 0.25470304 13684168
0.76000005 -0.058466561 0.2561667 13881547
0.75328135 -0.044621456 0.25511217 13223617
0.74900001 -0.034704912 0.25493804 13223617
0.75000006 -0.03838386 0.25981915 13157824
0.74900001 -0.025877338 0.25554267 13816269
0.75000006 -0.022331163 0.25354856 13947856
0.74900001 -0.019045033 0.25684255 14079698
0.75165629 -0.014432513 0.25494751 14145491
0.75764716 -0.0067426604 0.2547465 14211284
0.76166677 -0.0024267242 0.25494266 14079441
0.76800001 0.00024876973 0.25526562 14144977
0.77423531 0.0040935017 0.25435203 14013135
0.78233331 0.0085978415 0.25575939 13749706
0.78747058 0.014247067 0.25425714 13026239
0.79049999 0.018145336 0.25688675 10065810
0.78900003 -0.15181929 0.2674807 10066068
0.79212505 -0.15613241 0.26451841 9803153
0.77900004 -0.14016895 0.26895365 14473172
0.78537929 -0.14500132 0.26471657 11841453
0.79000002 -0.14954583 0.26073033 10328214
0.77589661 -0.13403988 0.26515457 14933978
0.78100002 -0.13870049 0.26141664 14802138
0.77400011 -0.12477402 0.26541501 14933977
0.77325743 -0.11482795 0.26503047 14736598
0.77232271 -0.10479116 0.26498497 14407633
0.76900005 -0.091563299 0.26100048 13947340
0.77083343 -0.095542543 0.26538268 13947594
0.76852638 -0.084217213 0.26311311 13815754
0.77000004 -0.087093957 0.26723927 13749961
0.76700002 -0.075092249 0.26518571 14013133
0.76222843 -0.064760305 0.26482064 14210512
0.75847614 -0.053784784 0.26478505 13618375
0.76000005 -0.058466561 0.26506257 14013133
0.75431257 -0.045013394 0.26478949 13158081
0.74900001 -0.032434806 0.26425475 13289923
0.75066674 -0.0364278 0.26602593 13289666
0.74900013 -0.025307257 0.26548445 13882060
0.75190628 -0.014712769 0.26487991 14079697
0.7574783 -0.0060738605 0.26487631 14145492
0.76083344 -0.0015346762 0.26446167 14079185
0.76500005 0.00024779799 0.26500949 14276821
0.77400011 0.004243203 0.26505059 11447463
0.78359997 0.0086938953 0.26503763 10460311
0.78850007 0.012254299 0.26484999 10329495
0.79168755 0.016822511 0.26534104 10329752
0.78850007 -0.15180042 0.27431032 10131347
0.79111117 -0.15675429 0.27539885 9868689
0.77900004 -0.14016895 0.27533641 14276049
0.78480959 -0.1458564 0.27485114 11578280
0.77507406 -0.13408895 0.27502379 14933977
0.77380019 -0.12474231 0.27531025 14933978
0.77292317 -0.11534487 0.27513766 14736598
0.7719999 -0.10531919 0.27454498 14341841
0.77170962 -0.095324568 0.27549845 13947338
0.76900005 -0.080761835 0.27000171 13815754
0.77079415 -0.085462086 0.27524957 13749704
0.7674762 -0.074102573 0.27485406 14078926
0.77000004 -0.078388304 0.27576056 13815754
0.76174277 -0.0647709 0.27504238 14276305
0.75880778 -0.054549519 0.27489531 13749961
0.76000005 -0.058466557 0.27217928 14210512
0.75648481 -0.044836659 0.27521539 13157824
0.75244004 -0.034989994 0.27511027 13355717
0.74900001 -0.025357354 0.27279872 13816524
0.75004768 -0.024924884 0.27655837 13882317
0.75345457 -0.014660777 0.27496669 14145489
0.75765002 -0.0062264442 0.27461824 14079700
0.76075006 -0.0019793017 0.27600884 13948114
0.76672727 0.001230308 0.27491176 14211030
0.77531248 0.005699859 0.27493876 10329754
0.78300005 0.0094187139 0.27491722 10396315
0.78775007 0.012705091 0.27520183 10330265
0.79039997 0.017279597 0.27455324 10264473
0.79214275 0.025161078 0.27521122 10264216
0.78900003 -0.1512036 0.28348857 9999762
0.79204768 -0.15620627 0.28524625 9933968
0.77900004 -0.14016895 0.28263104 14605270
0.78516668 -0.14549883 0.28524849 11841965
0.77607691 -0.13433552 0.28499553 14934235
0.77447999 -0.12485156 0.28461862 14933978
0.77352792 -0.11473946 0.28517342 14670806
0.77246666 -0.1046363 0.28478131 14341585
0.7688334 -0.092743613 0.28854144 14144719
0.7706365 -0.095777228 0.28459787 14012876
0.76739281 -0.084508725 0.28611511 13618119
0.77011114 -0.086687885 0.28201005 13749703
0.76403147 -0.074934527 0.28485021 14012877
0.77000004 -0.079064272 0.28116831 13881801
0.75899994 -0.061816376 0.2862896 14342098
0.76060873 -0.066566169 0.284318 14342098
0.75863338 -0.054810639 0.28500906 13947340
0.75658834 -0.044924252 0.28512448 13289154
0.75351721 -0.035159703 0.2850033 13289410
0.75223339 -0.025290681 0.28524977 13882061
0.75549996 -0.014783131 0.28501329 14145233
0.75835294 -0.0067501427 0.28516605 14210769
0.76080006 -0.0024241959 0.28493381 14079440
0.76580006 0.00024805713 0.28501388 13948367
0.77373689 0.004452263 0.28452909 11645613
0.78300005 0.0088970019 0.28538856 10330524
0.7882728 0.012167076 0.28465372 10330523
0.79100001 0.016923178 0.28513476 10198938
0.78616661 -0.14499332 0.29504538 12104879
0.79000002 -0.14954583 0.29956782 10131348
0.77680957 -0.1332825 0.29482669 15000028
0.78049999 -0.13861169 0.29505301 15000028
0.7753666 -0.12499503 0.29492715 14868442
0.77383339 -0.11478578 0.29524896 14736599
0.77165526 -0.10440315 0.29516345 14473171
0.7677201 -0.094433136 0.29571897 14868186
0.77000004 -0.098171666 0.29162329 14605270
0.76425016 -0.084739387 0.29457101 14078927
0.76179981 -0.074657388 0.2951161 14078669
0.75900006 -0.060462594 0.29432765 14210512
0.76036 -0.065900385 0.29537722 14341841
0.75837046 -0.054594606 0.29506961 14012877
0.75641185 -0.045120541 0.29506147 13486534
0.75519997 -0.035114862 0.29521477 13289411
0.75459993 -0.025370277 0.29497916 13882062
0.75711429 -0.014690854 0.29519984 14211027
0.759 -0.0077498928 0.29492 14145491
0.76125002 -0.003315568 0.29490244 14079441
0.76666665 0.00024833783 0.29520833 13882061
0.77409524 0.0045728208 0.29517388 12105650
0.78425002 0.0089769587 0.29417527 10395801
0.78840005 0.01132933 0.29526839 10396058
0.7920953 0.015889779 0.29506418 10264730
0.78714287 -0.14444615 0.30515218 12630969
0.79040003 -0.14962156 0.30527145 9933712
0.77700007 -0.13317241 0.30518752 15000028
0.78133345 -0.13815102 0.30441102 14868185
0.77486205 -0.12478868 0.30546016 14868442
0.77358347 -0.11474815 0.30511335 14539477
0.76900005 -0.10056451 0.3069067 13749961
0.77125001 -0.1049243 0.30464458 13881291
0.76729631 -0.09515696 0.30492881 14605270
0.76275754 -0.085033074 0.30449563 15131614
0.75900006 -0.070827454 0.3091346 15065821
0.76072723 -0.075306892 0.30546573 15000028
0.75899988 -0.063154764 0.30598477 14934235
0.76014298 -0.066994004 0.30311713 14736600
0.75835699 -0.054980885 0.30475035 14934235
0.75713336 -0.044953249 0.30482921 14407634
0.75708002 -0.035201713 0.30480805 13223362
0.75608593 -0.025548028 0.30516696 13815756
0.75736678 -0.014821858 0.30492437 14079185
0.75900006 -0.0081941001 0.3038041 13947599
0.76147622 -0.003994599 0.30530387 13882319
0.76700002 0.00024844581 0.30521068 13948112
0.77457148 0.0047482168 0.30485186 12434874
0.78459996 0.0094379606 0.30486578 10329499
0.78816676 0.011633821 0.30594602 10461596
0.77900004 -0.14016895 0.31910411 14736858
0.78584617 -0.14452149 0.31518194 12697018
0.79050004 -0.14964049 0.31363553 9802383
0.77610004 -0.13419966 0.31518897 14868442
0.78000003 -0.13852289 0.31038377 14802649
0.77407706 -0.12492585 0.3150658 14868442
0.77333349 -0.11471062 0.31497249 14342098
0.7717858 -0.10435077 0.31492427 13684168
0.76782364 -0.093328521 0.31452584 13815754
0.77030003 -0.097669415 0.31662256 13618375
0.76246434 -0.085435368 0.31500596 14276305
0.75885725 -0.074367538 0.316055 14868442
0.7601251 -0.078495391 0.31315142 14934235
0.75785714 -0.064639434 0.31474987 15000028
0.75632423 -0.05493059 0.31536162 15000286
0.7559762 -0.044884048 0.31497741 15066081
0.7561177 -0.035260472 0.31488159 14802397
0.75709677 -0.025308557 0.31527868 13947086
0.75861901 -0.016329011 0.31371638 13486791
0.7603001 -0.012212388 0.31678408 13289157
0.76247996 -0.0051021511 0.3151935 13618378
0.76825005 0.0002488507 0.31380334 13816269
0.7737779 0.0036763314 0.31545234 13750733
0.78241664 0.0084986994 0.31500641 10526877
0.78854555 0.012338909 0.31512651 10461339
0.79205894 0.016946508 0.31518039 10329753
0.78812504 -0.15195915 0.32699117 9737360
0.77866673 -0.14193183 0.32625788 14407896
0.7839092 -0.14622825 0.32452884 11579310
0.77543753 -0.13476655 0.32524526 14802393
0.77400011 -0.12477373 0.32520965 14736856
0.77333361 -0.11471045 0.32492915 14210512
0.76900005 -0.10056451 0.32940972 13618375
0.77210718 -0.10471729 0.32512227 13552582
0.76600009 -0.093900338 0.32632458 13486789
0.770625 -0.097846061 0.32311434 13552582
0.75900006 -0.082080729 0.32660681 13618375
0.76139998 -0.086169332 0.32444045 13618375
0.75678372 -0.074743234 0.32527265 14144720
0.74900001 -0.062003881 0.3296096 14078926
0.75345719 -0.065021038 0.32450616 14670806
0.75194454 -0.055205721 0.32473904 14802651
0.7527355 -0.044898156 0.32482502 14342100
0.75520003 -0.035110649 0.32491362 13618121
0.75814289 -0.026797304 0.32408372 13223875
0.76055562 -0.022503655 0.3273755 14210512
0.76267856 -0.015179678 0.32498351 13750218
0.76668751 -0.0056944764 0.32460794 13421253
0.77025002 -0.0029056086 0.32814199 13618631
0.77395236 0.0031896788 0.3252328 13487559
0.78220004 0.0086786924 0.32499117 11184806
0.78791684 0.012399449 0.32536867 10395290
0.79118752 0.01715887 0.32502094 10329497
0.78667867 -0.15425043 0.33493966 9736847
0.79000002 -0.15879287 0.3319324 9737358
0.77806675 -0.14352393 0.33499309 13881295
0.78137505 -0.1476852 0.33425331 10394267
0.7751177 -0.13515064 0.33501831 14605013
0.77376008 -0.12473597 0.33507106 14671063
0.77265531 -0.11513972 0.33502826 14078926
0.7674737 -0.10244692 0.33546758 13486789
0.7708236 -0.10770319 0.33411664 13684168
0.76286674 -0.094588861 0.33511201 13420996
0.75838101 -0.083706036 0.33500534 13289411
0.76011121 -0.088132411 0.33449873 13420740
0.75415635 -0.075622484 0.33457917 13486790
0.74899983 -0.063711166 0.33496216 13881035
0.75000006 -0.068231836 0.3340629 13881292
0.74900001 -0.058872767 0.33411837 14605014
0.75020689 -0.054139167 0.33450109 14671063
0.75396663 -0.044759266 0.33473828 14671063
0.75776923 -0.03509482 0.33503988 14999514
0.75900012 -0.029452635 0.33324879 15196894
0.7608462 -0.024824504 0.33564413 15131101
0.76606899 -0.015452499 0.33532441 15196894
0.77000004 -0.010566086 0.33704841 15328482
0.76900005 -0.0087521207 0.33120999 15658212
0.77132004 -0.0049474025 0.33538669 15328993
0.77557153 0.0040835529 0.3348805 14935262
0.78260005 0.0094139026 0.33523405 13355974
0.78750008 0.013531585 0.33548886 10329497
0.79044443 0.01793853 0.3344833 10263961
0.78673911 -0.15437968 0.34477535 9604751
0.79000002 -0.15879287 0.3495017 9736590
0.77781826 -0.14260589 0.3446089 14013135
0.78170007 -0.1470605 0.3449156 11644333
0.77465624 -0.13462965 0.34486699 14407891
0.77396679 -0.1247685 0.34512651 14736343
0.77240753 -0.11567911 0.34493294 14144463
0.7666924 -0.10440828 0.34436554 13355459
0.77000004 -0.1097082 0.34516001 13420996
0.76169688 -0.095020771 0.34513855 13223617
0.75831819 -0.083918318 0.34484595 13157823
0.76000005 -0.088712506 0.34512538 13289409
0.7543667 -0.074933857 0.34515718 13157826
0.74900001 -0.0637573 0.34013012 13881036
0.75025004 -0.064868219 0.34508923 13881549
0.75008333 -0.055069242 0.34501183 14868444
0.75404876 -0.044783633 0.3452144 15131615
0.7583667 -0.035260182 0.34526959 15328480
0.75869566 -0.026009878 0.3472349 15197151
0.76031262 -0.024337925 0.34237421 15131358
0.75887501 -0.015964564 0.34816727 15131614
0.76214701 -0.014443083 0.34336352 15131358
0.75900006 -0.0086383093 0.34822494 15065821
0.76360607 -0.0052772439 0.34490827 15131872
0.77100003 -0.0033581019 0.34135285 15328995
0.76600003 0.00092174974 0.34784389 15197665
0.77403462 0.0043814913 0.34462053 14869216
0.78140008 0.0093994681 0.34386635 11119272
0.78685725 0.014030988 0.34512627 10001558
0.79000002 0.018749937 0.3448782 10198936
0.79149997 0.025055747 0.34525886 10067351
0.78794736 -0.15343085 0.35461304 9539214
0.79028571 -0.15832189 0.35597196 9539471
0.77880007 -0.14195614 0.3540279 13552326
0.78292859 -0.14624713 0.35514355 12828861
0.77553338 -0.13482803 0.35466114 13749705
0.77412009 -0.12479352 0.35516238 14276562
0.77233338 -0.11526632 0.35474357 14144976
0.76663643 -0.10466438 0.35490859 13420996
0.77000004 -0.1097082 0.35507423 13552582
0.76122844 -0.095020548 0.35505089 13223617
0.75853848 -0.084923416 0.3548426 13091775
0.76000005 -0.088712506 0.35135251 13157824
0.75517654 -0.075000323 0.35499668 13157568
0.75055552 -0.064770401 0.35489261 14013133
0.74900001 -0.054176103 0.35522205 15131615
0.75000006 -0.057916723 0.35484982 14934492
0.74900001 -0.047489442 0.35746953 15526372
0.75103348 -0.043415617 0.3546471 15394786
0.75491434 -0.035098754 0.35517994 15328993
0.75643247 -0.025549766 0.35517851 15131358
0.75746334 -0.014717976 0.35473886 15000029
0.75834477 -0.0055690436 0.35496229 15065823
0.76033336 -0.0021267256 0.35120967 15066078
0.75900006 0.00024585446 0.35888594 15197409
0.76287997 0.0029665318 0.35506952 15000544
0.7744118 0.0079326909 0.35422221 13026755
0.78665006 0.014256206 0.35446411 10067095
0.79020005 0.018754685 0.35514075 10001559
0.79151726 0.025241666 0.35496554 10001559
0.78866673 -0.15252502 0.36475918 9473165
0.7906428 -0.15720461 0.3653869 9605520
0.7848261 -0.14505725 0.36478844 11775918
0.77759993 -0.1337295 0.3627663 12499639
0.7816667 -0.13597375 0.36736798 11841966
0.7755909 -0.12478466 0.36442325 13289156
0.77350014 -0.11564133 0.36438587 14078926
0.7676 -0.10361765 0.36313215 13486789
0.77145463 -0.10745204 0.36576307 13552582
0.76358831 -0.094602175 0.36431921 13289410
0.77100003 -0.099021129 0.36997479 13355203
0.7584545 -0.084175475 0.36169472 13026238
0.76154554 -0.085652292 0.36673632 13026238
0.75671422 -0.074918397 0.36388221 12828859
0.76050007 -0.078979567 0.36849692 12894652
0.75547367 -0.065380186 0.36532265 12829118
0.74900001 -0.052360058 0.36117116 15855337
0.75247371 -0.055295303 0.36563036 14671065
0.74900001 -0.045054134 0.36409363 14934236
0.75033337 -0.043553494 0.36509451 14868443
0.74900001 -0.034324855 0.36693245 14934493
0.7506088 -0.035052091 0.3636255 15066078
0.74900001 -0.023720825 0.36818489 14671835
0.75199997 -0.02528041 0.36409393 14868956
0.75402492 -0.014932404 0.36508703 14803421
0.75726664 -0.0050709252 0.36497802 15000543
0.75900006 0.00024585446 0.36510488 14935264
0.76162505 0.0039272243 0.36514044 14935264
0.77170002 0.0082010012 0.36507007 12369084
0.78744441 0.014389876 0.36414182 10066328
0.79149997 0.017860252 0.36498955 9935253
0.78900003 -0.15194242 0.3727017 10395032
0.79105264 -0.15608251 0.37530851 10461338
0.78824997 -0.14506324 0.37447116 10131864
0.79000002 -0.14815879 0.37862983 10396059
0.78645003 -0.13525064 0.3751826 10131863
0.77900004 -0.12010878 0.37199005 13091267
0.78435296 -0.12547126 0.3758477 10657952
0.77662504 -0.11360911 0.37153831 13552328
0.78242862 -0.11592961 0.37676826 12236727
0.77569234 -0.10423504 0.37390587 13354948
0.7816667 -0.10771299 0.37875316 11644590
0.76900005 -0.093363538 0.37081531 13552582
0.77399999 -0.094937578 0.37576553 12565688
0.76574999 -0.083560988 0.37238511 12960701
0.77166671 -0.085658893 0.37712055 11908271
0.76373333 -0.074368812 0.37376425 12499894
0.77000004 -0.079064272 0.37850785 11645355
0.75850004 -0.061015241 0.37107915 12697022
0.7628125 -0.065383494 0.37520143 12434105
0.7575714 -0.054733749 0.37239903 13486793
0.76228583 -0.054815829 0.37726742 13224392
0.75666678 -0.045807928 0.37313712 14342357
0.76183337 -0.045234133 0.37806025 14342616
0.75660002 -0.03518061 0.37369204 14737628
0.76059997 -0.035366599 0.37744826 14408410
0.75554538 -0.025002079 0.37397817 14606043
0.76100004 -0.024692949 0.37898347 14408410
0.75533342 -0.014783889 0.3733643 14671578
0.76100004 -0.014898129 0.37853807 14408409
0.75774997 -0.0052969106 0.37204307 14869215
0.76140004 -0.0051021264 0.37606421 14802910
0.75900006 0.00024585446 0.37132376 14606299
0.76400012 0.0033410229 0.37377074 14672349
0.77240002 0.0078472663 0.37715507 14211285
0.77800006 0.011179881 0.37697646 10000536
0.78716666 0.013770066 0.37527335 9934996
0.7918697 -0.14466147 0.38466716 10329754
0.78900003 -0.13458005 0.3804594 9934996
0.79131585 -0.13546319 0.38567409 10132375
0.78860009 -0.12528259 0.38211265 9737364
0.79154545 -0.12524408 0.38640508 9934741
0.78769231 -0.1147832 0.38309288 9342350
0.79157144 -0.1148996 0.38831845 9737618
0.78591675 -0.10446462 0.38434231 9407629
0.79000002 -0.10793425 0.38833919 9408395
0.77850008 -0.092693269 0.38177553 10460318
0.78472728 -0.096110195 0.38625214 9407886
0.77588898 -0.084715657 0.38301843 11711150
0.78200001 -0.086402982 0.38837233 12237495
0.77394456 -0.074940987 0.38467845 11777198
0.76850003 -0.06181965 0.38136864 11974069
0.77376932 -0.06537728 0.38607758 12237496
0.7665 -0.058069985 0.3803761 12434620
0.77422225 -0.055532027 0.3870295 12039862
0.77240008 -0.046763066 0.38619938 13157830
0.76600003 -0.032029834 0.38192123 14737375
0.76300001 -0.0265458 0.38042545 14539996
0.77400005 -0.025116559 0.38953388 10524570
0.76599997 -0.014457216 0.38228124 13355979
0.77000004 -0.016875129 0.3857182 10132124
0.76750004 -0.0060381964 0.38087237 14605020
0.77200007 -0.005172201 0.3841908 11908534
0.77450007 0.0041047763 0.3832157 13488332
0.78166676 0.006963335 0.38851285 12698558
0.787 0.01392296 0.38456154 9934996
0.79172015 -0.10539209 0.39474693 9803151
0.78841174 -0.093007058 0.39439923 9737363
0.79018188 -0.097785234 0.39666918 9671566
0.78605878 -0.084722266 0.39517242 10658465
0.77900004 -0.075429276 0.3902266 12566968
0.78419995 -0.075014241 0.39614055 11579819
0.78385723 -0.065413646 0.39580888 11777200
0.78470004 -0.054855488 0.39584082 10527137
0.77866673 -0.043497499 0.39188251 10460316
0.78487515 -0.045676537 0.3963879 10131865
0.77666664 -0.035204697 0.39087594 11250347
0.78439999 -0.034637857 0.39660415 9803159
0.77550006 -0.027889008 0.39028877 11840943
0.78120005 -0.025353948 0.39498621 9605521
0.77750003 -0.011577317 0.39129534 9672341
0.7828334 -0.015314977 0.39581206 9934996
0.77900004 -0.005218626 0.3902266 9803157
0.78577781 -0.0052653323 0.39546472 10001048
0.79033333 -0.0034435848 0.39960417 10067095
0.78713328 0.0054159756 0.39467224 10067352
0.79100007 0.0076632001 0.39994124 9935766
0.78828573 0.012646683 0.39277014 10922404
0.79100007 0.015997745 0.39603168 10067352
0.79171997 -0.095382951 0.40475488 10132374
0.78875005 -0.083990723 0.40134275 9803411
0.79107696 -0.085074767 0.40624958 10198167
0.78855562 -0.075226538 0.40280807 10066325
0.79119998 -0.074943304 0.40782303 10198168
0.78857148 -0.065410785 0.40135068 9803667
0.79184616 -0.064194441 0.40621731 9935510
0.79080021 -0.045102712 0.40539396 10001046
0.78900003 -0.032991566 0.4007771 10000789
0.79004556 -0.03513677 0.40551156 10000789
0.78816676 -0.024654692 0.40035382 9934739
0.79134792 -0.024951445 0.40648022 9934996
0.78850007 -0.015433507 0.40052313 9869203
0.79184377 -0.074589714 0.41554365 10198681
0.78900003 -0.061621048 0.41924775 10263961
0.79157573 -0.06477005 0.41471529 10132888
0.78900003 -0.057926923 0.41924775 10263961
0.79115629 -0.055250287 0.41465944 10067097
0.7902261 -0.045216724 0.41452822 10001561
0.78900003 -0.036685694 0.41001242 10132375
0.79004174 -0.03480776 0.4144071 10001303
0.79077441 -0.024583111 0.41445658 9869716
0.7908752 -0.074730426 0.42487177 10395547
0.78899986 -0.064586066 0.42371956 10264731
0.79000002 -0.063856788 0.42871785 10330524
0.78900003 -0.058111627 0.42257243 10330524
0.79035008 -0.054509528 0.42607087 10264732
0.79189658 -0.045001741 0.42462409 10198940
0.79103583 -0.0051017734 0.42462772 10132888
0.79041702 0.004882338 0.42462459 10067352
0.79148406 0.015140872 0.42498711 10001559
0.79149997 -0.064595677 0.43447596 10462110
0.79176003 -0.055348698 0.43554524 10462110
0.7914232 0.0051722252 0.43479028 10067096
0.79096013 0.015069701 0.43510437 10001303
