# .PCD v0.7 - Point Cloud Data file format
VERSION 0.7
FIELDS x y z rgb
SIZE 4 4 4 4
TYPE F F F U
COUNT 1 1 1 1
WIDTH 735
HEIGHT 1
VIEWPOINT 0 0 0 1 0 0 0
POINTS 735
DATA ascii
0.78800005 -0.13256671 0.15860896 15065303
0.77750003 -0.12078582 0.15922552 14605011
0.78588229 -0.12474217 0.15742111 14605268
0.77592313 -0.11418554 0.15855238 14934230
0.78640002 -0.11544963 0.1550608 14737882
0.76725 -0.10123461 0.15892342 14605780
0.77433336 -0.10488694 0.15694246 14803671
0.78523076 -0.10537148 0.15408908 14408657
0.76415384 -0.094150782 0.1576588 14803159
0.77407157 -0.095401421 0.15528558 14672342
0.78620005 -0.094530813 0.15346012 12106159
0.75900006 -0.083265282 0.15988068 14539731
0.76328593 -0.085524812 0.15745936 14803415
0.7728889 -0.083783351 0.15596768 14934487
0.7863636 -0.084925562 0.15376024 11645353
0.75833338 -0.075204976 0.15974025 14408145
0.76272732 -0.075229913 0.15806578 14737622
0.77444452 -0.074986987 0.15587628 13026747
0.78699994 -0.075282708 0.15380096 11843245
0.75666666 -0.064410701 0.15938915 14539729
0.76258332 -0.064913072 0.15795462 14737878
0.77416664 -0.065447368 0.1562748 12105647
0.78621429 -0.065085314 0.15456566 11448487
0.75400001 -0.054084029 0.15960777 14868694
0.76271433 -0.055872828 0.15836453 14803672
0.77571434 -0.055785347 0.15717337 10790300
0.78587502 -0.055171091 0.15679926 10921887
0.75577778 -0.045554604 0.1597877 14868952
0.76283336 -0.045289993 0.15890235 14935003
0.77540004 -0.045130871 0.15788957 10065810
0.78590912 -0.044402264 0.15735009 11053473
0.75900006 -0.0352908 0.15988068 14802901
0.76416665 -0.034633249 0.15918009 14473936
0.77409083 -0.034673627 0.15844473 10395029
0.78622222 -0.035124872 0.15743178 11316645
0.76600003 -0.028443394 0.15956198 13355455
0.77499998 -0.025927562 0.15910205 11447201
0.78588891 -0.024273843 0.15879557 11052702
0.77566671 -0.017906463 0.15975975 12499118
0.78400004 -0.019016137 0.15964076 10921114
0.7881667 -0.14289542 0.16633023 11907246
0.79146159 -0.14640389 0.16343807 11052450
0.77653337 -0.13281974 0.16623792 14802392
0.78511119 -0.13657233 0.16312855 14407636
0.77410001 -0.12455044 0.16504809 14275535
0.78150004 -0.12872759 0.16096121 14342098
0.77176672 -0.11538193 0.16527583 13683910
0.76764005 -0.10420026 0.16551098 13749704
0.7705 -0.10887785 0.1629782 14078925
0.76210332 -0.09431427 0.16453472 13618118
0.75879991 -0.083362266 0.16469383 13749704
0.7601667 -0.087694108 0.16516918 13684168
0.75639397 -0.074774265 0.16512437 13749704
0.74900001 -0.061127171 0.16566461 14078668
0.75200009 -0.065438084 0.16429408 14144717
0.74682856 -0.054708675 0.16505942 14209996
0.75200003 -0.05873134 0.16016659 14539218
0.74516684 -0.045114916 0.16481574 14012873
0.7523334 -0.042611763 0.16023758 14934487
0.74469447 -0.035497606 0.16470893 14013129
0.75400001 -0.035056442 0.16059257 14868694
0.74455559 -0.025032455 0.16467637 14210251
0.75633335 -0.025426224 0.16108954 14868694
0.76050013 -0.025566896 0.16019665 14802900
0.74487495 -0.014798299 0.16529374 14407887
0.75600004 -0.014090106 0.16172342 15263452
0.76350003 -0.014937702 0.16082858 15000279
0.77500004 -0.014973071 0.16034395 12762804
0.78675008 -0.013556577 0.16020072 11250081
0.74735725 -0.0066291397 0.16680042 14408404
0.75555563 -0.0048636221 0.1648521 14474195
0.76242864 -0.0051099532 0.16365893 14606037
0.77416676 -0.0051835156 0.16246994 12895163
0.7851001 -0.0052583208 0.16151516 10986912
0.79000002 -0.0025182103 0.16086249 10921632
0.76200002 0.00024682621 0.16943188 12369078
0.77600002 0.0011585056 0.16709259 10592667
0.78777784 0.0029205552 0.16614655 10987425
0.78641176 -0.14345609 0.17539859 11644330
0.79099995 -0.14870718 0.17526282 10591643
0.77515382 -0.13347855 0.17521848 14671062
0.78100002 -0.13870049 0.17274065 14144720
0.77233326 -0.12470828 0.17494376 14802133
0.76900005 -0.11256612 0.17878939 14013131
0.77040923 -0.11558826 0.17449889 13881545
0.76733345 -0.10497636 0.17496943 13815754
0.77000004 -0.1097082 0.17301328 13815241
0.76248479 -0.094740465 0.17537685 13618375
0.75899994 -0.08304318 0.17542799 13354947
0.76021439 -0.087466672 0.1747546 13618118
0.75742429 -0.075357415 0.17502542 13157824
0.75440007 -0.065103658 0.17481197 13420740
0.74778944 -0.053383477 0.17410435 13749447
0.75160009 -0.057821285 0.17644675 13815240
0.74557161 -0.044953603 0.17506829 13552324
0.74419463 -0.035474364 0.17505543 13618118
0.74347222 -0.024997046 0.1748855 13881034
0.744389 -0.0145692 0.17510124 14210257
0.74733335 -0.0067542917 0.17491929 14210770
0.75508332 -0.0024034961 0.17496461 14079698
0.76300001 0.00060719869 0.17429836 11316392
0.77600002 0.003884621 0.1779947 10921889
0.78600001 0.0057747206 0.17522424 10921889
0.78600007 -0.14375769 0.18532373 11315107
0.79062498 -0.14897062 0.18435751 10460312
0.77566671 -0.13397549 0.18472649 14670550
0.78000003 -0.13852289 0.18895516 14407379
0.77248269 -0.12440642 0.18517032 14736599
0.768125 -0.11326377 0.1854032 14144717
0.77054542 -0.11798587 0.18445125 14407888
0.76424152 -0.10519053 0.18498169 13947082
0.76146865 -0.095347494 0.18502377 13815241
0.7605601 -0.085217088 0.18513748 13749448
0.75894994 -0.073932245 0.18385597 13157824
0.76010013 -0.078047968 0.18680373 13486533
0.75777423 -0.064935505 0.18520214 13420996
0.7486667 -0.050584111 0.18224175 13552069
0.75317866 -0.055556037 0.18516441 13552326
0.74726921 -0.045310907 0.18486248 13354947
0.75000006 -0.048918441 0.18958861 13815754
0.74506676 -0.035517085 0.18485412 13552325
0.74399996 -0.025013762 0.1849153 13947083
0.74543345 -0.014588033 0.18494561 14078926
0.74800003 -0.0076371073 0.18348143 14144976
0.75406671 -0.0041031698 0.18555075 14013903
0.76000005 -0.0015329953 0.1876685 13816524
0.76450002 0.000247636 0.18431246 14013904
0.77400005 0.0028422198 0.18504491 11119269
0.78640002 0.0057776598 0.18553747 10855839
0.78685009 -0.14434956 0.19475907 11183523
0.79071426 -0.14941685 0.19591352 10394265
0.77625006 -0.133044 0.19449933 14802648
0.78133339 -0.13845535 0.19629146 14209999
0.77357697 -0.12484695 0.19534056 14868440
0.7683636 -0.11241898 0.19374178 14276048
0.77100003 -0.11683143 0.19562013 14473426
0.76631039 -0.10516442 0.19550759 14013133
0.7642222 -0.094970666 0.19477837 13815754
0.76255554 -0.085112236 0.19494593 13749961
0.75900012 -0.071081288 0.19389434 13026238
0.76057136 -0.07631696 0.19493167 13552325
0.75784618 -0.065536328 0.19491522 13223617
0.75447053 -0.055395689 0.1951354 13420740
0.74825007 -0.04282007 0.19323403 13223617
0.75125003 -0.046364129 0.19639081 13092031
0.74668753 -0.035048462 0.194654 13420996
0.74550009 -0.025064509 0.19481777 13881548
0.74696869 -0.015164796 0.19472571 14078927
0.75000006 -0.010291643 0.19661164 14342099
0.75555003 -0.0059391791 0.1954135 14276049
0.76133341 -0.0015356848 0.1951285 14012877
0.76660001 0.00024831624 0.19557992 13552326
0.77425003 0.0034255073 0.19707642 14934489
0.78572732 0.0072811842 0.19644256 12434613
0.78750008 -0.14342928 0.20494397 11841195
0.79049999 -0.14871579 0.20537809 10262677
0.77747071 -0.13272212 0.20499003 15065820
0.78230006 -0.13801695 0.20507905 14538451
0.77443999 -0.1248467 0.20483193 14868697
0.772138 -0.11556271 0.2052837 14408146
0.76835001 -0.10362864 0.20412116 14013132
0.77030003 -0.10794835 0.20734313 14210766
0.76688004 -0.094902828 0.20462924 13881547
0.76413345 -0.08556211 0.20484848 13881291
0.75900006 -0.070827454 0.20163624 13683655
0.76046669 -0.075297937 0.20552666 13881290
0.75825006 -0.06454739 0.20498779 13420740
0.75628006 -0.054641128 0.20533973 13354947
0.75305563 -0.04471375 0.20534529 13288897
0.74826664 -0.033040967 0.20491685 13355203
0.75030005 -0.037521333 0.20547287 13354947
0.74697208 -0.025114251 0.20543602 13881546
0.74758333 -0.015944229 0.20472854 14078926
0.75100005 -0.010744306 0.2056652 14210512
0.75657153 -0.0059063472 0.205165 14210512
0.76057154 -0.0017883156 0.20497797 14078925
0.76550007 0.00069772796 0.20560017 13947595
0.77457148 0.0050061746 0.2050382 14670804
0.78350008 0.0089670597 0.20401068 15131354
0.78756261 0.013278482 0.2062251 14210253
0.79100001 0.017054697 0.20325711 10592153
0.7876364 -0.14449193 0.21519294 11183522
0.79000002 -0.14923762 0.21387874 10262420
0.77623534 -0.1322974 0.21503235 15000284
0.78175002 -0.13792008 0.21500008 14407378
0.77420008 -0.12480689 0.21473637 15000026
0.7730372 -0.11516923 0.21552046 14670804
0.76900005 -0.10056451 0.21059369 14013387
0.77144456 -0.1052324 0.21481106 14144716
0.76866668 -0.094123691 0.21150254 13881803
0.77112508 -0.095991805 0.21625461 13947594
0.76510346 -0.084684215 0.2150856 13947338
0.77000004 -0.089879774 0.21988046 14012620
0.76050001 -0.074911118 0.21481486 14012875
0.75818765 -0.064320639 0.21506441 13552325
0.75470001 -0.054528724 0.21462618 13223617
0.74900001 -0.041664176 0.2170399 13289410
0.75076938 -0.045658227 0.21438745 13223617
0.74775851 -0.034648962 0.21455392 13486789
0.75000006 -0.03838386 0.21065776 13355203
0.74699986 -0.025114764 0.21506134 13815754
0.74826664 -0.017273586 0.21402451 14144719
0.75170594 -0.012589006 0.2154846 14276305
0.75723076 -0.0054092677 0.21500812 14210768
0.76000005 -0.0015329953 0.21168737 14210766
0.76411766 0.0018303158 0.21514554 14013387
0.77357149 0.0070673963 0.21468703 14276559
0.77750003 0.011172696 0.21746889 14276559
0.78567868 0.015369279 0.2147613 14671316
0.78860003 0.023024965 0.21719137 14539474
0.79095 0.026644042 0.21382645 10657947
0.78780007 -0.14359866 0.22496371 11644586
0.79081821 -0.14885987 0.22532196 10262420
0.77643746 -0.13255328 0.22501256 15131614
0.78289998 -0.13812281 0.22539882 14210257
0.77400011 -0.1247737 0.22464658 14934491
0.77373338 -0.11476922 0.22457007 14737110
0.7736001 -0.10478806 0.22453187 14276048
0.77303237 -0.094789274 0.22506694 13947340
0.76655561 -0.082701378 0.22477998 13947340
0.77066666 -0.087753139 0.22568409 13947340
0.76103574 -0.074392498 0.22502014 13947084
0.75834388 -0.064499743 0.22459625 13815754
0.76000005 -0.069141597 0.2285895 13881034
0.75492311 -0.054408953 0.22461739 13223617
0.74900001 -0.041255046 0.22206636 13355203
0.75179172 -0.045445055 0.22582972 13157823
0.74811101 -0.034396764 0.22472352 13552582
0.75000006 -0.03838386 0.2282154 13289665
0.74719429 -0.02512107 0.22473836 13881547
0.74850005 -0.018155606 0.22513056 14144974
0.75273913 -0.013082876 0.22491054 14276304
0.7578001 -0.005961041 0.22420208 14276304
0.76042873 -0.0022963628 0.22630231 14144974
0.76456249 0.0022663453 0.22470394 14078925
0.77233338 0.0076054959 0.2251258 14210511
0.77687508 0.013098713 0.22559327 14013388
0.78285724 0.017272616 0.22420143 14145229
0.78630304 0.024748059 0.2253122 14079692
0.79000002 0.029846365 0.22096813 12302259
0.78900003 0.032394469 0.22752257 13092799
0.78777778 -0.1435944 0.23509926 11908015
0.79075003 -0.14853163 0.23575571 10131861
0.77611762 -0.13227776 0.23498608 15065308
0.78263646 -0.1379934 0.23497863 14210257
0.77400011 -0.12477372 0.23461241 15065307
0.77363914 -0.114755 0.23450153 14802391
0.77333343 -0.10475194 0.23440872 14276561
0.77279991 -0.095454715 0.23442809 14078413
0.76750004 -0.082515739 0.2349999 14012876
0.77057141 -0.087756798 0.23524806 14078412
0.76237035 -0.07491377 0.23515272 14012877
0.75882608 -0.062779188 0.23499517 13947083
0.76018196 -0.067864195 0.23568216 14078670
0.75717241 -0.05482807 0.23498356 13486533
0.7539376 -0.044546846 0.23504017 13026238
0.74887502 -0.031971298 0.23444782 13553097
0.7505883 -0.036244806 0.23563035 13355460
0.74791646 -0.025145881 0.2354611 13750733
0.74854547 -0.018236464 0.23525979 14013905
0.75317389 -0.012859629 0.23508041 14210770
0.75808334 -0.0077396552 0.23511226 14276562
0.76193762 -0.0032060491 0.23508207 14276562
0.76711112 0.0012478364 0.23402137 13947596
0.77323812 0.0066331965 0.23537371 14144975
0.7770589 0.013523348 0.23409578 13816524
0.78087503 0.017619491 0.23578338 13619145
0.78556257 0.025319077 0.23501417 13882574
0.78880006 0.032571152 0.23448217 12303286
0.79125005 0.03742069 0.23486218 10329753
0.78900003 -0.1512036 0.24839437 10197139
0.78665382 -0.14480987 0.24531434 11579051
0.79033333 -0.14960892 0.2423377 10131605
0.77627277 -0.13356966 0.24521242 14933721
0.78157145 -0.1385411 0.24383123 14144720
0.77341396 -0.12455541 0.24514098 14999771
0.77277434 -0.11535641 0.24494871 14736856
0.77199984 -0.10534616 0.24497841 14276304
0.77153325 -0.095478043 0.24470098 14013131
0.76755548 -0.082509331 0.24483722 13947339
0.7705 -0.088360585 0.24471192 13947340
0.76203567 -0.074492089 0.24493732 14013132
0.75889987 -0.062823787 0.24513595 13816010
0.76008344 -0.068259597 0.24462838 14013132
0.75637931 -0.054528516 0.24505202 13552582
0.74900001 -0.040962812 0.24895218 12894906
0.75205261 -0.045025408 0.24467963 13092031
0.74899995 -0.033197656 0.24594632 13487045
0.75006253 -0.03630209 0.2437081 13158080
0.74809992 -0.025151948 0.24515072 13881803
0.74890906 -0.018086307 0.24493775 14210769
0.75170833 -0.012950487 0.24501057 14211026
0.7574001 -0.0071998811 0.24571481 14145491
0.76214296 -0.0030636617 0.2443988 14145234
0.76783329 0.00024871575 0.24532469 13947855
0.77412504 0.0052417074 0.24461697 14079184
0.78000003 0.009382627 0.24829996 14079698
0.77850002 0.011642979 0.24190028 13882317
0.7841053 0.015522968 0.24555068 13684938
0.78789997 0.023774136 0.24436107 13224388
0.79022223 0.027799606 0.24764895 10000529
0.78900003 0.031655647 0.24008258 14277334
0.78800011 -0.15246272 0.25532481 10131091
0.79114288 -0.15770091 0.2543585 9999504
0.77900004 -0.14062487 0.25618809 13750475
0.78365386 -0.14531578 0.2543264 11118500
0.77566683 -0.13418613 0.25503054 14802647
0.77334625 -0.12480887 0.25502518 15000025
0.77300018 -0.1149828 0.25531366 14737110
0.77218521 -0.10499874 0.25465035 14342352
0.77176923 -0.095368519 0.25492176 14013131
0.76738888 -0.082591459 0.25526226 13815753
0.77052945 -0.088244617 0.25494051 13881546
0.76185185 -0.074862182 0.25461021 14144717
0.75880945 -0.062520467 0.25432771 14013387
0.76000017 -0.067489512 0.25578547 14210767
0.75603843 -0.054763619 0.25462803 13749960
0.74900001 -0.040962812 0.25245902 13157567
0.75124002 -0.045275126 0.25560701 13355203
0.74900001 -0.034501128 0.25466698 13289409
0.75000006 -0.037798602 0.25923389 13355203
0.74841636 -0.025161782 0.25489032 13947340
0.74899989 -0.017642291 0.25561517 14210512
0.75175005 -0.012599671 0.25488001 14276562
0.75727791 -0.0066463999 0.25544438 14211026
0.76136374 -0.0023448868 0.25435489 14013903
0.76616669 0.0002481759 0.25555149 14013904
0.77423823 0.0044003008 0.25474629 13684682
0.78200001 0.0088849729 0.25573462 13750220
0.78735 0.014451439 0.25451022 12565692
0.79000002 0.018287586 0.25749385 9934997
0.78900003 0.020573268 0.25116497 12829631
0.7880435 -0.1539102 0.26489744 10065555
0.79000002 -0.15879287 0.26535383 9671567
0.77900004 -0.1419926 0.26348269 13815755
0.78311771 -0.14619726 0.26514411 10789277
0.7754243 -0.13507485 0.26482981 14736599
0.7737335 -0.12473183 0.26532432 14934233
0.77297175 -0.11478475 0.26493335 14671318
0.77225816 -0.10478164 0.26496306 14342097
0.77165514 -0.095618196 0.26476616 13947340
0.7665714 -0.083844975 0.26530054 13815754
0.77014291 -0.089381419 0.26422101 13815754
0.7615999 -0.074638262 0.26472914 14013133
0.75900006 -0.060462598 0.26412153 14144719
0.76028007 -0.065893292 0.26508901 14276305
0.75796306 -0.054566476 0.26474693 13552839
0.75387496 -0.044654701 0.2652989 13092545
0.74899995 -0.032696679 0.26573494 13355718
0.75042862 -0.036650028 0.26536384 13289669
0.74900001 -0.02605872 0.26509577 13881549
0.75000006 -0.021528527 0.26719335 14013905
0.74900001 -0.018343663 0.26262885 13948113
0.75176013 -0.013971432 0.26542681 14145236
0.75736368 -0.0059569892 0.26502892 14145492
0.76066679 -0.00153434 0.26440471 14079699
0.76577783 0.0010481578 0.26488438 14145748
0.77450001 0.0049176952 0.26532963 10527131
0.78311116 0.0088113863 0.26456887 10263702
0.78838468 0.012749747 0.26459849 10329496
0.79050004 0.017044166 0.26538959 10263959
0.78828579 -0.15291329 0.27426898 10000017
0.79018188 -0.15748438 0.27643025 9868689
0.77900004 -0.14016895 0.27351278 14210766
0.78390485 -0.14516522 0.2750586 12039342
0.77570373 -0.13406411 0.27491161 14868697
0.77380013 -0.12474241 0.27530995 14868441
0.77284014 -0.11554129 0.27496824 14671318
0.7717095 -0.10529089 0.27474052 14342354
0.76900005 -0.091563299 0.27630258 13749961
0.77065396 -0.095924973 0.2748144 13947340
0.76675767 -0.085046768 0.27503365 13749704
0.76196289 -0.074476399 0.27506232 14013134
0.75900006 -0.060758736 0.2753748 14210513
0.76033336 -0.06600868 0.27467164 14276305
0.75813329 -0.054776002 0.27488136 13816011
0.74862504 -0.041161627 0.27664846 13092802
0.75320691 -0.045667816 0.27430347 13027009
0.74765503 -0.034643017 0.27578294 13224389
0.75000006 -0.037798606 0.27093896 13224389
0.74847364 -0.027053585 0.27524415 13750733
0.75038469 -0.021917375 0.27468193 14013905
0.75434387 -0.014538964 0.27512172 14145235
0.75787503 -0.0066278847 0.27463481 14144981
0.76080006 -0.0024244299 0.27513781 14013909
0.76642853 0.00076261588 0.27319732 14211031
0.77450001 0.0049723578 0.27537233 11053478
0.78320009 0.0094211195 0.27498835 10461593
0.78800005 0.012247114 0.27482802 10461337
0.79041183 0.017018959 0.27501559 10329752
0.78900003 -0.15194243 0.28459683 9934737
0.79062504 -0.15683733 0.28522965 9803152
0.78557146 -0.14516823 0.28514418 12104623
0.77683347 -0.13409969 0.2847999 14934235
0.78050005 -0.13861169 0.28774375 14933722
0.77423084 -0.12467261 0.28473562 14868442
0.77317673 -0.1149527 0.28525695 14671063
0.77235478 -0.10508671 0.28465378 14342098
0.76900005 -0.091923341 0.28440365 13815754
0.77047628 -0.09594889 0.28520748 14013133
0.76739401 -0.085333228 0.28511617 13618375
0.76266658 -0.07481093 0.28490448 14013134
0.75899994 -0.062298656 0.28532508 14342099
0.76012516 -0.067596197 0.28534701 14276307
0.75753576 -0.054923888 0.28491336 14078926
0.74850005 -0.041636955 0.2824297 13092289
0.7525 -0.046283554 0.28550747 13289667
0.74833333 -0.034502987 0.28435272 13289669
0.75000006 -0.034872331 0.28896484 13289412
0.74864286 -0.027547894 0.28288421 13816526
0.75061113 -0.023769727 0.28599823 13882319
0.75543749 -0.015001547 0.28502488 14145491
0.75853342 -0.0072116884 0.28443941 14145492
0.76121432 -0.002934203 0.28546849 14079700
0.76616669 0.00024817587 0.2842516 14013652
0.77372229 0.0042821164 0.28463468 11711410
0.78299999 0.0087339664 0.2854524 10395547
0.78833342 0.012251903 0.28509533 10395545
0.79113334 0.016926028 0.28518265 10329752
0.78900003 -0.1512036 0.2954945 10065553
0.79114288 -0.15611474 0.29471001 9868688
0.78619993 -0.14515083 0.29518166 12104624
0.77781266 -0.13301519 0.29437771 15065563
0.78137505 -0.13785379 0.29583925 14999771
0.77560705 -0.1250342 0.29501885 14933977
0.77373338 -0.1147706 0.2952112 14736343
0.77235729 -0.10442792 0.2952657 14407378
0.76853842 -0.092754669 0.29585737 14933722
0.77041185 -0.097142719 0.29415518 14867929
0.76627791 -0.084964313 0.29505518 14144719
0.7619676 -0.074789986 0.29497814 14078927
0.759 -0.061647151 0.29506806 14210513
0.76018763 -0.067157082 0.29549211 14210513
0.75796294 -0.054566041 0.29491219 14013133
0.75549996 -0.044858973 0.29533255 13420740
0.75345463 -0.03527493 0.29501346 13157825
0.75325 -0.025071857 0.29470322 13882319
0.75685298 -0.014602955 0.29523265 14079955
0.75889999 -0.0077487542 0.29488158 14145748
0.76112509 -0.003315316 0.29485431 14079698
0.76633334 0.00024822986 0.29507998 13882319
0.77342111 0.0042593344 0.2951858 12303031
0.78387499 0.0089727407 0.2940357 10461082
0.78800005 0.011323581 0.29512 10395545
0.78756523 -0.14491998 0.30497599 12368310
0.79000002 -0.14954583 0.30696541 9604751
0.77793336 -0.13245097 0.30579656 14999770
0.78212512 -0.13730021 0.30481997 14934234
0.77565378 -0.12518176 0.30481189 14999769
0.77378798 -0.11486146 0.30505702 14473684
0.76900005 -0.10056451 0.30960706 13947342
0.77164286 -0.104913 0.30499175 13881550
0.76795655 -0.094411515 0.30551237 14605271
0.77000004 -0.098291837 0.30309978 14670807
0.76394123 -0.085022457 0.30483136 15066335
0.75900006 -0.072012015 0.30795005 15131614
0.76057148 -0.075808041 0.30487746 15000028
0.75893563 -0.064001508 0.30515349 14868442
0.76000005 -0.068429932 0.30206937 14605270
0.75853586 -0.05499354 0.30482194 14933979
0.75733334 -0.044965904 0.30490977 14407378
0.75580007 -0.035144199 0.30517814 13289154
0.75494421 -0.025380563 0.30483368 13750220
0.75743335 -0.014823475 0.30495074 13948112
0.75900006 -0.008046031 0.30380413 13882320
0.76160008 -0.0038509045 0.30537888 13816783
0.76719999 0.00024851059 0.30529124 13816783
0.77461916 0.004748344 0.30487102 12435129
0.78340006 0.009423526 0.30439949 10461340
0.78810012 0.012063844 0.30493423 10395547
0.78900003 -0.1512036 0.31858277 9933969
0.77900004 -0.14016895 0.31819227 14605272
0.78535718 -0.14479968 0.31493774 12368311
0.79000002 -0.14954583 0.31158894 9538958
0.77582759 -0.13402721 0.31523356 14868442
0.78100002 -0.13870049 0.31169468 14868443
0.7741667 -0.12480105 0.31440371 14802649
0.77267867 -0.11532501 0.31528503 14342098
0.76876932 -0.10205742 0.31685051 13552582
0.77075005 -0.10680909 0.31399414 13749963
0.76696676 -0.094915517 0.31507075 13749961
0.75900006 -0.081488453 0.31979564 14342098
0.76179302 -0.085481472 0.31488222 14342098
0.75838721 -0.074608766 0.31558415 14802649
0.76000005 -0.079104975 0.31274441 15000028
0.7574721 -0.064478904 0.31471714 14869213
0.75687093 -0.05456901 0.31466562 15000286
0.7557857 -0.044873402 0.31489792 15131871
0.75463319 -0.03508823 0.31530502 14737370
0.75583339 -0.025408048 0.3149237 13684683
0.75820696 -0.015665902 0.3143822 13355975
0.76000005 -0.010873658 0.31710342 13223619
0.76220012 -0.0051000887 0.3150773 13487561
0.76860011 0.00024896409 0.31484532 13816526
0.77400005 0.003877914 0.31524232 13750990
0.78233337 0.0084976973 0.31497324 10264474
0.78854555 0.012338909 0.31512651 10330010
0.79133332 0.016930617 0.31489471 10263959
0.78850007 -0.15203132 0.3248415 9868176
0.79127777 -0.15719888 0.32505882 9736590
0.78395236 -0.14569782 0.32453784 12302516
0.77496976 -0.13466646 0.32492781 14802648
0.77300018 -0.12461253 0.32478964 14671063
0.76900005 -0.11136596 0.32940972 13749961
0.77132142 -0.11544562 0.32479176 14276305
0.76750004 -0.10470479 0.32511717 13486789
0.77000004 -0.1097082 0.32172644 13815754
0.76374286 -0.094567776 0.32531139 13486789
0.75875002 -0.082794242 0.32546264 13618375
0.76064712 -0.087008178 0.32425919 13552582
0.75643253 -0.074899197 0.32507592 14078926
0.75460011 -0.065117531 0.3250019 14539478
0.75436598 -0.055493116 0.32503128 14802650
0.75359374 -0.044962119 0.32490423 14342099
0.75566667 -0.035281051 0.32532194 13487047
0.75779176 -0.026288414 0.32401887 13289411
0.7601667 -0.02229465 0.32799891 14605270
0.75900006 -0.018410889 0.32157245 12960447
0.76192594 -0.0146132 0.32552353 14144463
0.7660588 -0.0056552179 0.32456544 13486790
0.77025002 -0.0024549626 0.32814199 13684168
0.77472001 0.0038868284 0.32496491 13355975
0.78366667 0.0094267335 0.32559943 10395290
0.78781819 0.012160331 0.32506159 10329752
0.78900003 -0.15157302 0.33354402 9933713
0.77900004 -0.14016895 0.33460513 14407892
0.78577268 -0.14607634 0.33517087 12104882
0.77492595 -0.13419797 0.3351728 14605270
0.77328008 -0.12465831 0.33486465 14605270
0.76900005 -0.11136596 0.33120999 13815754
0.77170843 -0.1155246 0.33501139 14144719
0.76716006 -0.10499682 0.33487132 13552582
0.77000004 -0.1097082 0.33794969 13684168
0.76214284 -0.094892345 0.33469194 13420996
0.75863153 -0.083412632 0.3345027 13223618
0.76000017 -0.08790379 0.33574426 13355203
0.75472724 -0.074771181 0.33464563 13617863
0.75110012 -0.064816706 0.33492753 14012364
0.75141686 -0.055165447 0.33506739 14671063
0.7543031 -0.044699814 0.33472595 14605270
0.75773084 -0.035093393 0.3350217 14934236
0.7589286 -0.028688313 0.33486757 15131614
0.76047623 -0.023659363 0.33533767 15065821
0.76462507 -0.014959796 0.3355886 15065823
0.76860011 -0.0080274707 0.33499676 15197409
0.77100009 -0.0034644902 0.33546832 15328994
0.77531034 0.0039505921 0.33498764 15000542
0.78240001 0.009411497 0.33514833 13487561
0.78739995 0.013530031 0.33544612 10132374
0.7905556 0.017940907 0.33452907 10132373
0.78880006 -0.15153468 0.34675437 9671056
0.78450006 -0.14567357 0.34480864 12763068
0.77564508 -0.13517678 0.34479126 14407891
0.77396679 -0.1247685 0.34512654 14671062
0.77307159 -0.11577044 0.34505111 14144461
0.7674762 -0.10276364 0.34526756 13420739
0.77084625 -0.10844162 0.34519279 13486275
0.76241928 -0.094469406 0.34512746 13223617
0.75852931 -0.083109967 0.34508362 13026239
0.76020014 -0.087846257 0.3452155 13157824
0.75475675 -0.074736618 0.34498513 13223105
0.75026673 -0.064744405 0.34509546 13881293
0.7510938 -0.055359691 0.34492797 14868186
0.75497055 -0.044922978 0.34492052 15131358
0.75759989 -0.035225388 0.34492081 15328736
0.75811774 -0.025696697 0.34541631 15197151
0.76033336 -0.021706218 0.34112301 15131614
0.75887501 -0.017741399 0.34750095 15065821
0.7613548 -0.014067425 0.34366617 15065822
0.76359463 -0.0051621804 0.3445693 15131873
0.77050006 -0.0024554669 0.34087479 15197926
0.76528579 0.0016575176 0.34713361 14935009
0.77413797 0.0055704382 0.34429294 14079444
0.78050005 0.0093886415 0.34073037 11118756
0.78637505 0.014605455 0.345209 10197911
0.79000002 0.018749937 0.34210411 10329752
0.79058367 0.025243266 0.34513131 10263703
0.78845459 -0.15193865 0.35485846 9473165
0.79100001 -0.15725271 0.35484365 9539471
0.77900004 -0.14016895 0.35603309 13486790
0.78413635 -0.14577168 0.35466525 13157570
0.7756896 -0.13412851 0.35456723 13749705
0.77404004 -0.12478034 0.35512525 14407891
0.77277792 -0.11533251 0.35494617 14276048
0.76631826 -0.10445858 0.35475948 13420996
0.7704286 -0.10951175 0.3539823 13683911
0.76097053 -0.094959199 0.35478735 13223617
0.75842863 -0.085170552 0.35449353 13092031
0.75423539 -0.074908204 0.35512498 13091519
0.74900001 -0.062296122 0.35532644 14342612
0.75000006 -0.065178335 0.35524106 13750476
0.74900001 -0.058789272 0.35707989 14606040
0.75157142 -0.05484746 0.35511953 15000030
0.75566685 -0.044621687 0.35505781 15394787
0.75666678 -0.035182774 0.35512426 15328994
0.75627792 -0.025426634 0.35494101 15065821
0.75760978 -0.014719867 0.35480744 15000029
0.75861549 -0.0054911152 0.35528743 15000285
0.76000005 -0.0036680039 0.35081875 15065823
0.75900006 0.00024585446 0.35799754 14869213
0.76260871 0.003202406 0.35507587 14935008
0.7735455 0.0079912478 0.35357881 12632253
0.77900004 0.011194251 0.3531456 10065813
0.78619051 0.015247543 0.3542107 10132374
0.79000002 0.018749937 0.35782403 10198168
0.79085726 0.024988025 0.35517174 10132374
0.78870583 -0.15310295 0.36489469 9408142
0.79041672 -0.15795191 0.36541378 9605776
0.78500009 -0.14509025 0.3648676 11579311
0.77706677 -0.1338816 0.3633056 12368310
0.78160006 -0.13661352 0.36810759 11973554
0.77500004 -0.12469909 0.36432466 13091777
0.77324015 -0.11538515 0.36446273 13947597
0.76754552 -0.1039701 0.36292657 13487046
0.77129996 -0.10736464 0.36596879 13487302
0.76400012 -0.0946512 0.36420026 13223875
0.77050006 -0.098055616 0.36973488 13224387
0.75855553 -0.083414726 0.36183274 13026240
0.76183343 -0.086252868 0.36602429 13026753
0.75685 -0.074881278 0.36442778 12763325
0.76050007 -0.078979567 0.36849692 13158596
0.75456256 -0.065337747 0.36540297 12632253
0.75239998 -0.054782096 0.36499748 14802650
0.75311112 -0.044711921 0.36403143 15065823
0.75366664 -0.035043288 0.36429861 15066079
0.75247502 -0.025123706 0.364337 14868700
0.75377506 -0.01492745 0.3649655 14803165
0.75690919 -0.005068365 0.36498094 14869214
0.75870001 0.00095649034 0.3656702 14803678
0.7622143 0.0045844684 0.36499295 14935010
0.77266675 0.0086935535 0.36443746 11250860
0.77900004 0.011194251 0.3637836 9934743
0.78753853 0.014723131 0.36486146 10132375
0.79114288 0.018248662 0.36561924 10000789
0.78900003 -0.15281978 0.37284029 10263704
0.79040009 -0.15591265 0.37620115 10592669
0.7880953 -0.14523251 0.37448987 10131864
0.79000002 -0.14769644 0.37909219 10461340
0.78570008 -0.13512154 0.37537783 10000020
0.77900004 -0.1246679 0.37107822 12631229
0.78353333 -0.12557577 0.37587112 10526366
0.77687502 -0.11478187 0.37165767 13355718
0.78225005 -0.11534696 0.37697655 12105141
0.77585727 -0.10431727 0.37412521 13026753
0.78200006 -0.1086731 0.37891465 11447727
0.77393758 -0.094870426 0.37557682 12435128
0.76800007 -0.084852695 0.37332961 12434872
0.77211118 -0.085709214 0.37733746 11711148
0.76353335 -0.074468762 0.37402371 12171446
0.77000004 -0.079064272 0.37850785 11316392
0.75814289 -0.062889338 0.37141177 12697531
0.76200008 -0.065207675 0.37581274 12171188
0.75755554 -0.054337531 0.37318027 13355205
0.76166672 -0.055622846 0.37768102 13091776
0.75708336 -0.044948507 0.37304685 14342870
0.76250005 -0.045715973 0.37839109 14013648
0.75700009 -0.035199441 0.37300563 14540506
0.7617501 -0.033638321 0.37801892 14540249
0.75609106 -0.025337731 0.37360469 14409177
0.76066667 -0.025273824 0.37807596 14277335
0.75633329 -0.014806193 0.3738586 14343387
0.7614001 -0.015085163 0.37891561 14014681
0.75775003 -0.005297496 0.3727088 14606302
0.76216674 -0.0051066377 0.37733495 14540510
0.75900006 0.0011342708 0.37132376 14737885
0.76425004 0.0039799181 0.37433931 14672093
0.77225006 0.0083863549 0.37690124 13619406
0.77600002 0.011151141 0.37691569 9934743
0.78644443 0.013962965 0.37676904 10066582
0.78900003 -0.13458005 0.38156763 9738130
0.78844452 -0.12484601 0.38285816 9671570
0.78753853 -0.11490246 0.38330162 9276556
0.79062498 -0.11588648 0.38795289 9737360
0.78631258 -0.10455486 0.38526621 9145225
0.77850008 -0.092693269 0.38177553 10197912
0.78472728 -0.09610977 0.3862519 9276811
0.77650005 -0.08445891 0.3837046 11974063
0.78250003 -0.086760998 0.38831559 12369078
0.77383339 -0.074930735 0.38492492 11908529
0.76775002 -0.064903595 0.38144651 11315622
0.77311116 -0.065308481 0.38647372 12500409
0.76850003 -0.054623749 0.38316765 12237495
0.77300006 -0.054942623 0.38722101 12039862
0.76900005 -0.048357464 0.38341701 12500666
0.77366668 -0.044426162 0.38725412 13026753
0.77416676 -0.035092361 0.38780543 13815757
0.76450002 -0.0257084 0.38117334 14343130
0.77300006 -0.024360266 0.38830817 11316137
0.76466674 -0.012280658 0.38125643 13883095
0.77266675 -0.017534433 0.388262 9541272
0.76800007 -0.004547196 0.38172057 12698051
0.77342862 -0.0044024121 0.3866618 9803928
0.77427274 0.0047034179 0.38390666 12896196
0.78200006 0.0075760097 0.38989872 9738387
0.77700001 0.011165511 0.38012984 10198168
0.78640002 0.014249803 0.38546461 10001046
0.79079998 0.018029165 0.38410336 10001559
0.79080015 -0.10526776 0.3950282 9606800
0.78847361 -0.093591824 0.39419565 9474702
0.79030001 -0.097800121 0.39773768 9803922
0.78622228 -0.085027307 0.39497241 10724001
0.77900004 -0.073605612 0.39113843 12763838
0.78414285 -0.07527142 0.39621601 11381932
0.77720004 -0.065251805 0.39114437 12960703
0.78341675 -0.064854041 0.39702645 10461084
0.77600002 -0.055155847 0.39054039 11447725
0.78400004 -0.055213608 0.39722028 9737363
0.77825004 -0.046204239 0.39167279 10329244
0.78537506 -0.043871742 0.39663953 9868693
0.778 -0.031622119 0.39154696 12960195
0.78450006 -0.035327602 0.39596942 10065816
0.77725005 -0.02521617 0.39208135 10986661
0.78485721 -0.02467661 0.3978878 9737362
0.77760005 -0.01541 0.39243984 9738136
0.78416675 -0.014436663 0.39740705 10001304
0.778 -0.007942725 0.39154696 9738137
0.78437501 -0.0045654969 0.39590561 10001560
0.78612506 0.0049722316 0.39529514 10067353
0.79000002 0.0085782148 0.39943561 10001559
0.78825009 0.012942476 0.39347696 10132888
0.79100001 0.01634472 0.39600641 10001559
0.78871435 -0.083888061 0.4011597 9539727
0.79114288 -0.085600905 0.40610048 10132375
0.78837502 -0.075645112 0.40253639 10000533
0.79059994 -0.074701667 0.4064025 10066582
0.78828573 -0.065651007 0.40252352 10000789
0.7907778 -0.064124972 0.4064118 10066582
0.78875005 -0.055601783 0.40203539 10000533
0.78875005 -0.046828821 0.40065011 10066329
0.79108709 -0.044431951 0.40570426 10066582
0.78900003 -0.034222942 0.4007771 9934998
0.79104555 -0.035013225 0.4060272 10066582
0.78875005 -0.026518147 0.40157363 9869716
0.78800005 -0.011735447 0.40026915 10001559
0.78900003 -0.0080562122 0.4007771 9869973
