# .PCD v0.7 - Point Cloud Data file format
VERSION 0.7
FIELDS x y z rgb
SIZE 4 4 4 4
TYPE F F F U
COUNT 1 1 1 1
WIDTH 829
HEIGHT 1
VIEWPOINT 0 0 0 1 0 0 0
POINTS 829
DATA ascii
0.78900003 -0.1336565 0.15881181 15196886
0.78681242 -0.12442394 0.15779136 14671317
0.79250008 -0.12518036 0.15271041 12763063
0.77590001 -0.11345567 0.15871593 14802903
0.78582615 -0.11492028 0.15504526 14540246
0.79066676 -0.11728016 0.15143363 12632505
0.76766664 -0.10098866 0.15930907 14737366
0.77464718 -0.10482319 0.15698397 14803160
0.7858125 -0.10540453 0.15298969 13816009
0.76560003 -0.094747007 0.15858039 14737623
0.77423531 -0.09517172 0.15572946 14540501
0.78593743 -0.095074154 0.15267056 12368818
0.79160005 -0.092772827 0.15043928 12303796
0.76363641 -0.08507403 0.15809172 14606037
0.77300006 -0.085497499 0.15614468 14606036
0.78527278 -0.084809072 0.15354639 11514023
0.79200011 -0.085030019 0.15107062 12106417
0.75900006 -0.074381128 0.15988068 14473936
0.76300007 -0.075258128 0.15812239 14605781
0.77360004 -0.074360162 0.15594865 12961470
0.78620005 -0.075205006 0.15364438 11777452
0.79258341 -0.074890338 0.15118247 11909038
0.75900006 -0.064608537 0.15988068 14605522
0.7644546 -0.065477945 0.15842345 14737366
0.77469224 -0.065179259 0.1566245 12106417
0.78671426 -0.065125778 0.1546648 11448487
0.79258341 -0.064220563 0.151645 11908781
0.75900006 -0.051282294 0.15988068 14737108
0.76480001 -0.055255931 0.15931201 14868694
0.77420008 -0.055933893 0.15800436 12171439
0.7854445 -0.055314846 0.15727574 10856092
0.75687504 -0.044058893 0.15987258 14737108
0.76366669 -0.045342788 0.15907593 14934487
0.77575004 -0.045150425 0.15796086 10065807
0.78516674 -0.044777881 0.15804021 11052958
0.75900006 -0.036179215 0.15988068 14736852
0.76500005 -0.034668487 0.15935367 14473423
0.77650005 -0.034286395 0.15856627 10526358
0.78680003 -0.034739144 0.15836897 11184801
0.76700002 -0.028480526 0.15977028 13092283
0.77460003 -0.025134623 0.15954003 11709860
0.78581828 -0.024994189 0.15900391 11052701
0.77575004 -0.017000265 0.1597769 12039082
0.78475004 -0.017197508 0.15979347 11184030
0.78844452 -0.14268897 0.16710737 11841451
0.79152942 -0.14569576 0.16367798 11183524
0.77740002 -0.13260306 0.16739476 14933206
0.78545839 -0.13566236 0.16368578 14407633
0.77496153 -0.12451238 0.16519156 14209740
0.78260005 -0.12726176 0.16118589 13947337
0.76900005 -0.11196604 0.16858804 13815495
0.77221441 -0.1159014 0.16472483 13552579
0.76692009 -0.10482004 0.16506642 13618630
0.77066666 -0.10860107 0.16173618 13881801
0.76194108 -0.094924107 0.16516882 13420995
0.75887495 -0.083585024 0.16573879 13486789
0.76014298 -0.086822748 0.16291726 13947339
0.75743741 -0.074895099 0.16520178 13684167
0.76000005 -0.079816639 0.16009133 14342352
0.75506455 -0.064988643 0.16509053 13947594
0.74786353 -0.053078271 0.16565113 14144203
0.75262505 -0.057013556 0.16337448 14342095
0.76000005 -0.055797793 0.16009133 14671315
0.7464667 -0.045194235 0.1651037 13881287
0.75349998 -0.046501957 0.16048607 14868694
0.74522251 -0.035523124 0.16482663 14012617
0.75320005 -0.035017375 0.16042218 14605522
0.76000005 -0.031778947 0.16009133 14671315
0.74451506 -0.025269832 0.16506587 14143945
0.75477779 -0.024496173 0.1613435 15000023
0.76214296 -0.025749801 0.16028555 14605522
0.77000004 -0.024986759 0.16039521 13026490
0.74526685 -0.014585824 0.16570956 14078924
0.75470006 -0.015477581 0.1617984 15197660
0.76312506 -0.014042675 0.16119438 15000024
0.77566671 -0.013656734 0.16036139 13158077
0.78650004 -0.011712521 0.16014981 11184288
0.74773335 -0.0064081596 0.16684243 14211281
0.75530005 -0.0043514646 0.16511162 14408404
0.76250005 -0.0057077813 0.16299368 14013389
0.77477783 -0.0051906011 0.1621934 12434357
0.78555566 -0.0048544258 0.16118003 10658461
0.79000002 -0.0015935082 0.16086249 10790303
0.76450002 0.00024763602 0.16818987 11250599
0.77466673 0.00085647247 0.16620305 10724253
0.78633338 0.0025083283 0.16543156 10855839
0.78571427 -0.14409888 0.17575102 11380901
0.79071426 -0.14915265 0.17317088 10591385
0.77540749 -0.13367698 0.17523485 14670548
0.7816667 -0.13881887 0.17197257 14144206
0.77275872 -0.12470017 0.1746925 14736084
0.76900005 -0.11196604 0.17158842 13617862
0.77045465 -0.11559496 0.17532939 13946826
0.7670334 -0.10480081 0.17486049 13749704
0.77000004 -0.1097082 0.17751974 13881034
0.76149994 -0.094418094 0.17520295 13617862
0.75878948 -0.083429717 0.17470191 13223617
0.76000017 -0.08790379 0.17561865 13486276
0.75741172 -0.075322531 0.17487885 13157824
0.75484002 -0.065141723 0.17491093 13289410
0.74811107 -0.052883562 0.17451614 13618374
0.75113338 -0.058137633 0.17545754 13684167
0.74644446 -0.044998903 0.17509863 13486275
0.74455571 -0.035492584 0.17513999 13552325
0.74397212 -0.025012936 0.1750024 13749448
0.7450574 -0.014706264 0.17513356 14144206
0.74756253 -0.0065378784 0.17464335 14079440
0.75389999 -0.0023990411 0.17557064 13882317
0.76033336 0.00024628636 0.17262198 10658461
0.78575003 0.005772884 0.17517099 10855840
0.79218191 0.0085197575 0.17479379 10855839
0.78866673 -0.15113972 0.18828446 10262419
0.77900004 -0.14108077 0.18688926 13617092
0.78475004 -0.14565162 0.18443902 10722714
0.77528584 -0.13457921 0.18509054 14538963
0.77236664 -0.12451211 0.18529822 14671061
0.77073342 -0.11522721 0.18490694 14144461
0.76712012 -0.10535201 0.18500796 13815496
0.77000004 -0.1097082 0.18473008 13947082
0.76162505 -0.095258705 0.18478172 13683911
0.75899994 -0.083683364 0.18506989 13617862
0.76000011 -0.088045321 0.18433256 13749448
0.75824237 -0.074953638 0.18505608 13092031
0.7560001 -0.065241575 0.1849106 13355203
0.74849999 -0.052106805 0.18439175 13420740
0.75138897 -0.057318226 0.18544337 13552325
0.7468214 -0.045402836 0.18472686 13157824
0.74520016 -0.035523288 0.18488687 13420995
0.74423325 -0.025021555 0.18464713 13815754
0.74596775 -0.014457621 0.1849084 14078670
0.74822229 -0.0075420416 0.1829126 14079183
0.75413328 -0.0042208233 0.1855673 13948110
0.76000005 -0.0015329953 0.1876685 13685195
0.77450007 0.002519907 0.1844472 10592925
0.78640002 0.0054119928 0.18627205 10790047
0.78807151 -0.15260819 0.19512622 10262675
0.7913571 -0.15747963 0.19488041 10065553
0.77900004 -0.14126314 0.19509569 13551556
0.78294122 -0.14594916 0.19478789 10459542
0.77567744 -0.13447848 0.19461547 14539221
0.77352005 -0.12469755 0.19553512 14736856
0.77232003 -0.11546466 0.19523187 14276561
0.76745456 -0.10314152 0.19457363 13816009
0.77030003 -0.10866939 0.19544163 14013131
0.76234603 -0.094207369 0.19470198 13749959
0.75899994 -0.083265282 0.1930059 13815495
0.76031262 -0.08674711 0.19620092 13684167
0.75860626 -0.075474493 0.19483188 13354947
0.75653851 -0.065150835 0.19498955 13223360
0.74900001 -0.050606634 0.19196594 13223361
0.75260001 -0.055787701 0.19535765 13354946
0.74770355 -0.044881009 0.19484316 13091774
0.75000006 -0.048918441 0.19748953 13026238
0.74600005 -0.035561558 0.19469129 13354946
0.74550039 -0.02506434 0.19456112 13881547
0.74693942 -0.015014964 0.19469768 14078926
0.75000006 -0.010291643 0.19748953 14144719
0.75521058 -0.0062631574 0.19490667 14144719
0.76125008 -0.0019803101 0.19599693 13947596
0.76780003 0.00024870498 0.19588558 13487301
0.77477783 0.003276861 0.19685972 14474452
0.7865001 0.0070701679 0.19623592 12237747
0.78860009 -0.15186577 0.20266941 10197139
0.79238898 -0.15628785 0.20556086 10131347
0.78570825 -0.14490655 0.20474899 10986142
0.79000002 -0.14954583 0.20894699 10328212
0.77704352 -0.13396741 0.20488696 14802392
0.78133339 -0.13875969 0.20665555 14012620
0.77420008 -0.12480688 0.20476809 14802649
0.77296561 -0.11543627 0.20519008 14342098
0.76880008 -0.10125844 0.20298024 13881547
0.77082151 -0.10628252 0.20548634 14013133
0.76612502 -0.094961725 0.20457821 13815754
0.76167989 -0.085345402 0.205025 13749961
0.75899994 -0.072493248 0.20441253 13618373
0.76011121 -0.077456079 0.20568822 13816009
0.75770962 -0.065159068 0.20498438 13355202
0.74900001 -0.050606634 0.20862347 13354690
0.75312918 -0.054930218 0.20505124 13289410
0.74751842 -0.044869535 0.20568226 13157824
0.75000006 -0.048918441 0.20187895 13026494
0.74683326 -0.035599779 0.20539829 13289665
0.74683321 -0.025108639 0.20539829 13749961
0.74751991 -0.015995448 0.20492098 14013133
0.75025004 -0.010734014 0.20545982 14078926
0.75645006 -0.0060365079 0.20529711 14078927
0.76075006 -0.0019793015 0.20477109 14013388
0.76587504 0.00069784949 0.20569962 13881546
0.77471423 0.0050073355 0.20507565 14539731
0.78377777 0.0088170646 0.2036251 14934489
0.78756255 0.013278482 0.20622511 14013389
0.79121435 0.017059449 0.20331177 10395289
0.78694117 -0.1437681 0.21485531 11380387
0.7906667 -0.14885007 0.2150885 10196626
0.77647823 -0.13323832 0.21516916 14802137
0.78200006 -0.13887809 0.21506913 14078414
0.77406675 -0.12478476 0.21469907 14933722
0.77293122 -0.11511797 0.21528907 14473428
0.77233338 -0.1050189 0.21492393 14013133
0.7683751 -0.093063787 0.21199685 13881547
0.77111125 -0.096128635 0.21598691 13881547
0.76424992 -0.085253671 0.2152365 13815754
0.75900006 -0.071123593 0.21466637 13881547
0.76044005 -0.07651744 0.21487145 13881547
0.75788462 -0.065266915 0.21485136 13552324
0.74900001 -0.050606634 0.21213029 13222588
0.75286669 -0.05581056 0.2149868 13223615
0.74777764 -0.044884369 0.21515673 13157566
0.75000006 -0.048918441 0.21943659 13157824
0.74699986 -0.035294928 0.21487398 13355458
0.74660003 -0.025101708 0.21494597 13815753
0.74768418 -0.016614622 0.21442835 14013389
0.75130773 -0.011795952 0.21535486 14145231
0.75654548 -0.0061103781 0.2147503 14210766
0.76000005 -0.0015329953 0.21524572 14079180
0.76429409 0.0018309238 0.21519539 13947594
0.77389991 0.0071395948 0.21446867 14276302
0.77750003 0.011172695 0.21746889 14276559
0.78560716 0.015367916 0.21474123 14539729
0.78853852 0.022407575 0.21693753 14342094
0.79190004 0.026399126 0.21426757 10658202
0.7874667 -0.14353821 0.22486964 11512999
0.79090005 -0.14860633 0.22418185 10262676
0.77593338 -0.13296071 0.22411634 14868442
0.78225005 -0.13823713 0.22589692 14144720
0.77400011 -0.1247737 0.22464658 14933978
0.77353346 -0.11473867 0.22451232 14670806
0.77388018 -0.10482591 0.22461231 14144719
0.77258629 -0.095734626 0.22529645 13881547
0.76562971 -0.084266126 0.22507019 13815754
0.77000004 -0.089879774 0.22618951 13815754
0.75900006 -0.070827454 0.22029299 13946827
0.76074064 -0.074487276 0.22508629 13815754
0.75850004 -0.064123608 0.22420724 13684168
0.76000005 -0.067955486 0.22829296 13815754
0.75515997 -0.054563016 0.22483848 13223617
0.74856251 -0.042253874 0.22350694 13157824
0.75118756 -0.046360493 0.22648957 13026238
0.74736655 -0.034750897 0.22479114 13355203
0.74702764 -0.025115402 0.22468813 13815753
0.74800009 -0.017997362 0.22425134 13947853
0.75266671 -0.01300859 0.22525075 14079696
0.75776476 -0.0064308532 0.2242126 14079696
0.76070011 -0.0026023798 0.22595139 14013902
0.7651667 0.0017445429 0.22447045 14013388
0.77283341 0.0069884351 0.22511095 14078923
0.77746159 0.012574052 0.22565055 14013131
0.78275001 0.01697617 0.22443351 14079180
0.78642422 0.024751574 0.22534746 14210765
0.79033333 0.029242488 0.22075273 12894650
0.78880006 0.032386448 0.22746451 13158078
0.79183334 0.065135852 0.22518484 10592924
0.78771442 -0.14305529 0.23494932 12302518
0.79100001 -0.14718987 0.23513681 10065556
0.77576476 -0.13221742 0.23488061 14868442
0.78190917 -0.13786529 0.23476072 14013135
0.77406675 -0.12478478 0.23463291 14868442
0.7736668 -0.11475963 0.23451036 14671062
0.77330017 -0.10474758 0.23439842 14210767
0.77148145 -0.095273077 0.23515075 13947595
0.76661301 -0.084801458 0.23518118 13881547
0.77000004 -0.089879774 0.23159726 14013132
0.76218516 -0.074894145 0.23509632 13947339
0.75900006 -0.060610671 0.2322866 13750215
0.76049995 -0.065353848 0.23531386 13881545
0.7578966 -0.054881282 0.23520847 13355458
0.7531001 -0.044719752 0.23503722 12960446
0.74862492 -0.033604383 0.23393118 13355717
0.75011116 -0.03702395 0.2368345 13223618
0.74799997 -0.025147218 0.23461239 13684938
0.74900001 -0.019045033 0.23317136 13948110
0.75346673 -0.014151871 0.23532221 14079696
0.75850004 -0.0077442019 0.23524101 14079697
0.76293343 -0.0033215189 0.23512751 14013903
0.76814288 0.0007628366 0.23425137 13816011
0.77370834 0.0060667805 0.23505175 14013133
0.7779091 0.012504231 0.23406006 14078925
0.78157151 0.01672156 0.23533921 13750217
0.78571886 0.025322126 0.23506165 13882061
0.78843749 0.033364262 0.23472007 11908527
0.79009998 0.038173627 0.23486793 10329496
0.79247832 0.064947069 0.23525578 10592667
0.78775012 -0.14370514 0.24488834 12039345
0.79099995 -0.1478834 0.24532051 10197141
0.7766875 -0.13259503 0.24508764 14868439
0.78172737 -0.13799943 0.24469024 14210511
0.77451998 -0.12485921 0.24474306 14934233
0.77328146 -0.11447642 0.2446906 14605270
0.77239996 -0.10462639 0.24497744 14210512
0.77114284 -0.095624171 0.24490093 13947339
0.7672593 -0.084374942 0.24444367 13816010
0.77025002 -0.089458309 0.24745063 13947340
0.7630384 -0.074642628 0.24489376 13947339
0.76063883 -0.064749643 0.24480748 13816010
0.75815392 -0.054435823 0.24544032 13486790
0.76000005 -0.058466557 0.2419333 13157824
0.75354064 -0.044722565 0.24502179 12960447
0.74900001 -0.031757344 0.24150011 13421511
0.75007695 -0.035348974 0.24539264 13158082
0.74899989 -0.025912605 0.24332662 13750220
0.75000006 -0.023752494 0.24738246 13815756
0.75305879 -0.014731837 0.24501117 14013649
0.75849998 -0.0077442029 0.24500711 14145491
0.76261109 -0.0033195163 0.24484295 14013904
0.76900005 0.00024909366 0.2447983 13882061
0.7747308 0.0055601085 0.24466856 14013390
0.77900004 0.011194251 0.24159884 13881547
0.78427279 0.015281356 0.24523821 13684426
0.78807402 0.024718914 0.24499568 12237496
0.79000002 0.029229894 0.24901742 9869201
0.78900003 0.033271827 0.24239141 9868946
0.79057902 0.03620081 0.24592124 10198166
0.78735298 -0.14340937 0.25497606 12499896
0.79079998 -0.147846 0.25543958 9868176
0.77800012 -0.13242501 0.2548081 14802904
0.78153843 -0.1373906 0.25512126 14473683
0.77540004 -0.12500086 0.25500488 14868696
0.77420592 -0.11505277 0.25487894 14605524
0.77312011 -0.10472362 0.25515935 14276560
0.7722308 -0.09542609 0.25507426 13881547
0.76838464 -0.082220308 0.25456524 13815754
0.77061915 -0.087633431 0.25562268 13684168
0.76434475 -0.075033657 0.25510123 13947340
0.75900006 -0.06016646 0.25494123 13881547
0.76059258 -0.065438166 0.2549814 14013133
0.75746441 -0.054918312 0.25474122 13552582
0.75221211 -0.044906355 0.25482196 13157824
0.75000006 -0.034751251 0.25527835 13157568
0.74900001 -0.025279423 0.25557622 13816012
0.75000006 -0.025183119 0.25526717 13750219
0.75305408 -0.014755985 0.25544068 14079697
0.75828582 -0.0073613483 0.25520763 14145234
0.76162505 -0.0030937819 0.25470638 13948112
0.76833338 0.00024887771 0.2544761 13816526
0.77440012 0.0042441511 0.25485262 13684427
0.78187507 0.0087201409 0.25575987 13684170
0.78755003 0.014454665 0.25457543 12368567
0.79025006 0.018293519 0.25757578 9935251
0.78900003 0.021496799 0.25116497 10658466
0.79169577 0.025076933 0.25532928 9934996
0.78587997 -0.14443065 0.26532781 12104881
0.7906 -0.14928953 0.26314813 9868946
0.77732009 -0.13368197 0.26491448 14802392
0.78133339 -0.13875967 0.26426759 14605015
0.7753846 -0.12485889 0.26519173 14868184
0.77386117 -0.1147891 0.2653667 14539733
0.77286667 -0.10468929 0.26502627 14276304
0.76850003 -0.091953814 0.2680259 13552582
0.77123076 -0.095927395 0.2641865 13881547
0.76627278 -0.084121212 0.26572138 13684168
0.7701667 -0.088697515 0.26259819 13618375
0.76236653 -0.074713849 0.26499149 14013133
0.75900006 -0.06016646 0.26471379 14144720
0.76046431 -0.065815434 0.26465186 14144719
0.7578215 -0.054563195 0.26487395 13618375
0.75416136 -0.044638913 0.26496452 13092031
0.75100011 -0.035057127 0.26523769 13289410
0.74899989 -0.023976531 0.26780146 13947597
0.75000006 -0.026001103 0.26388508 13750474
0.74900001 -0.018460559 0.26882431 14144719
0.75131249 -0.01431711 0.26499856 14013905
0.75666666 -0.0061724116 0.26522508 14013906
0.76057148 -0.0017883156 0.263989 14079697
0.76540005 0.0007877663 0.26568782 14079954
0.77466667 0.0048919972 0.26524034 10790303
0.78350002 0.0089676445 0.26454562 10132117
0.78850007 0.012561946 0.26484999 10132373
0.79146671 0.016934095 0.26553729 10132373
0.78900003 -0.1512036 0.27517676 9868689
0.79266667 -0.15624061 0.27530485 9737360
0.77900004 -0.14016895 0.27624828 14341585
0.78487498 -0.1454442 0.27450237 11644073
0.77596533 -0.13405034 0.27501366 14802392
0.77434486 -0.12495539 0.27475202 14802648
0.77314299 -0.11500472 0.27488187 14605269
0.77162057 -0.10470872 0.27509373 14210767
0.76795244 -0.094094388 0.27494094 13815753
0.77025002 -0.098248839 0.27337009 13881546
0.76384848 -0.08494024 0.27485764 13618374
0.76134598 -0.074475072 0.27465007 13947340
0.75900006 -0.06016646 0.27359799 14013133
0.76045161 -0.065451331 0.27515534 14144719
0.7585001 -0.054864887 0.27500281 13815498
0.75451356 -0.044732884 0.27508056 13092031
0.74899995 -0.033072412 0.27619764 13355203
0.75035304 -0.036232766 0.27347663 13223617
0.74896663 -0.025181005 0.27524126 13881547
0.75000006 -0.02960504 0.27035373 13618375
0.74900001 -0.018606678 0.27393845 14276306
0.75140738 -0.014150486 0.27516177 14144977
0.75619048 -0.0059891869 0.27503067 13948369
0.76033336 -0.0015336676 0.27497014 13882834
0.76530004 0.0011470802 0.27497092 13948371
0.77423084 0.0052724523 0.27448595 10198167
0.78300005 0.0094187139 0.27491722 10461335
0.78800011 0.012247114 0.27482802 10395542
0.79105884 0.017033488 0.27523991 10329751
0.78900003 -0.1512036 0.28256503 9802894
0.77900004 -0.14016895 0.28354287 14341585
0.7854349 -0.14573134 0.28520295 11710121
0.77546155 -0.13422947 0.28476837 14934233
0.77396679 -0.1247685 0.28533486 14802903
0.77319473 -0.11468915 0.28505078 14605268
0.77196419 -0.10476198 0.28491968 14210766
0.76809096 -0.093908742 0.28464076 13816009
0.77000004 -0.098592259 0.28537434 14144717
0.76546663 -0.084872946 0.28489101 13487044
0.76296431 -0.07477212 0.2848517 13881547
0.75900006 -0.06016646 0.28870106 14013388
0.76051611 -0.06476818 0.28505647 14276305
0.75831038 -0.054910779 0.28504074 13947340
0.75375009 -0.044759132 0.28493923 13092032
0.74900001 -0.033869419 0.28194839 13289410
0.75028574 -0.03563926 0.2861397 13157826
0.74900001 -0.02715461 0.28139049 13881547
0.75104547 -0.024528848 0.28575718 13881805
0.75517857 -0.014649861 0.28516686 14144978
0.75826675 -0.006498856 0.2842223 14079185
0.76110005 -0.0029590211 0.28647065 14079185
0.76642859 0.00076261576 0.28396398 14013906
0.77452952 0.0047365511 0.28494915 11514028
0.78357142 0.0089035416 0.28559658 10395545
0.78837508 0.011790736 0.28418681 10264214
0.79166675 0.016320759 0.28568304 10263959
0.78605556 -0.14410217 0.29490286 12631223
0.7906 -0.14928955 0.29609466 9933968
0.77619046 -0.13326308 0.29424545 14868442
0.78074998 -0.1381996 0.29697439 15065308
0.77479988 -0.12490268 0.29561874 14802648
0.77403343 -0.1148139 0.29532549 14539732
0.77262962 -0.10445705 0.29519147 14342353
0.76854551 -0.09265478 0.29470327 14605525
0.77050006 -0.097379364 0.29532969 14802647
0.76605576 -0.084938899 0.29497087 14078925
0.7626552 -0.074680708 0.29492223 14012876
0.75900006 -0.06016646 0.29491997 14144719
0.76064283 -0.06583102 0.29498538 14210512
0.75833344 -0.054592457 0.29505548 13947340
0.75562489 -0.045088761 0.29504716 13224130
0.75257152 -0.034803856 0.29475239 13092546
0.75389993 -0.025343124 0.2947056 13816013
0.75763643 -0.014907786 0.29514283 14013907
0.75900006 -0.0086383093 0.29225469 14145491
0.76183325 -0.004800756 0.29527643 14013650
0.76880008 0.00024902888 0.29512927 13882062
0.77420002 0.0038785757 0.29478398 12763581
0.78350013 0.0085105607 0.29526588 10263961
0.78860009 0.011332204 0.29534328 10461340
0.79223806 0.015892947 0.29511666 10263960
0.78747064 -0.14364743 0.30533099 13289154
0.79083329 -0.14816125 0.30451083 9736591
0.77717656 -0.13267222 0.30497831 14868186
0.78190917 -0.1380313 0.30515215 14868186
0.77515984 -0.12496144 0.30482832 14867929
0.77377784 -0.1147769 0.30519 14407891
0.77250004 -0.10483464 0.30500862 13815755
0.768125 -0.093146101 0.30554456 14671063
0.77030778 -0.097406946 0.30430728 14539477
0.76388896 -0.084849402 0.30501074 15065821
0.75900006 -0.070827454 0.3091346 15065821
0.76094109 -0.075306147 0.30520692 14868442
0.75899994 -0.063098237 0.30629164 14802649
0.7601251 -0.066595264 0.30314186 14671063
0.75874996 -0.055009272 0.30490905 14868442
0.75687504 -0.044718552 0.30505753 14341843
0.75407386 -0.035258666 0.30497128 13288899
0.75526476 -0.025596887 0.30470195 13618634
0.75829041 -0.014755092 0.30483729 13882064
0.76000005 -0.010428865 0.30954191 13684940
0.76224995 -0.0052271457 0.30497596 13816273
0.76900005 0.00024909366 0.30420631 13816526
0.77415007 0.0033375113 0.30470061 13158596
0.78409994 0.008516374 0.30558893 10132119
0.78840005 0.01132933 0.30449945 10395547
0.79247618 0.015985664 0.3049235 10329752
0.78542316 -0.14423133 0.31550601 12697531
0.7906 -0.14928955 0.31311995 9539724
0.7762593 -0.13382342 0.31535506 14802649
0.78075004 -0.1381996 0.31205231 14671064
0.77443337 -0.1248441 0.31451252 14736599
0.77343357 -0.11472558 0.31501293 14210512
0.76900005 -0.10056451 0.31860825 13552582
0.7713449 -0.10460968 0.3149088 13552583
0.76660007 -0.094632834 0.31527758 13618375
0.77000004 -0.098892696 0.31091094 13618376
0.75900006 -0.081488453 0.3189072 13619146
0.76129621 -0.085631736 0.31468871 14210512
0.7585938 -0.074730784 0.31557202 14671320
0.76000005 -0.079371847 0.31265545 14736856
0.75774294 -0.064628653 0.31470156 14934235
0.75636101 -0.05479395 0.31523493 14934236
0.75479996 -0.044992816 0.31475079 15000030
0.7543447 -0.035194952 0.31503409 14868188
0.75703132 -0.025227105 0.31509137 13750219
0.75882345 -0.017309085 0.31418368 13421511
0.76035726 -0.012213104 0.31566349 13092803
0.76428002 -0.0051118685 0.31521946 13421513
0.77372736 0.0028923573 0.31471738 13750479
0.78480011 0.0085243257 0.3150464 10197912
0.78900003 0.011337951 0.31488863 10395545
0.78900003 -0.15151145 0.32566318 9802129
0.7918182 -0.15663408 0.32477301 9736590
0.77900004 -0.14016895 0.3227514 14671063
0.78454179 -0.1453061 0.32504204 12236980
0.7756297 -0.13411935 0.32498646 14605271
0.77400011 -0.12477372 0.32520965 14605015
0.77334309 -0.11484128 0.3250114 14013133
0.76900005 -0.1005645 0.32490912 13420996
0.77113652 -0.10544132 0.32499114 13420996
0.7649287 -0.094475091 0.32504016 13420996
0.75900006 -0.081488453 0.32512611 13749962
0.76050013 -0.086101525 0.32487851 13486790
0.75755882 -0.074921265 0.325133 14078927
0.75458837 -0.065014549 0.32484141 14407893
0.75248659 -0.055367451 0.32480761 14736601
0.75157166 -0.044747107 0.32445669 14210257
0.75532007 -0.035115197 0.32496521 13486789
0.75841177 -0.02722026 0.32383063 13157824
0.7603848 -0.023304882 0.32708913 14013390
0.76210344 -0.015067432 0.32485887 13750217
0.76700002 -0.0060929041 0.32448399 13355460
0.77057153 -0.0025843668 0.32673287 13289666
0.77439135 0.0032512106 0.32494009 13421767
0.78258342 0.0086524813 0.32423234 10987429
0.78790009 0.012060736 0.32551458 10198167
0.79243594 0.15494093 0.32503045 11053475
0.78850007 -0.15203132 0.33499396 9802383
0.79137504 -0.15733442 0.33494011 9408139
0.78375876 -0.144767 0.3349674 12894397
0.77633339 -0.13417351 0.33510831 14473686
0.77435994 -0.12483276 0.3353321 14539223
0.77341396 -0.1148787 0.33479661 14012877
0.76871437 -0.10078432 0.33596995 13420739
0.77120835 -0.10597075 0.33516899 13486532
0.76426661 -0.094763756 0.3350105 13354947
0.75885713 -0.082742289 0.33534268 13157569
0.76031262 -0.087192066 0.33503208 13289154
0.75608325 -0.074986182 0.33478853 13486534
0.75129038 -0.064948477 0.33481354 13947084
0.75058335 -0.055104785 0.33469895 14539221
0.75325811 -0.044575926 0.33484107 14605014
0.75753868 -0.035083011 0.33493677 14868185
0.75900006 -0.029960301 0.3340103 15131356
0.76082134 -0.025068324 0.33538395 14999771
0.76482362 -0.014911727 0.33535984 15000028
0.76877785 -0.0081495102 0.3351135 15065821
0.77105272 -0.0036432312 0.33522829 15262943
0.77517861 0.0040805829 0.33510008 15065821
0.78200006 0.0091023529 0.33436859 13092545
0.78735006 0.013529313 0.33542448 10066582
0.79109997 0.018035816 0.33424386 10198167
0.79251611 0.14448668 0.33463001 10987682
0.79156661 0.15498991 0.33537146 10987684
0.78850007 -0.15203132 0.34514636 9605774
0.7911765 -0.15707032 0.34511915 9408652
0.77900004 -0.14108077 0.34463525 14210513
0.78385717 -0.14585406 0.3447718 12565689
0.77619356 -0.13509467 0.3449752 14342099
0.77474058 -0.12469264 0.34496731 14605013
0.77333355 -0.11561597 0.34484378 13881291
0.76731819 -0.10312357 0.34444559 13289410
0.77058333 -0.10858938 0.34466898 13420740
0.76151508 -0.094673447 0.34483832 13157568
0.7584762 -0.083800755 0.3451094 13091519
0.76000005 -0.08841598 0.34453234 13223105
0.75488889 -0.07486821 0.34486404 13091776
0.75076669 -0.064788103 0.34532678 13815755
0.75152946 -0.055380322 0.34541887 14736600
0.75411111 -0.044769276 0.34509739 15065564
0.75740623 -0.03538049 0.34521824 15197150
0.75859994 -0.026569817 0.3472411 15196894
0.76038897 -0.024179617 0.34282878 15065308
0.75900006 -0.019299306 0.34822494 15065308
0.76186472 -0.014596981 0.34461737 14999772
0.76517147 -0.0053788163 0.34526208 15000286
0.77033335 -0.0021547 0.3414019 15197665
0.76866674 0.00084906659 0.34846094 14934750
0.7736364 0.0047047012 0.34456396 14211027
0.78050005 0.0093886415 0.34073037 10920864
0.78644997 0.014160745 0.34489009 10066325
0.79000002 0.018749937 0.3448782 10066582
0.79251611 0.0253966 0.34486943 10198168
0.79255271 0.12524731 0.34520397 10921889
0.78900003 0.13786179 0.34905931 10987684
0.79112929 0.13473718 0.34462017 10987682
0.78900003 0.14525004 0.34905931 10921891
0.79068011 0.14463352 0.34424779 10921890
0.79175001 0.15473643 0.34575602 10987684
0.78845459 -0.15193865 0.35485846 9145228
0.79153335 -0.15725042 0.35511976 9342861
0.77900004 -0.14153668 0.35375351 13289925
0.78388238 -0.14612567 0.35521257 12698049
0.77574992 -0.13464966 0.35449147 13618633
0.77432144 -0.12502058 0.35467193 14276305
0.77356011 -0.11564946 0.35490549 14144719
0.76705885 -0.10316546 0.35466707 13289410
0.77099997 -0.10879876 0.35538554 13420996
0.76148272 -0.094421685 0.3547731 13092289
0.75861907 -0.084154762 0.35447741 12894911
0.76000011 -0.088458344 0.35554624 12960704
0.75460607 -0.074920975 0.35487986 12960448
0.75112009 -0.064816773 0.35516113 13881550
0.75212514 -0.054997809 0.35530567 14802396
0.75197446 -0.044444483 0.35515329 15263202
0.75205266 -0.034827799 0.35503501 15197409
0.75391304 -0.0254193 0.3550106 14999773
0.75736839 -0.015149211 0.35484371 14934236
0.76000005 -0.012208037 0.35046291 15065308
0.75884616 -0.0064496868 0.35662651 15000030
0.76088887 -0.0039087106 0.35334408 14934236
0.76438093 0.0017833053 0.35537007 15000030
0.77361906 0.006982354 0.35441136 13421513
0.78572726 0.013974154 0.35504526 10066583
0.79020005 0.018754685 0.35514075 9803410
0.79161549 0.12527256 0.35485035 10856096
0.78893334 0.13655712 0.3537086 10921890
0.79027271 0.13278547 0.35668692 10856096
0.78802866 0.14520267 0.35495341 10921890
0.78825927 0.15505873 0.35570157 10921890
0.79000002 0.15745525 0.35135114 11053477
0.78900003 0.16300236 0.35685804 11053477
0.79119045 0.16580772 0.35328853 10987684
0.78864288 -0.15271835 0.36551735 9276556
0.79086667 -0.15748724 0.36432442 9474702
0.78482622 -0.14505745 0.36478785 11644846
0.77736372 -0.13358994 0.36293742 12433846
0.78150004 -0.13627532 0.36723885 12104625
0.77571434 -0.12487838 0.36428446 13026240
0.77448285 -0.11503806 0.36452141 14012876
0.76783341 -0.10161132 0.3621645 13354947
0.77193344 -0.10552713 0.36536464 13486789
0.76442862 -0.094345905 0.36388373 13027009
0.77033335 -0.097132146 0.36905399 13158339
0.75866669 -0.082637213 0.36168858 12829631
0.7617144 -0.086367257 0.36526757 12895424
0.75657892 -0.074612193 0.36361659 12566205
0.76050007 -0.078534186 0.36805212 12632511
0.75595248 -0.06498158 0.36554039 12894401
0.75380772 -0.054870315 0.36478189 14934237
0.74900001 -0.041589029 0.36517903 14802649
0.75063634 -0.045526419 0.36395723 14868444
0.74874991 -0.034726538 0.36473125 14933979
0.75000006 -0.035223484 0.36446267 14933981
0.74900001 -0.02898109 0.36555472 14802393
0.75125939 -0.024114598 0.36499465 14802395
0.75555551 -0.014784987 0.36491951 14868444
0.75830007 -0.0050783157 0.36476701 14934494
0.75900006 0.00024585446 0.36865851 14671835
0.76234782 0.003433879 0.36449674 14869216
0.77254558 0.0081437295 0.36429796 13092037
0.77900004 0.011194251 0.36834273 9802130
0.78623527 0.014335764 0.36418137 9869203
0.79128581 0.018252054 0.36621255 9869203
0.78900003 0.13878532 0.36014169 10856096
0.78880006 0.14595111 0.36245111 10856353
0.79069233 0.14392385 0.36661097 10725280
0.78850013 0.15504737 0.36347404 10921889
0.79037499 0.15475501 0.36770812 10921889
0.78900003 0.16300236 0.36157835 10987683
0.79075003 0.16593467 0.36591738 10987683
0.79080015 0.17520262 0.36466756 11053477
0.79182148 0.18582354 0.36453953 10987684
0.79211998 -0.16478471 0.37454602 10462110
0.78900003 -0.15286596 0.37344059 10198169
0.79025006 -0.1566468 0.37609041 10396060
0.78818184 -0.14526035 0.37469894 10000534
0.79000002 -0.14862114 0.37909219 10329754
0.78623819 -0.13507369 0.3752749 10065814
0.77900004 -0.12375608 0.37016639 12697275
0.78444457 -0.12523292 0.37582025 10789280
0.77750003 -0.11350992 0.37127376 14012878
0.78299999 -0.11556142 0.3764022 12500155
0.77661538 -0.10435772 0.3737911 13092546
0.78175002 -0.10772213 0.37787938 12500668
0.76900005 -0.091563299 0.37081531 12895424
0.77405888 -0.095151678 0.3753894 12566459
0.76780003 -0.083873436 0.37347242 12500925
0.77200007 -0.085695721 0.37728336 11711409
0.76386666 -0.074383453 0.37382936 12171707
0.77000004 -0.079064272 0.37850785 11447984
0.75850004 -0.061015241 0.37107915 12697022
0.76206255 -0.06531921 0.3748318 12236983
0.75800002 -0.054986399 0.3723878 13355205
0.76200002 -0.054796193 0.37712568 13157828
0.75660002 -0.045629278 0.37298599 14277077
0.76133341 -0.045204643 0.37781215 13816528
0.75700003 -0.034690809 0.37439728 14408663
0.76000005 -0.036523413 0.37715051 14277077
0.75699997 -0.025450004 0.374778 14342870
0.75576931 -0.014449403 0.37219423 14540250
0.76066679 -0.014887117 0.37748134 14671324
0.75789994 -0.0057861353 0.37185103 14606043
0.76200008 -0.0048515764 0.37661597 14540252
0.75900006 0.00024585446 0.37132376 14540506
0.76460004 0.0039539682 0.37394232 14540763
0.77233338 0.0080863414 0.37845001 14540763
0.78649998 0.01406638 0.37556741 9869715
0.79210007 0.017873673 0.37546375 9935250
0.7922222 -0.15511778 0.38593033 10658461
0.79178572 -0.14491884 0.38531476 10329753
0.78900003 -0.13458005 0.38119823 9606031
0.79149997 -0.13531548 0.38660839 10198167
0.78871435 -0.12450875 0.38269573 9671567
0.79128587 -0.12570751 0.38751745 9869203
0.78793335 -0.11447884 0.38326663 9408143
0.79037499 -0.1158494 0.38783002 9737362
0.78664702 -0.10460711 0.38561219 9210763
0.778 -0.093546726 0.38152972 10592417
0.78455561 -0.096274883 0.38648117 9342351
0.77610004 -0.084779285 0.38332492 11776944
0.7822001 -0.08654689 0.38853294 12040116
0.77405554 -0.074951738 0.384734 11645360
0.76799995 -0.062679358 0.38112047 12039345
0.77358341 -0.065395854 0.38615856 12039860
0.76600003 -0.058031522 0.380128 12631482
0.77290916 -0.055347968 0.38635504 11908020
0.76833338 -0.044719737 0.38308463 13816273
0.77375001 -0.045939997 0.3875967 12631999
0.76440006 -0.033753812 0.38112348 14473691
0.77200001 -0.038606152 0.38672006 12829378
0.76425004 -0.024351861 0.38104868 14342614
0.77200001 -0.02324439 0.38672006 12631229
0.76680005 -0.015904175 0.38232011 13948117
0.77200007 -0.014815946 0.38611922 11513777
0.76766664 -0.0033432401 0.38095507 12829378
0.77350003 -0.0044982038 0.38634187 10395038
0.77473342 0.0054547219 0.3843441 12632511
0.778 0.011179881 0.38153088 10461853
0.78576934 0.014127579 0.38583258 9869717
0.79100001 0.018033676 0.38419956 9804180
0.792611 0.13478261 0.38498315 10725282
0.79258603 -0.15483305 0.39504781 10724511
0.79189658 -0.11455509 0.39559925 9935253
0.79063642 -0.10549799 0.39471111 9737619
0.78823537 -0.093637943 0.39365977 9605522
0.79030001 -0.096690007 0.39755252 9539728
0.78623533 -0.084740244 0.39526179 10526878
0.77900004 -0.074517444 0.3902266 12040119
0.78378582 -0.074974895 0.39538011 11645361
0.77900004 -0.065399177 0.39205027 12961221
0.78440005 -0.065669686 0.39734048 10263965
0.77850008 -0.055336084 0.39179862 11250604
0.78480005 -0.05486365 0.39680642 9343378
0.77740008 -0.04524821 0.39124501 10263453
0.78466672 -0.044753462 0.39673901 9606550
0.7753334 -0.035143487 0.39020491 11316141
0.78260005 -0.034556501 0.39569408 9605780
0.77540004 -0.025160585 0.39023846 10657441
0.78280008 -0.025401186 0.39579523 9605779
0.77700001 -0.015205276 0.39104369 9539987
0.7853334 -0.015368399 0.3970761 9869206
0.78480011 -0.0052551404 0.39589137 9869718
0.77900004 0.0029878123 0.3902266 10000536
0.78637505 0.0056613027 0.39588147 10066839
0.78791666 0.013783575 0.39346457 9935253
0.79033333 0.016600017 0.39667463 9869460
0.79250014 0.055169024 0.39484885 10198423
0.79220003 0.17495266 0.3947973 10856355
0.7917999 0.18543233 0.39515465 10856354
0.79159999 0.19483706 0.39561015 10790818
0.79211533 0.20409408 0.39515513 11052965
0.79261535 -0.14468962 0.4043279 10658975
0.79166669 -0.13503577 0.40490994 10461340
0.79094309 -0.12485997 0.40467125 10329753
0.7912693 -0.11473261 0.40542048 10198168
0.7926296 -0.10543996 0.40482089 10198168
0.78875005 -0.083760135 0.40065011 9144970
0.79162508 -0.085223064 0.40558758 10066327
0.78837508 -0.076106884 0.40161347 9803411
0.79099995 -0.074739464 0.40642354 10066582
0.78850007 -0.064350247 0.4019078 9671825
0.79140002 -0.06458611 0.40662909 9934996
0.78860009 -0.055126958 0.40057391 9934743
0.7918666 -0.055356096 0.40594199 10000788
0.78900003 -0.044073943 0.4007771 9868950
0.79209995 -0.045359213 0.40569124 9934996
0.78860009 -0.034821436 0.40057391 10000790
0.79237509 -0.034987211 0.4064337 9934994
0.78866673 -0.024668574 0.40060779 9803157
0.78900003 -0.016367996 0.4007771 9803410
0.7923333 0.01527339 0.40503362 9935509
0.79202926 0.17547165 0.40509614 10790819
0.79085732 0.18499936 0.40482655 10856098
0.79064023 0.19460106 0.40531066 10921633
0.79170001 0.20443878 0.40492806 10855327
0.79238099 -0.13498262 0.41477409 10592926
0.79150009 -0.12481523 0.41502029 10527133
0.79200006 -0.11469605 0.41528168 10264475
0.79261082 -0.045204006 0.41467071 10001047
0.79231018 -0.034984477 0.41467339 9935509
0.79118752 0.17528453 0.41485226 10856097
0.79000026 0.18519634 0.41515559 10790303
0.79000038 0.19536802 0.41515568 10855839
0.7912693 0.20551468 0.41539398 10065297
0.79199988 -0.045168571 0.42455 10329754
0.79223984 -0.034981318 0.42467949 10132632
0.79232341 0.15513662 0.42537662 10724511
0.79214287 0.17516558 0.42462739 10790304
0.79080027 0.18530929 0.42568505 10724512
0.79010028 0.19539219 0.42538136 10724768
0.79127997 0.20587438 0.42490512 10460827
0.79186666 -0.15546161 0.43467283 10527903
0.79058361 -0.14502969 0.43396726 10462111
0.790667 -0.13486402 0.43401274 10396318
0.79141176 -0.12507312 0.43420249 10461598
0.79224992 -0.11507882 0.43511283 10461854
0.79223329 -0.055382125 0.43487683 10396061
0.79230535 -0.045185965 0.43491629 10330268
0.78900003 0.14843111 0.43710268 10724512
0.79088473 0.14424352 0.43356249 10658718
0.78884995 0.15537933 0.43671125 10724512
0.79064292 0.15480724 0.43175384 10790303
0.78900003 0.16335125 0.43808779 10724512
0.79079175 0.16540386 0.43307891 10790304
0.79170001 0.17447558 0.43458191 10724512
0.79190612 0.18448402 0.43527567 10724512
0.7912401 0.19474764 0.43525803 10790305
0.79207414 0.20443243 0.43530458 10855842
0.7906335 -0.14504035 0.4441781 10527903
0.79040027 -0.13481846 0.44404706 10396317
0.79050022 -0.12536952 0.44424564 10462110
0.79093117 -0.11530646 0.44421652 10461854
0.78900003 0.14820533 0.44436774 10658719
0.79016674 0.14340894 0.44370964 10658719
0.78830004 0.15527099 0.44378886 10658719
0.78893745 0.16370793 0.44414783 10724512
0.79000002 0.16855168 0.44382134 10658719
0.7916401 0.17446357 0.44474369 10658719
0.7922799 0.19500424 0.44510326 10724512
