# .PCD v0.7 - Point Cloud Data file format
VERSION 0.7
FIELDS x y z rgb
SIZE 4 4 4 4
TYPE F F F U
COUNT 1 1 1 1
WIDTH 755
HEIGHT 1
VIEWPOINT 0 0 0 1 0 0 0
POINTS 755
DATA ascii
0.78725004 -0.12391844 0.15868753 14802903
0.77585715 -0.11287938 0.15901908 14737110
0.78605556 -0.1151638 0.15657705 14672088
0.79213333 -0.11533415 0.15214509 13159107
0.76720005 -0.10176697 0.15909231 14671061
0.77464294 -0.10505927 0.15721302 14802903
0.78569233 -0.10571726 0.15432099 14540245
0.76350009 -0.094486199 0.15814531 14868696
0.77400011 -0.095443822 0.1557879 14671830
0.78627276 -0.094956852 0.15357488 12237745
0.75900006 -0.083265282 0.15943648 14473938
0.76325005 -0.085070975 0.15749557 14737367
0.77240008 -0.085096069 0.15600988 14803159
0.78609091 -0.084896073 0.15370683 11645608
0.75883341 -0.075253986 0.15984558 14408145
0.76272738 -0.075230129 0.158066 14605780
0.77406675 -0.074524499 0.15604195 13092798
0.78729999 -0.075310692 0.15385993 11711402
0.75816661 -0.064536631 0.15970512 14539729
0.76400012 -0.065031804 0.15824778 14737621
0.77444446 -0.065416254 0.15668577 12106416
0.78558344 -0.065796189 0.15520875 11185058
0.75900006 -0.054835957 0.15988068 14671315
0.76333332 -0.055748332 0.15870647 14802901
0.77474999 -0.055972397 0.1577546 11645094
0.7853334 -0.055306561 0.15725338 10789787
0.74849999 -0.040936053 0.15942115 14737108
0.75574994 -0.044874519 0.15963529 14671314
0.76233339 -0.045267139 0.1587982 15000280
0.77566671 -0.04696162 0.15794389 9868427
0.78500003 -0.045690071 0.15800667 10855321
0.74700004 -0.034732841 0.15910167 14671829
0.75485718 -0.034844335 0.15850033 14671571
0.76025003 -0.034457576 0.15836422 14013386
0.78466672 -0.033419032 0.15793957 11184286
0.74849999 -0.028669119 0.15942115 14803673
0.75525004 -0.027602941 0.15953028 14672087
0.76366669 -0.026565874 0.15907593 13223871
0.77700001 -0.025824914 0.15882015 11710373
0.78575009 -0.024809299 0.15884385 10986651
0.77566671 -0.017906463 0.15975975 12235690
0.78466672 -0.018114239 0.15977649 11315359
0.78880006 -0.14193231 0.16763465 12104623
0.77800006 -0.13209784 0.1681319 14802136
0.78611994 -0.13534181 0.16440979 14342097
0.79000002 -0.13844942 0.16086249 14013133
0.77500004 -0.12410542 0.16581494 14078926
0.78345454 -0.1267986 0.1616928 14210254
0.76740009 -0.11293237 0.16703795 13552581
0.77261913 -0.11645594 0.16386323 13618118
0.76426667 -0.10519712 0.16539727 13749960
0.77066666 -0.10920233 0.16113494 14078924
0.76097214 -0.095063567 0.1647495 13421250
0.75899994 -0.084153697 0.16521119 13552836
0.76000011 -0.088458344 0.16390385 13750215
0.75745165 -0.074975483 0.16504428 13881544
0.75383341 -0.065055393 0.1649646 14078923
0.74762952 -0.053692549 0.16519929 14144202
0.75216669 -0.057272632 0.1625433 14342094
0.7464 -0.045190286 0.16508876 13947080
0.75300002 -0.048232719 0.16037957 14934487
0.74533361 -0.035528094 0.16485213 13947080
0.74508357 -0.02504945 0.1647951 14078666
0.75566667 -0.022750266 0.16094755 14934233
0.76066667 -0.022902371 0.16023175 14802644
0.77000004 -0.021381589 0.16039521 13354942
0.74567753 -0.014736296 0.16563135 14275790
0.75544447 -0.015082202 0.16187982 15328734
0.76300001 -0.014039499 0.16116805 14999769
0.77600002 -0.013817571 0.16027963 12762550
0.78633338 -0.012630254 0.16011588 10986397
0.74730772 -0.0067552356 0.16697159 14342098
0.75475001 -0.0043201172 0.16531241 14407891
0.76366669 -0.0057152063 0.16324334 14539733
0.77449995 -0.004582156 0.1625382 12763066
0.7858001 -0.0052613714 0.16129179 10921119
0.79000002 -0.0015935082 0.16086249 11053475
0.77000004 0.00024941759 0.16760553 11908527
0.78744453 0.0029188867 0.16607529 10856096
0.78783339 -0.1431431 0.17563558 11512230
0.79070008 -0.14708731 0.17414564 10591641
0.77633333 -0.13294142 0.17547309 14670294
0.78299999 -0.13844544 0.17409815 14209743
0.77300012 -0.12480958 0.17491467 14604757
0.76763159 -0.1133453 0.17437463 13749703
0.77037501 -0.11787736 0.17602907 14144462
0.76404017 -0.10528533 0.17525269 13815496
0.76102847 -0.094943032 0.17532338 13552581
0.75899994 -0.083452322 0.17512402 13289410
0.76000017 -0.08790379 0.17497168 13552325
0.75742859 -0.075242452 0.17474882 13157568
0.75484008 -0.065141626 0.17491093 13355203
0.74858332 -0.052477825 0.17360497 13684168
0.75150001 -0.056847222 0.17589535 13618375
0.74679995 -0.045214858 0.17479427 13420996
0.74497253 -0.035511628 0.17523846 13552325
0.7439999 -0.025013907 0.17500904 13749705
0.74522251 -0.014586357 0.1752968 14144462
0.74768418 -0.0060197883 0.1746318 14276561
0.75357145 -0.0020216752 0.17536809 14079439
0.75900006 0.00024585446 0.17054167 10724255
0.7626667 0.00084556238 0.17552631 10724254
0.78666669 0.0057796189 0.17552678 10526874
0.792 0.008516931 0.17475572 10855839
0.78717649 -0.14337763 0.18489331 11578022
0.79000002 -0.14769644 0.18490475 10328468
0.77619052 -0.13343732 0.18504716 14605013
0.78200006 -0.13887808 0.184863 13880777
0.77340752 -0.12447861 0.18504485 14671063
0.76900005 -0.11136595 0.18359005 13881547
0.77128005 -0.11595979 0.18550724 14210512
0.76569241 -0.10537763 0.18480171 13749961
0.7613225 -0.095251665 0.1851504 13684168
0.75900006 -0.082475588 0.1837692 13486789
0.76006263 -0.086607024 0.18557125 13684168
0.75842434 -0.074972011 0.18510026 13157825
0.75653332 -0.06528651 0.18504082 13289411
0.74900001 -0.050606634 0.18495226 13420740
0.75213796 -0.056045342 0.1852082 13486789
0.74719995 -0.045238327 0.18450777 13289153
0.74526685 -0.035526462 0.18490328 13355203
0.74416125 -0.024991123 0.18479761 13881290
0.74570012 -0.014594191 0.18501092 14078669
0.7479375 -0.0067601525 0.18370572 14144976
0.75380003 -0.0031027836 0.18595681 14013646
0.76250005 0.00024698817 0.18471636 13618889
0.7713334 0.0020555547 0.18535586 11974576
0.78850007 0.0057930881 0.18732309 11053218
0.78754991 -0.144384 0.19530167 11118241
0.79062498 -0.1492018 0.19430362 10197139
0.77706683 -0.13266802 0.19412819 14802393
0.78200001 -0.13778131 0.19566326 14144206
0.7743572 -0.125027 0.19516411 14867929
0.77219999 -0.11544739 0.19520135 14341585
0.76742321 -0.1039549 0.19475381 13881291
0.77033335 -0.10915482 0.19623189 14144462
0.7629199 -0.09441521 0.19464323 13684168
0.75900006 -0.081488453 0.19008683 13552582
0.76075 -0.08523953 0.19497856 13684168
0.75867873 -0.074858449 0.19438286 13289410
0.76000005 -0.079104975 0.19780982 13684168
0.75625926 -0.065066829 0.19510575 13223617
0.74900001 -0.050606634 0.19284265 13289410
0.752069 -0.055918947 0.19521202 13289154
0.74739999 -0.045251366 0.19505571 13092031
0.74536133 -0.035530813 0.19452295 13354946
0.74514312 -0.025076678 0.19459143 13881547
0.74682367 -0.014871979 0.19470027 14013389
0.75000006 -0.010291643 0.19836742 14145489
0.74900001 -0.008524497 0.19108923 14210512
0.75457156 -0.0053832764 0.19477919 14078925
0.76075 -0.0015345081 0.19675922 13947339
0.76600003 0.00024812191 0.19632474 13487045
0.77500004 0.0038828924 0.19736058 14737880
0.78662503 0.0069328495 0.19631094 12829883
0.78900003 0.011337951 0.1994472 10066577
0.78788233 -0.14372222 0.2048057 11513256
0.79033333 -0.14878698 0.20574656 10132117
0.77769238 -0.1319524 0.20513025 14934235
0.78299999 -0.13733985 0.20491695 14342098
0.77475989 -0.12489837 0.20491596 14868185
0.77307159 -0.11538283 0.20505156 14342098
0.76845455 -0.10180222 0.20423083 13881546
0.77071434 -0.10731979 0.20556511 14144718
0.76592004 -0.094785795 0.20437385 13815497
0.76257694 -0.085583888 0.20506042 13750216
0.75889468 -0.072781503 0.20492816 13684423
0.76040006 -0.078079157 0.20527218 13816009
0.7571786 -0.06553182 0.20501409 13355202
0.74900001 -0.050606634 0.20599332 13223872
0.75260001 -0.055612911 0.2046918 13289409
0.74689996 -0.045221411 0.20541438 13157824
0.74505585 -0.035514854 0.20490824 13354690
0.74569464 -0.025069609 0.20508401 13750217
0.74728566 -0.015686981 0.20520906 14013388
0.75033337 -0.010296217 0.20460425 14144974
0.75595999 -0.0055528013 0.20525189 14079181
0.76050007 -0.0015340038 0.2038139 14079180
0.7645455 0.0010636019 0.20530148 13750215
0.77394998 0.0053286003 0.20506175 14605523
0.78377789 0.0088170646 0.20362407 15000282
0.78743756 0.013276685 0.20619191 14079180
0.79128569 0.017061142 0.20333001 10526874
0.78758836 -0.14366916 0.21503223 11249571
0.79075003 -0.14853194 0.21400355 10262933
0.77652633 -0.13274206 0.21533281 14933722
0.78190005 -0.13812922 0.21430925 14342098
0.77441382 -0.12496665 0.21476403 14933979
0.77353352 -0.1152834 0.21527596 14539220
0.77214825 -0.10499397 0.21487318 14078926
0.76840001 -0.093651667 0.21078941 13816008
0.77155006 -0.095841616 0.21571994 13881546
0.76541668 -0.08531978 0.21498843 13815754
0.77000004 -0.089879774 0.21897918 13881034
0.75899994 -0.072477378 0.21470866 13947083
0.76055557 -0.077996448 0.21500675 13947083
0.75729638 -0.065155193 0.21487404 13552325
0.74850005 -0.051230386 0.213084 13092031
0.75253844 -0.056407526 0.21509601 13223616
0.74680001 -0.045214579 0.21500511 13157823
0.74528158 -0.035308272 0.21489449 13420995
0.74522603 -0.025194678 0.21471959 13815754
0.74740005 -0.015571855 0.21454564 14079182
0.75057143 -0.01080113 0.21558726 14210768
0.75618523 -0.0051243985 0.21488486 14144974
0.76404774 0.0025548416 0.21511164 14013131
0.77346677 0.0078580687 0.2143499 14276302
0.77700001 0.011469454 0.21672291 14473425
0.7853846 0.015606528 0.21443877 14539474
0.78857148 0.022672353 0.21700753 14342097
0.79150003 0.026570242 0.21388181 10460826
0.78761548 -0.14328134 0.22448571 11907758
0.79087508 -0.14739767 0.22584239 9933970
0.77664286 -0.13273464 0.22450601 15065565
0.78299999 -0.13814104 0.22542974 14210512
0.77447999 -0.12485221 0.22478646 14868442
0.77413344 -0.11482714 0.22468574 14670807
0.7746399 -0.10492887 0.22483368 14144719
0.77370375 -0.095546871 0.22496305 13947340
0.76495659 -0.083380096 0.22521256 13881547
0.77044445 -0.089130506 0.22501715 13881547
0.75900006 -0.071538195 0.22171447 13816011
0.7604 -0.075089052 0.22575517 13816011
0.75836664 -0.064674996 0.22484392 13749705
0.76000005 -0.069141597 0.2285895 13749961
0.75438464 -0.054710943 0.22479685 13157824
0.74810523 -0.043725688 0.2239536 13157824
0.75089997 -0.046869524 0.22725907 12894652
0.74668759 -0.035538543 0.22464187 13355203
0.7466287 -0.024976401 0.22469443 13749961
0.74800003 -0.017384483 0.22387272 14013646
0.75223535 -0.012701616 0.22568534 14079697
0.75725001 -0.0058668754 0.22430618 14145233
0.76066667 -0.0021277883 0.22641623 14145232
0.76512504 0.0022679907 0.22487043 14013389
0.77253348 0.0076071215 0.22518539 14078926
0.77681249 0.01332577 0.22580382 13947595
0.78246152 0.01730435 0.22371632 14013387
0.78618187 0.024744475 0.22527717 14210766
0.79000002 0.029229894 0.2206599 12960447
0.78900003 0.031655647 0.22807668 13552835
0.78809094 -0.1426443 0.23477341 12763582
0.79100001 -0.14695869 0.23513596 9934739
0.77679998 -0.13238093 0.23515797 15000028
0.78381824 -0.13820201 0.23533393 14078928
0.77446663 -0.12485026 0.23475361 14934235
0.77400017 -0.11480799 0.23461154 14671063
0.77373344 -0.10480714 0.23452781 14276305
0.76780009 -0.093219012 0.23722541 13947340
0.77191317 -0.096547306 0.23377891 14013133
0.76486129 -0.084810801 0.2348233 13881547
0.76123995 -0.074601941 0.23520055 13881547
0.75888234 -0.062038485 0.23447172 13815754
0.76020014 -0.067143396 0.23559053 13881547
0.75725001 -0.054902408 0.23517163 13486533
0.75321436 -0.044850294 0.23505302 12960445
0.74861532 -0.033595122 0.23332191 13420996
0.75075001 -0.036226954 0.23708569 13355203
0.74839264 -0.025473416 0.2345479 13750218
0.75000006 -0.020826222 0.23787209 13947342
0.75350004 -0.014629584 0.23512089 14079440
0.75833338 -0.0077425004 0.23519029 14145234
0.76200002 -0.003206468 0.23510155 14013904
0.76737505 0.00092336576 0.23462519 13816525
0.77308697 0.0063142646 0.23539723 13948110
0.7772001 0.014083302 0.23412685 13750731
0.78083342 0.017923322 0.23668575 13619145
0.78462493 0.025290025 0.234733 13816523
0.78860009 0.032563128 0.23442204 12303284
0.79170585 0.037435669 0.23468824 10198165
0.7876429 -0.14330646 0.24520096 12565689
0.79090005 -0.1474953 0.24473388 10000018
0.77729422 -0.13269243 0.24497652 14868442
0.78209096 -0.13806358 0.24480261 14341585
0.77447999 -0.12485238 0.24473014 14934235
0.77334392 -0.11448591 0.24471015 14605270
0.77140003 -0.10449241 0.24465939 14210512
0.76785004 -0.094394304 0.24380481 14013133
0.77020001 -0.097836837 0.24770486 13947340
0.76522589 -0.084935948 0.24492677 13815754
0.76126647 -0.074604325 0.24500939 13947340
0.759 -0.061297167 0.2454917 13684168
0.76017404 -0.066604689 0.24446425 13881547
0.75760716 -0.054547787 0.24528742 13552582
0.75405264 -0.044681847 0.24505194 12960446
0.74900001 -0.031903464 0.24544533 13355718
0.75048155 -0.035221681 0.2449531 13158082
0.74900007 -0.025775911 0.24504942 13750476
0.75000006 -0.021528527 0.24191037 13816013
0.7523514 -0.014695664 0.24492086 14079442
0.75753331 -0.0072013987 0.24575755 14079442
0.76164287 -0.0030623188 0.24423932 14079184
0.76716667 0.0002484998 0.24511169 13882061
0.7739616 0.0056242375 0.2451223 14013647
0.77816671 0.011790161 0.24255557 13750988
0.78335297 0.015683392 0.24580939 13553609
0.78729171 0.024294933 0.2444803 12632250
0.79049999 0.028631926 0.24855857 9671822
0.78900003 0.032394473 0.24156025 10461336
0.79159999 0.036209766 0.24513753 10198165
0.78729999 -0.14406195 0.25532198 12170929
0.79049999 -0.14894697 0.25349158 10065555
0.7770527 -0.13283186 0.25549874 14802649
0.78160006 -0.13807619 0.25448042 14473683
0.77456665 -0.12486645 0.25472996 14868442
0.77397072 -0.11501697 0.25480068 14605270
0.77296013 -0.10470223 0.25510728 14276305
0.76900005 -0.091563299 0.25019905 13881547
0.77183336 -0.095666565 0.25488761 13947340
0.76684004 -0.083987519 0.25452262 13749961
0.7705 -0.089036457 0.25700077 13749961
0.76159996 -0.074638158 0.2549234 14013133
0.75899994 -0.061838776 0.25467992 13947340
0.76005572 -0.067070946 0.25529587 14144719
0.7568149 -0.054879066 0.25469863 13618375
0.74900001 -0.040086098 0.25421244 13026239
0.7518 -0.045403823 0.25498486 13223617
0.74886215 -0.03469906 0.25519279 13158080
0.75000006 -0.03838386 0.25104031 12894654
0.74845707 -0.025288301 0.25502804 13750731
0.75000006 -0.020826222 0.25104031 13882319
0.74900001 -0.017769814 0.25676286 14013904
0.75176001 -0.01333833 0.25444317 14079698
0.75731581 -0.006470209 0.25554019 14079699
0.76120007 -0.0022470853 0.25389633 13948112
0.76550007 0.00024795992 0.2562238 14079699
0.77380961 0.0045703878 0.254866 13684170
0.78140008 0.0090342686 0.25606272 13552328
0.78685713 0.01473374 0.25469351 12039859
0.79000002 0.018749937 0.25795621 10066580
0.78900003 0.021496799 0.25116497 10921889
0.79208696 0.024849474 0.2556158 10000787
0.78866673 -0.15267874 0.26659775 9933968
0.79105556 -0.15674365 0.26395661 9802896
0.77900004 -0.14016895 0.26804185 13947340
0.7851035 -0.14520307 0.26430535 11578792
0.77662969 -0.13435861 0.26500362 14802391
0.78000003 -0.13852289 0.26108193 14671063
0.77479982 -0.12490341 0.26478341 14868185
0.77383351 -0.11478411 0.26535773 14605014
0.7729668 -0.10470259 0.26506054 14276305
0.77258348 -0.094703898 0.26492897 13881547
0.76785719 -0.082312293 0.26459384 13749961
0.77072722 -0.087012857 0.26552391 13618375
0.76347995 -0.074824549 0.26449215 13947340
0.75900006 -0.06016646 0.26204854 14144718
0.76086193 -0.065229878 0.26536426 14144719
0.7579999 -0.054569054 0.26476055 13684168
0.75417864 -0.04503534 0.26505256 13092031
0.74891663 -0.032484453 0.26455778 13355203
0.75099999 -0.036678437 0.26594353 13223617
0.74822205 -0.025156578 0.26533401 13881803
0.74849999 -0.016928678 0.26525748 14013903
0.75100005 -0.011710132 0.26485246 14013904
0.75595838 -0.0059440993 0.26497611 14014162
0.76033336 -0.0015336676 0.26428726 13816783
0.76533335 0.0011468567 0.26512471 14145748
0.77511764 0.0055923145 0.26552916 10132374
0.78285712 0.0091561396 0.26439533 10263447
0.78807694 0.012745143 0.26449457 10263959
0.79078573 0.01705078 0.26548573 10198166
0.78846163 -0.15266295 0.27456328 9803151
0.79084617 -0.15768224 0.27582118 9803153
0.77900004 -0.14016895 0.27351278 14144719
0.78391671 -0.14511286 0.27500731 11841964
0.77641404 -0.13412794 0.27517343 14802647
0.77476656 -0.12489838 0.27474621 14868184
0.7735002 -0.11473556 0.27520323 14605268
0.77235991 -0.10462127 0.27479738 14210767
0.77106678 -0.095420465 0.2752375 13815754
0.76886362 -0.083857022 0.27576292 13618375
0.77038467 -0.088121727 0.27312312 13552582
0.76651853 -0.074921198 0.27491376 13881547
0.76212496 -0.064656757 0.2750594 14210512
0.75876188 -0.05397376 0.27461156 13749961
0.76000011 -0.058212388 0.27548343 14013133
0.75585711 -0.044755559 0.27499282 13026238
0.74900001 -0.031318989 0.27174664 13420996
0.75122231 -0.035062946 0.27528799 13289666
0.74870014 -0.025172589 0.27514419 13881803
0.74900001 -0.018043075 0.27350006 14144976
0.75130445 -0.013670528 0.27548856 14079441
0.75590914 -0.0059446916 0.27513874 13882577
0.76000005 -0.0015329953 0.27484801 13816529
0.76480001 0.0011457476 0.27479184 14079956
0.77433342 0.0056929071 0.2748934 10263960
0.78260005 0.0094139026 0.27477723 10461338
0.78780001 0.01224424 0.27475804 10461081
0.79099995 0.017032228 0.27522022 10329495
0.78900003 -0.15120362 0.28533563 9802895
0.79120004 -0.15625834 0.28520516 9671567
0.77900004 -0.14016895 0.28536654 14078670
0.78492004 -0.14528523 0.28492302 11907757
0.77573073 -0.13427541 0.2848663 14868185
0.77400011 -0.12497505 0.28484359 14802649
0.77391684 -0.11479604 0.28531662 14605012
0.77283353 -0.10468516 0.28491753 14276303
0.76900005 -0.091563299 0.2898044 14013133
0.77064013 -0.095368989 0.28501037 14013387
0.76783335 -0.085135236 0.28486925 13552582
0.76617253 -0.075147785 0.28477776 13815754
0.76197135 -0.064942785 0.28491053 14210769
0.75833338 -0.053975645 0.28526601 13815754
0.76000005 -0.058170024 0.28404042 14144719
0.75477141 -0.044742797 0.28489444 13157824
0.75161546 -0.035085831 0.2848098 13223873
0.74900001 -0.024305299 0.28051376 13881804
0.75100011 -0.025345886 0.28517219 13750475
0.75370008 -0.014748365 0.28492263 14079698
0.75747377 -0.0060986751 0.2849009 14013906
0.76071435 -0.0020427715 0.28617185 13948113
0.76600003 0.0010479696 0.28388852 13882321
0.77456248 0.0052425317 0.2846429 10921634
0.78299999 0.0091143819 0.28499725 10395288
0.78818184 0.012165769 0.28462094 10329752
0.79113334 0.016926182 0.28518173 10263959
0.79136366 -0.16496333 0.29519501 10790305
0.78900009 -0.15237902 0.29566243 9803153
0.79027778 -0.15689631 0.29463565 9671824
0.78484619 -0.14490375 0.29485583 12105138
0.77599996 -0.13384597 0.29473025 14868442
0.78000003 -0.13852289 0.29942781 14868442
0.77485693 -0.12471749 0.29505703 14867929
0.77386683 -0.11478884 0.29526129 14604757
0.7724483 -0.10463343 0.29577902 14341585
0.76900005 -0.091563299 0.29520512 14670550
0.77066684 -0.095772594 0.29504201 14867929
0.76711434 -0.084928788 0.29524973 14078669
0.76387882 -0.074862346 0.2950224 13947340
0.75900006 -0.06016646 0.29758522 14276305
0.76087868 -0.065175556 0.2946772 14144719
0.75817233 -0.054655481 0.29533249 13947340
0.75543749 -0.045077473 0.29497325 13420995
0.75296444 -0.034822378 0.2949051 13092544
0.75318193 -0.025561852 0.29490384 13750732
0.75651515 -0.014563948 0.29524374 14079698
0.75849998 -0.0069830371 0.29447302 14013905
0.76090914 -0.0026674562 0.29517609 13882320
0.76566672 0.00024801391 0.29482329 13816526
0.77385712 0.0045719636 0.29508269 12105651
0.78399998 0.0089742448 0.2940819 10395288
0.7881667 0.011633821 0.29579806 10461081
0.79171425 0.015969589 0.29492292 10329495
0.79231024 -0.18509938 0.30491975 11185063
0.79062986 -0.17516547 0.30556723 10987684
0.79100001 -0.1654367 0.30483854 10855840
0.78900003 -0.1512036 0.30195922 9737360
0.7909525 -0.15537021 0.30539808 9671824
0.7860769 -0.14491785 0.30501372 12039088
0.79000002 -0.14954583 0.30881482 9736590
0.77681494 -0.13452676 0.30507427 14933978
0.77499986 -0.1249349 0.30476561 14868186
0.77375007 -0.11477312 0.30517951 14407635
0.77139992 -0.10449129 0.30515632 13815243
0.76850003 -0.09330371 0.30591893 14670807
0.7700001 -0.097228773 0.30390862 14473172
0.76429731 -0.085013054 0.30499965 15131613
0.75900006 -0.07216008 0.3086904 15131614
0.76086658 -0.075514816 0.30496454 14736856
0.75885189 -0.06377393 0.30565235 14868442
0.76011121 -0.067174844 0.30207381 14539221
0.75815392 -0.054912321 0.30503482 14868442
0.75639403 -0.044669561 0.30501401 14342097
0.75381476 -0.035247914 0.30486608 13157823
0.75393945 -0.025104182 0.30482706 13684681
0.75770009 -0.014827993 0.30505821 13882319
0.75900006 -0.0086383093 0.30202729 14013905
0.76162505 -0.0048749545 0.30515131 13816526
0.76779997 0.00024870495 0.30553138 13816271
0.77454543 0.0048733372 0.30499619 12303290
0.78350002 0.0094247283 0.30535433 10329241
0.78825015 0.01225051 0.30536151 10395545
0.79170591 0.017047606 0.30511889 10263959
0.77900004 -0.14016895 0.31636864 14539479
0.7851429 -0.14416911 0.31513903 12828861
0.79000002 -0.14954583 0.31528774 9605004
0.77582759 -0.13402747 0.31492227 14802650
0.77423328 -0.12481172 0.31443101 14736856
0.77300012 -0.11500406 0.31502241 14276305
0.76900005 -0.10056451 0.31860825 13486789
0.77090913 -0.10519116 0.31496835 13552583
0.76689291 -0.094394609 0.31555182 13684169
0.77000004 -0.098892696 0.31271353 13618377
0.75900006 -0.081932664 0.31846303 14144719
0.76153845 -0.085809678 0.31469196 14210256
0.75827271 -0.074849211 0.31539911 14736856
0.76000005 -0.079223581 0.31191415 15000028
0.75725716 -0.064586915 0.3145006 14933978
0.75687498 -0.054738384 0.31480038 14999772
0.75569236 -0.045073599 0.31526867 15000028
0.75406653 -0.035062354 0.31506914 14868186
0.7546562 -0.025589122 0.3147645 13684683
0.75816673 -0.016540004 0.31463829 13289926
0.76022232 -0.011222657 0.31536761 13092549
0.76339996 -0.0051069097 0.31485683 13421769
0.76900005 0.00024909366 0.31230742 13750733
0.77475005 0.0042648264 0.31539372 13027011
0.78300005 0.0094187139 0.31524357 10066326
0.78773338 0.013166034 0.31530488 10329753
0.79049999 0.017528674 0.31471574 10263960
0.78900003 -0.15181929 0.32812595 9736590
0.77900004 -0.14016895 0.32457507 14605272
0.78478265 -0.14568913 0.32538173 12039345
0.79000002 -0.14954583 0.32176065 9670284
0.77517873 -0.13397633 0.32499093 14671063
0.77320015 -0.12464563 0.32487342 14605270
0.77175868 -0.11544354 0.3247951 14078926
0.76751626 -0.10396671 0.32529324 13420996
0.77014291 -0.1086985 0.3226873 13684168
0.76288557 -0.094666041 0.32525393 13420996
0.75899994 -0.08299192 0.32553619 13552583
0.76040006 -0.087335542 0.32430077 13486789
0.75702941 -0.074868277 0.32490671 14078927
0.75414711 -0.064976752 0.32465211 14473685
0.75260979 -0.055363782 0.32427129 14736857
0.75169444 -0.044629142 0.32463139 14210000
0.75430769 -0.03520561 0.32508653 13486534
0.75760007 -0.025645791 0.32445705 13355204
0.76033336 -0.021706218 0.32866409 15065565
0.75900006 -0.018707028 0.32216474 12763838
0.76216006 -0.014593772 0.32555363 13947854
0.7666471 -0.0056598475 0.32417989 13289668
0.77060002 -0.0026359269 0.3275696 13552583
0.77474993 0.0035070197 0.32476655 13289925
0.78237504 0.0089546973 0.32597896 11119013
0.78756255 0.013048186 0.32480028 10263704
0.79054546 0.017922245 0.32517916 10198168
0.78795242 -0.15355222 0.3355943 9605262
0.79089999 -0.15804884 0.33360338 9539981
0.77850008 -0.14212941 0.33530018 14079185
0.78311771 -0.14641346 0.33437631 11973553
0.77520603 -0.13516681 0.33505538 14473684
0.77320009 -0.1246457 0.33482906 14539221
0.76900005 -0.11136595 0.3366107 13749961
0.77126926 -0.11586332 0.33475664 14078926
0.76627594 -0.10565678 0.33504492 13486789
0.76115143 -0.09500657 0.33511794 13355203
0.7585001 -0.084099621 0.33467698 13289154
0.76000005 -0.088712506 0.3353399 13486533
0.75513154 -0.074892096 0.33467481 13420997
0.75096881 -0.065080725 0.33481261 13947084
0.7502858 -0.055209201 0.3344422 14539476
0.75216669 -0.044653498 0.33452794 14736855
0.75599998 -0.035215773 0.33500513 14999770
0.75853342 -0.028520567 0.33451554 15065308
0.76047623 -0.023405194 0.33567652 14999515
0.76435304 -0.014744913 0.33541507 15000029
0.76846159 -0.0076383301 0.33568224 15131872
0.77100003 -0.0031331759 0.33477804 15132129
0.77499998 0.0036835764 0.33553931 14935007
0.78175002 0.0087186377 0.33418512 13619146
0.78745008 0.013530867 0.33546716 10001047
0.79044443 0.01793853 0.3344833 10001303
0.78731817 -0.15373375 0.34471181 9408141
0.79025006 -0.15884313 0.34683821 9474191
0.7779091 -0.14262268 0.34464872 13750479
0.78218192 -0.14706796 0.34471047 11710897
0.77438235 -0.13459522 0.34504426 14342099
0.77306676 -0.1246239 0.34472439 14539477
0.76900005 -0.11136596 0.34021118 13749961
0.77112001 -0.11528592 0.34512025 14013133
0.76684612 -0.10560354 0.34519619 13289410
0.76130295 -0.09518677 0.34496054 13157824
0.75818193 -0.083903469 0.34478378 13026239
0.76000005 -0.088712506 0.34512538 13026238
0.75424141 -0.075382367 0.34488297 12960703
0.75056672 -0.065353759 0.34453309 13750219
0.7524839 -0.055100791 0.34506595 14802650
0.75500005 -0.045062859 0.34510544 15000027
0.75732142 -0.035021704 0.34511214 15197406
0.75844121 -0.025707541 0.34556514 15065564
0.76000005 -0.021993492 0.34156704 14933722
0.75877786 -0.017714508 0.34772763 14868442
0.76096421 -0.014066911 0.34339714 15000028
0.76405406 -0.0050664293 0.34477869 15000542
0.77000004 -0.0015531663 0.34065357 15065823
0.76730001 0.0015070742 0.34735933 14935006
0.77386212 0.0053802421 0.34448299 14013905
0.78050005 0.0093886415 0.34073037 11053220
0.78656 0.015066402 0.3446629 10066582
0.79000002 0.018749937 0.34025469 10000789
0.78900003 0.020573268 0.34905931 10066582
0.7912975 0.025492359 0.34496471 10132374
0.78793752 -0.15284617 0.35504475 9408399
0.79111111 -0.15798825 0.35513884 9342862
0.77840006 -0.14224796 0.35348195 13618633
0.78280002 -0.14623189 0.35547772 12566205
0.77496678 -0.13491137 0.35494635 13552583
0.77304006 -0.1246198 0.3546671 14210512
0.77124995 -0.11530501 0.35474771 14210512
0.76703584 -0.10531446 0.35498819 13355460
0.76161277 -0.094771214 0.35477215 13092545
0.75887495 -0.083473973 0.35438579 12960703
0.76000017 -0.087674648 0.35565218 12960703
0.75570971 -0.074977636 0.35481989 12960961
0.75277793 -0.064764418 0.35522708 14013135
0.75334293 -0.055433404 0.355203 14737113
0.7555455 -0.04461335 0.35499999 15328993
0.75683337 -0.035190057 0.35520288 15263200
0.75683343 -0.025445698 0.3552016 15000027
0.75753838 -0.014758503 0.35505366 14934235
0.76000005 -0.010428865 0.35046291 14934235
0.75861114 -0.0059691537 0.35653037 14934493
0.76030773 -0.0041344869 0.35238412 14934493
0.76353848 0.0026589332 0.35524905 14934750
0.77346677 0.0078588482 0.35449868 13026497
0.77900004 0.011194251 0.3592245 9671567
0.78716666 0.015409819 0.35428727 10000789
0.79033333 0.018757848 0.35705069 10066838
0.79073352 0.02524681 0.35538164 9935253
0.79168183 0.035724033 0.35445884 10132888
0.788625 -0.15309408 0.36516291 9276813
0.79125005 -0.15811904 0.36487046 9540238
0.77900004 -0.14016895 0.36104813 12368310
0.78447622 -0.14518264 0.36524823 11513260
0.77691668 -0.13388516 0.36296341 12170934
0.7815001 -0.13574205 0.36800003 11579311
0.77522731 -0.12472617 0.36425266 12960194
0.7731365 -0.11550501 0.36458558 13947084
0.76770002 -0.10363213 0.36228049 13420996
0.77161545 -0.10660383 0.36624318 13552582
0.76468754 -0.094633624 0.36426404 13157825
0.77100003 -0.097216204 0.36997479 12960447
0.75900006 -0.082080729 0.36125505 12894654
0.76182348 -0.085885622 0.36505038 12960447
0.75747371 -0.074888133 0.36311173 12762812
0.76083332 -0.076639615 0.36806497 12763068
0.7562381 -0.065006688 0.36534059 13025728
0.75357151 -0.054759957 0.36463711 14803421
0.75266689 -0.044687424 0.36381623 14868700
0.75273561 -0.034895271 0.36457166 15000029
0.75357896 -0.025427073 0.36458135 14868443
0.7553333 -0.014782978 0.36510637 14802907
0.75703228 -0.005127118 0.36469844 14803422
0.75881821 0.0010534468 0.36542034 14737885
0.76223087 0.0046418924 0.36452672 14935008
0.77180004 0.0082019707 0.36439118 12697792
0.77750003 0.011172695 0.36490211 9671058
0.78646159 0.01442043 0.3642185 9934997
0.79100007 0.017951716 0.36599153 9934997
0.78887504 -0.15279584 0.37278146 10198427
0.79038888 -0.15630192 0.37619501 10330267
0.7881 -0.14522003 0.37467688 9803412
0.79000002 -0.14769644 0.37909219 10198681
0.78625 -0.13521618 0.37508756 10000536
0.77900004 -0.12284425 0.37107822 12697023
0.78425002 -0.12539279 0.37599429 10395039
0.77687508 -0.11364502 0.3716583 13486534
0.78271431 -0.11597265 0.37690601 12236729
0.77590907 -0.10427682 0.3736538 13092801
0.78140002 -0.10658018 0.3786239 11974322
0.76900005 -0.091563299 0.37081531 12895424
0.77411771 -0.095158674 0.37541822 12500666
0.76800001 -0.08515273 0.37213099 12631739
0.77208334 -0.085454576 0.37697318 11974065
0.76514292 -0.074346192 0.37433347 12368310
0.77100003 -0.078265667 0.37899941 11841966
0.75875002 -0.061479267 0.37164566 12828608
0.76231253 -0.06567321 0.37506655 12302519
0.75760001 -0.054735519 0.3729459 13157830
0.76166677 -0.055623233 0.37768102 12762559
0.75575 -0.0448713 0.37239018 14342870
0.7610001 -0.045182124 0.37764671 14145238
0.75650007 -0.035762932 0.37334886 14408663
0.7604 -0.0353573 0.37734902 14277077
0.75607151 -0.024660688 0.37343502 14540249
0.76000005 -0.029110188 0.37715051 14540249
0.75592315 -0.01499913 0.3726795 14474203
0.76040012 -0.014349003 0.37734899 14408411
0.75779998 -0.0050768387 0.37233442 14671582
0.76216674 -0.0051066377 0.37733492 14539997
0.75900006 0.0011342708 0.37132376 14671835
0.76400006 0.0030312045 0.37476611 14737373
0.77250004 0.007486314 0.37883198 14671835
0.77700007 0.011165511 0.37740257 10066325
0.78618187 0.014144345 0.37558362 9934741
0.79072726 0.017926561 0.37523288 9869462
0.79191315 -0.14466938 0.38468838 10329754
0.78900003 -0.1342722 0.38107511 9737364
0.79188889 -0.13538182 0.3867985 10132376
0.78866673 -0.12467725 0.38245276 9473935
0.79156256 -0.12528858 0.38748789 9869204
0.78771436 -0.11473548 0.38326579 9276811
0.79057151 -0.11528419 0.38809171 9671824
0.78666669 -0.10434843 0.38535443 9276810
0.79000002 -0.10885895 0.38833919 9671567
0.77900004 -0.092753969 0.38202012 10789793
0.78472728 -0.096111484 0.38625127 9210762
0.77612501 -0.084464774 0.38310882 11710894
0.78214282 -0.086592391 0.38813856 12238009
0.77410525 -0.07491035 0.38491672 11842224
0.76750004 -0.065335006 0.3808724 11446955
0.77270001 -0.064872846 0.38616776 12434620
0.76719999 -0.055431195 0.38251954 12236215
0.77266669 -0.054920491 0.38705406 11907764
0.76666671 -0.045517001 0.38225365 13553101
0.77280003 -0.04497721 0.38712078 12960709
0.76625001 -0.033835847 0.38204587 14342104
0.77300006 -0.037751358 0.38722101 13487310
0.76319999 -0.02476703 0.38052517 14408153
0.77283341 -0.024174675 0.38834548 10723489
0.76514286 -0.01535805 0.38175103 13487566
0.77242863 -0.016799096 0.38797018 9737622
0.76833338 -0.0045486488 0.38188601 12632258
0.77383333 -0.0048773405 0.38703716 9869464
0.77471435 0.0054386407 0.38341776 13355979
0.78150004 0.0075723352 0.38873404 11776948
0.77900004 0.011194251 0.38110831 10197911
0.78677779 0.014688788 0.38593486 10132119
0.79000002 0.018441703 0.38402393 9869716
0.79102957 -0.17495473 0.39505342 10791074
0.79104346 -0.10554168 0.39473149 9737616
0.78847057 -0.093014061 0.39442852 9605779
0.79036367 -0.097807519 0.39676091 9671824
0.78594124 -0.084709488 0.39511323 10526879
0.77866673 -0.073271357 0.3912746 12698045
0.78371435 -0.075623877 0.3962613 11184809
0.77700001 -0.064711899 0.39156476 12105654
0.78300005 -0.065731764 0.39727256 10592673
0.77700013 -0.055226933 0.39195549 10461345
0.78560007 -0.054917239 0.39905006 9934743
0.77560008 -0.045139704 0.39033914 10395039
0.78337508 -0.045595966 0.39654657 9671572
0.77600002 -0.035172921 0.39054039 11118762
0.78300005 -0.034573697 0.39589635 9671571
0.77780008 -0.02523753 0.39290431 10000536
0.7852 -0.025477659 0.39848071 9671824
0.77683336 -0.015210013 0.39217362 9672340
0.78414291 -0.014959608 0.39778751 9869460
0.77700007 -0.007932514 0.39104372 9869720
0.78525001 -0.0045678471 0.3963466 10001304
0.78600001 0.0050711548 0.39416027 10066586
0.79050004 0.003956622 0.39922607 10001303
0.78855562 0.013793275 0.39316776 10066327
0.79059994 0.016543958 0.39622352 9869718
0.79208696 -0.095040262 0.40476638 10000789
0.78862506 -0.083977304 0.40127927 9671313
0.79099995 -0.085387386 0.40596059 10198168
0.78833342 -0.075000308 0.4031049 9869204
0.79109991 -0.074377276 0.40777102 10066582
0.7881667 -0.065245405 0.40312245 10000789
0.79122216 -0.064778224 0.40828669 10066582
0.78857148 -0.055916961 0.40293318 9869203
0.79100001 -0.05486989 0.40763423 10000789
0.78820002 -0.044399608 0.40074015 9934742
0.79065222 -0.04488961 0.40636498 10000789
0.78820008 -0.034802835 0.40037075 9934743
0.79100013 -0.03492694 0.40642229 9935253
0.78875005 -0.023746965 0.40203539 9869203
0.79090482 -0.025135383 0.40677088 9803410
0.78875005 -0.014979269 0.40203539 9934996
0.79186666 -0.014572913 0.40705389 9935253
0.78900003 -0.0080562122 0.4007771 9869973
0.79163992 -0.034954451 0.41509211 9935509
0.79199994 -0.024772609 0.41528034 9738387
