# .PCD v0.7 - Point Cloud Data file format
VERSION 0.7
FIELDS x y z rgb
SIZE 4 4 4 4
TYPE F F F U
COUNT 1 1 1 1
WIDTH 787
HEIGHT 1
VIEWPOINT 0 0 0 1 0 0 0
POINTS 787
DATA ascii
0.77314293 -0.64538366 -0.41295809 10194852
0.76800007 -0.38509998 -0.41115412 16053244
0.78800005 -0.662 -0.40495014 9867422
0.79099995 -0.66637206 -0.40463892 9670297
0.78242862 -0.65548784 -0.40483245 9998498
0.77363646 -0.64532512 -0.40538585 10129317
0.76359999 -0.63399482 -0.40456146 13419736
0.76000005 -0.62958133 -0.40479633 13486555
0.75753331 -0.53443277 -0.404369 14473960
0.75883353 -0.524692 -0.40506315 14605290
0.75899994 -0.51562792 -0.40472913 14671339
0.76000011 -0.51148862 -0.40724272 14868715
0.759 -0.50295317 -0.40355295 14605543
0.76000017 -0.50626236 -0.40646425 14802922
0.75899994 -0.4948982 -0.40663281 14671336
0.76000017 -0.49467805 -0.4025462 14671336
0.759 -0.4846814 -0.40530026 14802923
0.76000005 -0.48902658 -0.40123796 14605543
0.75896442 -0.47535202 -0.40494254 14671338
0.75838476 -0.46545309 -0.40489051 14737386
0.75858331 -0.45526132 -0.40404078 14934765
0.75895834 -0.4448261 -0.40424144 14803178
0.75810015 -0.43456316 -0.40378395 14802920
0.75709999 -0.42512757 -0.4032515 14737127
0.75645846 -0.41502762 -0.40290889 14737129
0.75699997 -0.40468943 -0.40319809 15395059
0.75839144 -0.39497396 -0.40382388 16052986
0.76000005 -0.39117202 -0.4074651 16250366
0.75900006 -0.38888052 -0.40159848 15789815
0.76296419 -0.38611767 -0.40471223 15921658
0.77358824 -0.38378087 -0.40515953 14803691
0.78455561 -0.3836017 -0.40501159 14146012
0.78900003 -0.66284007 -0.39530715 9866909
0.79219997 -0.66738296 -0.39505821 9801370
0.77900004 -0.65079182 -0.3921206 10064292
0.78540003 -0.6579771 -0.39534163 9932703
0.77500004 -0.64636338 -0.39645547 10392488
0.76470006 -0.63419461 -0.39583653 13353941
0.77000004 -0.63966787 -0.39209676 13222868
0.75733334 -0.62471479 -0.39539507 13946590
0.7532593 -0.61537731 -0.39464191 14210277
0.75353128 -0.60547805 -0.39484587 14341862
0.75512493 -0.59570825 -0.39490691 14539497
0.75694299 -0.58482265 -0.39448285 14671082
0.75738233 -0.57484674 -0.39474383 14407911
0.75754547 -0.56499398 -0.39437827 14342374
0.75742424 -0.55523217 -0.39479876 14407910
0.75749993 -0.54505056 -0.3945964 14605288
0.75794435 -0.53472418 -0.39482936 14605546
0.75827265 -0.52470773 -0.39524385 14473960
0.75884879 -0.5154165 -0.39505893 14737130
0.75900012 -0.50597376 -0.39591253 14737387
0.76000005 -0.50237036 -0.39323172 14605801
0.75900006 -0.49904415 -0.39804482 14605544
0.76000017 -0.49493602 -0.39482027 14671336
0.75899994 -0.48323962 -0.39561328 14737129
0.76000011 -0.48813701 -0.39501089 14737129
0.75900024 -0.47505698 -0.39537954 14737386
0.75900006 -0.46548173 -0.3958731 14671592
0.76000005 -0.46322858 -0.39145252 14671591
0.75900024 -0.45530272 -0.39564088 14737127
0.76000005 -0.45878062 -0.39145252 15066349
0.75900024 -0.44485071 -0.39537951 14737385
0.75853342 -0.43481165 -0.39513546 14737129
0.75770968 -0.42529881 -0.39456323 14539749
0.75709379 -0.41515356 -0.39493981 14737131
0.75788885 -0.40516493 -0.3947992 15526644
0.75877798 -0.39498284 -0.39526293 15789815
0.75900006 -0.38888052 -0.39893323 15855865
0.76300007 -0.38662243 -0.39489007 15921914
0.77380961 -0.38447204 -0.39511141 14869739
0.78546661 -0.38404801 -0.39537159 14277854
0.78788894 -0.66272759 -0.38429832 9867420
0.79166669 -0.66847879 -0.38459596 9801883
0.78275001 -0.65575707 -0.38576606 10129827
0.77385718 -0.64468765 -0.38551569 11445945
0.76416677 -0.63303298 -0.38554671 13420760
0.77000004 -0.63966787 -0.38218254 12894419
0.75638455 -0.6223653 -0.38536736 14210274
0.76000005 -0.62780213 -0.38433585 13815773
0.75345832 -0.61446196 -0.38499483 14341605
0.75342858 -0.60564113 -0.38499278 14473704
0.75575614 -0.5958547 -0.38495028 14736875
0.75765783 -0.58535075 -0.38534471 14736875
0.75875771 -0.57477957 -0.38435218 14539497
0.75816667 -0.56487727 -0.3850053 14342374
0.75796008 -0.55514127 -0.38507873 14342374
0.75753331 -0.54507488 -0.38486305 14604775
0.75732011 -0.53517073 -0.38475469 14539495
0.75746661 -0.52551973 -0.38482842 14605288
0.75857586 -0.51539183 -0.38490695 14737387
0.75899994 -0.50742066 -0.38493007 14737386
0.76000017 -0.50290412 -0.38492891 14737386
0.75900006 -0.49282524 -0.38383013 14671338
0.76000017 -0.49535841 -0.38527787 14737386
0.75899988 -0.48394108 -0.3844763 14802922
0.76000011 -0.48704973 -0.38591731 14671593
0.759 -0.47807756 -0.38525158 15000301
0.76000017 -0.47429505 -0.38497636 15066094
0.76027793 -0.46517691 -0.3853651 14802921
0.76063633 -0.45511729 -0.38530365 14803177
0.75900006 -0.44337001 -0.38886452 14737386
0.76037031 -0.44548875 -0.3847855 14802921
0.75899994 -0.43466812 -0.38765717 14803179
0.76026326 -0.43552178 -0.38296962 14803178
0.75880647 -0.42471057 -0.38522127 14605543
0.76000005 -0.42794159 -0.38137054 14868972
0.75820589 -0.41509816 -0.38473141 14737131
0.75832254 -0.40525356 -0.38509101 15329525
0.75900012 -0.39598781 -0.38471863 15855607
0.76000005 -0.39117202 -0.38522542 15855351
0.76331031 -0.38707256 -0.38470891 15855865
0.77395248 -0.38367859 -0.3849144 14803946
0.78600001 -0.38357261 -0.3858816 14278370
0.78757149 -0.66216767 -0.37510011 9867421
0.792 -0.66783333 -0.37486982 9867677
0.77900004 -0.65261549 -0.37570772 9933216
0.78180003 -0.65532869 -0.3744947 9999009
0.77345461 -0.6453377 -0.37435028 11117235
0.76480007 -0.63445604 -0.37512553 13289174
0.75700003 -0.62330061 -0.3745892 14144738
0.76000005 -0.62780213 -0.37810874 13552603
0.75384611 -0.61416703 -0.37518406 14276325
0.75386834 -0.60480803 -0.37473342 14605289
0.756639 -0.59525567 -0.37471366 14736875
0.75787491 -0.58497286 -0.37545416 14802668
0.75890011 -0.57448322 -0.37489638 14539496
0.75885719 -0.56449068 -0.37544551 14276323
0.75845164 -0.55532944 -0.3754178 14276580
0.75780004 -0.54514039 -0.37536502 14473959
0.75788885 -0.53468454 -0.3752827 14408166
0.75843769 -0.52491778 -0.3756094 14473957
0.76000005 -0.52247506 -0.37081411 14605544
0.75870591 -0.51608878 -0.37751639 14737129
0.76018196 -0.51438099 -0.37269804 14671337
0.75900006 -0.50792831 -0.37849963 14737386
0.76051611 -0.50469261 -0.37425745 14802922
0.76042438 -0.49512538 -0.37500057 14802922
0.76025015 -0.48473835 -0.37467244 14868715
0.76048571 -0.47433269 -0.37466118 15131887
0.76145452 -0.46484268 -0.37518418 15197936
0.76244134 -0.45552891 -0.37596124 15000556
0.76166648 -0.44552341 -0.37537089 15000556
0.76080543 -0.43522382 -0.37494746 14934763
0.75900006 -0.42152977 -0.37472385 14737385
0.76000017 -0.42639965 -0.37472823 14671592
0.75900006 -0.41513821 -0.37514341 14803177
0.75809371 -0.40499839 -0.37499774 15395315
0.759 -0.3961359 -0.37509397 15789815
0.76000011 -0.39161682 -0.3736608 16053242
0.76308101 -0.38603488 -0.37463915 15790328
0.77488887 -0.382604 -0.37462571 14672874
0.78685719 -0.38341522 -0.37423223 14540772
0.78900003 -0.66284007 -0.36852473 9999011
0.79280007 -0.66714859 -0.36473173 9736095
0.77900004 -0.65079182 -0.36294213 9736357
0.7845 -0.65676636 -0.36412546 9867684
0.77424997 -0.64591932 -0.36616313 10591149
0.76449996 -0.6343565 -0.36482677 13355224
0.75699997 -0.62451994 -0.36461437 13947617
0.75276011 -0.61477429 -0.36481571 14342119
0.75329411 -0.60493594 -0.36491817 14473962
0.75672096 -0.59563142 -0.36487991 14737132
0.75869453 -0.58498347 -0.365026 14868461
0.75900018 -0.57505924 -0.36556211 14868461
0.76000005 -0.57131332 -0.36254096 14737386
0.75900012 -0.56554848 -0.36910781 14210786
0.76000017 -0.56438732 -0.3645108 14276835
0.75900006 -0.55412596 -0.3690232 14276323
0.76000017 -0.55509865 -0.36427972 14210786
0.75899994 -0.54505479 -0.36709052 14276581
0.76000017 -0.54541272 -0.36230147 14408166
0.75899988 -0.53579229 -0.36719254 14539750
0.76000017 -0.53484029 -0.36254099 14540007
0.75900006 -0.52791768 -0.36917126 14408164
0.76020694 -0.52548838 -0.36474094 14605543
0.76096654 -0.51547921 -0.36522871 14671336
0.76152754 -0.50516248 -0.36460525 14802922
0.761406 -0.49494448 -0.36432412 14802923
0.76142836 -0.48505592 -0.36463386 14802924
0.76179981 -0.47489819 -0.36486214 15065838
0.7626946 -0.46486956 -0.36516473 15197680
0.76266682 -0.45503515 -0.36515275 15131886
0.76127982 -0.44529685 -0.36538002 14934508
0.76031041 -0.43509394 -0.36503714 14802922
0.75899994 -0.42372185 -0.36428496 14737386
0.76000005 -0.42817885 -0.36618826 14671593
0.75850016 -0.41526052 -0.36493337 14737385
0.75802767 -0.40524048 -0.36470568 15263985
0.75899994 -0.39766598 -0.36566699 15658743
0.76061118 -0.39306781 -0.36436462 15855865
0.76443243 -0.3866241 -0.36524135 15724793
0.77347064 -0.38340163 -0.36483631 15132912
0.78493339 -0.38366446 -0.36508906 14606564
0.78900003 -0.66284007 -0.35467175 9801883
0.79300004 -0.66805696 -0.35461342 9999260
0.77900004 -0.65079182 -0.35200021 9670046
0.7844286 -0.65664119 -0.35575977 9867936
0.773 -0.64296651 -0.35431495 12039367
0.76385719 -0.63277656 -0.35587859 13355479
0.77000004 -0.63966787 -0.35874897 13355481
0.75678581 -0.62337732 -0.3547422 13947616
0.76000005 -0.62780213 -0.35142112 13684699
0.75329632 -0.61481965 -0.35566783 14407911
0.75389999 -0.60524297 -0.35517287 14605289
0.75692511 -0.59535682 -0.35509348 14736875
0.75873548 -0.58480608 -0.35464987 14999792
0.75900006 -0.57584286 -0.35421631 15197425
0.76000011 -0.57146162 -0.35586908 15000301
0.76000017 -0.56464154 -0.3549794 14737386
0.76091415 -0.5547601 -0.35527882 14473957
0.76074189 -0.54488438 -0.35546833 14605543
0.76070577 -0.53515363 -0.35509825 14671336
0.76078117 -0.52548242 -0.35556608 14605544
0.76129705 -0.51553339 -0.35546416 14605544
0.76257586 -0.5055052 -0.3547478 14540007
0.76272219 -0.49524179 -0.35446352 14474214
0.76308358 -0.48475748 -0.35463119 14540007
0.76367652 -0.4746711 -0.35469708 14737386
0.763219 -0.46463275 -0.35491896 15066350
0.76273346 -0.45507473 -0.35446975 14934765
0.76172209 -0.44535711 -0.35488936 14934508
0.7607941 -0.43495515 -0.3555586 14935021
0.759 -0.42335105 -0.35771069 14803434
0.76025009 -0.42565054 -0.35349372 14803177
0.75875866 -0.41454378 -0.35467452 14803435
0.76000005 -0.41830447 -0.35097635 14868970
0.75839394 -0.40503219 -0.35447001 15395828
0.759 -0.39873382 -0.35491621 15658485
0.76064289 -0.39385396 -0.35521644 15856121
0.76467854 -0.38685915 -0.35460645 15528183
0.77490491 -0.38337386 -0.35489529 15330030
0.78574997 -0.38342133 -0.35519814 14672351
0.78900003 -0.66284007 -0.34543645 10065055
0.79200006 -0.66721451 -0.34489581 9736860
0.77900004 -0.65079182 -0.34835288 9867425
0.78500003 -0.65764195 -0.34460402 10064288
0.77406669 -0.64474225 -0.34457022 10920115
0.76516676 -0.63386136 -0.3448548 13092054
0.75636369 -0.62222362 -0.34483033 14013154
0.76020002 -0.62796736 -0.3452858 13749983
0.75368005 -0.61439562 -0.34543034 14407910
0.75388885 -0.60510284 -0.34506723 14605545
0.75622869 -0.59534562 -0.34510109 14737132
0.75802773 -0.58535552 -0.34449637 15000047
0.75900012 -0.57455945 -0.34473982 14934512
0.75900006 -0.56774837 -0.3432591 14868718
0.76000017 -0.56367779 -0.34556463 14802924
0.76113868 -0.55479568 -0.34481996 14671338
0.76217121 -0.54496986 -0.34515893 14605545
0.76216131 -0.53519601 -0.34542483 14671336
0.7616331 -0.52573806 -0.3450436 14671336
0.7614997 -0.51583928 -0.34498453 14868717
0.76283783 -0.50537789 -0.34498671 15066097
0.76429999 -0.49465507 -0.34464106 14671850
0.76463616 -0.48533753 -0.34485745 14408934
0.76419359 -0.47487482 -0.34513626 14671591
0.76342326 -0.46456036 -0.34475476 15000557
0.76300025 -0.45523292 -0.34477043 14803178
0.76278132 -0.44505879 -0.3450067 14737385
0.76196659 -0.4349961 -0.34519541 15000556
0.76096952 -0.42503273 -0.34450051 14934763
0.75900006 -0.41079476 -0.34770122 14934508
0.76000017 -0.41529763 -0.34505177 14803178
0.75899994 -0.4046351 -0.34639814 15329524
0.76000017 -0.40413454 -0.34316069 15461108
0.75900006 -0.3995415 -0.34829348 15329519
0.76064509 -0.39460412 -0.34468213 15724536
0.76381242 -0.38670081 -0.34485495 15592948
0.77360004 -0.38322383 -0.34520921 15527665
0.78571433 -0.38390669 -0.34438971 14475229
0.78900003 -0.66284007 -0.33527765 9933470
0.79250002 -0.66763574 -0.33490789 9933467
0.77900004 -0.65079182 -0.33467549 10129827
0.78450006 -0.65691882 -0.33397815 10064546
0.77338463 -0.64359665 -0.33511561 11445945
0.76566672 -0.63427556 -0.33432183 13223124
0.75716668 -0.62368912 -0.33415714 13947361
0.7601667 -0.62793982 -0.33548114 13749982
0.75278258 -0.61540651 -0.33501935 14276582
0.75168574 -0.60504401 -0.33443084 14473961
0.75431579 -0.59470987 -0.33489928 14605547
0.75681251 -0.58491594 -0.33505508 14934510
0.75819451 -0.57439125 -0.33490866 15000302
0.75894439 -0.56681818 -0.33444944 15000559
0.76000017 -0.56216002 -0.33564267 15000303
0.76137471 -0.55474406 -0.33478969 14737388
0.76275015 -0.54525602 -0.33483693 14737131
0.76300031 -0.53543907 -0.33480227 14671593
0.76187074 -0.52544188 -0.33436355 14605800
0.76135272 -0.51547843 -0.33443165 14802923
0.76258332 -0.50586158 -0.33476293 15197937
0.7642104 -0.49573493 -0.33524218 15461108
0.76450002 -0.48497042 -0.33457342 15000556
0.76381814 -0.47463161 -0.33538774 14737384
0.76380652 -0.4648855 -0.33492649 15000556
0.76306689 -0.45527413 -0.33497652 14803177
0.76178557 -0.4455924 -0.33505073 14671591
0.76103437 -0.43520007 -0.33485156 14934763
0.76087987 -0.42546895 -0.33490622 14934764
0.75900006 -0.41079476 -0.33467111 14737384
0.76000017 -0.41541326 -0.33529744 15066092
0.75900006 -0.40842566 -0.33496723 14803178
0.76011777 -0.40431622 -0.33545995 15263985
0.76205254 -0.39457095 -0.33462113 15724535
0.76639998 -0.38764372 -0.33575183 15527154
0.77373922 -0.38453418 -0.33489183 15461873
0.78666663 -0.38438958 -0.33520362 14410209
0.78850007 -0.6605742 -0.32398862 9933471
0.79250002 -0.66601312 -0.32516366 9933468
0.78387511 -0.65532506 -0.32621616 10064547
0.77458352 -0.64438373 -0.32461438 10985652
0.76816672 -0.63634658 -0.32462308 13157074
0.75727272 -0.6228109 -0.32493535 14013152
0.76150006 -0.62904119 -0.3253727 13881566
0.75345844 -0.61468345 -0.32502261 14408166
0.75124341 -0.60402703 -0.32462713 14539496
0.75347376 -0.59446353 -0.32500768 14605546
0.75625014 -0.58486843 -0.32490152 14868718
0.75745451 -0.57540292 -0.32501578 14934765
0.75878257 -0.56670952 -0.32486972 15066094
0.76000017 -0.56142527 -0.3256231 15131887
0.7607941 -0.55475384 -0.32481167 14868715
0.7615999 -0.54443413 -0.3245267 14934507
0.76263332 -0.53446037 -0.32496646 14934507
0.7634244 -0.52469873 -0.32416368 14671593
0.76282775 -0.51492357 -0.3247391 14671593
0.7629618 -0.50542676 -0.32524312 14803179
0.76313359 -0.49550873 -0.32517967 15197937
0.76354557 -0.48480701 -0.3248671 15000557
0.76365632 -0.47495452 -0.32428256 15000557
0.76306695 -0.46503833 -0.32509074 15066863
0.76268011 -0.45504329 -0.32498589 15000556
0.76176643 -0.44504622 -0.3249523 14671591
0.76114684 -0.43515626 -0.3254326 14540518
0.76099986 -0.42464459 -0.32516089 14672105
0.76073325 -0.41470128 -0.3250455 14934763
0.76088876 -0.40498853 -0.32511282 15329521
0.76307893 -0.39444122 -0.325014 15855864
0.76800007 -0.3889142 -0.32496452 15461362
0.77364296 -0.38550732 -0.32512528 15395568
0.78558844 -0.38421586 -0.32500845 14212577
0.79254538 -0.66480994 -0.31510592 9801881
0.78522229 -0.65538001 -0.31498301 9933471
0.77562511 -0.64479673 -0.31552264 10722990
0.78000003 -0.64980119 -0.31593218 9999009
0.76359999 -0.63077593 -0.31465045 13420504
0.77066666 -0.63841754 -0.31485644 13552089
0.75766671 -0.6229195 -0.31575638 14407653
0.76050001 -0.62688082 -0.31471282 14144225
0.75372732 -0.61468321 -0.31499514 14407910
0.75160009 -0.60414547 -0.31498638 14605545
0.75385356 -0.59461468 -0.3151558 14605546
0.7563439 -0.58499587 -0.31492719 14737132
0.75779992 -0.5748018 -0.31474566 14868718
0.75893766 -0.56507319 -0.31561798 14934510
0.76000005 -0.56019354 -0.31850642 15132144
0.75900012 -0.5584411 -0.31275684 14868717
0.76020002 -0.55400449 -0.31560084 14868973
0.76096857 -0.54492974 -0.31462619 14737644
0.76179469 -0.53490078 -0.31487024 14803691
0.76399994 -0.52507704 -0.31465086 14869228
0.7636072 -0.51439708 -0.31522924 14868972
0.76253331 -0.5049383 -0.3151063 15000558
0.76208299 -0.49482739 -0.31491959 15000558
0.7632122 -0.4850817 -0.31497994 14868972
0.76536369 -0.47521073 -0.31488997 15066350
0.76465726 -0.46486664 -0.31493065 15329521
0.76390934 -0.45479852 -0.31526366 15132142
0.76318192 -0.44510981 -0.3156144 14934763
0.76249993 -0.43496466 -0.31486663 14671591
0.76179391 -0.4248262 -0.31500793 14539748
0.76109987 -0.41490135 -0.31451252 14802920
0.76099986 -0.40504822 -0.31447187 15329263
0.76270711 -0.39443073 -0.31480563 15790071
0.76754552 -0.38884774 -0.31497052 15461106
0.77318525 -0.38548145 -0.31504646 15198190
0.78523535 -0.38350043 -0.31448013 14147038
0.78508335 -0.65495837 -0.30512044 10064803
0.77520001 -0.64398772 -0.30491328 10196392
0.76533335 -0.63220781 -0.30551243 13618139
0.77200001 -0.63952208 -0.30455914 12433610
0.75700003 -0.62177962 -0.30484408 14012895
0.76000005 -0.62602299 -0.30516261 13683931
0.75293761 -0.61502993 -0.30464053 14473701
0.7502895 -0.60452628 -0.30496258 14540007
0.75273538 -0.59520912 -0.30478671 14474215
0.75507694 -0.5847528 -0.30506808 14737388
0.75761759 -0.57455313 -0.30477947 14802924
0.75893766 -0.56507313 -0.30495787 14802922
0.75899994 -0.55767959 -0.30476105 14868972
0.76000017 -0.55307674 -0.30516264 14802922
0.76062495 -0.54573977 -0.30485681 14868714
0.76123321 -0.53526175 -0.30476639 14671591
0.7628572 -0.52510053 -0.3051115 14671591
0.76338243 -0.51506633 -0.3045246 14868970
0.76280665 -0.50494528 -0.30435842 15263471
0.76327795 -0.49530357 -0.30468982 15066350
0.76360011 -0.48495832 -0.30494669 14738156
0.764606 -0.47522828 -0.3048166 15001327
0.76556253 -0.46460235 -0.30504504 15461106
0.76589298 -0.45535797 -0.30541489 15263727
0.76551425 -0.44521302 -0.30545506 15066348
0.764871 -0.43503687 -0.30546942 14934506
0.76323348 -0.42499876 -0.30467314 14737383
0.76206881 -0.41499946 -0.30473146 14474210
0.76107401 -0.40459263 -0.30490094 15394798
0.76335889 -0.39458936 -0.30483729 15592692
0.76807696 -0.38855049 -0.30543146 15527153
0.77308011 -0.38486782 -0.30487591 14869735
0.7855714 -0.38313252 -0.30504772 14606817
0.78712505 -0.65619874 -0.29624277 9933215
0.79000002 -0.65998143 -0.29594034 9801630
0.77585715 -0.64401656 -0.29686442 10261927
0.78100002 -0.64880598 -0.29165351 9998753
0.76716661 -0.63372225 -0.29546449 13617882
0.77000004 -0.63606268 -0.29025078 14012636
0.75716668 -0.62191653 -0.29516125 14013151
0.76066667 -0.62657213 -0.29474315 13881054
0.75386959 -0.61506766 -0.29460245 14342371
0.75062507 -0.60457283 -0.29458666 14539751
0.75160009 -0.59473127 -0.2949284 14737129
0.75390005 -0.58441579 -0.29459399 14803179
0.75766671 -0.57472861 -0.29531369 14868971
0.759 -0.56478691 -0.29498845 15000300
0.75899994 -0.557953 -0.29539853 15066350
0.76000017 -0.55380476 -0.29392144 14868972
0.76063889 -0.54552722 -0.29473525 14868715
0.76187146 -0.53522938 -0.2950069 14737385
0.7628001 -0.5254705 -0.29539302 14540005
0.76300031 -0.5150705 -0.29475692 14605798
0.76304024 -0.50527269 -0.29477254 14868970
0.76396972 -0.49548027 -0.29529527 14934763
0.76392585 -0.48479792 -0.29491663 14671593
0.76329654 -0.47466829 -0.29507101 14934764
0.7641561 -0.46469721 -0.29514906 15395057
0.76566672 -0.45509031 -0.29495162 15263728
0.76602805 -0.44538295 -0.29502982 15197677
0.76593775 -0.43513283 -0.29477072 15131884
0.7637201 -0.42519948 -0.29496297 14934504
0.76209652 -0.41498503 -0.29538643 14474210
0.76099986 -0.40478623 -0.29466555 15066348
0.76346153 -0.39473182 -0.29493448 15658484
0.76792312 -0.3886109 -0.29541406 15724532
0.77303857 -0.38499895 -0.29501373 14737893
0.78494442 -0.38379195 -0.29495716 14606046
0.78625005 -0.65409052 -0.28532717 9933213
0.76566672 -0.63069063 -0.28323925 13880796
0.77216673 -0.63785249 -0.28473815 13683160
0.75779998 -0.6213733 -0.28547454 14078944
0.76179999 -0.62679398 -0.28537968 14078431
0.75488895 -0.61474645 -0.28484613 14474214
0.75202954 -0.60475254 -0.28414673 14605800
0.75228596 -0.59486085 -0.28442588 14606057
0.75409311 -0.58477682 -0.28511459 14803436
0.75804758 -0.57472265 -0.28485829 15000301
0.759 -0.5653792 -0.28603032 14737385
0.76000017 -0.56181091 -0.28340816 14868972
0.75900006 -0.55945647 -0.28965801 15197678
0.7603572 -0.55454361 -0.28464416 14934509
0.76062959 -0.5450263 -0.28513554 14803178
0.76139373 -0.53486049 -0.28522474 15000299
0.76320523 -0.52489585 -0.2847119 14803178
0.76387519 -0.51476687 -0.28525609 14671591
0.76324153 -0.50528359 -0.28517592 15000557
0.76302809 -0.49544036 -0.28494331 14934763
0.76383334 -0.48523438 -0.28524399 14737385
0.76402932 -0.47489008 -0.28510386 14868971
0.76378125 -0.4649744 -0.28544739 15198449
0.76400018 -0.45530879 -0.2848756 15263984
0.76580656 -0.44545439 -0.28497013 15132140
0.76643771 -0.43508178 -0.28498241 15132395
0.76426089 -0.42456073 -0.28520703 15066345
0.76241171 -0.41498747 -0.28450224 14474465
0.76110333 -0.40476567 -0.28493053 14869225
0.7625134 -0.39419726 -0.28487203 15527412
0.76708341 -0.38853201 -0.28466263 15725044
0.77365386 -0.385793 -0.28556505 14803942
0.78558826 -0.38551426 -0.28498185 14343647
0.79380006 -0.38247043 -0.28472584 13158600
0.78683335 -0.65365195 -0.2754091 9605019
0.79025 -0.65834028 -0.27660823 10000031
0.77775002 -0.64428538 -0.27587318 11315637
0.76800007 -0.63261265 -0.27600828 13486295
0.77300006 -0.63828337 -0.27380258 13552600
0.75850004 -0.62123609 -0.27437231 14013153
0.76150006 -0.62547582 -0.2754575 14210018
0.75573915 -0.61436218 -0.2745654 14540009
0.75476456 -0.60523516 -0.27483797 14606059
0.75527018 -0.59517461 -0.27504256 14737131
0.75583798 -0.58471715 -0.275298 14868972
0.75797302 -0.57442588 -0.27478242 15066351
0.759 -0.56762993 -0.27526563 14934765
0.76034611 -0.56345987 -0.27476755 15000558
0.76099986 -0.55469519 -0.27527833 15000558
0.76099986 -0.54489708 -0.27527845 14868972
0.76099986 -0.53522611 -0.27515113 15000557
0.76310521 -0.52468151 -0.2747229 15000556
0.76519442 -0.51476014 -0.27500343 14803434
0.76412505 -0.50509822 -0.27461898 15132143
0.76325744 -0.4952057 -0.27443439 14934764
0.76447374 -0.48502579 -0.2746484 14803177
0.76557589 -0.47518089 -0.27538437 14737384
0.76396668 -0.46475425 -0.27456176 14934762
0.76334393 -0.4551028 -0.27411422 15197933
0.76479995 -0.44529241 -0.27504158 15132139
0.76593953 -0.43449143 -0.2751365 15000809
0.76476657 -0.42436105 -0.27455229 15000552
0.7627694 -0.41423228 -0.27516279 14408417
0.76182127 -0.404403 -0.27525619 14803691
0.76319504 -0.39459708 -0.27517611 15330548
0.76818186 -0.38900632 -0.27468738 15790837
0.77447629 -0.38722101 -0.27483916 14803684
0.78552949 -0.38570133 -0.27479303 14408670
0.79459268 -0.38271776 -0.27512839 13027013
0.78775007 -0.65303111 -0.26558894 9802142
0.79100001 -0.65711331 -0.26390767 9933727
0.77649999 -0.64143205 -0.2663399 12302534
0.7816667 -0.64631099 -0.26476309 10065315
0.76800001 -0.63081473 -0.26073042 12763085
0.77233338 -0.63618213 -0.26490781 12499912
0.75900006 -0.62164563 -0.26655918 13947361
0.76288885 -0.62602329 -0.26435122 13552600
0.75619054 -0.61521769 -0.26523459 14276582
0.75428563 -0.60523361 -0.2649695 14737387
0.75445157 -0.59495771 -0.26496452 14868972
0.75613898 -0.58492923 -0.26481801 14934766
0.75766665 -0.57479799 -0.26509133 15000815
0.75891668 -0.56694543 -0.26327294 14935278
0.76021057 -0.56315815 -0.26595452 15066351
0.7604444 -0.55478454 -0.26548544 14934763
0.76017869 -0.54488081 -0.26500359 15000556
0.76085281 -0.53478509 -0.2648004 15000557
0.7630769 -0.52521849 -0.26496798 15132143
0.7651667 -0.5147413 -0.26514366 14803434
0.76474994 -0.504103 -0.26448488 15066862
0.76508349 -0.49503189 -0.26476175 15066349
0.76625031 -0.48497501 -0.26461935 14868969
0.7663669 -0.47518316 -0.26465991 14868968
0.76577795 -0.46495798 -0.26445654 14934762
0.76553345 -0.45495293 -0.26437184 15066603
0.76499993 -0.4456816 -0.2648285 15263724
0.76465517 -0.43547922 -0.26484251 15000808
0.76458621 -0.42501104 -0.26506546 14868966
0.76300031 -0.41432327 -0.26514056 14540003
0.76300031 -0.40521941 -0.2652846 14935019
0.76402515 -0.39516148 -0.26514846 15198447
0.76820004 -0.38927737 -0.26493514 15856373
0.77427268 -0.38681144 -0.26491654 14606049
0.78582346 -0.38573742 -0.26450524 14473949
0.79445833 -0.38270608 -0.26537123 13422028
0.78900003 -0.65360481 -0.25493038 9605274
0.79233336 -0.65822101 -0.25507838 9671065
0.77700001 -0.64002609 -0.25196257 10328744
0.78416675 -0.64776516 -0.25611857 9670813
0.77344447 -0.6360935 -0.25674078 11249847
0.76325011 -0.62468171 -0.25419936 13223637
0.75585711 -0.61541075 -0.25572246 14144481
0.74900001 -0.60249633 -0.25121155 14737386
0.7513001 -0.60496312 -0.2561186 14737130
0.74877781 -0.59613353 -0.25147811 14803179
0.75113046 -0.59379113 -0.25607583 15000301
0.75371045 -0.58512974 -0.25472039 14868973
0.75590336 -0.57486713 -0.25485581 14869485
0.75791168 -0.56501836 -0.25506333 14803692
0.75893557 -0.5553394 -0.25432926 14738156
0.76000005 -0.55343264 -0.25943783 15001328
0.75900006 -0.54879546 -0.25145608 14672363
0.76000017 -0.54480892 -0.25555506 14672363
0.76071864 -0.53512233 -0.25503001 14672363
0.76186645 -0.52500492 -0.25508192 14935020
0.76327044 -0.51479244 -0.25497311 14934764
0.76544738 -0.50502515 -0.25495884 14868971
0.76673096 -0.49522182 -0.25470531 14737641
0.76686674 -0.48536578 -0.25495958 14935532
0.76700014 -0.47467735 -0.25500423 14738153
0.76648021 -0.46448773 -0.25483054 14737383
0.76584005 -0.45513526 -0.25461909 15000298
0.76450008 -0.44519922 -0.25474972 15066346
0.76352787 -0.43499377 -0.25474447 14935272
0.76310736 -0.42511901 -0.25492319 14803942
0.76207143 -0.41485769 -0.25534251 14605794
0.76177776 -0.40496615 -0.25485566 15066343
0.76285303 -0.394633 -0.25525543 15461098
0.76716667 -0.38902083 -0.25461313 15592942
0.77399999 -0.38629115 -0.25476179 13486279
0.78557903 -0.38342273 -0.25498515 13945539
0.79120004 -0.38129827 -0.25786421 14276820
0.78800005 -0.37975752 -0.25091782 13681077
0.79526097 -0.37677127 -0.25444347 12105907
0.78820008 -0.65146637 -0.24544545 9671067
0.79200006 -0.65578181 -0.24415357 9737117
0.77775002 -0.64064389 -0.24674153 9605021
0.78380001 -0.6463629 -0.2448127 9802655
0.77400005 -0.63574302 -0.24102403 12630729
0.76450008 -0.62525946 -0.24521887 13552602
0.75529999 -0.6143744 -0.24545355 14079202
0.748375 -0.60254192 -0.24497932 14671594
0.75037503 -0.60799438 -0.24530441 14342886
0.74845153 -0.594805 -0.24499343 14868973
0.75000006 -0.59144938 -0.24232924 15066607
0.75253332 -0.58557105 -0.24502555 15066351
0.75619048 -0.57508451 -0.24521339 15000558
0.75782341 -0.56500578 -0.24548149 15000558
0.76000005 -0.56019354 -0.24022277 15066351
0.75889993 -0.55627328 -0.24609292 14671849
0.76038903 -0.55326009 -0.24261962 14671593
0.76094431 -0.54485542 -0.24497271 14540008
0.76179969 -0.53492135 -0.24527286 14605801
0.76307511 -0.52494282 -0.24503 14868971
0.76502389 -0.51493961 -0.24466176 14737641
0.76766682 -0.50557774 -0.24635768 14671847
0.77011114 -0.50294399 -0.24301785 14605796
0.76855004 -0.49434838 -0.2462523 14671590
0.77000004 -0.49777874 -0.24312605 14737382
0.76718193 -0.48515806 -0.2454308 14868969
0.7676388 -0.47507143 -0.24533279 14868969
0.76696682 -0.46478173 -0.24511784 14737639
0.76570004 -0.45505282 -0.2447122 14737383
0.76407146 -0.44533443 -0.24451068 14737380
0.76313359 -0.43476817 -0.24478637 14737381
0.76248157 -0.42438221 -0.24497354 14343136
0.7608332 -0.41475642 -0.24493991 14211293
0.76063883 -0.40485531 -0.24487771 14408416
0.76119977 -0.39458877 -0.24492961 15065569
0.76589471 -0.38835093 -0.24501042 15198181
0.77396977 -0.38413104 -0.2445823 12365476
0.78219998 -0.3806223 -0.24760595 11639948
0.77700001 -0.37991324 -0.24195822 10718075
0.7861501 -0.37839776 -0.24397974 10916228
0.79444838 -0.37355402 -0.2450162 11446433
0.78630006 -0.64547956 -0.23417595 9737372
0.79000002 -0.64888495 -0.2312112 9605782
0.77520001 -0.63509673 -0.23558705 11775932
0.78100002 -0.63783598 -0.23040546 9540505
0.76525003 -0.62474954 -0.23515674 13157842
0.77100003 -0.62966907 -0.23287012 12238020
0.75593334 -0.61370784 -0.23456605 14342886
0.76050007 -0.61931348 -0.23236868 14210530
0.74854547 -0.60209125 -0.23707913 14606059
0.75277275 -0.60524756 -0.23264466 14540522
0.7485714 -0.59658051 -0.23736088 14672109
0.75250012 -0.59446192 -0.23288919 14738156
0.75391668 -0.58530134 -0.2347623 14869485
0.75725007 -0.57531297 -0.23522925 15132657
0.76000005 -0.57175815 -0.23132689 15067636
0.75879991 -0.56623596 -0.23735623 15132402
0.76153845 -0.56379265 -0.23302482 15067635
0.763125 -0.55489719 -0.23432264 14935535
0.7646513 -0.54521608 -0.23452286 14606826
0.76547635 -0.53491336 -0.2347762 14474726
0.76705563 -0.52498555 -0.23566474 14803433
0.7701667 -0.52531654 -0.23081543 14541543
0.7684232 -0.51478648 -0.23603368 14672105
0.77000004 -0.51468873 -0.23106591 14738152
0.76900005 -0.50809449 -0.23654161 14606567
0.77000028 -0.50440967 -0.23482132 14540517
0.76900011 -0.49370331 -0.23415202 14540517
0.77000004 -0.49726376 -0.23653376 14540516
0.76862979 -0.48518348 -0.23555173 14737895
0.77000004 -0.48464566 -0.23076549 14606566
0.76824147 -0.47498086 -0.23563223 14869225
0.77000004 -0.47653404 -0.23076549 14672359
0.76681489 -0.46489075 -0.23479588 14869225
0.76592004 -0.45518246 -0.23492202 14737638
0.76558065 -0.44567433 -0.23452537 14935272
0.76360005 -0.43490654 -0.23522963 14935272
0.76239997 -0.42453545 -0.2347341 14738149
0.7604 -0.41452071 -0.23500885 14211548
0.76032263 -0.40454251 -0.23481187 14408416
0.76413959 -0.39512372 -0.23499326 14342617
0.77208334 -0.39196679 -0.23259218 11645362
0.76666671 -0.38921511 -0.23933659 15132389
0.77511764 -0.38597685 -0.23587148 11577505
0.78443336 -0.38366345 -0.23337023 9734271
0.78799999 -0.37780774 -0.23595259 9864314
0.79237503 -0.37250784 -0.23445684 10458769
0.78833342 -0.64259523 -0.22826223 9671575
0.77600002 -0.63102639 -0.22802094 9277333
0.78599995 -0.63501519 -0.22604848 9540504
0.76666671 -0.62194198 -0.22856791 9276823
0.77433342 -0.6248365 -0.22677331 9408921
0.78576922 -0.6253109 -0.22416636 9671576
0.79486662 -0.62495804 -0.22146437 8553866
0.75900006 -0.61187303 -0.22924569 12830157
0.76315391 -0.61445993 -0.22747049 9408666
0.7754668 -0.61479187 -0.2248943 9935778
0.78663635 -0.61514848 -0.22369598 7502462
0.7940625 -0.61468297 -0.22147261 7172986
0.75816661 -0.60498911 -0.22869785 12632778
0.76262504 -0.60463494 -0.22654226 8356491
0.7741251 -0.60491228 -0.224859 9607327
0.7863636 -0.60506129 -0.22378574 7305598
0.75799996 -0.59509641 -0.22894363 13356501
0.7621876 -0.5949204 -0.22674662 9211800
0.77431256 -0.59509057 -0.22480062 9673122
0.78608328 -0.59475023 -0.22377402 7436413
0.79172724 -0.59554154 -0.22126704 6383470
0.75900006 -0.58522052 -0.22924568 14080224
0.76319999 -0.58478665 -0.22684653 9606558
0.77399999 -0.58463269 -0.22507358 9278107
0.78612506 -0.58530438 -0.22328465 7633792
0.79079998 -0.58659905 -0.22070757 5988456
0.75900006 -0.57900161 -0.22924569 14540775
0.76366669 -0.57514679 -0.22835095 12238791
0.77423811 -0.57508379 -0.22572753 9212826
0.7851429 -0.57478541 -0.22243348 7896708
0.76640004 -0.56687737 -0.22932491 14410217
0.77353859 -0.56480664 -0.22610816 9738913
0.7833572 -0.56469899 -0.22179599 8291980
0.76766664 -0.55925465 -0.22946613 14738925
0.77364302 -0.55510956 -0.22589718 10528428
0.78423536 -0.55472517 -0.22206722 8489873
0.77376682 -0.54515606 -0.22645293 10857393
0.78538889 -0.54488641 -0.22250226 8687252
0.79016668 -0.54450756 -0.22016121 5857638
0.7746551 -0.53503144 -0.22664906 11054772
0.78635299 -0.53489178 -0.2228843 9673889
0.79100001 -0.5348981 -0.22039339 7239033
0.77445841 -0.52506721 -0.22748888 12107459
0.78524983 -0.5251165 -0.22310254 9739427
0.79020005 -0.52510875 -0.2201705 6844278
0.77492601 -0.51495504 -0.22679234 11712957
0.78542858 -0.51470864 -0.22238268 10067878
0.79000002 -0.51480317 -0.22011478 7304057
0.7740801 -0.50496978 -0.22654574 11844285
0.78488237 -0.50513786 -0.22246683 9673117
0.79000002 -0.5046314 -0.22011478 9607580
0.77435505 -0.49492425 -0.2265076 12173250
0.78547066 -0.49502596 -0.22252539 9278360
0.79000002 -0.4953844 -0.22011478 9148056
0.7748149 -0.48484898 -0.2268932 12765130
0.78600001 -0.48516604 -0.22267652 9080979
0.79000002 -0.48521268 -0.22011478 9213847
0.77485204 -0.47466072 -0.22676986 12831179
0.78588891 -0.47552443 -0.22294968 9212565
0.79099995 -0.47431794 -0.2206576 8752783
0.76800007 -0.46270978 -0.22926599 14606821
0.77447629 -0.4651818 -0.22631432 12896972
0.78553855 -0.46457341 -0.22395979 8883859
0.79208344 -0.46516475 -0.2216211 8950676
0.76770008 -0.45534152 -0.22935612 14475748
0.77400005 -0.45472708 -0.22688612 13620695
0.78588229 -0.45546111 -0.22458994 8686738
0.79275006 -0.45473352 -0.22211725 8950677
0.76700002 -0.4423573 -0.2298664 15067371
0.77439117 -0.44499829 -0.22750212 13752281
0.78615379 -0.44511825 -0.22498538 8949395
0.79307145 -0.44532326 -0.22242601 9278870
0.76714289 -0.43435678 -0.22965203 15001835
0.77405268 -0.4352147 -0.2273006 13752025
0.78535712 -0.43521282 -0.22433126 8949395
0.7924 -0.43474707 -0.22170934 9607578
0.76611108 -0.42420727 -0.22840169 14804710
0.77405566 -0.42508131 -0.22563328 11580856
0.78626668 -0.42493489 -0.2227509 9278614
0.79200006 -0.42432922 -0.22067204 9607835
0.76330006 -0.41475624 -0.22785766 14080731
0.77447069 -0.41471684 -0.22463496 10133411
0.78584617 -0.41565034 -0.22334108 9278870
0.79314291 -0.41405866 -0.22125113 8883856
0.76381814 -0.40548459 -0.22825694 13554131
0.77335304 -0.40475181 -0.22612299 10725547
0.78533334 -0.40512225 -0.22432399 10528937
0.79413325 -0.40501791 -0.22126172 9278871
0.76733333 -0.39913693 -0.22936623 13620436
0.77495247 -0.39566448 -0.22775239 12765129
0.78572726 -0.39454508 -0.22594117 12370880
0.7940501 -0.39474916 -0.22160888 9410713
0.77800006 -0.38950878 -0.22952044 15396585
0.78813338 -0.38609082 -0.22783412 8288891
0.79434478 -0.38486126 -0.22330296 8553094
0.78900003 -0.3783924 -0.22907145 8287346
0.78880006 -0.57588309 -0.21978045 5923177
0.79447627 -0.57496941 -0.21657102 8225671
0.78800005 -0.56515211 -0.21955754 5857384
0.79390907 -0.56498802 -0.21680298 8159878
0.78900003 -0.55478692 -0.21983616 5528932
0.79388887 -0.554501 -0.2174765 8028036
0.79595232 -0.54489595 -0.21697508 8093830
0.79500008 -0.5349943 -0.21712819 7370366
0.79519242 -0.52484089 -0.21589658 8028293
0.79500008 -0.5148505 -0.21577713 7962243
0.79517251 -0.50497657 -0.21538387 8291464
0.79481256 -0.49502438 -0.21499005 8291721
0.79484868 -0.48488587 -0.21485755 8489099
0.79571885 -0.47538951 -0.21599489 8160390
