# .PCD v0.7 - Point Cloud Data file format
VERSION 0.7
FIELDS x y z rgb
SIZE 4 4 4 4
TYPE F F F U
COUNT 1 1 1 1
WIDTH 1024
HEIGHT 1
VIEWPOINT 0 0 0 1 0 0 0
POINTS 1024
DATA ascii
0.78900003 -0.060697515 0.10894111 12303539
0.78900003 -0.05700339 0.10894111 12303539
0.78750008 -0.15214597 0.11856432 12302003
0.77571434 -0.1429508 0.11851847 14867934
0.78599995 -0.14500517 0.11506275 13421000
0.79071426 -0.14545083 0.11155762 12105392
0.7750001 -0.13518016 0.11778334 15592683
0.78607136 -0.13526258 0.11457975 14803934
0.79384613 -0.1336862 0.11132061 12369076
0.77493751 -0.12526502 0.11799271 15132389
0.78625005 -0.12444823 0.11453997 13948882
0.79336363 -0.12570171 0.11139622 12369333
0.77411777 -0.11509162 0.11764914 15264229
0.78517652 -0.114898 0.11381429 13619916
0.79000002 -0.11440716 0.11092858 12566711
0.76500005 -0.10093685 0.11995433 15724780
0.77337503 -0.1050975 0.11775532 15395815
0.78456259 -0.10477988 0.11394771 13224386
0.79040003 -0.10521197 0.11098474 12698297
0.76580006 -0.094769418 0.11917989 15461608
0.77416682 -0.094897769 0.1168595 15461608
0.78512496 -0.094975233 0.11379816 12894650
0.7935555 -0.094482392 0.1108059 12500918
0.76591665 -0.084919505 0.11919834 15724778
0.77445453 -0.084629133 0.11665455 15001057
0.7852 -0.08540038 0.11380232 12829888
0.79285711 -0.085924745 0.1107967 12303797
0.7658 -0.075048439 0.11918106 15395814
0.77477789 -0.075023293 0.11604191 15067107
0.7860834 -0.074735202 0.11267515 12303802
0.79000002 -0.07741908 0.11092857 12106163
0.76475 -0.065098293 0.11901793 15527401
0.77400011 -0.064676911 0.11531884 15000800
0.78564292 -0.065563239 0.11162657 12171956
0.7665 -0.055194043 0.11911104 15527400
0.77391309 -0.055203967 0.11512227 15001314
0.78500003 -0.054542992 0.11139235 12303799
0.76725006 -0.044207111 0.11918258 15592940
0.77440006 -0.045070332 0.11598574 15264230
0.78593338 -0.045373578 0.11256123 12632509
0.79033333 -0.042297464 0.11097538 12171956
0.76608342 -0.034724515 0.11922544 15592939
0.77533334 -0.035142705 0.11612395 15329764
0.78650004 -0.034728244 0.11319717 12566715
0.79079998 -0.034917168 0.11104091 11974577
0.76600009 -0.024859296 0.11921195 15132388
0.77553338 -0.025166782 0.11615437 15264227
0.78710002 -0.024987068 0.11309908 11579816
0.76414281 -0.014446044 0.11853804 14803939
0.77446675 -0.015822878 0.11587303 14672350
0.78625005 -0.016770957 0.1136215 11448230
0.7638461 -0.0055307481 0.11825534 14475231
0.77422225 -0.0051918221 0.11595859 14607071
0.78366667 -0.0052561313 0.11462221 12764605
0.76316673 0.0047167926 0.11877122 14606816
0.77350003 0.0047817868 0.11675787 14278878
0.7853334 0.0039356351 0.11486638 12173498
0.76499999 0.013902663 0.11927983 14738402
0.77466679 0.015211596 0.11738521 14409950
0.78712505 0.014994599 0.11512937 11976121
0.77383333 0.024707468 0.11862075 14343387
0.78391671 0.025029505 0.11649404 13949656
0.77400011 0.034677722 0.11864647 14541023
0.78420007 0.035134953 0.11653628 14081242
0.77416676 0.044653833 0.11867183 14014938
0.78487504 0.045270253 0.11594474 12831433
0.77470005 0.054659475 0.11875319 14343903
0.78593332 0.054836668 0.11587159 12633027
0.77558345 0.064706855 0.1188885 14146524
0.7856667 0.065394677 0.11660066 13554127
0.77530003 0.074666008 0.1188454 14409182
0.78629404 0.075073771 0.11581708 11974321
0.77660006 0.081699312 0.11922623 14409439
0.78633332 0.08493308 0.117036 12369082
0.78780007 0.092099875 0.11910258 11579820
0.78825009 -0.16074818 0.12775122 10657434
0.77650005 -0.15208133 0.12593558 14473174
0.78483343 -0.15607117 0.12459081 10854557
0.79033333 -0.1582434 0.12084278 11052192
0.76654547 -0.14298582 0.12688199 15131363
0.77250022 -0.14613414 0.12393892 15525862
0.78000003 -0.14947885 0.12048038 15723240
0.76480645 -0.13484238 0.12453557 15724270
0.77000004 -0.13854954 0.12073835 15724523
0.76323068 -0.12509717 0.12516147 15592428
0.75900006 -0.11258302 0.12967452 15592937
0.76270264 -0.11513482 0.12455448 15395560
0.75899994 -0.10496803 0.12840538 15790316
0.76209092 -0.10541978 0.12289786 15592938
0.75899994 -0.094814688 0.12789769 15790316
0.76077771 -0.095037289 0.12285324 15724523
0.75899994 -0.085042119 0.12789771 15724523
0.76093751 -0.084924288 0.1227674 15527399
0.75899994 -0.075269535 0.12789769 15592937
0.76064712 -0.075170889 0.12293714 15527400
0.75900006 -0.06589181 0.12888485 15395815
0.76051855 -0.064309038 0.12426158 15395815
0.75900006 -0.054835957 0.12967452 15132643
0.76103842 -0.054845117 0.12446863 15790573
0.759 -0.044013426 0.12870537 15790316
0.7615357 -0.045851644 0.12360834 15790319
0.75879997 -0.035281967 0.12786354 15658732
0.76105881 -0.034757346 0.12279334 15329768
0.75857902 -0.025270762 0.127639 15066597
0.76073349 -0.025280047 0.12284586 15263974
0.7585001 -0.014847436 0.12692444 14868960
0.76033348 -0.014884104 0.12189212 14737631
0.75822729 -0.0049184687 0.1264746 14540511
0.7601251 -0.0055372664 0.12163658 14804195
0.75830007 0.0046837288 0.12600219 15066854
0.76000005 0.0046941126 0.1209495 14935783
0.75842857 0.015083876 0.12627755 14540253
0.76077789 0.016674392 0.1212694 14869475
0.75862509 0.02488729 0.12761167 14671839
0.7624737 0.025425367 0.1220881 14671839
0.75884604 0.03454604 0.12855482 14737633
0.76252002 0.034947813 0.12355718 14672096
0.77025008 0.037215345 0.12077755 14474975
0.759 0.045555096 0.12878612 14737632
0.76249999 0.044872638 0.12401905 14541024
0.77000004 0.04531401 0.12073835 14409439
0.759 0.055327673 0.12878612 14737632
0.7628848 0.054579258 0.12373598 14606304
0.77025008 0.056148913 0.12077755 14146268
0.75900006 0.062731139 0.12908225 14803425
0.76206905 0.065700017 0.12508541 14606304
0.7712 0.06524349 0.12092651 14146269
0.76296657 0.074967742 0.1255791 14803684
0.77166671 0.075221837 0.12099969 14869990
0.76476473 0.083868891 0.12654708 15329772
0.77328575 0.085981898 0.12267189 14869477
0.78100002 0.08801306 0.12063485 14671841
0.76700002 0.090026483 0.12924574 15132392
0.77350003 0.091393799 0.12611121 13355980
0.78626668 0.095977031 0.12353482 11514028
0.78690004 -0.16259241 0.13535723 10262421
0.79292309 -0.16752174 0.13432333 10328725
0.76850003 -0.15087314 0.13759375 15460068
0.77466667 -0.15450649 0.13486813 13091777
0.78324997 -0.15926971 0.13289583 9867663
0.76286197 -0.14429046 0.134949 15197156
0.77000004 -0.14936504 0.13155386 16315124
0.76053333 -0.13506667 0.13438599 15460842
0.75899994 -0.1240436 0.13607112 15066339
0.76000011 -0.12714267 0.13304788 15197926
0.75860018 -0.11518791 0.13493256 15000801
0.75813329 -0.10535525 0.13485022 15329509
0.75820005 -0.094714604 0.13486187 15526889
0.75768965 -0.084773637 0.13550429 15592681
0.75772214 -0.075141989 0.13566269 15461350
0.75805551 -0.064528197 0.135722 15132130
0.75783342 -0.054751672 0.13568202 15066850
0.75761104 -0.044981435 0.13564241 15592424
0.75700003 -0.035198428 0.13553299 15329253
0.7565558 -0.025436556 0.13545345 14803166
0.75638908 -0.014805852 0.1354243 14737374
0.75593346 -0.0050651147 0.1353417 14408155
0.75533336 0.0046652239 0.13523269 14934754
0.75549984 0.015278738 0.13526225 14539996
0.7559666 0.025021737 0.13534632 14342874
0.75683349 0.034795392 0.13550252 14343387
0.75741655 0.045460358 0.13560827 14474975
0.75760001 0.055225994 0.13564123 14672096
0.75843352 0.065052301 0.13490298 14408667
0.75884211 0.074390031 0.13591138 14343388
0.76014292 0.076765411 0.13190313 14738403
0.75900006 0.080647536 0.13722606 14541025
0.76181477 0.084732994 0.13398688 15264492
0.76833338 0.090182982 0.13486803 13882069
0.773 0.092945077 0.13609035 11974326
0.78733331 0.099785767 0.13635607 11842991
0.78509098 -0.16248733 0.14465691 10130580
0.79145455 -0.16734053 0.14498819 10130833
0.76700002 -0.15057866 0.14451073 15197156
0.77431256 -0.15575755 0.14463936 11907250
0.761069 -0.1439493 0.14501949 14671326
0.76000017 -0.13497101 0.14496835 14934752
0.75896788 -0.12435658 0.144399 14605532
0.76000005 -0.12927768 0.14728126 15000546
0.7585336 -0.11517725 0.1446903 14737374
0.75863898 -0.1054258 0.1447099 14671582
0.75797206 -0.094686478 0.14458165 15066339
0.75703847 -0.084958829 0.14508483 14934496
0.75700003 -0.075071208 0.14528216 14934495
0.75700003 -0.064754754 0.14509229 15066081
0.7563706 -0.055039257 0.1453567 14605787
0.75636679 -0.0449077 0.14515954 14737372
0.75580007 -0.035142764 0.14505133 14605785
0.75553328 -0.025401589 0.145 13948113
0.75499994 -0.014780408 0.14489682 14079702
0.75411993 -0.0050524198 0.14472897 14013911
0.75396651 0.0046569644 0.14470018 14013910
0.75399983 0.01524782 0.14470643 13750481
0.75399989 0.024956025 0.1447064 13750994
0.75513345 0.034719288 0.14492394 13685202
0.75656676 0.045410492 0.14519837 13751509
0.75700003 0.055181872 0.14528218 14080217
0.75733316 0.064957827 0.14445823 14145496
0.7579 0.074764781 0.14456703 14277083
0.75866675 0.081056528 0.14471324 14671841
0.7630589 0.085891396 0.14528616 14474461
0.77414292 0.092552081 0.14507823 12632256
0.78530008 0.098612018 0.14519989 11711407
0.78900003 0.10184405 0.14772943 11711405
0.78733337 -0.16276385 0.15438215 9933202
0.79354548 -0.16761503 0.15550309 9933455
0.77429408 -0.15404116 0.15467866 13354954
0.78225005 -0.15906635 0.15654133 9472911
0.7630834 -0.14430861 0.1549346 14869217
0.77000004 -0.14936504 0.15859261 14671582
0.7604 -0.1350434 0.15483561 15132389
0.75899994 -0.12324401 0.15455016 14737374
0.76000011 -0.12874392 0.1547538 14934754
0.75899988 -0.11549056 0.15406559 14539995
0.76000005 -0.11362094 0.15831216 14803168
0.75900018 -0.10514254 0.15493886 14803166
0.76000005 -0.10828342 0.15831216 14342100
0.75844455 -0.094746143 0.15532637 14737373
0.75806683 -0.084937774 0.15524898 15000288
0.75788885 -0.075159594 0.15521285 14737118
0.75724244 -0.06486246 0.15532139 14737631
0.75627297 -0.055121947 0.15463999 14605788
0.75611144 -0.044892114 0.15484762 14408410
0.7559337 -0.035148446 0.15481097 14342617
0.75594467 -0.025415165 0.15481359 13619151
0.75611132 -0.014801133 0.15484916 13421772
0.75546676 -0.005061286 0.15471886 13355979
0.75508326 0.0046629976 0.15463983 13619151
0.75527787 0.015274246 0.15467982 13355979
0.75583351 0.025017012 0.15479393 13224393
0.75622249 0.034765933 0.15487115 13355980
0.75652796 0.045408111 0.15493295 13619153
0.75709999 0.055189397 0.15505004 13750995
0.75752771 0.064974397 0.15513878 13882580
0.75816673 0.074791402 0.15526894 13947860
0.75893742 0.081751451 0.15587036 14277082
0.76193339 0.086819373 0.15479037 14869219
0.76750004 0.090085171 0.15538201 13421772
0.77430004 0.09306328 0.15349463 11842740
0.78666675 0.098884769 0.15425032 11711407
0.78816676 -0.16211458 0.16510294 9933203
0.77516669 -0.15354657 0.16434135 13487053
0.7832222 -0.15845197 0.1662024 10722977
0.76336366 -0.1434527 0.16486163 14605272
0.77066666 -0.14949436 0.16504599 14803166
0.7608332 -0.13511971 0.16472016 15197667
0.75900006 -0.12057877 0.16876484 15197156
0.76000017 -0.12531266 0.16441217 15065827
0.75900006 -0.11791353 0.16876484 14868191
0.76000017 -0.11430121 0.1642776 14802911
0.75900006 -0.10103361 0.16165751 15657707
0.76000017 -0.10506724 0.16515516 14999777
0.75899994 -0.093799368 0.16318052 14802398
0.76000017 -0.095829196 0.16720802 14802398
0.75899988 -0.08463829 0.16480733 14868448
0.76000005 -0.088119447 0.16839413 14999777
0.75900012 -0.075269543 0.16521114 14737375
0.75819999 -0.064541444 0.16503735 14737631
0.75764006 -0.054737881 0.16491644 14737631
0.7574333 -0.04497071 0.16487147 14474203
0.75696009 -0.035196412 0.1647677 14013909
0.75716662 -0.025455993 0.16481303 13684944
0.75769997 -0.014831271 0.16492984 13619151
0.75784004 -0.0050773406 0.16496009 13487565
0.7573666 0.0046768733 0.16485719 13158344
0.75743324 0.015317911 0.16487142 13027014
0.75772011 0.025079146 0.16493368 12895428
0.75733322 0.034816612 0.16484942 13290186
0.75719994 0.045447756 0.16482006 13487822
0.75796008 0.055252038 0.16498485 13619151
0.75860012 0.065066867 0.16512494 13750737
0.759 0.074724764 0.16506313 14013909
0.76000005 0.07852982 0.16898718 14671839
0.75900006 0.080647536 0.16299012 14342362
0.76107413 0.085441895 0.16519988 14671582
0.76800001 0.090143859 0.1689681 14999777
0.77180004 0.092396677 0.16438515 13947859
0.78816676 0.099891387 0.16510178 11777199
0.78900003 -0.162286 0.17543538 9801873
0.77466673 -0.15299208 0.17496783 13684687
0.78360003 -0.15842646 0.17514884 10065302
0.76415998 -0.14416032 0.17527722 14605533
0.7705 -0.14946203 0.17402634 15263720
0.75900006 -0.13123977 0.17942584 15526121
0.76048273 -0.13518044 0.17517096 15329256
0.759 -0.12377708 0.17594323 15197156
0.76000017 -0.12801608 0.17303078 15197156
0.75893342 -0.11523838 0.17496797 15131363
0.75896442 -0.10629547 0.17580025 15131362
0.76000011 -0.10272349 0.17232314 15394535
0.75900006 -0.096769214 0.17835973 15262948
0.76000017 -0.094623968 0.174669 15065569
0.75899994 -0.083660141 0.17606957 14933726
0.76000017 -0.08722987 0.17358339 14999776
0.75872236 -0.075242966 0.17491871 14737117
0.75802761 -0.064525992 0.17475913 15066594
0.75813329 -0.05477272 0.17478424 15066080
0.75844455 -0.045031562 0.17485674 14474202
0.75793332 -0.035241354 0.17473823 14211288
0.75819445 -0.025490385 0.17479877 14014422
0.75891691 -0.0148553 0.17496487 13816530
0.75890023 -0.0050843642 0.17496118 13750737
0.75866675 0.0046856818 0.17490841 13684945
0.75850034 0.015338819 0.17487021 13290186
0.75843322 0.025102446 0.17485474 13290699
0.75805545 0.034850407 0.1747663 13355979
0.75794435 0.045491863 0.17474066 13488078
0.75806671 0.055259943 0.1747687 13553615
0.75888908 0.065091245 0.17495856 13553359
0.759 0.072934464 0.17280307 14013909
0.76010537 0.076106042 0.17650321 14079702
0.76237035 0.083936878 0.17526619 14343131
0.76900005 0.090261236 0.17098835 14868961
0.7732501 0.092271596 0.17555471 13487566
0.78557152 0.099039398 0.17597933 11645615
0.78900003 0.10184405 0.17820597 11711406
0.78800011 -0.16115913 0.18535782 9604749
0.77427286 -0.15283197 0.18534216 13947088
0.78183335 -0.15745802 0.18390356 11183525
0.76411104 -0.14458771 0.18493852 14342874
0.75900006 -0.13159513 0.18369022 15065570
0.76005018 -0.13578077 0.18527904 14736862
0.75900012 -0.12502085 0.18475631 15131363
0.75872004 -0.11520652 0.184689 15394534
0.75883335 -0.10545187 0.18471631 15131361
0.75900012 -0.094814695 0.18475635 15394788
0.759 -0.085042126 0.18475635 14868959
0.75837493 -0.07498727 0.18493712 14802911
0.75797206 -0.064521074 0.18539351 15066340
0.75829631 -0.054981504 0.18498012 15526634
0.75900012 -0.045063384 0.18475637 14737372
0.75888008 -0.035285503 0.18472771 14277080
0.75900012 -0.02551822 0.18475629 14079445
0.75900012 -0.014857223 0.18475632 13882322
0.75899994 -0.0045769769 0.18424866 14079445
0.76000005 -0.0077601033 0.1876685 14013652
0.75896794 0.0047735986 0.18492019 13947859
0.75896788 0.015205176 0.18492021 13750481
0.759 0.025121512 0.18475635 13422030
0.75880009 0.034884978 0.18470854 13356750
0.75809079 0.045742042 0.1850193 13751250
0.75821429 0.055081181 0.1851356 13816530
0.75899994 0.06312599 0.18426277 13882324
0.76000017 0.068151318 0.18574107 13684688
0.76036 0.075008303 0.18508719 14079702
0.76300001 0.084271334 0.18499909 14540510
0.76900005 0.090261236 0.18899077 15132392
0.77442116 0.093192965 0.18507366 13158601
0.78388894 0.098739505 0.18408516 11579821
0.78837502 0.10222515 0.18590736 11579819
0.78822231 -0.16151191 0.19432978 9735564
0.77466673 -0.15329526 0.19552137 13617866
0.78214294 -0.15773895 0.19483805 11183011
0.76417392 -0.14396313 0.19472547 14408665
0.77000004 -0.14936504 0.19554558 14277080
0.76066667 -0.13509059 0.19495711 14605530
0.759 -0.12342171 0.19133061 15065568
0.76000017 -0.12580143 0.19601694 14868444
0.75899994 -0.11470155 0.19172698 15460326
0.76000017 -0.11521284 0.19707943 15263202
0.75899994 -0.10551432 0.19286798 15329253
0.76000017 -0.10472508 0.19761573 15329509
0.75900024 -0.094814703 0.1942676 15132131
0.76000005 -0.094939619 0.19923314 14474456
0.75900012 -0.085042119 0.19452892 14868959
0.75870603 -0.075450771 0.19471447 14671582
0.75799996 -0.064523406 0.19515981 14934754
0.75864297 -0.054618519 0.19475423 15395305
0.75900024 -0.04506338 0.19452889 15263461
0.75900012 -0.0352908 0.19452891 14671836
0.75900024 -0.025518218 0.19452898 14408409
0.75900024 -0.015066262 0.19479023 13948113
0.76000005 -0.011318451 0.19033727 13882576
0.75896567 -0.0049620336 0.19467315 13948114
0.76000005 -0.0086496901 0.19033727 14014162
0.75837135 0.004607569 0.1944932 13816530
0.75891453 0.015474617 0.19463356 13619151
0.75899988 0.024879217 0.19315594 13619408
0.76000011 0.025821801 0.19856596 13290186
0.75900018 0.035244074 0.19417892 13750993
0.76000005 0.031085191 0.19864006 13816530
0.75872743 0.04529525 0.1948629 13817044
0.75877792 0.055509586 0.19496594 14079702
0.759 0.063693598 0.19534332 14013652
0.76000017 0.068003051 0.19315429 13948116
0.75899994 0.073984422 0.19668649 14145238
0.76000017 0.075749859 0.19289482 14210774
0.76181823 0.084505334 0.19516906 14737633
0.76775002 0.090114519 0.19317481 15066599
0.77384621 0.09403833 0.19449645 12895429
0.78325009 0.099268243 0.19432531 11777200
0.78809094 0.10273419 0.19502379 11514026
0.79093754 0.10753451 0.19473012 11514026
0.78788894 -0.16267313 0.20592797 9736076
0.7750001 -0.15396726 0.2049765 13551813
0.78316671 -0.15925275 0.20438546 9472391
0.76490915 -0.14390467 0.2049965 14605271
0.77000004 -0.14936505 0.20455851 14473944
0.76127982 -0.13519946 0.20491545 14671066
0.76015162 -0.1249688 0.20509663 15000031
0.75900006 -0.1116946 0.20963199 14606042
0.76000017 -0.11486097 0.20510983 14802651
0.759 -0.10606798 0.20829934 14803422
0.76000017 -0.10436924 0.20394795 14868702
0.75899994 -0.093926281 0.20670544 14606045
0.76000017 -0.095735565 0.20410247 15000546
0.75900012 -0.085042104 0.20518991 14737117
0.75872236 -0.075243339 0.20511495 14671069
0.75799984 -0.064523406 0.20491958 15066341
0.75836676 -0.054788951 0.20501819 15197927
0.75900024 -0.045063384 0.2051899 15329513
0.75900012 -0.0352908 0.20518993 14803167
0.75900024 -0.025518222 0.20518996 14408665
0.75900024 -0.014857222 0.20518988 14145492
0.75893342 -0.0050844308 0.20517233 13882066
0.75885743 0.0045603043 0.20502526 13816530
0.76000005 0.0091420468 0.20990819 12895428
0.75899994 0.01327596 0.20311694 13882323
0.76000017 0.0168518 0.20694292 13619151
0.76030773 0.025028296 0.20485987 13158599
0.75900006 0.037914708 0.20181391 13882066
0.76003242 0.034453519 0.20601414 13684943
0.75899994 0.045766611 0.20303233 13882323
0.76000017 0.044588663 0.20840272 13882323
0.75900006 0.054340541 0.20173496 14079702
0.76000017 0.055323206 0.20712337 14013909
0.75900006 0.067765497 0.20163624 14211032
0.76000017 0.064652264 0.20617193 14079446
0.75899994 0.074326113 0.20252465 14211033
0.76000017 0.075390108 0.20750108 14145497
0.76161295 0.084569648 0.20511802 14803426
0.76700002 0.090026483 0.2046593 15001576
0.7724545 0.093298651 0.20479885 13356494
0.78250003 0.099173188 0.20238429 11579821
0.78800011 0.10224271 0.20393798 11579819
0.78772736 -0.1630317 0.21521892 9801611
0.79190916 -0.16760492 0.21450663 9736331
0.77506244 -0.15397917 0.21497481 13157312
0.78233337 -0.15908331 0.21516158 9537927
0.76647621 -0.14432785 0.21503049 14013395
0.77060002 -0.14948143 0.21464124 14276820
0.76231021 -0.1352603 0.21485573 14276825
0.76081806 -0.12556402 0.21499218 14934754
0.76000017 -0.11466391 0.21536845 14868958
0.75899994 -0.10375112 0.21391727 14605788
0.76000011 -0.10689961 0.21682721 14671581
0.75900012 -0.094814688 0.21496247 15000547
0.759 -0.085042112 0.21496248 14539996
0.75880009 -0.075250782 0.21490587 14736605
0.75799996 -0.064523414 0.21467926 14868704
0.75796157 -0.054829083 0.21487284 15000803
0.75843334 -0.04502923 0.2148008 14934754
0.75864011 -0.035274245 0.2148592 14671837
0.75846654 -0.025500599 0.21481009 14343130
0.75856662 -0.014848079 0.21483849 14080472
0.75896001 -0.0050841882 0.21495102 13948116
0.75900006 0.004141218 0.21537258 14079701
0.76000005 0.0082524605 0.21257696 13421515
0.75900006 0.014460517 0.21792385 13619149
0.76000017 0.015750406 0.21397486 13619149
0.75900012 0.025883013 0.21800849 13224393
0.76018184 0.025079967 0.213355 13224135
0.75900006 0.03844776 0.21851617 13487566
0.76000017 0.034685899 0.21499157 13487566
0.75900012 0.046189673 0.21826233 13948118
0.76000017 0.044725519 0.21435611 13750739
0.75900006 0.051774006 0.21851617 13289931
0.76000017 0.054939292 0.21491626 13948117
0.76059997 0.065238811 0.21541587 13750480
0.76036 0.075006239 0.21534871 13948373
0.76149988 0.084228516 0.21509615 14737890
0.76733333 0.090065606 0.21462812 15066341
0.77421439 0.09424331 0.21447702 13487307
0.78425008 0.099394977 0.21385285 11513771
0.78800005 0.10171498 0.21487455 11382441
0.78800005 -0.16300385 0.22502053 9736076
0.7923637 -0.16753262 0.2249167 9605260
0.7753529 -0.15403779 0.22503722 12960190
0.78240001 -0.15909687 0.22525442 9341319
0.76682615 -0.14414741 0.22506109 13684686
0.77099997 -0.14955902 0.22467832 14145236
0.76333326 -0.13556682 0.22512347 14407894
0.7609998 -0.12535095 0.22532699 14868704
0.76011121 -0.11452791 0.22506407 14671326
0.759 -0.10192201 0.22473508 14671582
0.76000017 -0.10650425 0.2250312 14737375
0.75900024 -0.094605654 0.22468275 15066340
0.76000005 -0.098497957 0.22592074 15132390
0.75900012 -0.085042112 0.22473505 14605789
0.75852799 -0.075223833 0.22459409 14605533
0.75769436 -0.06449841 0.22434749 14868960
0.75731027 -0.054652203 0.2243863 15263973
0.75783318 -0.044993524 0.22438884 15000803
0.75799996 -0.035244294 0.22443895 14671837
0.75794435 -0.025482856 0.22442272 14342872
0.75805545 -0.014838412 0.22445565 14211031
0.75866681 -0.0050816303 0.22463728 14211288
0.75900024 0.004687936 0.22473499 14145495
0.75900024 0.015222015 0.22460811 13750737
0.76000005 0.01981709 0.2294791 13816530
0.75899994 0.024455201 0.22251405 13421772
0.76000017 0.025917117 0.22757284 13355979
0.759 0.035071779 0.22398882 13684944
0.76000017 0.03453571 0.22672945 13750737
0.75899994 0.044751283 0.22274669 13750739
0.76000017 0.045534238 0.22818516 13882321
0.75900006 0.052366287 0.22088528 14474205
0.76019359 0.055013303 0.22569206 13947860
0.76080537 0.065256052 0.22527027 13750736
0.76050007 0.075019471 0.22517869 13553614
0.76148385 0.084382087 0.22526927 14475231
0.76700002 0.090026475 0.2226149 15132393
0.77283335 0.093578525 0.22430407 13290444
0.78480005 0.099464692 0.22410722 11514028
0.78833342 0.101758 0.223271 11579819
0.78758335 -0.16291794 0.23504086 9670539
0.7923637 -0.16770138 0.23503202 9605002
0.77499998 -0.15396646 0.23491398 13092287
0.78216672 -0.15904942 0.23525651 9275781
0.76685727 -0.14439952 0.23488283 13553357
0.77100003 -0.14955902 0.23460543 13685197
0.76255172 -0.13554995 0.23486662 14276824
0.76116651 -0.12537824 0.23517777 14868961
0.76060003 -0.11460201 0.23500292 14539996
0.75900006 -0.10147782 0.2322866 14934754
0.76000017 -0.10531813 0.23524021 14540253
0.75900024 -0.094687782 0.23526911 14474460
0.75856662 -0.084994815 0.23526099 14211288
0.75783324 -0.07515455 0.23503357 14474203
0.75708336 -0.064445801 0.23480122 14803169
0.75700003 -0.054691453 0.23477571 15066341
0.75719446 -0.044954583 0.23483568 14868962
0.75799996 -0.035244294 0.23508586 14540253
0.75872236 -0.025508881 0.23531121 14211288
0.75897247 -0.014856517 0.23538764 14145238
0.75900012 -0.0050846431 0.23539607 14145495
0.75900024 0.004687936 0.23539607 14145238
0.75900006 0.014131473 0.23556055 13882323
0.76000011 0.019026347 0.23521198 13750737
0.75900006 0.025121512 0.23983817 13553358
0.76000017 0.025154613 0.23481663 13619151
0.75900006 0.034894094 0.23095398 13158600
0.76000017 0.034940064 0.23507079 13816530
0.7605601 0.044759598 0.23499034 13948114
0.7610665 0.054587487 0.23514648 13948113
0.76099986 0.065271787 0.2351256 13619147
0.7607199 0.075041845 0.23503989 13816526
0.76149988 0.084417716 0.23470616 14474716
0.76700002 0.090026483 0.2360816 14869217
0.77290916 0.093517788 0.23469281 13619150
0.78325009 0.099268243 0.23466691 11579819
0.78800005 0.10171498 0.23516649 11448233
0.78715396 -0.16318409 0.24589941 9539209
0.79069996 -0.16744903 0.24448618 9605002
0.77500004 -0.15407971 0.24455254 13420739
0.78180009 -0.15897486 0.24521163 9341317
0.76723528 -0.14333642 0.24487165 14277078
0.77109092 -0.14875709 0.24497294 13750476
0.76456678 -0.13489002 0.24518013 14408666
0.76304007 -0.12479448 0.2446896 14342360
0.7613821 -0.11451063 0.24478531 14408410
0.76050001 -0.1047949 0.24476415 14474203
0.759 -0.09197177 0.24374716 13948116
0.76000017 -0.096506983 0.24591529 14474203
0.75864005 -0.085002989 0.24505277 13750737
0.75736356 -0.074867092 0.24512361 14211288
0.75700003 -0.064564869 0.24548459 14605789
0.75670981 -0.054841068 0.24522993 14737889
0.75688893 -0.044937 0.24537237 14737633
0.75781482 -0.035432156 0.24517915 14605789
0.75823325 -0.025491621 0.24492021 14145495
0.7589668 -0.014856377 0.24515772 14079702
0.759 -0.0050846431 0.24516864 14079702
0.7589668 0.0046875342 0.24515772 14013909
0.75900012 0.015348932 0.2451686 13750737
0.759 0.024973443 0.2453167 13684687
0.76000005 0.026340729 0.2407472 13618894
0.75899994 0.033595636 0.24721883 13750735
0.76000017 0.035674941 0.24293895 13553613
0.75900006 0.046443503 0.24872231 14277334
0.7602964 0.044545881 0.24420187 14211541
0.76072222 0.054563373 0.24483299 14211541
0.76099986 0.065271795 0.24492389 13882320
0.76093322 0.075063616 0.24490209 13882065
0.76158607 0.083921775 0.24495861 14539997
0.76733333 0.090065606 0.24516551 14737631
0.7734167 0.093648754 0.2449965 14277080
0.78283334 0.099215426 0.24461937 11579819
0.78800005 0.10171498 0.24531248 11579820
0.78900003 -0.17213698 0.25793755 9408393
0.79196167 -0.17537519 0.2544561 9473673
0.78580773 -0.16482018 0.25544944 9473673
0.79000002 -0.16896459 0.252408 9670795
0.77517384 -0.1547914 0.25473046 12630710
0.78000003 -0.15860882 0.25012597 9341317
0.76800007 -0.14313526 0.25451729 14803421
0.77120006 -0.14791444 0.25560763 14276563
0.76613915 -0.13516639 0.25554478 15000288
0.76456678 -0.12504597 0.25501978 14277080
0.76187485 -0.1150188 0.25467959 14211288
0.76050001 -0.10460451 0.25512633 14605789
0.75900006 -0.090816826 0.25471914 14276823
0.76000017 -0.096083365 0.25534067 14408410
0.75900012 -0.085042112 0.2549412 14079444
0.75803024 -0.075416736 0.25501996 14342872
0.75716668 -0.064453147 0.25521228 14868961
0.75700003 -0.054691453 0.2551555 15066340
0.75700003 -0.044944637 0.25515547 14737632
0.75739288 -0.035024859 0.25471732 14408667
0.75799984 -0.025484594 0.25460529 14211288
0.75866675 -0.014849201 0.25482947 14014166
0.75900012 -0.0050846427 0.25494125 14014165
0.75833333 0.0046825176 0.25471666 14145748
0.75805539 0.015329829 0.25462368 13882577
0.75826657 0.025097555 0.25469366 13553357
0.75833315 0.034863696 0.25471532 13750737
0.75850004 0.045525275 0.25477168 14277080
0.75860018 0.05487207 0.25555122 14474460
0.76000005 0.057535578 0.25154084 14145493
0.75894994 0.065007411 0.25723401 14408667
0.76000017 0.065297216 0.25238594 14014164
0.75900012 0.074111328 0.25862184 14342874
0.76000017 0.075203538 0.25415546 14079957
0.76149988 0.084771737 0.25520113 14737886
0.76719999 0.091486886 0.2564365 15000803
0.77425003 0.095073298 0.25451127 13882577
0.78133339 0.099025331 0.25238189 11250601
0.78727269 0.10246045 0.25480086 11448234
0.78855556 -0.173374 0.26456136 9473929
0.79039997 -0.17811735 0.26511854 9473929
0.78572005 -0.16559033 0.26476407 9473673
0.77594447 -0.15445799 0.2649712 12894396
0.7816667 -0.15894772 0.26713181 9209988
0.76636845 -0.14328153 0.26529646 15131871
0.77172732 -0.14871645 0.26438934 13881547
0.76311767 -0.13489498 0.26504272 15723496
0.76228118 -0.12500501 0.26518646 15066080
0.76094425 -0.11465379 0.26450014 14605787
0.75900006 -0.10103361 0.26826745 14869214
0.76015389 -0.10508904 0.264568 14737629
0.75899994 -0.094003536 0.26548636 14540250
0.76000011 -0.09760838 0.26252085 14935010
0.759 -0.085042104 0.26471376 14145492
0.75873357 -0.075244263 0.26462138 14474203
0.75766659 -0.064496592 0.26513565 14803168
0.75700003 -0.054691449 0.26490232 14935011
0.75700003 -0.044944629 0.26490238 14408924
0.75706667 -0.035200588 0.26492536 14342874
0.75814277 -0.025615377 0.26517546 14145495
0.75867671 -0.014642713 0.26522645 13882323
0.75829995 -0.0050803442 0.26535591 13816530
0.7583437 0.0044626202 0.26481822 14343129
0.75850016 0.015338546 0.26454082 13750992
0.75803447 0.025211772 0.26511151 13619406
0.75741661 0.03482198 0.26504919 13816528
0.75752777 0.045466371 0.26508716 13948116
0.75749993 0.055218089 0.26507586 14342871
0.75791657 0.06500873 0.26522192 14211285
0.75878572 0.074661896 0.26520899 14474460
0.75900006 0.081190459 0.26570094 14606818
0.76062506 0.08646021 0.26424134 15132648
0.76466674 0.091842748 0.26519892 15197926
0.77227271 0.095248885 0.264411 12698303
0.78681827 0.10324009 0.26470596 11448233
0.79280007 -0.17504027 0.27529976 9473672
0.78785717 -0.16416085 0.27385718 9407625
0.79057139 -0.1676327 0.27625459 9539210
0.77481824 -0.1531042 0.27517575 13749706
0.78250003 -0.15820374 0.27565584 9867920
0.764 -0.14380436 0.27491167 14671065
0.77100009 -0.14955902 0.27521312 14342099
0.75900006 -0.13123977 0.27892849 14802398
0.76072401 -0.1352229 0.27495483 15328741
0.75900006 -0.12502086 0.27892849 15263717
0.76053333 -0.12527373 0.27414924 15328996
0.75899994 -0.11423294 0.27689782 14935007
0.76011127 -0.11561505 0.27261412 15000544
0.75887513 -0.10506971 0.27494022 14934753
0.76000005 -0.10739383 0.27040011 14869214
0.75872254 -0.094780251 0.27438456 14737630
0.75880027 -0.085019566 0.27441293 14342873
0.75897241 -0.075266615 0.2744762 14342871
0.75776666 -0.064504996 0.27492756 14737631
0.75700003 -0.054691449 0.27553523 14868961
0.75700003 -0.044944633 0.27553523 14606046
0.7572 -0.035206821 0.27472258 14211288
0.75806445 -0.025343282 0.27486324 13948115
0.75797051 -0.014942178 0.27500004 13750992
0.75762963 -0.0050096544 0.27527055 13684943
0.75855899 0.0048957313 0.27458733 14145495
0.75900024 0.015348933 0.27448633 13816530
0.75842309 0.024964385 0.27496049 13619151
0.75793743 0.035066765 0.2753216 13816530
0.75736105 0.045456171 0.27566543 13948116
0.75706667 0.055186495 0.27555913 14079702
0.75714278 0.064966165 0.2754606 13947859
0.7582593 0.074997954 0.27471089 14145753
0.75899994 0.081758052 0.27415323 14541024
0.76059997 0.087139584 0.27533185 14738146
0.76608342 0.092612423 0.27435324 15000804
0.77300006 0.096159555 0.27502537 10921638
0.78553325 0.10324144 0.27457827 11250854
0.78825003 -0.16305526 0.28506312 9276552
0.76900005 -0.15097131 0.2898044 15591652
0.77450007 -0.15386888 0.2849206 12104881
0.78350002 -0.15932053 0.28517592 9342346
0.75900006 -0.14071621 0.2889972 14736085
0.76206672 -0.14473934 0.28486547 14802392
0.75861549 -0.13438432 0.28561661 14671063
0.76000005 -0.13719499 0.28151992 15066080
0.75805569 -0.12486561 0.28478992 14802907
0.75793344 -0.11508629 0.2847448 14869214
0.75761104 -0.10528313 0.28462398 14671838
0.75744438 -0.094620623 0.28456128 14671839
0.7573334 -0.08485537 0.28451964 14540252
0.75749999 -0.075120203 0.28458232 14408920
0.75769442 -0.06449762 0.28465602 14606043
0.75760001 -0.054734901 0.28550899 14671837
0.75783336 -0.044993915 0.28559688 14868960
0.75799996 -0.035244294 0.28477162 14342616
0.75799984 -0.025484594 0.28477162 14013652
0.75794101 -0.014941224 0.28501028 13882577
0.75735724 -0.0051365946 0.28484622 13684941
0.75805545 0.0046823635 0.28479221 14014163
0.75830567 0.015334921 0.28488481 13750991
0.7579667 0.025086842 0.28475866 13684944
0.75729418 0.034606215 0.28476596 13684944
0.75700003 0.045435052 0.28528208 13882322
0.75700003 0.055181872 0.28528205 14276822
0.75703228 0.064902835 0.28512251 14079443
0.75734365 0.075042084 0.28474522 14474460
0.75866675 0.08206293 0.28484377 14935525
0.76105887 0.087235317 0.28513551 14869732
0.76612496 0.092392094 0.28378782 14606816
0.77322227 0.095988221 0.28616676 12566720
0.78600007 0.10293212 0.28406531 11316648
0.78600001 -0.16250767 0.29486787 9211015
0.79241675 -0.16762865 0.29491434 9211014
0.76716667 -0.15151072 0.29540184 14276306
0.77440006 -0.15578191 0.29485837 9802384
0.78050005 -0.15871049 0.29139692 9341832
0.75881243 -0.14286518 0.2951794 15328995
0.76108342 -0.14793387 0.29513583 15526630
0.75791162 -0.13522686 0.29559302 14934493
0.7570278 -0.12469615 0.29503956 14737114
0.75700003 -0.11494459 0.29502887 14803164
0.75700003 -0.10519776 0.29502895 14737373
0.75700003 -0.094564825 0.29502892 14606044
0.75696665 -0.084814139 0.29501584 14408666
0.75700003 -0.075071201 0.29502898 14540250
0.7570278 -0.064440481 0.29503995 14737628
0.75759995 -0.054733947 0.29526359 14935008
0.75799984 -0.045004003 0.29541862 14671838
0.75799996 -0.035244294 0.29541862 14277079
0.75786096 -0.025480477 0.29536381 13750737
0.75749993 -0.014828316 0.29522222 13882579
0.75743335 -0.005074461 0.29519621 13750736
0.7571944 0.0046764282 0.29510364 14079956
0.75686115 0.015305322 0.29497367 13422026
0.7572 0.025061935 0.29510552 13553356
0.75700003 0.034802143 0.2950289 13553870
0.7565279 0.045405436 0.29484364 13882578
0.7559669 0.055106468 0.29462335 14013905
0.75560516 0.064993605 0.29480657 13684430
0.75524318 0.075267866 0.29450738 14539741
0.75760001 0.083959267 0.2954385 14869221
0.76200008 0.088648356 0.29390514 15000806
0.76775002 0.091911823 0.29382864 14935011
0.77355558 0.095224366 0.29554802 12171706
0.78050005 0.098919705 0.29687959 10987683
0.78757149 0.10297798 0.29574838 11250855
0.77850008 -0.1601263 0.30523008 9275786
0.78600001 -0.16385867 0.30471882 9144968
0.79233336 -0.16853623 0.30508706 9144967
0.7665 -0.15257493 0.30531061 11315625
0.77346164 -0.15686439 0.30499575 9012614
0.75870585 -0.14351782 0.30441812 15461098
0.76066679 -0.14800052 0.30595523 15000291
0.75799996 -0.13535009 0.30505595 15263719
0.75733334 -0.12474646 0.30491117 14671580
0.75772005 -0.11505353 0.30506662 14803422
0.75773329 -0.10530014 0.30507186 14868959
0.75713336 -0.094581813 0.30483004 14935009
0.75708002 -0.084826685 0.30480832 14869215
0.75716668 -0.075087853 0.3048436 14803422
0.75753331 -0.064482361 0.30499113 14869216
0.75832009 -0.054786172 0.30530822 15000547
0.75856674 -0.045037452 0.30540794 14868961
0.75859994 -0.035272382 0.30542117 14474203
0.75769997 -0.025476266 0.30505762 13684944
0.75700003 -0.014818074 0.30477571 13947859
0.75776011 -0.0050754007 0.30508199 14211288
0.7574333 0.004677284 0.3049511 14277082
0.75633353 0.015293525 0.30450755 13882323
0.75610369 0.025148099 0.3051469 13553358
0.75660014 0.034782823 0.30461419 13882322
0.7553612 0.045334179 0.30500004 14013908
0.75373328 0.054942906 0.30434152 13947858
0.75240004 0.064355545 0.3049458 13947601
0.75294882 0.07509236 0.30476868 14803168
0.75695014 0.083976611 0.3047533 15001063
0.76200008 0.088676773 0.30499989 13816533
0.76900005 0.092061482 0.30240607 13158350
0.77000004 0.092181198 0.30460191 11908537
0.78500003 0.099490032 0.30502731 10987685
0.78825009 0.10220901 0.30259597 11185063
0.77800006 -0.16002345 0.31687316 9604751
0.78508347 -0.16424221 0.31592453 9144455
0.7902 -0.16808243 0.31444168 9210247
0.76740003 -0.15173501 0.313636 11907762
0.77335721 -0.15635791 0.31459054 9407372
0.75900006 -0.14071621 0.31150374 12960707
0.76174998 -0.14446971 0.315337 14539737
0.75881255 -0.13453846 0.31283361 13552844
0.76022232 -0.13540663 0.31774014 14606042
0.75866663 -0.1246702 0.31393355 13881809
0.76000005 -0.12785433 0.31843778 14474456
0.75876182 -0.11538135 0.31369072 13948117
0.76000005 -0.11362094 0.31843778 14013909
0.75886953 -0.10534154 0.31340739 13882323
0.76000005 -0.10531813 0.31814128 13948116
0.75875992 -0.094607025 0.31365609 14211030
0.76000005 -0.095829204 0.31843778 13816530
0.75870025 -0.085008577 0.31523043 14342617
0.75866675 -0.075236484 0.31521672 14342873
0.75869447 -0.064582162 0.31522807 14540253
0.75900012 -0.054835957 0.31535354 14606302
0.75900024 -0.045190297 0.3152267 14606046
0.75899994 -0.035068695 0.31291038 14803168
0.76000011 -0.035732668 0.31764704 13487308
0.75840634 -0.025111219 0.3146092 13421772
0.76000005 -0.029999774 0.31843778 12105655
0.75783336 -0.014834192 0.31487122 13356492
0.75840002 -0.0050800783 0.31510577 13817044
0.75869471 0.0046860813 0.31522816 14146265
0.75774997 0.01532193 0.31483594 14079960
0.75723082 0.024926454 0.31530124 13948374
0.75713891 0.034808621 0.31458104 13948117
0.7566666 0.045413479 0.31527182 13750738
0.75407696 0.055102237 0.31439665 13224394
0.7517001 0.064471342 0.31496143 13553101
0.75206065 0.075153127 0.31495035 14474461
0.75635296 0.083467767 0.31513655 15263977
0.76340014 0.088713184 0.31485328 13092809
0.76700002 0.090026483 0.31598404 11842742
0.77500004 0.094594061 0.31519771 11053223
0.78511119 0.098691002 0.31628761 10987685
0.7869001 -0.16369876 0.32455105 9013384
0.79049999 -0.1675294 0.32597527 9079177
0.77506673 -0.15386005 0.32438594 10263453
0.78266668 -0.15854086 0.32793507 9013385
0.76600003 -0.1439033 0.32412508 15000803
0.77120006 -0.14815387 0.32638127 14671584
0.76237506 -0.13524629 0.32464227 14671836
0.76085705 -0.12520035 0.32490581 14145493
0.76073521 -0.11483059 0.32471895 14408664
0.76226926 -0.10482942 0.32488501 14540506
0.76220697 -0.095061995 0.32459849 14474714
0.75900006 -0.081488453 0.32157245 14474713
0.76119053 -0.085033149 0.32572746 14869471
0.75900006 -0.075269543 0.32157245 14672092
0.76095647 -0.075269662 0.32674044 14935010
0.75900006 -0.064608537 0.32157245 14737885
0.76095843 -0.064775474 0.32685733 15066596
0.75900006 -0.054835964 0.32157245 15264229
0.76065004 -0.05495552 0.32672432 15263716
0.75900006 -0.047728628 0.32157245 14935264
0.76035732 -0.044699322 0.32589942 15066594
0.7607646 -0.034743253 0.32520294 14803421
0.75900006 -0.021076137 0.32157245 13619147
0.76078576 -0.025387133 0.32532078 13948112
0.75900006 -0.014857224 0.32157245 13027010
0.76070839 -0.014890225 0.32675001 13816783
0.75900006 -0.0055288519 0.32157245 12961218
0.76075 -0.0049847295 0.32565442 13356233
0.75900006 0.007057047 0.32216474 12566463
0.76059097 0.00437401 0.32629463 13750990
0.75868005 0.015803032 0.32435 12961733
0.76020002 0.013059104 0.32884362 14145747
0.75820017 0.025095029 0.32478431 13027269
0.75832015 0.034685943 0.32412559 12895426
0.76000005 0.035829656 0.32911283 14343128
0.758524 0.045652978 0.32365477 12763842
0.76062506 0.044762298 0.32871631 13816527
0.75736368 0.055287659 0.32426593 12698048
0.76000005 0.051842216 0.32911283 13093060
0.75437504 0.064699993 0.32403094 12698050
0.75422728 0.075286806 0.32396755 14277082
0.7575556 0.083007395 0.32372028 15263465
0.76236367 0.086566031 0.32542667 14013654
0.76750004 0.090085171 0.32607266 10987432
0.77516669 0.094770074 0.32539281 10659233
0.78499997 0.099229179 0.32418349 10790561
0.78885716 0.10261721 0.3263073 10790817
0.78850007 -0.16126038 0.3340714 8947336
0.77742857 -0.15184745 0.33380005 11249834
0.78430003 -0.15654968 0.33559448 8881287
0.76850003 -0.14097765 0.33279485 13355718
0.77288234 -0.1453509 0.33522534 13552843
0.76582354 -0.13484962 0.33311266 13553100
0.77079999 -0.13508692 0.33920306 14540249
0.76493746 -0.12476785 0.33494931 14145749
0.76466668 -0.1148136 0.33412158 13882577
0.77000004 -0.11151078 0.338851 14737885
0.76723087 -0.10571855 0.33348867 13553358
0.77099997 -0.10461663 0.33820909 14079442
0.76787502 -0.094351508 0.33319783 13816784
0.77079999 -0.095386297 0.33758003 13947599
0.76565009 -0.084893651 0.33425131 13750476
0.77000004 -0.088978484 0.338851 14737626
0.76466662 -0.074935511 0.33471748 13618119
0.76516664 -0.065134555 0.33493704 13618633
0.76394445 -0.054596353 0.33499861 13816269
0.76276207 -0.045414705 0.3343946 13750476
0.76361108 -0.034608718 0.33425558 13355719
0.76469237 -0.025229063 0.33445448 12829631
0.77000004 -0.02228288 0.338851 14211541
0.76550007 -0.014980753 0.334185 11843253
0.77183336 -0.015107458 0.33965778 13751504
0.76593345 -0.0051309345 0.33347997 12567232
0.77200001 -0.0015572004 0.33973113 13225163
0.76592857 0.0042186328 0.33398923 12369339
0.77200001 0.00025006541 0.33973113 13159370
0.76433343 0.015455224 0.33367684 12303289
0.76400006 0.025287006 0.33353132 12500670
0.76409096 0.035210822 0.33348972 13027014
0.76590002 0.045073196 0.33436066 13421772
0.76499999 0.055111896 0.33388659 13224646
0.77000004 0.052524351 0.33704841 13290439
0.75900006 0.066877082 0.33045661 12632509
0.76300001 0.064550526 0.33353958 12961474
0.77100009 0.065675922 0.33929107 9868951
0.75900006 0.072207585 0.33045661 13027269
0.76275009 0.07591258 0.33320773 13290184
0.77100003 0.073802181 0.33929107 12961220
0.76633334 0.083972782 0.33305091 12895173
0.77366668 0.085379384 0.33865342 11382189
0.77566671 0.094071448 0.33165991 10461852
0.78400004 0.098031685 0.33516863 10593694
0.78866673 0.10272456 0.33506551 10659487
0.78671438 -0.15484715 0.34462807 9144969
0.77590919 -0.14374319 0.3429392 12829380
0.78200006 -0.14729965 0.34706134 10131866
0.77516669 -0.13494219 0.34475768 12829634
0.77556264 -0.12468247 0.34504843 14343128
0.77425009 -0.11484379 0.3434414 14671835
0.78049999 -0.11394379 0.34895319 14540253
0.77481824 -0.10462406 0.34344643 14737628
0.7808333 -0.10485643 0.34910217 14540253
0.77526325 -0.095174566 0.34432349 14671835
0.77373338 -0.084882826 0.34412098 14869214
0.77427781 -0.074969739 0.34436351 14737629
0.77486676 -0.065053888 0.34462556 14737629
0.76900005 -0.055558439 0.34021118 14803419
0.77399999 -0.054958344 0.34530568 13750222
0.76900005 -0.042056613 0.34021118 15000798
0.7742309 -0.045480095 0.34587461 13158339
0.76900005 -0.03935625 0.34021118 14869212
0.77378577 -0.035718258 0.34427351 13947855
0.77516669 -0.023338957 0.34384844 14145747
0.78150004 -0.023529259 0.34940028 9605779
0.77600002 -0.015188239 0.34421811 13553871
0.78200006 -0.018968794 0.34962383 9145229
0.77535719 -0.0054534073 0.3431569 12830406
0.77540004 0.004605304 0.34292555 12501439
0.78150004 0.0084865028 0.34757078 10001306
0.77433342 0.014752646 0.3415654 12961477
0.78280002 0.014914891 0.34814894 9605778
0.77450007 0.024727976 0.34173965 12698306
0.7828334 0.024993842 0.34816375 8619138
0.77450001 0.034700125 0.34173959 12500927
0.78220004 0.03504277 0.34788209 8619653
0.77416664 0.044653442 0.34159216 11842741
0.78066677 0.045027182 0.34720016 8619655
0.7741251 0.054617092 0.34134752 9803157
0.78180009 0.055160414 0.34770417 9146252
0.77500004 0.062844008 0.34286562 9079434
0.78116673 0.065171801 0.34742251 9408652
0.77500004 0.074636891 0.34286562 10526879
0.78160006 0.075273909 0.34761524 9474962
0.77766675 0.084001817 0.34282959 11645360
0.78400004 0.08468277 0.34758145 10527137
0.787 0.094877541 0.34435877 10527903
0.79040003 0.096844085 0.34819868 10527903
0.78900003 0.10184405 0.34259459 10593696
0.78833342 -0.15230684 0.35184088 9803154
0.787 -0.14463504 0.35475758 9934740
0.78584629 -0.13517353 0.35431835 9803155
0.79000002 -0.13382591 0.35874873 9869973
0.78659999 -0.12496299 0.35444444 9211533
0.79083329 -0.12470933 0.35912716 9804180
0.78658336 -0.11483278 0.35443678 9014413
0.78685719 -0.10447893 0.35535142 9474192
0.78568757 -0.095044836 0.35507059 9605520
0.78476471 -0.084901847 0.35443124 9342607
0.78607136 -0.07545691 0.35499796 9342608
0.78549999 -0.064499959 0.35434514 9277072
0.77900004 -0.056280915 0.35010621 9013645
0.78518182 -0.055222895 0.3553949 9408399
0.77900004 -0.042603515 0.35010621 9209733
0.78575009 -0.044809688 0.35590124 9473933
0.77900004 -0.039868034 0.35010621 9209733
0.78583336 -0.035156861 0.35456085 9342090
0.79000002 -0.033033378 0.35874876 9342859
0.78727281 -0.025043732 0.35449716 9079177
0.79142857 -0.024622308 0.3591333 9211273
0.7864666 -0.014597603 0.35358888 8948363
0.79180002 -0.014573401 0.35956615 9014664
0.78640008 -0.0052680443 0.35343674 8817033
0.79159999 -0.005302567 0.35947531 9014664
0.787 0.004508554 0.35299519 8751238
0.79142857 0.0044929325 0.35807446 9080457
0.78780001 0.015009684 0.35221696 8290175
0.78800005 0.025158999 0.35230637 8684674
0.79099995 0.025254779 0.35549936 8948613
0.78783339 0.035912018 0.35253969 8883080
0.78736377 0.044994447 0.35286137 9080203
0.78800005 0.054366842 0.35312724 9145994
0.78800005 0.064820521 0.35230637 9474445
0.78783339 0.074950837 0.35223186 9672596
0.78833342 0.085148863 0.35153303 10264475
0.78900003 0.090761669 0.35090637 10462110
0.78900003 -0.051462196 0.36014169 9671824
0.78900003 -0.048691601 0.36014169 9540238
