# .PCD v0.7 - Point Cloud Data file format
VERSION 0.7
FIELDS x y z rgb
SIZE 4 4 4 4
TYPE F F F U
COUNT 1 1 1 1
WIDTH 824
HEIGHT 1
VIEWPOINT 0 0 0 1 0 0 0
POINTS 824
DATA ascii
0.78788888 -0.15263173 0.13788733 11315361
0.78587508 -0.14462638 0.13625067 12565171
0.79049999 -0.1459408 0.13181746 12434610
0.78546429 -0.13489346 0.13602532 13287864
0.79039997 -0.13481744 0.13133849 12499632
0.78600001 -0.12512887 0.13717236 13616572
0.792 -0.12442769 0.13183321 12499375
0.78670007 -0.11521729 0.13771783 13550523
0.79352635 -0.11472058 0.1326346 12433839
0.78754556 -0.10516796 0.1389077 14012614
0.78800011 -0.094747938 0.13923979 13223098
0.78900003 -0.084709331 0.13849412 10788501
0.79258341 -0.085249931 0.13370657 11974060
0.78900003 -0.075474016 0.13849412 10985623
0.79220009 -0.07466542 0.1342307 11908267
0.78900003 -0.069932826 0.13849412 11182751
0.78900003 -0.051462196 0.13849412 10197141
0.78810006 -0.043656833 0.13870391 11578532
0.78766674 -0.034779754 0.13825774 11051930
0.79325002 -0.035028275 0.13273516 11842986
0.78776473 -0.024911737 0.13816655 11052959
0.79266667 -0.024794377 0.13263808 11645608
0.78787512 -0.014845236 0.13841018 10593697
0.79250002 -0.014586168 0.1326104 11251107
0.78823078 -0.0057052695 0.13807383 10660518
0.79100001 -0.0052990164 0.1332884 11185572
0.78900003 0.0021026353 0.13849412 12042174
0.79287517 0.005307354 0.134238 11053987
0.78900003 0.027037989 0.13849412 11512738
0.79293561 0.024924302 0.13408831 10987679
0.78900003 0.035349771 0.13849412 11315357
0.79250008 0.035292286 0.13339385 10921629
0.78900003 0.044585086 0.13849412 10986395
0.79320008 0.044823173 0.133653 11184801
0.78900003 0.05104981 0.13849412 10592151
0.78845459 -0.16167091 0.14661938 10592412
0.79144454 -0.16587865 0.14406759 10855584
0.77728575 -0.15181942 0.14735438 11315362
0.78531581 -0.15572567 0.1438392 10921375
0.77524996 -0.14474609 0.14456542 13683394
0.78150004 -0.14885214 0.14083664 13157049
0.77483356 -0.13488409 0.14416365 13026237
0.77526671 -0.12497754 0.1442432 13289665
0.78000003 -0.12026295 0.14056632 15460831
0.77523345 -0.11498988 0.14514713 12828598
0.78100002 -0.11493073 0.14074653 15263195
0.77536374 -0.10527491 0.14566697 12697011
0.78200001 -0.10427783 0.14165738 15263453
0.77591676 -0.095110714 0.14618525 12104362
0.78299999 -0.095063262 0.1420211 15394526
0.77658838 -0.085514933 0.14679331 11839651
0.78438097 -0.084562458 0.14213607 13419709
0.77733338 -0.07526736 0.14736255 12100771
0.78534997 -0.075123928 0.14244325 13748414
0.7775715 -0.065148987 0.14753763 12295840
0.78595984 -0.065173499 0.14273693 13813182
0.77733344 -0.055251274 0.14736255 11508632
0.78530002 -0.054899078 0.14243411 13814720
0.7766667 -0.044900164 0.14662956 10920860
0.78406245 -0.045978349 0.14198129 14276556
0.77604151 -0.035175055 0.14620845 11776172
0.78154546 -0.035008535 0.14184104 14999766
0.77673692 -0.02539672 0.14648306 12631222
0.78245455 -0.02505785 0.14217237 14605265
0.77688897 -0.015205963 0.14727867 11513765
0.78283334 -0.015322909 0.14290617 14145486
0.7772668 -0.0052067027 0.1473498 11447973
0.78441185 -0.0049275504 0.14276089 12896447
0.77770001 0.0040764329 0.14852566 9738131
0.7853871 0.0049408935 0.14384079 12304829
0.79000002 0.0095029166 0.14051905 8687503
0.77900004 0.014841558 0.14950438 9408401
0.78588456 0.015114624 0.14508504 11975095
0.79000002 0.014126427 0.14051905 11055021
0.77900004 0.024871649 0.14950438 9933199
0.78513914 0.025066376 0.14423905 12039342
0.77900004 0.034901742 0.14950438 9801350
0.78480017 0.035161756 0.14417754 12500146
0.77900004 0.044931833 0.14950438 11644070
0.78479421 0.044995468 0.14439309 12501176
0.77900004 0.052226447 0.14950438 13224388
0.7859118 0.055177681 0.14486609 12304571
0.79000002 0.059436832 0.14051905 12435382
0.78642327 0.064902134 0.14554049 12237747
0.79000002 0.064985037 0.14051905 11777965
0.7856577 0.07507965 0.14472036 12172468
0.7858519 0.084405646 0.14522323 12237750
0.79025006 0.087668419 0.14102587 11777197
0.78799993 0.094747968 0.14743815 11513513
0.79150003 0.095020294 0.14250417 12961215
0.78900003 0.10369111 0.14865296 12368308
0.79046452 0.10533555 0.14416878 12106161
0.78761548 -0.16327938 0.15569383 9999762
0.79122227 -0.16768341 0.15431957 10395547
0.77555567 -0.15316898 0.15489405 12696245
0.78322226 -0.15865383 0.15397841 13222848
0.7724849 -0.14491679 0.15482865 13353917
0.7724545 -0.13488095 0.15432905 13223618
0.77275765 -0.1250661 0.1548841 12567226
0.77322239 -0.11469143 0.15473099 12500407
0.77400011 -0.10484224 0.15488662 12763063
0.77477765 -0.094970852 0.15504272 12500402
0.77506649 -0.085027538 0.15509972 12368559
0.77538872 -0.075080007 0.15516298 11775908
0.77536654 -0.065093987 0.15515873 12761775
0.77583349 -0.055143215 0.15525347 12498603
0.77583343 -0.045155153 0.15525427 12367535
0.77566683 -0.035157815 0.15522163 11975090
0.77570021 -0.025172433 0.15522729 11646383
0.7749998 -0.015170417 0.15508665 11382184
0.7749998 -0.0051918305 0.15508673 11184804
0.77536106 0.0047897375 0.15515746 11512999
0.77586663 0.014782014 0.15525743 11644584
0.77569443 0.024765946 0.155223 11315878
0.77593338 0.034764577 0.15527132 11251110
0.77605587 0.044761732 0.15529679 12368820
0.77671432 0.054607101 0.15510221 11710634
0.77776015 0.064707264 0.1554551 11841704
0.78109092 0.065581456 0.15073563 12565171
0.77894139 0.074694894 0.15635806 11446174
0.78050005 0.075164691 0.15180108 11709091
0.77900016 0.083719522 0.15707953 11972264
0.78114998 0.085927851 0.15311539 12894907
0.78461295 0.095298126 0.15478525 13027265
0.78860003 0.10363932 0.1550387 12303543
0.79039997 0.10850142 0.15539339 11645611
0.78741175 -0.16391405 0.16521455 9933454
0.79100001 -0.16825259 0.1647696 9736847
0.7755264 -0.15359373 0.16517754 12564660
0.78140002 -0.15889351 0.16460057 12169901
0.77259278 -0.14484517 0.16435212 13024438
0.77263349 -0.13450037 0.16456197 12630195
0.77316016 -0.12463785 0.16467407 12763067
0.77383345 -0.11478245 0.1648178 12565942
0.77459991 -0.10492278 0.16498114 12695730
0.77539986 -0.095047601 0.16515164 12300457
0.77583998 -0.085111931 0.16524512 11775401
0.77610016 -0.075148962 0.16530068 11710122
0.77612013 -0.065156721 0.16530506 12170159
0.77700007 -0.055225212 0.165493 11906473
0.77736014 -0.045243923 0.16556935 12103851
0.77686691 -0.035212912 0.16546375 12563626
0.77644026 -0.025195641 0.16537341 12432553
0.77603352 -0.015191467 0.16528744 11579560
0.77571988 -0.0051967464 0.16522005 10462883
0.77570015 0.0047907322 0.16521558 10528934
0.77544004 0.014773264 0.16516031 11053731
0.77503312 0.024744805 0.16507253 11644584
0.7751599 0.034730259 0.16509995 11381414
0.77606672 0.044763803 0.16529426 11447206
0.77770382 0.05507379 0.16523927 11380897
0.77831995 0.064389452 0.16336903 10920605
0.78018188 0.066336676 0.1686596 12761779
0.77900004 0.073502399 0.16105418 12960954
0.78052181 0.075565919 0.1661633 10657173
0.7811563 0.085060656 0.16489233 12236463
0.78403848 0.095843151 0.16494307 12829886
0.78822219 0.10358993 0.16511387 12106163
0.79049999 0.10851526 0.16466545 11579819
0.78800005 -0.16300385 0.17521302 9801865
0.79149997 -0.16743404 0.17506376 9933709
0.77605557 -0.15246038 0.17477775 11644587
0.78300005 -0.158406 0.17532223 12499378
0.77360022 -0.14463073 0.1747293 12894394
0.77363902 -0.13467599 0.1747379 12433328
0.77410007 -0.12478945 0.17484115 12236467
0.77520007 -0.11511426 0.17496102 12237496
0.77592009 -0.1051013 0.17434496 12961218
0.77683347 -0.095222339 0.17455061 12369341
0.77804017 -0.085353203 0.17482254 11844023
0.77816665 -0.075349085 0.17485076 11251629
0.77807999 -0.065321378 0.17483117 11449521
0.7785666 -0.055337165 0.17493956 11644841
0.77882361 -0.045114592 0.1736021 13222839
0.78000009 -0.045853689 0.17822742 11051156
0.77820003 -0.035274204 0.17485738 12300967
0.77712023 -0.025217706 0.17461367 11908269
0.77763349 -0.015222085 0.17473078 11711406
0.77748019 -0.0052089123 0.17469595 11316135
0.77710015 0.004799223 0.17461033 11118756
0.77664018 0.014795843 0.17450693 10723482
0.77593344 0.024773112 0.17434742 10001303
0.77616012 0.034775715 0.1743986 10199195
0.77763331 0.044854525 0.17472908 10987427
0.77884001 0.054950543 0.17499919 11644586
0.77891684 0.063617811 0.17714399 10658976
0.78044438 0.066027209 0.17393869 12237750
0.78061545 0.075177401 0.1751857 10987683
0.77900004 0.086875848 0.17868282 9474449
0.7809 0.085260779 0.17424117 12565429
0.78324139 0.095478565 0.17491108 12105909
0.78830761 0.10331704 0.17485538 12106422
0.79092312 0.10807537 0.17515148 11579820
0.78792316 -0.16334268 0.18498641 9801866
0.79100001 -0.16763613 0.18431398 9802379
0.7769286 -0.15239993 0.18470286 12038570
0.78325003 -0.15820277 0.18500495 12630451
0.77491987 -0.14487767 0.18500443 13091259
0.77489978 -0.13489634 0.18499938 12301743
0.77503985 -0.12494043 0.18503314 12236469
0.77658081 -0.11504223 0.18522491 12107194
0.77756673 -0.10532501 0.18472652 12172730
0.77788889 -0.095351286 0.18480068 12238266
0.778862 -0.085569687 0.18512648 12238008
0.78000003 -0.080547586 0.18256418 12698556
0.77899992 -0.074643224 0.18547438 12368050
0.78000003 -0.077808589 0.18439019 14540500
0.77900016 -0.066364639 0.18393925 12302511
0.77999997 -0.063428879 0.18701506 13420480
0.77900016 -0.057192743 0.18337223 12302253
0.77999991 -0.053373907 0.18612006 13354686
0.77900004 -0.04777053 0.1871932 15066075
0.78046167 -0.045282964 0.18499035 12565170
0.77900004 -0.033485249 0.18233013 9867407
0.78006917 -0.035577811 0.18572877 12500408
0.77894467 -0.02537819 0.18312778 10329246
0.78000009 -0.025477258 0.18804216 11711664
0.77900004 -0.016160546 0.18050648 9275786
0.78065389 -0.015139775 0.18510884 11446951
0.77900004 -0.0036989152 0.18111436 9010808
0.78115785 -0.0057145925 0.18562825 11445660
0.77895659 0.0058813482 0.18350941 10327693
0.7803334 0.002890572 0.18731071 12038823
0.77820003 0.014824601 0.18487577 10986911
0.77702802 0.024808519 0.18459697 10592412
0.77706695 0.034815356 0.18460624 10657948
0.77763897 0.044854004 0.18474022 11119783
0.77770001 0.054869734 0.18475509 11581103
0.77750015 0.064868353 0.18470761 11645613
0.77896422 0.074953713 0.18538256 11250601
0.78000003 0.076031409 0.1807382 11447976
0.77858323 0.085005432 0.18496667 11908527
0.77873343 0.092984028 0.18579236 12500661
0.78214294 0.097561441 0.18384896 11908525
0.78738892 0.1034816 0.18521312 12171957
0.79109097 0.10868092 0.18465272 11579819
0.78800011 -0.16208158 0.19499995 10394004
0.79153848 -0.16680153 0.19538577 9801868
0.7773 -0.15169199 0.19467182 11511969
0.78300005 -0.15682472 0.19426355 12827574
0.77576673 -0.1450358 0.19519511 12959670
0.77600044 -0.13530131 0.19498549 12958641
0.77620023 -0.12512761 0.19439611 13155761
0.77770007 -0.1153549 0.19477154 13090485
0.77839988 -0.10543855 0.19494495 13156279
0.77789992 -0.095354713 0.19481994 13091001
0.77819991 -0.085370846 0.19489478 13026236
0.77876651 -0.075406484 0.1950362 13289924
0.77879173 -0.065381691 0.19519453 13159625
0.78000003 -0.062744141 0.19169416 11511466
0.77899992 -0.055211887 0.19522144 12962243
0.7790001 -0.045656148 0.19533359 13224899
0.78033334 -0.041763041 0.19177528 9211021
0.77900004 -0.036828611 0.198743 15066073
0.7803573 -0.035369162 0.19484809 12434614
0.78161532 -0.02522232 0.19553974 11841705
0.78202748 -0.015307824 0.19493845 11249824
0.78219992 -0.0052407663 0.19498082 11380379
0.77900004 0.009370598 0.1950957 12564659
0.78120691 0.0037826565 0.19489086 10788502
0.77827996 0.014825688 0.19491555 10919575
0.77693355 0.024805356 0.19457795 10657171
0.77685738 0.034870777 0.19514288 10525846
0.77658367 0.044792149 0.19539779 11709603
0.77675891 0.054678742 0.19528557 12236718
0.77670616 0.065013699 0.1951617 11382696
0.77683359 0.074814543 0.19545957 11250854
0.77751619 0.0847435 0.19489776 12237238
0.7785334 0.093203239 0.19497804 12236978
0.78166676 0.098153599 0.194849 12763321
0.78723818 0.1045167 0.19505194 11777198
0.79000002 0.10937075 0.19507647 11579819
0.78810012 -0.16191757 0.20475528 9801867
0.79240006 -0.1670693 0.20475756 9867661
0.77800006 -0.15182871 0.20486249 10985881
0.78399998 -0.15732732 0.20552471 12828343
0.77652007 -0.14517701 0.20538269 13222844
0.77671897 -0.13498397 0.20509331 12696500
0.77770007 -0.1253693 0.20478438 12236463
0.77866662 -0.1154997 0.20503718 12368049
0.77854836 -0.10528189 0.20515451 12302001
0.7780571 -0.095244721 0.20474745 12761782
0.77750003 -0.085295349 0.20472933 13156021
0.77716684 -0.075251751 0.20464206 13551038
0.77736682 -0.065261588 0.20469451 12828345
0.77883315 -0.055356398 0.20508233 12697275
0.77900016 -0.045469251 0.2023903 10131352
0.78007144 -0.045140501 0.207495 13028808
0.77900016 -0.037002295 0.20304163 10065813
0.78004545 -0.034277026 0.20672892 12699072
0.78081477 -0.025539374 0.20509379 11316390
0.78127271 -0.015155796 0.20530626 11250596
0.78159994 -0.0052360431 0.20489416 10723996
0.77900004 0.009370598 0.20147848 11315362
0.78072423 0.0046628034 0.20504369 11051674
0.77862507 0.015441126 0.20419283 11446434
0.78000003 0.012425951 0.20873676 11842731
0.7773335 0.024817204 0.20468825 10592410
0.77637058 0.0347156 0.20493847 10591379
0.77600032 0.044758797 0.20524414 11183005
0.77619243 0.054903921 0.20508456 12104877
0.77609408 0.064521968 0.20492777 11841188
0.7760002 0.074733168 0.20524415 11645097
0.77622896 0.084879965 0.20452476 12104622
0.7775557 0.093086883 0.204744 11775914
0.78145462 0.098044269 0.20535436 12565688
0.78713632 0.10420382 0.20500603 12237493
0.79079998 0.10948149 0.20545697 11514026
0.78850001 -0.16310668 0.2150109 9604744
0.79110003 -0.16734919 0.21479341 9736331
0.7782222 -0.15177052 0.21514292 11644582
0.78352958 -0.1571725 0.21489528 11973291
0.77636695 -0.14514844 0.2153364 12369077
0.77650023 -0.13538685 0.21510632 12566201
0.77752012 -0.12534079 0.2147458 12763064
0.77806669 -0.11541004 0.21489692 13222587
0.77896547 -0.1046972 0.21514651 13025722
0.78000003 -0.10200301 0.21543208 13354940
0.77837509 -0.094352014 0.21483207 12630707
0.78000003 -0.098351024 0.21908407 15461606
0.77736014 -0.085279636 0.21470425 12631475
0.77813339 -0.075344034 0.21491843 12630964
0.77852404 -0.065532207 0.21433151 11249569
0.78016669 -0.063061289 0.21882655 14144713
0.7790001 -0.057109848 0.21283485 9736844
0.78088236 -0.053835589 0.21686018 12762805
0.78133345 -0.045543034 0.21539526 11512484
0.78056681 -0.035380732 0.21558963 11249827
0.77900004 -0.025076184 0.21718216 11644839
0.78031582 -0.025128558 0.21369146 11118757
0.77900004 -0.019199967 0.21758743 10790817
0.7801668 -0.015027896 0.2146859 11118759
0.78070003 -0.0052293125 0.21470992 10922145
0.78122866 0.004694032 0.21498755 11119266
0.77900004 0.018488863 0.21150859 12501945
0.78120828 0.014730881 0.21592022 10988196
0.77893347 0.026510417 0.21355727 11381669
0.78066671 0.023279596 0.21720058 9407624
0.77764016 0.034839217 0.21478219 10527132
0.77676696 0.044802498 0.21454097 11775910
0.77644026 0.054780647 0.21444993 12565167
0.77600044 0.064741701 0.21523559 11578790
0.77600032 0.074733175 0.21523561 12236202
0.77646899 0.084550098 0.21479748 12169898
0.77793342 0.093132347 0.21486221 11710632
0.78200006 0.098195411 0.21506982 12435127
0.78758836 0.10383345 0.21503349 12171956
0.79088891 0.10867185 0.21514831 11514026
0.78850007 -0.16310668 0.22516331 9539465
0.79099995 -0.1673279 0.22495133 9670794
0.77800006 -0.15182871 0.22489691 11578532
0.78394127 -0.15768629 0.22504744 11907755
0.7760002 -0.14507906 0.22522703 13881287
0.7761879 -0.13489255 0.22493988 12894908
0.77633351 -0.12514986 0.22441357 11974838
0.77711135 -0.1152675 0.22463907 12106165
0.77880543 -0.10458058 0.22512931 12237750
0.77899998 -0.094374992 0.22562498 12500149
0.78000003 -0.096525021 0.22151874 12040115
0.77896661 -0.085455559 0.22517651 12959414
0.77895254 -0.07650999 0.2243475 13419965
0.78000003 -0.073770337 0.22610711 12826539
0.78063339 -0.064621657 0.22474506 12761518
0.78167993 -0.054643765 0.22504675 12038822
0.78116 -0.045465928 0.22489481 11774111
0.78100008 -0.035399556 0.22484998 11445405
0.78068006 -0.025333138 0.22475836 11249310
0.78046685 -0.015277897 0.22469662 10987167
0.78060013 -0.0052294377 0.22473364 10921632
0.78183311 0.0048299413 0.22508988 11446948
0.78215986 0.014902046 0.22518395 11776682
0.78169984 0.024956411 0.22505201 10593951
0.77881265 0.036830243 0.22433488 10593696
0.78063643 0.032648716 0.22557631 10593183
0.77855527 0.044905547 0.22505876 11120810
0.77763343 0.05486387 0.22479136 12171441
0.77636695 0.064770848 0.22533384 11973547
0.77584004 0.074717201 0.22518006 11710118
0.77617657 0.084959425 0.22463527 12039596
0.77833343 0.092268564 0.22499247 12566199
0.782875 0.097505771 0.22504637 12237234
0.78800005 0.10356125 0.2250205 11974576
0.79108334 0.10859583 0.22497533 11514026
0.7875883 -0.16384131 0.23563747 9538952
0.79042858 -0.16786684 0.23417176 9736332
0.77746147 -0.15235409 0.23503157 11644069
0.78228575 -0.15750632 0.23450612 11775398
0.77563339 -0.14501119 0.2351063 13355971
0.77586144 -0.13506272 0.23517585 12632762
0.77619243 -0.12526631 0.23457864 11842988
0.77683359 -0.11522744 0.23456231 11578790
0.7784999 -0.10453857 0.23506454 11446949
0.77900004 -0.094577625 0.2352161 11578792
0.77888 -0.085446566 0.23517936 11907503
0.77889287 -0.075419448 0.23544382 11973293
0.78000003 -0.075526103 0.23095304 15327960
0.77885014 -0.065750964 0.23599072 11972779
0.7805385 -0.063700534 0.23146334 14735566
0.77900016 -0.05575987 0.23756078 12366251
0.78099996 -0.054500718 0.23293126 12827831
0.77900004 -0.048074473 0.23795155 11709346
0.78061545 -0.045011267 0.23422645 11709862
0.78041679 -0.035373148 0.23472868 12169382
0.78133333 -0.025353359 0.2350065 12037794
0.78147209 -0.015297468 0.2350499 11643807
0.78163332 -0.0052361102 0.23509791 11445659
0.78197199 0.0048299865 0.23519842 11643811
0.78186643 0.014895628 0.23516601 11579304
0.77900004 0.027303189 0.23825549 10064263
0.78130013 0.024456162 0.23420177 11775909
0.77872241 0.035698891 0.2360429 11185062
0.7804001 0.032954466 0.23234966 10987423
0.77783877 0.045009878 0.23503913 11316648
0.77646691 0.054782476 0.23535825 11185576
0.77602822 0.064743854 0.23522677 11053218
0.77553332 0.07468684 0.23507677 11316386
0.77541661 0.084662624 0.23504141 11908783
0.77779996 0.092205495 0.23485442 12105908
0.78262502 0.097246125 0.23482086 12566458
0.78794122 0.10344496 0.23487733 11711148
0.79049999 0.10851526 0.23498635 11448233
0.78752631 -0.16460593 0.24458309 9604744
0.79000002 -0.16914952 0.24482544 9670795
0.77776921 -0.15199365 0.24464899 11775655
0.78228575 -0.15737569 0.24484186 11512227
0.77579987 -0.14504223 0.24514753 13091000
0.77626687 -0.13513234 0.24529457 12498604
0.77796888 -0.12478603 0.24532236 12499629
0.77787882 -0.11497025 0.24464715 12170668
0.7780571 -0.10460993 0.24481951 11907753
0.77858061 -0.094703801 0.24526046 12368562
0.77820003 -0.08537253 0.24499375 12105134
0.77791667 -0.075324923 0.24490587 12236722
0.77833337 -0.065342195 0.24503769 12828859
0.77899981 -0.05536909 0.24524617 12697273
0.77899992 -0.04553438 0.24557175 12369334
0.78000003 -0.042658202 0.24099599 13223869
0.77869689 -0.035653878 0.24550894 11645869
0.78000003 -0.031397905 0.24160467 12895678
0.7790001 -0.027284827 0.24761692 9541265
0.78011107 -0.024502924 0.24376927 12303799
0.78086674 -0.015284008 0.2449186 11185577
0.78163993 -0.0052361237 0.24516106 11316649
0.78196645 0.0048295944 0.24526466 11710118
0.77883339 0.017877022 0.24762426 11447205
0.78138095 0.014275802 0.2446449 11578275
0.7770589 0.025074616 0.24484536 11250337
0.78000003 0.020338591 0.241909 10657686
0.77586681 0.034761049 0.24425676 11578272
0.77557158 0.044604413 0.24429302 11119010
0.77524 0.054696444 0.24496752 11185063
0.77496678 0.064655311 0.24488173 10527132
0.77476913 0.07482373 0.24495956 11448488
0.77513772 0.084787987 0.24481197 11908526
0.77716666 0.092130452 0.24466743 11974574
0.78299999 0.097514667 0.24494117 12763835
0.78806251 0.10368481 0.24498561 11645355
0.79036367 0.10841232 0.24470282 11579562
0.78850007 -0.16310668 0.25469759 9342086
0.79110003 -0.16734895 0.2555379 9605259
0.77745456 -0.15163958 0.25526395 12170672
0.78364718 -0.15751964 0.25496235 11644072
0.77576673 -0.1450358 0.25512365 13421506
0.77617174 -0.13524552 0.25512728 12762293
0.77813339 -0.12452625 0.2549921 12104106
0.77884001 -0.11461494 0.25522429 12366505
0.77833331 -0.10502397 0.25526223 11775909
0.77828556 -0.095076561 0.25484869 12434349
0.7781201 -0.08536274 0.25498939 12301737
0.77857143 -0.075647056 0.25487623 12565684
0.78000003 -0.071874104 0.25925595 11247767
0.77900016 -0.065885492 0.25357416 13751243
0.78009105 -0.064328328 0.25829014 10985626
0.77900004 -0.055113774 0.25461978 13093827
0.78025001 -0.055915304 0.25888252 11051419
0.77900004 -0.045338992 0.25527626 12763578
0.77899992 -0.035308901 0.25527623 12630963
0.77900016 -0.025552357 0.25482032 12564140
0.78000009 -0.02374612 0.25534308 10195851
0.77900004 -0.013121122 0.25466835 12236462
0.78000015 -0.0159784 0.25458953 10788760
0.78046679 -0.0052282955 0.25484353 11447201
0.77885723 0.0083267931 0.25705242 11186602
0.7805174 0.0039699567 0.25419751 10987683
0.7773571 0.015002304 0.2553198 11513766
0.78000003 0.013034615 0.25012597 9144453
0.77486104 0.024737518 0.25482559 11316130
0.77390009 0.034672856 0.25451037 11447201
0.77358341 0.044619437 0.25440508 11643554
0.77351534 0.055068262 0.25462955 11710120
0.7735154 0.064945728 0.25413567 10789788
0.77341688 0.075389594 0.25435024 11974060
0.77383339 0.085395284 0.25448743 11974061
0.7766 0.092609867 0.25557974 12434872
0.78285712 0.097650804 0.25470805 12698043
0.78791666 0.10278127 0.25527743 11316391
0.79153335 0.1079791 0.25505951 11513769
0.78793752 -0.16368304 0.26512128 9211271
0.79074997 -0.16773707 0.26467872 9473930
0.77721435 -0.15232594 0.26560807 12039340
0.78299999 -0.15775557 0.26465201 11842732
0.77519989 -0.14493041 0.26491955 12565428
0.77564538 -0.13487755 0.26489559 12301997
0.77716142 -0.12510586 0.26453179 12302254
0.77782863 -0.11524525 0.26503468 12038569
0.77821213 -0.10491475 0.2647872 12565685
0.7784546 -0.095006898 0.26536688 12367022
0.77899992 -0.085459359 0.26530635 12695471
0.77899987 -0.075885192 0.26576224 12629931
0.78000003 -0.071874104 0.26199493 13616824
0.77900016 -0.065627128 0.26781386 12300966
0.77999997 -0.064062908 0.26300937 14340802
0.77899998 -0.053415172 0.26647869 11906209
0.77999997 -0.05522278 0.26473385 13945790
0.77899992 -0.045338992 0.26530632 12959153
0.77900004 -0.036585461 0.26599935 11841186
0.78000009 -0.032449234 0.26406991 12565937
0.78024 -0.025319235 0.26481488 11974061
0.77900004 -0.012310611 0.26581293 10329494
0.78045845 -0.016039314 0.2650415 11514027
0.7790001 -0.0053705969 0.26834577 11447459
0.78011107 -0.0051244958 0.26365522 11579302
0.77812499 0.0052018398 0.26551995 11712174
0.78000003 0.0016221523 0.26153845 9080456
0.77596313 0.014579939 0.26477543 11580074
0.77425003 0.024718788 0.26550075 11119009
0.77380013 0.034667909 0.26534706 11119011
0.7730003 0.044585757 0.26507252 11315616
0.77297246 0.055441249 0.26506293 11578274
0.77219999 0.065327927 0.2647973 11183259
0.77202761 0.07525415 0.26473898 11973545
0.77306676 0.085310824 0.26509508 12631477
0.77631247 0.093052633 0.26495779 12631476
0.78200012 0.098279387 0.26491112 12368563
0.78758335 0.10489101 0.26538578 11447976
0.7902 0.10865867 0.26227584 11513769
0.78900003 0.11345416 0.26884404 11448487
0.79203707 0.11569779 0.26407453 11448232
0.79320592 0.12456147 0.26532871 11514026
0.78680956 -0.16429541 0.27511191 9671051
0.79000002 -0.16951939 0.27552557 9539722
0.77639997 -0.1527901 0.27550617 12301744
0.78166676 -0.15813541 0.27404121 13353916
0.77476656 -0.14484882 0.27474591 13223616
0.77499992 -0.13491231 0.27482793 13158850
0.77573341 -0.1250525 0.27508771 13158590
0.77600014 -0.11510523 0.27518183 12893620
0.77583337 -0.1050906 0.27512276 12893622
0.77619481 -0.095144413 0.27525109 12762293
0.7772668 -0.085268036 0.27562967 12762037
0.77755553 -0.075289808 0.27573207 12631735
0.77760023 -0.065281406 0.27574772 12895163
0.77794307 -0.055371799 0.27573916 13289148
0.78000003 -0.055440165 0.27021191 10721939
0.77769244 -0.045332931 0.27508157 13749183
0.77823329 -0.035272785 0.27506334 13682358
0.77865237 -0.02503047 0.27552921 13485241
0.78000009 -0.026093829 0.27073362 9735304
0.77780008 -0.01509664 0.27568838 11973031
0.78000003 -0.018007284 0.27021191 10459288
0.77680004 -0.0052048252 0.27546409 11381926
0.77594453 0.0047921366 0.27516243 11579047
0.77516657 0.014767352 0.27488792 10658976
0.77390009 0.02470831 0.27534518 10988712
0.77376014 0.03466754 0.27529535 10330010
0.77320015 0.044596277 0.27509627 10921118
0.77253342 0.055408295 0.27485895 11446688
0.77199996 0.065311641 0.27466959 11249564
0.77189988 0.075242274 0.27463406 12696755
0.77300012 0.085304156 0.27502537 12762550
0.77617639 0.092815816 0.27497989 12105136
0.78154546 0.098055772 0.27490556 12565174
0.78688461 0.10511746 0.27465123 11316390
0.78899986 0.11364473 0.27568987 11382439
0.79000002 0.11782517 0.27420455 11514024
0.78900003 0.12031468 0.27887091 11382183
0.79029059 0.12552559 0.27514842 11448233
0.79106683 0.13544606 0.27496913 11514026
0.78645456 -0.16444588 0.28491542 9868173
0.79000002 -0.16988929 0.28384787 9605003
0.77609086 -0.15327673 0.28520751 11709861
0.78133339 -0.15887995 0.28439215 12697013
0.77366692 -0.14464344 0.2852228 13025720
0.77347231 -0.13464756 0.28515059 13354946
0.77386671 -0.12475207 0.28529507 13421509
0.77413905 -0.11482857 0.28539646 12566970
0.77429998 -0.10488243 0.28545624 12895938
0.77455544 -0.094944268 0.28555012 12697789
0.77463329 -0.084980249 0.28557789 12894395
0.77466667 -0.075009674 0.28558916 13222841
0.77486682 -0.065052241 0.2856631 13419449
0.77505404 -0.055014558 0.28556043 13353915
0.77569997 -0.045206778 0.28451815 13814979
0.77625012 -0.035183575 0.28435609 13618112
0.77587903 -0.025013724 0.28479701 12828085
0.7745946 -0.015286748 0.28539115 12564398
0.77380002 -0.0051842597 0.28527024 12367532
0.77375007 0.0047793319 0.285252 12565683
0.77370012 0.014740193 0.2852343 12433843
0.77305579 0.024680883 0.28499734 12696756
0.77283329 0.034625456 0.2849158 11776942
0.77241671 0.044551499 0.28476068 12039598
0.77186096 0.05536155 0.2845571 11842732
0.77179992 0.065294094 0.28453493 11645094
0.77111101 0.075164497 0.28427985 12105906
0.77310002 0.085316613 0.28501466 11908012
0.77733338 0.093061447 0.28505796 11974065
0.7827273 0.098369867 0.28531644 12303029
0.78679311 0.10537326 0.28469542 11382183
0.78843331 0.11469135 0.28512916 11382440
0.78889453 0.12243734 0.2855401 11447976
0.79000002 0.12786481 0.28437629 11513769
0.79056001 0.13535905 0.28497627 11513770
0.78726667 -0.16377544 0.29545882 9934479
0.79049999 -0.16814625 0.29513273 9276807
0.77595448 -0.1532492 0.2951487 13881285
0.78200006 -0.15901552 0.29470354 12301998
0.77340007 -0.14459407 0.29508424 13684678
0.77300018 -0.13456535 0.29493099 13618372
0.77300012 -0.12461251 0.29493096 14276557
0.7735669 -0.11474242 0.29514772 14211279
0.77352023 -0.10477781 0.29512832 13684936
0.77343345 -0.094806962 0.29509503 13355202
0.77324003 -0.08482831 0.29502198 13157564
0.77290338 -0.074693419 0.29506865 12960184
0.77277786 -0.065077186 0.2952472 13420222
0.77360004 -0.054983854 0.29515937 13156537
0.77420688 -0.04493466 0.29464042 12367790
0.77416682 -0.035090346 0.29446805 12236718
0.77374089 -0.025309995 0.29480934 11249820
0.77313346 -0.015134425 0.29498133 11314587
0.77225006 -0.0049806912 0.29522541 11314589
0.7716943 0.0047654649 0.29533526 11316645
0.77126652 0.014694299 0.29517111 11381155
0.77122211 0.024622738 0.29515448 11053990
0.76900005 0.039854437 0.29700536 9672592
0.77040023 0.035288762 0.29476231 11119270
0.76900005 0.045116685 0.29728237 10066067
0.77029419 0.045437355 0.29251882 12500149
0.76900005 0.054747354 0.29798731 10393488
0.77040017 0.055437554 0.2932165 13092284
0.76900005 0.065732926 0.29813051 9275522
0.77040917 0.06493102 0.29344937 13223870
0.7687369 0.074507698 0.29699761 12499635
0.77005577 0.075362168 0.29210484 12960701
0.7718277 0.085051604 0.2952292 13552838
0.77637506 0.092720084 0.29530805 12632507
0.78308326 0.097875275 0.2946547 12500664
0.78738457 0.10518324 0.29510286 11250854
0.78857142 0.1142716 0.29471985 11316390
0.79000002 0.11723071 0.29910547 11316390
0.78880006 0.12176184 0.29246524 11447976
0.7912631 0.12534134 0.29546666 11447976
0.7876001 -0.16372101 0.30504826 9539723
0.79150003 -0.16805072 0.30600283 9211016
0.77658832 -0.15289177 0.30485564 11380899
0.78188896 -0.15838403 0.30564362 9998987
0.77476013 -0.14484741 0.30467349 12038828
0.77433342 -0.13479853 0.30450541 12168103
0.77404016 -0.12477998 0.30438972 12561834
0.77439994 -0.11486733 0.30453104 11905701
0.77432001 -0.10488588 0.30449936 12434612
0.7735669 -0.094824575 0.30420339 12632246
0.77340019 -0.084845029 0.30413777 12237746
0.77344841 -0.075047828 0.30428174 11513513
0.77356529 -0.064706467 0.30451846 11974324
0.77383345 -0.055000868 0.30430868 12040120
0.77456009 -0.045080394 0.3045947 12040115
0.77444834 -0.035197075 0.30442613 11973549
0.77384013 -0.025111932 0.30431226 11381925
0.77336687 -0.015139111 0.30412468 10987940
0.7730909 -0.0054261242 0.30450973 10725542
0.77291662 0.0047735027 0.30485287 10855843
0.77295852 0.014651149 0.30562425 9671571
0.77273339 0.024670945 0.3056863 10658974
0.77185732 0.035160702 0.30514669 10857894
0.76900005 0.047312584 0.30189174 12435386
0.77100009 0.044108015 0.30608267 9672855
0.76900017 0.055665269 0.30326703 12105647
0.77028573 0.053573556 0.3078064 8881538
0.76817858 0.06517981 0.30446076 10724250
0.76803339 0.074446946 0.30424446 11250082
0.77000004 0.078661814 0.30820706 13685193
0.76900005 0.081260026 0.30240607 10723482
0.7714783 0.085764736 0.30518776 12434354
0.77556264 0.092963122 0.30464628 12040113
0.78191668 0.098185666 0.30473772 11711149
0.78795254 0.10452249 0.30467525 11184804
0.79000002 0.10900088 0.3065955 11184804
0.79136008 0.11511884 0.3056438 11184804
0.78799999 -0.16425264 0.31530368 9868429
0.79033333 -0.16841902 0.31541923 9737100
0.77833337 -0.15158942 0.31215054 12106420
0.7832222 -0.1558035 0.31594524 10724253
0.77809101 -0.14497258 0.31244037 11843505
0.78190917 -0.14485195 0.31746805 9145735
0.77730781 -0.13440554 0.31239355 11777197
0.78150004 -0.13581619 0.31761366 9539980
0.77706254 -0.12492588 0.3129687 12434355
0.78016669 -0.1248556 0.31775561 10132118
0.77718765 -0.11528042 0.3126781 12499635
0.78100008 -0.11432151 0.31779072 11579307
0.77735722 -0.1046462 0.31284398 11842478
0.7815001 -0.10562818 0.31784219 10525591
0.77664703 -0.094934493 0.3125813 11054248
0.78079998 -0.094798498 0.31801358 8224638
0.7761333 -0.085145347 0.31248084 10660002
0.78100008 -0.0847646 0.318095 8028542
0.77672213 -0.075207867 0.31271893 10330269
0.78160012 -0.074765682 0.31833941 7634300
0.77726668 -0.065253347 0.3129378 10527392
0.78200006 -0.064735696 0.31850234 7832192
0.77718759 -0.055581823 0.3126781 10594471
0.78157145 -0.05411464 0.31780607 8489609
0.778 -0.045280792 0.31232104 10726055
0.78241664 -0.044619974 0.31775752 8094592
0.77785718 -0.035907067 0.31161258 10396573
0.78240001 -0.034545328 0.3159197 9344400
0.77771431 -0.024457196 0.31181592 9474190
0.78255552 -0.025596557 0.31649163 9277066
0.77706665 -0.014665415 0.31249315 9080202
0.78266674 -0.016236871 0.31816441 8093051
0.77686673 -0.0052055838 0.31277692 9277589
0.78220004 -0.0052405321 0.31858379 8291459
0.77647626 0.0051863813 0.3131395 9079691
0.78100008 0.0020797551 0.31809506 7238772
0.77657145 0.014535099 0.31395665 8750466
0.78000003 0.017599601 0.31768772 7829615
0.7766667 0.024796369 0.31360382 10000784
0.78100008 0.024935504 0.318095 8157811
0.77614278 0.035032246 0.31417269 9409939
0.78050005 0.034971286 0.31880555 8751237
0.77530432 0.0449147 0.31475389 9145998
0.78000003 0.040424526 0.31951374 8686218
0.77326095 0.055262469 0.31392401 9079940
0.77261907 0.065105498 0.31494513 9145730
0.77283341 0.075182714 0.31484878 9408391
0.77531582 0.084986866 0.31473249 10789789
0.77750009 0.092473917 0.31242371 13749960
0.78392857 0.096735477 0.3161425 10987170
0.78821421 0.10345743 0.31470743 11053475
0.79066664 0.1080756 0.31539986 11184804
0.79259992 0.11529867 0.31539834 11184804
0.78849995 -0.16297527 0.32325998 10395287
0.79038465 -0.16641401 0.32689995 10658715
0.78739995 -0.15458408 0.32494462 10395545
0.79000002 -0.15879287 0.32915828 10658971
0.78728575 -0.14508228 0.32539842 10329750
0.78609091 -0.13500451 0.32477319 10000784
0.78476179 -0.12493364 0.32409424 9737613
0.78569567 -0.1149011 0.32473075 9869200
0.78661901 -0.1049723 0.32486099 9738128
0.78677267 -0.095018193 0.32522365 10067606
0.78636366 -0.084926948 0.32472029 9870229
0.78704995 -0.075287253 0.3251701 10001813
0.79000002 -0.070021458 0.32915828 10198420
0.78727776 -0.065172277 0.32434109 9738641
0.79000002 -0.064473256 0.32915828 10330006
0.7876842 -0.05486979 0.32528546 9738127
0.79000002 -0.05892504 0.32915828 10330006
0.7879566 -0.045138732 0.3254225 9606284
0.79000002 -0.040430997 0.32915828 10001041
0.78788233 -0.035114266 0.32317868 8948613
0.79012501 -0.03419419 0.32851684 9737615
0.78800011 -0.025109099 0.32302311 8290423
0.79049999 -0.024726702 0.32844195 9606028
0.78779995 -0.014499472 0.32455534 8882047
0.79040003 -0.0145467 0.32932496 9474697
0.78726655 -0.0052749426 0.32433656 8948869
0.79000002 -0.0052923164 0.32915828 9606799
0.78591663 0.0048514549 0.32470322 8882820
0.78559989 0.014968706 0.32457262 8816769
0.78631592 0.024862498 0.3241393 8750976
0.79000002 0.026147554 0.32915828 9342857
0.78626311 0.035032842 0.32499143 9212042
0.78517646 0.045015842 0.32520655 9408907
0.77875006 0.055854946 0.32082474 9211014
0.78516674 0.054629356 0.3260754 9474443
0.77775002 0.0639797 0.3208687 9276807
0.78400004 0.064857148 0.32592633 9737615
0.77833337 0.0743469 0.32186887 10066580
0.78385705 0.076014936 0.32607645 10198166
0.77800006 0.080389738 0.32051578 10395545
0.78533334 0.085316524 0.32525805 10592924
0.78752637 0.094961718 0.32405394 10856098
0.79020005 0.096079908 0.32887173 10856098
0.78900003 0.10184405 0.32227689 11053477
0.79143482 0.10578529 0.32540718 11053475
0.79250008 -0.15507826 0.33501151 10790046
0.78900003 -0.14012124 0.3305887 10527131
0.79209536 -0.14508487 0.33462748 10724510
0.78900003 -0.13458005 0.3305887 10461338
0.79166669 -0.13503583 0.33541527 10658717
0.78900003 -0.12455314 0.33111641 10527131
0.79133344 -0.12534459 0.3356435 10658717
0.78900003 -0.11518588 0.3305887 10461593
0.79143757 -0.11496078 0.33520201 10658716
0.79277265 -0.10502081 0.33512717 10527643
0.79281825 -0.09490516 0.33480784 10527385
0.79219997 -0.085053131 0.33471513 10461851
0.79199988 -0.074833453 0.33463046 10461595
0.79219997 -0.064653978 0.3347145 10461338
0.79140913 -0.055072438 0.33480138 10461338
0.79106683 -0.04511565 0.33516154 10395545
0.79167998 -0.034956496 0.33542049 10132373
0.79244828 -0.024946954 0.33561715 9869201
0.79250008 -0.014584294 0.33484039 9671822
0.79269999 -0.0053120432 0.33492619 9606542
0.78900003 0.0076438249 0.3305887 9671822
0.79214287 0.0044957274 0.33508882 9606029
0.78900003 0.012261483 0.3305887 9671822
0.79250002 0.015407907 0.33515167 9540236
0.7929092 0.035015956 0.33518392 9606029
0.78900003 0.044585086 0.3305887 9606029
0.7924667 0.04478161 0.33575407 9737615
0.78900003 0.054743942 0.3305887 9737358
0.79288894 0.055013251 0.33593383 9803408
0.78850007 0.065476172 0.33068705 9869201
0.79278576 0.064949147 0.33602285 9869202
0.78833342 0.074074671 0.33092505 10000788
0.79212499 0.075820699 0.3363044 10395546
0.78900003 0.083373405 0.3305887 10658717
0.79204172 0.085316367 0.33626994 10724511
0.79240012 0.094864234 0.3347978 10987683
