# .PCD v0.7 - Point Cloud Data file format
VERSION 0.7
FIELDS x y z rgb
SIZE 4 4 4 4
TYPE F F F U
COUNT 1 1 1 1
WIDTH 564
HEIGHT 1
VIEWPOINT 0 0 0 1 0 0 0
POINTS 564
DATA ascii
0.78862506 -0.61383247 -0.38150391 12170686
0.78835708 -0.60429698 -0.38378075 11709108
0.79033333 -0.60537201 -0.38826621 11445936
0.78815794 -0.59473777 -0.38410753 11972791
0.79000002 -0.59340286 -0.38841054 11314858
0.78843749 -0.58507687 -0.38233671 12038840
0.79091668 -0.58483154 -0.38809046 11446702
0.78858346 -0.57557005 -0.38156101 12301757
0.79143757 -0.57502681 -0.38726676 11841461
0.78872734 -0.56525302 -0.38123867 12301755
0.79123074 -0.56554598 -0.38659543 12039095
0.78890914 -0.55514306 -0.38149425 12039864
0.79124999 -0.55451524 -0.38655695 11841715
0.78845459 -0.54475462 -0.38110712 12171450
0.7911818 -0.5454601 -0.38646758 11973558
0.78850007 -0.53505349 -0.38121298 12171194
0.79100007 -0.53489703 -0.38612577 11842229
0.78872734 -0.52547115 -0.38123864 12302525
0.79175001 -0.52459311 -0.38618335 12105146
0.78900003 -0.51507509 -0.38053063 12302013
0.79182357 -0.51506186 -0.38560271 12170682
0.78900003 -0.50953388 -0.38053063 12499647
0.7931667 -0.50517857 -0.38548574 12236988
0.79421747 -0.49503347 -0.38580102 12236475
0.79480004 -0.48536658 -0.38612327 12565438
0.79422724 -0.47529879 -0.38576099 12302780
0.7946521 -0.46497494 -0.38617307 12105657
0.79428566 -0.45468268 -0.38574117 12302779
0.79373693 -0.44501409 -0.38555717 12171192
0.79345459 -0.43532363 -0.38546801 12171448
0.7941364 -0.42547128 -0.38571596 12039863
0.79494452 -0.41504914 -0.38526165 12105656
0.79488236 -0.40452737 -0.38577989 12236984
0.79414296 -0.39502263 -0.38584873 12302778
0.79427278 -0.38505891 -0.38595286 12302778
0.78900003 -0.62035769 -0.37406591 11643574
0.78726667 -0.61518753 -0.37465823 12039355
0.78457153 -0.60515535 -0.37542456 12302784
0.78470004 -0.5951134 -0.37478635 12499393
0.78580767 -0.58508682 -0.37460634 12630979
0.78668189 -0.57483757 -0.37464306 12762563
0.78680956 -0.56495577 -0.37500307 12631232
0.78676206 -0.55527353 -0.37489247 12434112
0.78656518 -0.54502833 -0.3747156 12369088
0.78630006 -0.53494114 -0.37462908 12434367
0.78600001 -0.52529478 -0.37453029 12500417
0.78641671 -0.51522797 -0.37468508 12434368
0.78768003 -0.50499129 -0.37480697 12631489
0.79000002 -0.50093263 -0.37916353 12565440
0.78839135 -0.49509728 -0.37365797 12828611
0.79033333 -0.49466681 -0.37932351 12631235
0.78846663 -0.48519334 -0.37289092 12762817
0.79045451 -0.485071 -0.37837294 12696769
0.78866649 -0.47516239 -0.37298551 12631231
0.79054546 -0.47486392 -0.37858468 12631232
0.78866655 -0.46500781 -0.37298554 12762817
0.79045451 -0.46471587 -0.37837294 12762815
0.78837508 -0.4552615 -0.37296295 12828353
0.79039997 -0.45492822 -0.37843078 12959938
0.7882942 -0.44513971 -0.37270069 12631487
0.79036367 -0.4451499 -0.37849742 12762559
0.78864706 -0.43480423 -0.37308478 12763074
0.79045451 -0.43510839 -0.37837294 12894401
0.78856242 -0.42467973 -0.37282094 12762303
0.79054546 -0.42489555 -0.37858468 12960194
0.78860003 -0.41512334 -0.37295401 12696766
0.79045451 -0.41475323 -0.37837294 12697023
0.78833324 -0.40483248 -0.37282789 12368573
0.79049999 -0.40501982 -0.3784788 12565693
0.78822219 -0.39493403 -0.37400627 13091779
0.79000002 -0.3955166 -0.37916353 13157316
0.78806245 -0.38497594 -0.3746607 11577258
0.79000002 -0.38534486 -0.37916353 12433338
0.78805 -0.37507629 -0.37334013 14801629
0.79037499 -0.3739624 -0.37864968 12893891
0.78866673 -0.36838543 -0.37175417 15394279
0.79250002 -0.62496799 -0.3652083 10656679
0.78765005 -0.6149655 -0.36484987 11381426
0.79000002 -0.61929452 -0.36066949 11907256
0.78356272 -0.60444665 -0.36506337 11908027
0.78385735 -0.595079 -0.3644166 12236734
0.78494436 -0.58501083 -0.3647925 12499904
0.78591645 -0.57469654 -0.36524448 12565185
0.78599989 -0.56463778 -0.36528346 12697027
0.78553325 -0.55510819 -0.3650654 12565698
0.78508317 -0.54468179 -0.36485711 12434368
0.78459257 -0.53458017 -0.36493561 12500417
0.78338492 -0.52445817 -0.36498499 12368831
0.7843613 -0.514799 -0.36452091 12697539
0.78561747 -0.50480539 -0.36483589 12895175
0.78676921 -0.49498668 -0.3648636 12960712
0.78721434 -0.4853439 -0.36492819 12632003
0.78739303 -0.47511849 -0.36507663 12631489
0.78735733 -0.46482795 -0.36479643 12828611
0.78736007 -0.45502141 -0.36499524 13025733
0.78707159 -0.44505009 -0.36505845 12960453
0.78692585 -0.43491492 -0.36458966 13091782
0.78738475 -0.42532989 -0.36514875 13091526
0.78668982 -0.41488025 -0.36455795 13157063
0.78616005 -0.40463731 -0.36443955 12696770
0.78495461 -0.39482906 -0.36479998 13157832
0.78446436 -0.38480899 -0.36568838 11774639
0.78537929 -0.37513274 -0.36433074 14275797
0.78779173 -0.36659065 -0.36465633 15854824
0.79045451 -0.36176217 -0.36508319 14012879
0.79280007 -0.62520432 -0.355142 10262435
0.78799999 -0.61450028 -0.35449862 11907257
0.79000002 -0.61929452 -0.35789537 11380915
0.78519994 -0.60450375 -0.35480177 11841465
0.78548139 -0.59511608 -0.3547233 11907771
0.78560692 -0.58517593 -0.35518178 12039869
0.78599989 -0.57475793 -0.35516322 12433856
0.78689301 -0.56508154 -0.35497409 12302783
0.7868185 -0.55551368 -0.35435984 12171197
0.78589284 -0.5449149 -0.35531145 12039867
0.78496289 -0.53428727 -0.35510239 12171453
0.78493935 -0.52478528 -0.35535106 12368576
0.78605884 -0.51472324 -0.35437566 12302526
0.78660613 -0.5048061 -0.35476556 12697797
0.78693354 -0.49530354 -0.35466343 12631746
0.78668571 -0.48515052 -0.35441998 12566210
0.78696787 -0.47523805 -0.35482782 12500161
0.78727794 -0.4651095 -0.3548182 12697539
0.78763354 -0.45517936 -0.3549777 12763074
0.78748578 -0.4450863 -0.35477933 12697536
0.78706449 -0.43476143 -0.35486904 12763329
0.78662068 -0.42525765 -0.35468084 13025989
0.78599989 -0.4146744 -0.35516322 13288648
0.78559989 -0.40434867 -0.35498127 13091527
0.78465527 -0.39455095 -0.35531312 13289416
0.78451443 -0.38463688 -0.35527602 12433337
0.78511524 -0.3749024 -0.35497549 14211028
0.78781813 -0.36591768 -0.35492218 15000031
0.79000002 -0.36037794 -0.35512128 13684940
0.7948125 -0.35896343 -0.35518774 15527145
0.79176474 -0.62449723 -0.3447924 10393765
0.7881 -0.61503965 -0.34504208 11841719
0.7858665 -0.60501599 -0.34498388 12236220
0.78613865 -0.59510285 -0.34510407 12368062
0.78596658 -0.58485341 -0.34502852 12236476
0.78564692 -0.57477039 -0.34510589 12170429
0.78596538 -0.5651831 -0.34429902 11842233
0.78631979 -0.55566388 -0.3442643 11776185
0.78599977 -0.54518592 -0.34491161 12237503
0.78583854 -0.53490919 -0.34482238 12303037
0.78619975 -0.525078 -0.34526023 12500418
0.78719366 -0.51496476 -0.34482288 12763075
0.78788 -0.50512135 -0.34494561 12829382
0.78792864 -0.4953374 -0.3447693 12763844
0.78729641 -0.4848837 -0.34489429 12763588
0.78700006 -0.47507945 -0.34456086 12566466
0.78750014 -0.46524003 -0.34477997 12697538
0.78800005 -0.45539117 -0.3449986 12499901
0.78800005 -0.44524521 -0.34499872 12763330
0.78780001 -0.43498951 -0.34491077 12434878
0.78715396 -0.42527723 -0.34483975 12565693
0.78666675 -0.41502655 -0.34533417 12696508
0.78681248 -0.40462583 -0.34516722 12828865
0.78715158 -0.39487123 -0.34562936 13026502
0.78622586 -0.3846035 -0.34528771 12368059
0.78575748 -0.37449494 -0.34468335 14407382
0.7879566 -0.36650082 -0.34545901 14605018
0.79046154 -0.36172658 -0.34479454 14013648
0.79568428 -0.35865173 -0.3448287 14343126
0.79166669 -0.62528169 -0.33477727 10591141
0.78845835 -0.6153186 -0.33504716 12104635
0.78640002 -0.6054278 -0.33509266 12104635
0.78599989 -0.59499836 -0.33492276 12171454
0.78580004 -0.58473015 -0.33483726 12237245
0.7852962 -0.57475346 -0.33441749 12171198
0.78589284 -0.56515145 -0.3350741 12302784
0.78600001 -0.55543745 -0.33492279 12171195
0.7863 -0.54552418 -0.33505005 12368830
0.78760016 -0.53523201 -0.33481321 12434366
0.78783333 -0.52537936 -0.3347809 12105147
0.78800005 -0.51534456 -0.33485273 12499648
0.78800005 -0.50519866 -0.33485261 12499904
0.78800005 -0.4950527 -0.33485264 12565953
0.78800005 -0.48490664 -0.33485267 12368829
0.78791678 -0.47471067 -0.33481669 12368828
0.78800005 -0.46461478 -0.3348527 12763329
0.78800005 -0.4553912 -0.33485267 12959938
0.78800005 -0.44524521 -0.33485264 13091522
0.78800005 -0.43509918 -0.33485276 13092547
0.78800005 -0.42495325 -0.33485267 12960961
0.78767866 -0.41483682 -0.33504465 12894144
0.78785723 -0.40445548 -0.33492324 13091268
0.78806674 -0.39454842 -0.33488074 13354694
0.7879678 -0.38509741 -0.33468968 13156805
0.78820008 -0.37510845 -0.33506748 15065570
0.78879994 -0.36758599 -0.33574569 16052204
0.79179168 -0.36281261 -0.33437613 15329251
0.7918421 -0.62503475 -0.32550809 10459556
0.78840005 -0.61435032 -0.32487151 12104633
0.78700012 -0.60435313 -0.32521582 12368319
0.78677434 -0.5948416 -0.32526976 12236991
0.78670591 -0.58475327 -0.32487607 12104890
0.78668737 -0.57468474 -0.32531545 12368062
0.78643346 -0.56494927 -0.32498032 12104892
0.78639376 -0.55521345 -0.32471269 12433855
0.7868486 -0.54548645 -0.32540375 12499645
0.7875163 -0.53545535 -0.32468665 12697023
0.78796005 -0.5254637 -0.32469046 12565695
0.78800005 -0.51534468 -0.3247067 12829124
0.78800005 -0.50519872 -0.32470667 12828869
0.78800005 -0.49521172 -0.32483384 12763074
0.78757703 -0.48485899 -0.3243919 12894143
0.78780013 -0.47463956 -0.32462502 12762556
0.78800005 -0.46461475 -0.32470673 12696508
0.78818524 -0.4550876 -0.32457739 12959681
0.788607 -0.44525781 -0.32515338 12959423
0.78839993 -0.43532073 -0.32487041 12960446
0.78800005 -0.42495328 -0.3247067 12894144
0.7872594 -0.41421357 -0.32481125 13223367
0.78761297 -0.40460962 -0.3247259 13289160
0.78816003 -0.39459464 -0.32477272 13025730
0.78873318 -0.38472641 -0.32500798 14012370
0.7889998 -0.37469825 -0.32511872 15526375
0.78900003 -0.36915708 -0.32788935 16250095
0.7922107 -0.3646971 -0.32473034 15723495
0.79166675 -0.62461996 -0.31489006 10788520
0.78850001 -0.61526716 -0.31559908 12105150
0.78681493 -0.60499585 -0.31507736 11974074
0.78637052 -0.59476715 -0.31462732 12303038
0.78696674 -0.58467609 -0.31506953 12236732
0.78700006 -0.57456797 -0.31508267 12236473
0.78700006 -0.56535619 -0.31508273 12171194
0.78693348 -0.55517608 -0.31505576 12237245
0.78696007 -0.54506212 -0.31506652 12171193
0.78700012 -0.53495681 -0.3150827 12499901
0.78752005 -0.52516913 -0.31529123 12368060
0.78800005 -0.51534462 -0.31548306 12828609
0.78800005 -0.50519866 -0.31548312 12631743
0.78716004 -0.49544701 -0.31514722 12631999
0.78700012 -0.48521248 -0.31508264 12566463
0.78756678 -0.47449842 -0.31530878 12829379
0.78800005 -0.46461472 -0.31548303 12829123
0.78817242 -0.4547264 -0.31567964 12960196
0.78893524 -0.44502875 -0.31484491 12894404
0.7886399 -0.43545365 -0.31573999 12960965
0.78800005 -0.42495331 -0.31548312 12828865
0.78764009 -0.41461861 -0.31533805 13157830
0.78770006 -0.40450621 -0.31536224 13092296
0.78841376 -0.39459416 -0.31488398 12302777
0.78899974 -0.38485712 -0.31495985 13749967
0.78899986 -0.37623748 -0.31588349 15723241
0.79007691 -0.37264839 -0.31375331 15788520
0.79366672 -0.36482444 -0.31495976 15723495
0.78900003 -0.62035769 -0.30110693 11118510
0.79125005 -0.62509286 -0.3051146 10657447
0.7880435 -0.61487466 -0.30515355 12105661
0.78623074 -0.60543889 -0.30535924 12039869
0.78599989 -0.59499836 -0.30548212 12105405
0.7860769 -0.58472264 -0.3056539 12105661
0.78637928 -0.57487577 -0.30550376 12039610
0.78660011 -0.56506878 -0.30571675 12302010
0.78667879 -0.55532479 -0.30594444 12499902
0.78670377 -0.54529333 -0.30555207 12237501
0.78700012 -0.53495681 -0.30587083 12500672
0.78710014 -0.52489007 -0.30498892 12632002
0.78755569 -0.51505321 -0.30516639 12631746
0.78776675 -0.50504935 -0.30524752 12500159
0.78721893 -0.49513808 -0.30480316 12631745
0.78767663 -0.48535755 -0.30542749 12368831
0.78800005 -0.47476074 -0.30533719 12500417
0.78800005 -0.46461481 -0.30533701 12499901
0.78800005 -0.4553912 -0.30533707 12829379
0.78800005 -0.44539398 -0.30459332 12434621
0.78800005 -0.43509921 -0.30533713 12763843
0.78800005 -0.42495328 -0.30533707 12631744
0.78820008 -0.41491264 -0.30541351 13222851
0.78822219 -0.40477508 -0.30542254 13289672
0.78892285 -0.39511913 -0.30498397 12894656
0.78899974 -0.38485715 -0.30480111 14078676
0.78899992 -0.37589338 -0.30404052 15394534
0.7902 -0.3721227 -0.30711469 15855084
0.79407322 -0.36457923 -0.30476305 15395301
0.78900003 -0.62035769 -0.29464221 12236478
0.79125005 -0.625718 -0.29490304 10723497
0.78818184 -0.6150189 -0.29483935 12303038
0.78660011 -0.60496718 -0.29534048 12171452
0.78606039 -0.59490496 -0.29546797 12171453
0.78529018 -0.58452868 -0.29524261 12105660
0.78512889 -0.57486171 -0.29518363 12237244
0.78528553 -0.56491184 -0.29496354 12236986
0.78596658 -0.55541378 -0.29534954 12368571
0.78599977 -0.54531735 -0.29536191 12302523
0.78599989 -0.53519708 -0.29536197 12171451
0.78619355 -0.52535433 -0.29469314 12171709
0.78639275 -0.51462168 -0.29478726 12303552
0.78696293 -0.50494224 -0.29459864 12764102
0.78737038 -0.49516886 -0.29516128 12566210
0.78753579 -0.48521298 -0.29482099 12828869
0.78786671 -0.47467989 -0.2951417 12697282
0.78826928 -0.46463063 -0.29507834 12895174
0.78848261 -0.45579812 -0.29460675 12960965
0.78800005 -0.44524521 -0.29519114 12631999
0.78800005 -0.43509918 -0.29519111 12961221
0.78818184 -0.42513537 -0.29475516 12698050
0.788423 -0.4151727 -0.29513648 12565690
0.78806674 -0.40469551 -0.29521638 13223363
0.78812003 -0.39457512 -0.29523668 12565179
0.78865504 -0.38484755 -0.29543769 14473176
0.78893524 -0.37514386 -0.29464811 15526377
0.79000002 -0.37147436 -0.29039213 15789546
0.79395479 -0.36520731 -0.29492408 15065822
0.79154551 -0.62531012 -0.28489497 11315377
0.7883448 -0.61417985 -0.28501043 12302525
0.78776675 -0.6046347 -0.2849595 12368573
0.78750008 -0.59486663 -0.28463173 12302267
0.78674197 -0.58465797 -0.2845583 12433854
0.78621864 -0.57463014 -0.28451377 12368574
0.78625804 -0.56500053 -0.28456092 12303294
0.78688592 -0.55527318 -0.28450847 12237500
0.78703153 -0.54511118 -0.28469244 12565952
0.7869119 -0.53489685 -0.28465027 12105658
0.78687102 -0.52491605 -0.28478464 12368829
0.78637505 -0.51485711 -0.28422567 12500158
0.78667665 -0.50499874 -0.28478232 12566207
0.78676921 -0.49534279 -0.28530905 12434879
0.78630763 -0.48549378 -0.28549612 12632257
0.78674287 -0.47476393 -0.28509086 12631227
0.78800011 -0.46509007 -0.28477764 12762812
0.78826928 -0.45540535 -0.28443369 12960448
0.78800005 -0.44524521 -0.28504518 12829376
0.78800005 -0.43509918 -0.28504518 12895168
0.7881819 -0.42496771 -0.28469211 13026499
0.78800005 -0.41468003 -0.28488612 12895173
0.7877059 -0.40478119 -0.28515717 13224135
0.78790635 -0.39481372 -0.28478116 11842481
0.78837138 -0.38468087 -0.28504705 14276824
0.78900003 -0.37736627 -0.2855095 14737118
0.79082602 -0.37290731 -0.28425503 15657960
0.79133344 -0.62492996 -0.27491468 11380913
0.78839993 -0.61435038 -0.27503872 12236732
0.78745842 -0.60455179 -0.27486542 12499903
0.78717858 -0.59477049 -0.27468032 12434367
0.78746444 -0.5847168 -0.27451581 12368576
0.78700006 -0.57456797 -0.27455035 12499905
0.78736687 -0.56469637 -0.27467787 12434881
0.78800005 -0.55500621 -0.27489918 12171964
0.78800005 -0.54486012 -0.27489921 12368831
0.78800005 -0.53471422 -0.27489915 12302781
0.78792006 -0.52543753 -0.27487102 12828608
0.78703582 -0.51504314 -0.27436525 12696508
0.78625923 -0.50449091 -0.27449611 12959679
0.78603441 -0.4946112 -0.27497506 12696765
0.78606248 -0.48520908 -0.27491277 13025730
0.78667641 -0.47536963 -0.27508581 12697021
0.78782147 -0.46510151 -0.27503449 12763582
0.78800005 -0.4553912 -0.27489913 12763583
0.78800005 -0.44524521 -0.27489921 12500927
0.78800005 -0.43509918 -0.27489924 12238270
0.78800005 -0.42495331 -0.27489918 12764354
0.78727996 -0.41442925 -0.2746484 12370110
0.78700006 -0.40506893 -0.27455032 12895941
0.78766686 -0.39526889 -0.27478293 12171446
0.78866655 -0.38469297 -0.27513173 14605277
0.78900003 -0.37839237 -0.27586374 14341846
0.79080015 -0.37425444 -0.27464166 15395046
0.78900003 -0.62035769 -0.26508918 12434113
0.79160005 -0.62611067 -0.26503646 11709621
0.78809088 -0.61519951 -0.26520345 12303039
0.78612 -0.60521221 -0.26504222 12434625
0.78566658 -0.5947451 -0.26488906 12236989
0.78656667 -0.584378 -0.26519313 12368576
0.78700006 -0.57456797 -0.26533848 12105916
0.7877242 -0.56568474 -0.2651366 12632002
0.7874139 -0.55535495 -0.2653518 12500672
0.78784853 -0.54450375 -0.26512182 12434880
0.78800005 -0.53471428 -0.26475322 12434622
0.78792602 -0.52564639 -0.26524097 12434620
0.78710014 -0.5147565 -0.26537234 12367544
0.78627998 -0.50409591 -0.26509455 12696508
0.78600001 -0.49471623 -0.26500127 12499386
0.78687495 -0.48490319 -0.26494947 12630972
0.7879445 -0.47472703 -0.26473421 12434109
0.78750002 -0.46446261 -0.26529473 12763588
0.78785723 -0.45511046 -0.26503494 12829635
0.78800005 -0.44524515 -0.26475325 13158340
0.78800005 -0.43509915 -0.26475322 12632512
0.78800005 -0.42495328 -0.26475322 12829377
0.78793341 -0.41477239 -0.26473045 12697789
0.78783345 -0.40457523 -0.26469636 13290183
0.78800005 -0.39451537 -0.26475319 11184296
0.78826475 -0.38476872 -0.26505998 14934495
0.78875005 -0.37723324 -0.26373652 15263715
0.79041183 -0.37210226 -0.26496527 15527145
0.79533339 -0.36539698 -0.26543775 14673118
0.78900003 -0.62097341 -0.25462249 12565187
0.79121429 -0.62620181 -0.25564632 11446707
0.78734779 -0.614492 -0.25471726 12499906
0.78616655 -0.60524762 -0.25493523 12434624
0.78599977 -0.59499836 -0.25488099 12236989
0.78603208 -0.58472389 -0.25504008 12170682
0.78680009 -0.57521027 -0.25500906 12368571
0.78700012 -0.56535614 -0.25469354 12433596
0.78700024 -0.55522317 -0.25520536 12565695
0.78703463 -0.5451135 -0.2549943 12763329
0.78720701 -0.53493828 -0.25422475 12500158
0.7871787 -0.52474606 -0.25493458 12565695
0.78716683 -0.51479924 -0.25525847 12697537
0.78720009 -0.50468564 -0.25526911 12632000
0.78715634 -0.49509799 -0.25502446 12434877
0.78765637 -0.48555836 -0.25535935 12500928
0.78800005 -0.4747608 -0.25460726 12500413
0.78727597 -0.46406165 -0.25513563 12697794
0.78740746 -0.45525262 -0.25482485 12566210
0.78800005 -0.44524524 -0.2546072 12697792
0.78842849 -0.4347415 -0.25454712 12500669
0.78800005 -0.42444083 -0.25481224 12763585
0.78840005 -0.41501737 -0.25473747 13026497
0.78803343 -0.40467864 -0.25461808 13618377
0.78784007 -0.39443588 -0.25455597 11445926
0.78728002 -0.38493937 -0.25437576 15065822
0.78839284 -0.37566036 -0.2545369 15658219
0.79000002 -0.37147436 -0.25802755 15592169
0.79366678 -0.36665636 -0.25502834 14934749
0.78900003 -0.62289733 -0.24430972 12301759
0.79049999 -0.62639517 -0.24569918 11314865
0.78670841 -0.61502832 -0.24513555 12236476
0.78573066 -0.60512263 -0.24453631 12236475
0.78609985 -0.59507358 -0.24479157 12302267
0.78648275 -0.58447504 -0.24478284 12433853
0.78684616 -0.57466841 -0.24516629 12631231
0.78663987 -0.56509763 -0.24496141 12499132
0.7865001 -0.55519855 -0.24504927 12302523
0.78599995 -0.54480618 -0.24462448 12434879
0.78611112 -0.53486305 -0.24500033 12500416
0.78667867 -0.52520061 -0.2447758 12631745
0.78736675 -0.51492882 -0.24518655 12828352
0.78800005 -0.50519866 -0.24538362 12959937
0.78800005 -0.49505273 -0.24538365 12763072
0.78800005 -0.4849067 -0.24538361 12566208
0.78800005 -0.47476074 -0.24538359 12895428
0.78800005 -0.46461475 -0.24538356 12763842
0.78800005 -0.45539117 -0.24538365 12895173
0.78800005 -0.44524521 -0.24538359 12566209
0.78800005 -0.43509918 -0.24538361 12368571
0.78800005 -0.42495328 -0.24538356 12697793
0.78800005 -0.41480723 -0.24538361 12763327
0.78796434 -0.40497249 -0.24557027 13420999
0.78718525 -0.39451748 -0.24492568 11710128
0.78700006 -0.38480273 -0.24507223 15525860
0.78806251 -0.37494257 -0.24505694 15461096
0.78900003 -0.36915708 -0.24569501 14342873
0.79370004 -0.36626688 -0.24461596 14738141
0.78875005 -0.62200755 -0.23522949 12367806
0.79090005 -0.62666625 -0.23424964 11380654
0.78676927 -0.61520582 -0.2347281 12236735
0.78563619 -0.60533917 -0.23478171 12105919
0.7867949 -0.59510189 -0.23466423 12039863
0.78739405 -0.58457482 -0.23530647 12171196
0.78673339 -0.5743745 -0.23485833 12368831
0.78589994 -0.56456625 -0.23461102 12171709
0.78589994 -0.55536646 -0.23461103 12435136
0.78636128 -0.54556715 -0.23474699 12172221
0.78649986 -0.53519231 -0.23455788 12238272
0.78611755 -0.5248844 -0.23489194 12567236
0.78725022 -0.51485246 -0.23501375 12763844
0.78800005 -0.50519866 -0.23523766 12698049
0.78800005 -0.49505267 -0.23523767 12631997
0.78800005 -0.4849067 -0.2352377 12434618
0.78790921 -0.47512552 -0.23535076 12763586
0.78772736 -0.46495634 -0.23501663 12829379
0.78800005 -0.4553912 -0.23523766 13092549
0.78800005 -0.44524521 -0.23523767 13092548
0.78800005 -0.43509921 -0.23523764 12895429
0.78800005 -0.42495328 -0.23523767 12698050
0.78796673 -0.41478959 -0.23522764 13026501
0.78716671 -0.40515655 -0.23499009 13487307
0.78672248 -0.39479581 -0.2348574 12236469
0.78780657 -0.38501757 -0.23503026 15329510
0.78846663 -0.37585896 -0.23562203 15527144
0.79040003 -0.37129161 -0.23206849 14737627
0.79477429 -0.36686605 -0.23500399 14869724
0.78900003 -0.62035769 -0.22814792 11973814
0.79152632 -0.62497985 -0.22492772 11447473
0.78795242 -0.61470437 -0.22490107 11842742
0.79000002 -0.61929452 -0.22011478 10987435
0.78682154 -0.60482973 -0.22475338 12237246
0.7875163 -0.59450871 -0.22507162 12105658
0.7880401 -0.58455122 -0.2251029 12170679
0.7880401 -0.57532781 -0.22510187 12171194
0.78715384 -0.56525475 -0.22470587 12105916
0.78679335 -0.55491716 -0.2248721 12105916
0.78744453 -0.54498774 -0.22472675 12171707
0.78717864 -0.53474951 -0.22505376 12435392
0.78720009 -0.52495652 -0.22486238 12238527
0.7877667 -0.5151909 -0.225024 12502214
0.78849989 -0.50492513 -0.22503538 12500929
0.78859258 -0.49491227 -0.22546481 12566720
0.7880401 -0.4849315 -0.22510286 12500154
0.78761542 -0.47523934 -0.22505261 12631743
0.78779322 -0.46525487 -0.22496882 12895173
0.78800005 -0.45539117 -0.22509171 12961478
0.78800005 -0.44524524 -0.22509167 13093320
0.78788 -0.4350332 -0.22505799 12895171
0.78775877 -0.42498186 -0.22515093 12894914
0.78742313 -0.41471642 -0.22478643 12631741
0.78616011 -0.40463853 -0.22456652 12961222
0.78551835 -0.39470211 -0.22458875 11710641
0.78793937 -0.38492298 -0.22490796 15724010
0.78900003 -0.37746888 -0.22537735 15987438
0.79087502 -0.37280902 -0.22498678 15197921
0.78871435 -0.61327547 -0.21896493 10987434
0.78856254 -0.60432231 -0.21763659 10921899
0.79114282 -0.6053744 -0.21275797 8487816
0.78850007 -0.59462494 -0.2170947 10987693
0.7906363 -0.59522605 -0.21187824 7567487
0.78892314 -0.58563226 -0.21825181 11316142
0.7925002 -0.58469838 -0.21282764 8554123
0.78900003 -0.57561773 -0.21922046 12105144
0.79299998 -0.57490915 -0.21415573 9212051
0.78880006 -0.56480324 -0.2188569 11974073
0.79226094 -0.56518197 -0.21356125 9935003
0.78857893 -0.55483103 -0.21709445 11513524
0.79091668 -0.5556733 -0.21203654 10526886
0.7883572 -0.54477721 -0.21616232 11842744
0.79000002 -0.54531837 -0.21086773 10791342
0.78840005 -0.53498566 -0.21597624 11974842
0.79000002 -0.53514659 -0.21086775 10791340
0.78846157 -0.52537197 -0.21627738 11975098
0.79033333 -0.5239619 -0.2115732 10988205
0.78879994 -0.51555932 -0.21817964 12040892
0.79073685 -0.51464957 -0.21340102 11580597
0.78899992 -0.50411582 -0.21823536 12238269
0.79029417 -0.50536382 -0.21333958 12040890
0.7889998 -0.49440211 -0.21585788 12500927
0.79000002 -0.49769619 -0.2113301 11908533
0.78846663 -0.48519516 -0.21507239 12105911
0.78790921 -0.47512558 -0.21483696 11974068
0.78787893 -0.46504557 -0.21499649 11974325
0.78800005 -0.4553912 -0.2149457 12237495
0.78800005 -0.44524515 -0.21494575 12632252
0.78716677 -0.43463957 -0.21471786 12763840
0.7871334 -0.42540699 -0.21470848 12829631
0.78688914 -0.41514409 -0.21464211 12631996
0.78648382 -0.40462506 -0.21438125 13159111
0.78580654 -0.39478156 -0.21425536 11843255
0.78774995 -0.38488862 -0.21506056 15855081
0.78900003 -0.37777671 -0.21768127 16184047
0.79490006 -0.50509369 -0.2052823 9540245
0.79296565 -0.49493796 -0.20518652 9606294
0.78900003 -0.483675 -0.20875375 11646903
0.79172003 -0.48534176 -0.20427868 9146001
0.78877765 -0.47440895 -0.20664269 11186866
0.79071432 -0.47547016 -0.2018017 8159620
0.78874981 -0.46505696 -0.205917 10593701
0.79045451 -0.46471587 -0.20089503 8422535
0.7888999 -0.45535678 -0.20651083 11316906
0.79086667 -0.45457801 -0.20159377 8421762
0.78881818 -0.4451206 -0.20753026 12039600
0.79120004 -0.44519964 -0.20266502 9540237
0.78853327 -0.43477842 -0.20678352 12040377
0.79144454 -0.43545568 -0.20219254 9278355
0.78829408 -0.42484021 -0.2068294 11711411
0.79106253 -0.42475235 -0.2018903 9344406
0.78833336 -0.41498271 -0.2067311 11579310
0.7909376 -0.41484874 -0.20197412 10461602
0.78833324 -0.40483248 -0.20673107 12040372
0.79106247 -0.40496033 -0.20177458 10526876
0.78833336 -0.39468223 -0.2067311 11381677
0.78871429 -0.38590392 -0.20696321 14934749
