# .PCD v0.7 - Point Cloud Data file format
VERSION 0.7
FIELDS x y z rgb
SIZE 4 4 4 4
TYPE F F F U
COUNT 1 1 1 1
WIDTH 609
HEIGHT 1
VIEWPOINT 0 0 0 1 0 0 0
POINTS 609
DATA ascii
0.78900003 -0.63144004 -0.40084833 14274521
0.79173338 -0.63560593 -0.40495771 11774903
0.78850001 -0.62504047 -0.40244082 13288395
0.79087496 -0.62483948 -0.40689293 11709364
0.78844452 -0.6156137 -0.40118179 11775671
0.79217649 -0.61434108 -0.40661016 11314350
0.78900003 -0.60465759 -0.40084836 12236478
0.79314297 -0.60504329 -0.40653768 11775671
0.78900003 -0.59449875 -0.40084833 11973303
0.7930001 -0.59542251 -0.4063648 11643826
0.78900003 -0.58526343 -0.40084833 11907254
0.79253852 -0.58403182 -0.40521732 11512496
0.78900003 -0.57510459 -0.40084833 12236475
0.79261535 -0.57452548 -0.40482968 11644338
0.79212499 -0.56509441 -0.40417823 11644338
0.79278952 -0.55486017 -0.40521985 11578548
0.79194742 -0.54510009 -0.4049845 11447475
0.78900003 -0.53446925 -0.40084833 11513268
0.79166663 -0.53503877 -0.40580937 11381682
0.78900003 -0.52708095 -0.40084833 11315887
0.79268426 -0.52480155 -0.40594676 11447729
0.79447377 -0.51570374 -0.40500414 11644338
0.79591662 -0.50622982 -0.40312114 11645108
0.79325002 -0.64459378 -0.39495909 10854829
0.78815389 -0.6334604 -0.39460033 13683670
0.7902 -0.63831985 -0.39516908 11314868
0.78543752 -0.62445128 -0.39536408 14078169
0.7846843 -0.61444491 -0.39508212 12105150
0.78595233 -0.6048156 -0.3948358 12302018
0.78609532 -0.59519881 -0.39490789 12301756
0.78582621 -0.58506501 -0.39452115 12104376
0.78575003 -0.57503128 -0.39460361 12302012
0.78647989 -0.56527227 -0.39485976 12236475
0.78772002 -0.55480671 -0.39511153 12236477
0.79000002 -0.55456537 -0.39950696 12894405
0.78766662 -0.54486734 -0.39450604 12170684
0.78752375 -0.53509259 -0.39527285 12039355
0.78731805 -0.52503473 -0.39538985 12171452
0.78759998 -0.51526624 -0.39497668 12302781
0.79000002 -0.51387846 -0.39950696 11710131
0.78766668 -0.50486147 -0.39304283 12500674
0.79100001 -0.50387883 -0.39769864 12303038
0.78844452 -0.49563906 -0.39195293 12434623
0.79155558 -0.49532932 -0.39638311 12237244
0.78900003 -0.48552203 -0.39161301 12434622
0.79191679 -0.48546124 -0.39584279 12303037
0.78900003 -0.47536317 -0.39161301 12105657
0.7915833 -0.47444716 -0.39614049 12237245
0.78850007 -0.46490955 -0.39228836 12632001
0.79140002 -0.46476787 -0.39743736 11842485
0.78854555 -0.45520261 -0.3923949 12236730
0.7912727 -0.45492336 -0.3974576 11908278
0.78850007 -0.4459883 -0.3918266 12368829
0.79166669 -0.44530869 -0.3966454 11842742
0.78900003 -0.43472782 -0.39161301 12566208
0.79141665 -0.43513083 -0.39559326 12170937
0.78900003 -0.42456895 -0.39161301 12368572
0.79275006 -0.42472556 -0.39626011 12105657
0.78900003 -0.41902778 -0.39161301 12171707
0.79319996 -0.41506693 -0.395064 12171707
0.79373688 -0.40471411 -0.39406702 12368829
0.79212505 -0.6450696 -0.38481998 10459815
0.78780949 -0.63496894 -0.38443485 12564678
0.79000002 -0.63963795 -0.38841054 9866910
0.7828126 -0.62454295 -0.38522011 14210527
0.7790001 -0.61266094 -0.38366544 13092300
0.78037506 -0.61585832 -0.38664806 13026251
0.77900004 -0.6088478 -0.38209048 10592168
0.78168756 -0.60482609 -0.38483825 11907260
0.7837745 -0.59535384 -0.3844592 12564416
0.78364736 -0.58528513 -0.38447469 12498108
0.78310013 -0.57508123 -0.38409749 12301500
0.7826668 -0.5652352 -0.38455907 12433597
0.78429425 -0.55541688 -0.38463107 12170684
0.78526658 -0.54480922 -0.38424402 12236733
0.78425008 -0.53454238 -0.38474122 12236476
0.78317881 -0.52469796 -0.38505751 12170939
0.78330779 -0.5148142 -0.38526332 12368575
0.78355587 -0.50506562 -0.38449568 12105916
0.7852143 -0.49533612 -0.38468057 11842743
0.78560007 -0.48526645 -0.38533172 12434622
0.78518194 -0.47540036 -0.38504413 12368829
0.78410518 -0.46521497 -0.38474455 12632002
0.7840001 -0.45491326 -0.3854638 12368573
0.78463644 -0.444677 -0.38511065 12434881
0.7851001 -0.4353334 -0.38508758 12500416
0.7845217 -0.42510924 -0.38484445 12697795
0.78587508 -0.41513932 -0.38531467 12500415
0.78725004 -0.40464291 -0.38485011 13092039
0.78775007 -0.39531046 -0.38338721 13091781
0.79028571 -0.39433697 -0.38828683 13091781
0.78870004 -0.38618734 -0.38186333 13354696
0.79305267 -0.64484781 -0.37476096 10262180
0.78812504 -0.63408512 -0.37526435 13354193
0.7902 -0.63868976 -0.37370896 10130083
0.78390902 -0.62486631 -0.37498599 14276058
0.77900004 -0.6121304 -0.37862554 12697797
0.78138715 -0.61507857 -0.37431753 13223370
0.78244752 -0.60546541 -0.37519789 11577781
0.7844376 -0.59587979 -0.375002 12499136
0.78523326 -0.58522582 -0.37503687 11973305
0.78557146 -0.57477289 -0.37500054 11908025
0.78506446 -0.5644393 -0.37584409 12302524
0.78569227 -0.55543125 -0.37546766 12236218
0.78593326 -0.54527134 -0.37537152 12170939
0.78466672 -0.53408641 -0.37517449 12039867
0.78386694 -0.52456915 -0.3753019 12236733
0.78382379 -0.51471627 -0.37506381 12302526
0.78458071 -0.50531614 -0.37573084 12433857
0.78488457 -0.49571082 -0.37508246 11974074
0.78330028 -0.48568285 -0.37503055 12237244
0.7823056 -0.4749929 -0.37455374 12171450
0.78189659 -0.46480349 -0.37419894 12500672
0.77900004 -0.45201364 -0.37935498 13289931
0.78111428 -0.45506829 -0.3754698 12237243
0.78168952 -0.44511703 -0.37574103 12566208
0.78243762 -0.43534788 -0.37438744 12369344
0.7817058 -0.42495012 -0.37448016 12633029
0.78236359 -0.41500321 -0.37433124 12500929
0.78300017 -0.40547231 -0.37500119 12829380
0.78380668 -0.39495835 -0.37447679 12763329
0.78677422 -0.38462648 -0.37446633 13355466
0.79000002 -0.38072136 -0.37916353 14078675
0.79582363 -0.64479494 -0.36518836 10393254
0.78875005 -0.63170171 -0.36563736 14538719
0.79075003 -0.63623518 -0.36533046 13353936
0.78620833 -0.62460679 -0.36537722 14407388
0.78478771 -0.61487401 -0.36468741 12761794
0.7850908 -0.60519844 -0.36494276 12104638
0.78484374 -0.5950408 -0.36474469 12236992
0.78569424 -0.5852623 -0.36514059 11974078
0.78599977 -0.57462651 -0.36541501 11842491
0.78613323 -0.56473345 -0.36534473 12171196
0.78633332 -0.55567342 -0.36543691 12104632
0.7858609 -0.54522175 -0.36521915 12302011
0.78489989 -0.53444862 -0.36477193 12236731
0.78423345 -0.52481437 -0.36446127 12500417
0.78469443 -0.51501864 -0.36467594 12236988
0.78499991 -0.50511289 -0.36481878 12631232
0.78499991 -0.49527583 -0.3646026 12302781
0.78453332 -0.48522189 -0.36459935 12434883
0.78437161 -0.47517025 -0.36449593 12171452
0.78410357 -0.4652288 -0.36443007 12434622
0.78244126 -0.45465815 -0.36546028 12434365
0.78199977 -0.44460103 -0.36525527 12565952
0.78256679 -0.4348456 -0.3646042 12500416
0.78362519 -0.42431152 -0.36446449 12566724
0.78461283 -0.41503802 -0.36478502 12303808
0.78470004 -0.40572289 -0.36467808 12763843
0.78306699 -0.39479554 -0.36483666 12763329
0.78539395 -0.38451219 -0.36525258 13289930
0.78862506 -0.37890434 -0.36373416 13618896
0.79373097 -0.37529156 -0.3648698 12237243
0.79557151 -0.64481765 -0.35522923 10590631
0.78900003 -0.6317479 -0.35405603 14407134
0.79099995 -0.63640875 -0.3550649 12892871
0.78744453 -0.62500763 -0.35520121 14472927
0.78664523 -0.61505973 -0.354563 12499391
0.78705734 -0.60514188 -0.35458568 12105407
0.78715646 -0.59495193 -0.35476154 12171456
0.78720009 -0.58471715 -0.35491389 12105663
0.78730011 -0.57478684 -0.3548277 12236992
0.78754544 -0.56524491 -0.35468668 12104892
0.78724265 -0.55497575 -0.35505345 12236730
0.78646672 -0.54472131 -0.35445219 12368060
0.78563994 -0.5349524 -0.35499936 12368061
0.78580642 -0.52485764 -0.35459954 12433854
0.78621215 -0.51492745 -0.35425287 12302010
0.78596967 -0.50467741 -0.35431111 12499645
0.78600007 -0.49471509 -0.35471731 12433853
0.78670579 -0.48530141 -0.35434306 12565698
0.78706086 -0.47528258 -0.35480219 11974845
0.78641373 -0.46539447 -0.35458618 12566465
0.78423339 -0.45505193 -0.35527918 12434108
0.78325003 -0.44496724 -0.35460392 12893631
0.78371453 -0.43503663 -0.35512266 12697024
0.78493738 -0.42525247 -0.3553125 12763078
0.78539991 -0.41527721 -0.35489079 12565953
0.78499991 -0.40511671 -0.35458469 12829896
0.78393775 -0.39466152 -0.35537553 12631233
0.78502947 -0.3848615 -0.35504675 13355468
0.78845459 -0.37913704 -0.35492966 13224396
0.79400009 -0.37452012 -0.35486892 12237243
0.79412508 -0.64507163 -0.34489256 10591655
0.78880006 -0.63220346 -0.34534961 14539235
0.79054546 -0.63722014 -0.34476721 11643832
0.78726929 -0.62445664 -0.34489074 14473439
0.78716147 -0.61445159 -0.34480909 12368062
0.78828573 -0.60443842 -0.34492534 12565959
0.78822225 -0.5943234 -0.34530017 12303041
0.78800005 -0.58452165 -0.34499863 12039612
0.78792006 -0.57523942 -0.34496391 12105405
0.78800005 -0.56515205 -0.34499869 12105404
0.78796005 -0.55497819 -0.34498096 12302267
0.78732008 -0.54531246 -0.34470028 12565183
0.78666675 -0.53514898 -0.34508297 12433853
0.78706467 -0.52557802 -0.3454785 12565440
0.78790003 -0.51527905 -0.34495443 12565183
0.78704011 -0.50458413 -0.3445783 12565438
0.78648162 -0.49522305 -0.34474352 12434109
0.78703344 -0.48523283 -0.34457552 12829382
0.78753579 -0.47480947 -0.34499413 12369091
0.78740758 -0.46467611 -0.34453428 12368834
0.78664547 -0.45478648 -0.34547314 12303038
0.78651518 -0.44482416 -0.34501606 12630460
0.78645468 -0.43474773 -0.34549186 12630716
0.78656679 -0.42510089 -0.34529004 12762816
0.78621197 -0.41520545 -0.3448844 12763332
0.78518176 -0.40463406 -0.34493342 12960969
0.78539985 -0.39505196 -0.344778 12631747
0.78644729 -0.38506106 -0.34489739 13026761
0.78866673 -0.37884745 -0.34682855 13093067
0.7944119 -0.3751772 -0.34512156 12237499
0.79240012 -0.64510804 -0.33468187 10854570
0.788625 -0.63275605 -0.33465648 14407392
0.79000002 -0.63801968 -0.33454666 10788267
0.78742313 -0.62479115 -0.3353163 14539231
0.78730011 -0.61441189 -0.33547693 12302012
0.78825003 -0.60437018 -0.33536336 12631495
0.78827268 -0.59445459 -0.33471793 12237246
0.78800005 -0.58452165 -0.3348527 12170941
0.78800005 -0.57529807 -0.3348527 12236991
0.78800005 -0.56515217 -0.33485267 12236990
0.78788471 -0.555067 -0.33551359 12368317
0.78740007 -0.54536796 -0.33552015 12631230
0.78703243 -0.53483003 -0.33518422 12302780
0.78776675 -0.52533406 -0.33475289 12369088
0.78788245 -0.51548535 -0.33507419 12303297
0.78632003 -0.50412267 -0.33505997 12501189
0.78591996 -0.4946655 -0.33488899 12303297
0.78687513 -0.48490384 -0.33494955 12829384
0.7871725 -0.47505653 -0.33465889 12369091
0.78745735 -0.4650842 -0.33475319 12763592
0.78766668 -0.45519871 -0.33470953 12434624
0.78758341 -0.44500917 -0.33467418 12828610
0.78763354 -0.43489677 -0.33469534 12630973
0.7872144 -0.42564902 -0.334847 12828866
0.78686678 -0.4151324 -0.33529177 12697795
0.78667873 -0.40450794 -0.33461779 13092553
0.78687108 -0.39490032 -0.3348172 12697540
0.7879144 -0.38477287 -0.3351579 12829383
0.79000002 -0.38072136 -0.33200371 12830409
0.79464519 -0.37688893 -0.33524036 12105915
0.7922858 -0.64484721 -0.32452795 10854570
0.78866667 -0.63302028 -0.32498136 14604770
0.79000002 -0.63848209 -0.32622433 10393510
0.78683329 -0.62479532 -0.32514802 14275803
0.78606451 -0.61490256 -0.32527569 12564670
0.78712505 -0.60529196 -0.32469216 12696257
0.78738469 -0.59491265 -0.3245959 12368317
0.78720707 -0.58469564 -0.32425365 12302268
0.78751999 -0.57494736 -0.32451031 12236475
0.78742313 -0.56544775 -0.32461229 12368061
0.78646159 -0.55540979 -0.32506573 12302270
0.78568959 -0.54494303 -0.32546848 12105404
0.78705716 -0.53512478 -0.32510799 12434624
0.78800005 -0.52549052 -0.32470667 12369088
0.7876876 -0.51491117 -0.32492304 12238271
0.7864331 -0.50419468 -0.32497999 12173248
0.78646678 -0.49500942 -0.32499358 12369601
0.78747076 -0.48571804 -0.32513821 12763078
0.78793752 -0.47472313 -0.32502645 12697538
0.78803998 -0.46463814 -0.32472301 12697793
0.78864276 -0.45516896 -0.32477239 12763842
0.78855538 -0.44504592 -0.32513925 12829378
0.78847998 -0.43536469 -0.32490319 12631485
0.78793555 -0.42494842 -0.3249177 12632257
0.7872501 -0.41475838 -0.32554841 12698052
0.78769708 -0.4047558 -0.32508406 13158602
0.78785723 -0.3945094 -0.32524016 13026503
0.78834784 -0.3857815 -0.32509097 12895430
0.79037499 -0.38136441 -0.3242965 12961994
0.79522222 -0.3777827 -0.32512733 11909050
0.79273695 -0.64478743 -0.31522948 10656938
0.78868747 -0.63315243 -0.31541201 14341855
0.79000002 -0.63805276 -0.31469855 11511734
0.78675008 -0.6250369 -0.31498265 14079453
0.78520578 -0.61483234 -0.31501284 12368834
0.78713334 -0.60506731 -0.31513521 12631749
0.78785717 -0.59488952 -0.31522772 12433854
0.78722239 -0.58435494 -0.31537569 12499134
0.78700006 -0.57456797 -0.31508279 12301755
0.78688014 -0.56527048 -0.31503427 12433597
0.78588879 -0.55515581 -0.31504548 12302782
0.7851944 -0.5447585 -0.31527758 12303037
0.78693336 -0.53490829 -0.31505585 12434367
0.78800005 -0.52549058 -0.31548306 12500159
0.78809094 -0.51515222 -0.3150157 12697023
0.78796005 -0.50517309 -0.31546694 12499900
0.78793341 -0.49501052 -0.31545609 12828865
0.78792006 -0.48485771 -0.31545138 12632002
0.78800005 -0.47476074 -0.31548309 12697281
0.78889638 -0.46501553 -0.31507778 12631484
0.78899974 -0.45558688 -0.3158834 12894913
0.79000002 -0.45337656 -0.31152818 12565179
0.7889998 -0.44446039 -0.31552827 12960963
0.79000002 -0.4482246 -0.31166026 12828608
0.78899974 -0.43472779 -0.31495991 12632512
0.78853321 -0.42431846 -0.31477219 12500927
0.78803855 -0.41496959 -0.31528541 12631998
0.78712004 -0.40513107 -0.31513068 12697791
0.78730017 -0.39508498 -0.31520325 13157829
0.78847998 -0.38552502 -0.3153061 12961480
0.79000002 -0.38102961 -0.31535909 13027529
0.79475003 -0.37788674 -0.31508288 11777205
0.79194123 -0.64481008 -0.3047373 10525609
0.78839999 -0.63354474 -0.30503049 14341087
0.79000002 -0.63932973 -0.30580381 11511478
0.78652394 -0.62507582 -0.30551061 14276573
0.78684217 -0.61502242 -0.30493492 11776952
0.78790635 -0.60508692 -0.30553088 13289165
0.78811115 -0.594751 -0.30537963 12500162
0.78833336 -0.58476895 -0.30546471 12236989
0.78810006 -0.57537138 -0.30537489 12434368
0.7879715 -0.56526345 -0.30519408 12237246
0.78714824 -0.5551579 -0.30490336 12236475
0.78599989 -0.54515862 -0.30560902 12499648
0.78711444 -0.53490067 -0.30512553 12565699
0.78800005 -0.52549052 -0.3053371 12302783
0.78845447 -0.51589221 -0.30509394 12499645
0.78816676 -0.50530612 -0.30540189 12565951
0.78800005 -0.49505267 -0.3053371 12828610
0.78750008 -0.48460045 -0.30514348 12763331
0.78772235 -0.47459209 -0.30522951 12894660
0.78857684 -0.46509546 -0.30485046 12762817
0.79000002 -0.46024573 -0.30241325 12565952
0.78900003 -0.45966315 -0.30664811 12630716
0.7901113 -0.45455548 -0.30481857 12697279
0.78900003 -0.44257784 -0.30803341 12763842
0.7900455 -0.44606474 -0.30436394 12631999
0.78899974 -0.434398 -0.30499902 12698049
0.79000002 -0.43990231 -0.30241325 11776690
0.7889998 -0.42456895 -0.30480108 12632512
0.7882759 -0.41482621 -0.30528429 12894914
0.78775775 -0.40495646 -0.30499071 12631488
0.78742439 -0.39472947 -0.3053638 12829122
0.78817242 -0.3855024 -0.30524468 13093066
0.79000002 -0.38072136 -0.30518734 12435393
0.79490906 -0.37851235 -0.30479464 11974327
0.79231256 -0.645338 -0.29460284 10590629
0.78838891 -0.63515604 -0.294824 14867427
0.79000002 -0.63963795 -0.29547799 13880278
0.78606886 -0.62528801 -0.29522979 14605280
0.78710812 -0.61543012 -0.29515576 12366522
0.78800005 -0.60481358 -0.29519111 13420492
0.78810006 -0.5947426 -0.29522896 12433852
0.78883982 -0.58514428 -0.29550642 12368059
0.78892839 -0.57538253 -0.29553932 12433596
0.78800005 -0.56463963 -0.29519108 12499390
0.78740013 -0.55458498 -0.29496634 12564926
0.78603321 -0.54442054 -0.29537427 12368061
0.78680652 -0.53497279 -0.29492217 12369089
0.78724009 -0.52498305 -0.29490718 12369862
0.78793341 -0.51530063 -0.29516637 12236991
0.78800005 -0.5051986 -0.29519117 12566211
0.78800005 -0.49505273 -0.29519114 12632260
0.78796005 -0.48488221 -0.29517591 12829381
0.78800005 -0.47476074 -0.29519111 12763588
0.78874981 -0.46485806 -0.29487848 12698053
0.79000002 -0.46024573 -0.29963914 12698053
0.78900009 -0.45697653 -0.29187158 12632773
0.79009092 -0.4548336 -0.2958065 12829895
0.78900003 -0.44409508 -0.29055229 12565693
0.7900455 -0.44556043 -0.29612562 12763330
0.78899974 -0.43392745 -0.2941497 12697534
0.79000002 -0.43928584 -0.29748151 11974068
0.78896135 -0.4246195 -0.29533836 12697792
0.78840005 -0.41501886 -0.2953417 12763587
0.78800005 -0.40466127 -0.29519111 13158599
0.78800005 -0.39451531 -0.29519114 12697536
0.78829163 -0.38566399 -0.29530007 13224395
0.79243749 -0.38119566 -0.29383308 12632259
0.7930001 -0.64578271 -0.28499591 10524835
0.78818184 -0.63523239 -0.28469113 14736095
0.78619987 -0.62539589 -0.28439268 14605280
0.78684616 -0.61511928 -0.28465027 11578033
0.78793758 -0.60511106 -0.28513771 13354444
0.78800005 -0.59466767 -0.28504512 12433597
0.78800005 -0.58452165 -0.28504515 12565695
0.78800005 -0.57529801 -0.28504518 12433853
0.78796881 -0.56570625 -0.28526464 12565695
0.78702962 -0.55497301 -0.28447747 12368830
0.78660005 -0.54481381 -0.28453779 12106174
0.78662866 -0.53483588 -0.28452229 12106175
0.78696787 -0.52498031 -0.2847015 12237760
0.78775012 -0.51517987 -0.28495458 12106685
0.78800005 -0.5051986 -0.28504518 12303809
0.78800005 -0.4950527 -0.28504509 12172223
0.78800005 -0.4849067 -0.28504512 12698052
0.78808337 -0.47481048 -0.28507483 12697793
0.78822225 -0.46495023 -0.2846134 13092038
0.78864276 -0.45516899 -0.28455374 12894659
0.78851849 -0.44502524 -0.28410605 13157318
0.78865373 -0.43524739 -0.28450176 12829381
0.78800005 -0.42478031 -0.28481457 12829635
0.78757161 -0.41497666 -0.28522095 12698047
0.78765523 -0.40464285 -0.28597081 13026242
0.7877813 -0.39475083 -0.28473648 12763072
0.78838092 -0.38679537 -0.28531462 13618898
0.79347837 -0.38190538 -0.28480336 12106172
0.79206252 -0.64490324 -0.27481127 12367809
0.78842103 -0.63544649 -0.27485138 14209752
0.79000002 -0.63963795 -0.27929568 15262440
0.78696793 -0.62517816 -0.27471712 14473179
0.78756678 -0.61461985 -0.27474841 11446191
0.78800005 -0.60481364 -0.27489918 13157833
0.78790009 -0.59459186 -0.27486476 12106173
0.78788012 -0.58443296 -0.27485788 12565954
0.78731996 -0.57480204 -0.27466312 12303040
0.78711998 -0.56544256 -0.27459282 12500162
0.78700012 -0.55522305 -0.27455035 12237244
0.78707701 -0.5449301 -0.27443507 12303551
0.78717256 -0.53491503 -0.27473679 12303294
0.78700006 -0.52482378 -0.27455032 12762818
0.78773338 -0.51516891 -0.27480623 12631485
0.78800005 -0.5051986 -0.27489921 12762815
0.78767866 -0.49517998 -0.27498588 12697280
0.78785199 -0.48522455 -0.27464303 12829122
0.7882334 -0.47490039 -0.27497989 12434365
0.78847998 -0.46489808 -0.27506524 12893375
0.78800005 -0.45539117 -0.27489915 12631739
0.78800005 -0.44524521 -0.27489921 12960708
0.78800005 -0.43509918 -0.27489913 12500929
0.78776008 -0.42574689 -0.27481592 12829633
0.78625017 -0.41469264 -0.27492142 12763068
0.78564507 -0.40454865 -0.2748501 13223877
0.78720009 -0.39503387 -0.27462021 12829378
0.78860003 -0.3874304 -0.27510822 13026761
0.79339302 -0.38241416 -0.27511993 12171965
0.78900003 -0.64215297 -0.26268801 15460075
0.79100007 -0.64584976 -0.2656078 12235454
0.78790909 -0.6355983 -0.26522684 14341338
0.78674078 -0.62553966 -0.26545659 14473177
0.7863335 -0.61532909 -0.26504701 11051688
0.78632134 -0.60516787 -0.2651774 12960455
0.78642845 -0.59499353 -0.26494986 12631490
0.78686672 -0.58460152 -0.26529405 12499391
0.78700006 -0.57456797 -0.26533848 12433339
0.78700006 -0.56535614 -0.26533851 12565182
0.7872355 -0.55517161 -0.26476622 12565438
0.78791678 -0.54480207 -0.26472482 12631231
0.78800005 -0.53471416 -0.26475316 12368317
0.78746432 -0.52533227 -0.26490203 12763074
0.78716683 -0.51479888 -0.26539525 12959424
0.7874074 -0.5050239 -0.26506701 12959424
0.78700006 -0.49534568 -0.26533845 12894658
0.7875759 -0.48531434 -0.26502955 12894657
0.78802782 -0.47477728 -0.26476273 12697023
0.78810006 -0.46467391 -0.26478741 12631233
0.7879656 -0.45549867 -0.2649008 12435136
0.78740025 -0.44490629 -0.26547459 12763329
0.78789657 -0.43491438 -0.26487759 12434107
0.78720003 -0.4254443 -0.26540652 12697792
0.78599989 -0.415003 -0.2650013 12763583
0.78551841 -0.40471345 -0.26483876 12764099
0.78739405 -0.39487973 -0.2649678 12698307
0.78877765 -0.38751805 -0.26501429 12698565
0.79326928 -0.38221756 -0.26502222 12106171
0.78805876 -0.64479595 -0.25441018 14210266
0.79050004 -0.64929563 -0.25819147 10591144
0.78472733 -0.63403279 -0.25547412 14473179
0.78482139 -0.62507468 -0.2550928 14275795
0.78527993 -0.61559522 -0.25556722 11183277
0.78499991 -0.60526758 -0.25547558 13355470
0.78591651 -0.59493476 -0.25485399 12500418
0.78612107 -0.5844658 -0.25517175 12368830
0.78651524 -0.57471561 -0.25479871 12434622
0.78690016 -0.56528389 -0.25517341 12368832
0.78725028 -0.55562913 -0.25471124 12632518
0.78753585 -0.54486769 -0.25465614 12566210
0.78740758 -0.53472131 -0.25421241 12500160
0.78781486 -0.52516222 -0.2549569 12433856
0.78769457 -0.51514459 -0.25542906 12631490
0.78760725 -0.50475007 -0.25507176 12434625
0.78742439 -0.49510968 -0.25508988 12632516
0.7877667 -0.48549971 -0.25526854 12829381
0.78800005 -0.4747608 -0.25460726 12960967
0.78800005 -0.46461472 -0.25460726 12566980
0.7879616 -0.4552272 -0.25480744 12303809
0.7875278 -0.44497856 -0.25537479 12698051
0.7879231 -0.43519828 -0.25479481 12763070
0.7871334 -0.42540866 -0.25524771 12697278
0.78586197 -0.41564906 -0.25499493 12829895
0.78540617 -0.40493637 -0.25526294 12632259
0.78712124 -0.39524534 -0.25482601 13027785
0.78866667 -0.38746315 -0.25482264 12699078
0.79350007 -0.38233301 -0.2550531 11712698
0.78782606 -0.64565867 -0.24476686 12564929
0.7835201 -0.63446516 -0.24471802 13157831
0.78351295 -0.62483346 -0.24520652 12302779
0.78573525 -0.61530125 -0.24537957 12302013
0.78581804 -0.60514486 -0.2457052 12960968
0.78662086 -0.59530807 -0.24508049 12763588
0.78627998 -0.58508718 -0.24484888 12829380
0.78549999 -0.57510006 -0.24474779 12632001
0.78537929 -0.56495172 -0.24444199 12763587
0.78596157 -0.55519742 -0.24489228 12895173
0.78596544 -0.54513425 -0.24462366 12895431
0.7865001 -0.53461564 -0.24491714 12829382
0.7876001 -0.5252226 -0.24525957 12500673
0.78800005 -0.51534456 -0.24538358 12829637
0.78776002 -0.50504488 -0.24530895 12500413
0.78800005 -0.49505273 -0.24538361 12829379
0.78748 -0.48458755 -0.24522272 12960708
0.7873928 -0.47472349 -0.24539378 13289417
0.78759265 -0.46478382 -0.24505316 13092037
0.78800005 -0.4553912 -0.24538359 13092293
0.78803337 -0.44526395 -0.24539398 13026243
0.78800005 -0.43509918 -0.24538359 13092294
0.78728002 -0.42548749 -0.24515988 12500416
0.78588456 -0.41539273 -0.24493724 12698564
0.78529394 -0.40532503 -0.24519002 12698306
0.78693336 -0.39489946 -0.24505138 13092294
0.78861547 -0.38786408 -0.24557526 13158599
0.79416138 -0.3836152 -0.2450203 12040377
0.78866673 -0.64286643 -0.2375899 11512241
0.7879231 -0.63462138 -0.23584992 13553104
0.79000002 -0.63825089 -0.23167354 9934235
0.7876364 -0.62498349 -0.23520869 10789284
0.78775752 -0.61491001 -0.23507962 11842229
0.78756273 -0.60482311 -0.23533581 11644850
0.78753138 -0.59489018 -0.23486562 11644851
0.78676677 -0.58483559 -0.23486736 11447215
0.78587085 -0.5748111 -0.23456892 11118764
0.78605872 -0.56500345 -0.2347621 11842743
0.78629053 -0.5551666 -0.23463449 11645364
0.78663909 -0.54514492 -0.23482782 11645108
0.78714722 -0.5347845 -0.23519726 11974329
0.78770006 -0.52528983 -0.23514698 12303550
0.78800005 -0.51534456 -0.23523763 12632258
0.78800005 -0.50519872 -0.23523763 12566205
0.78790325 -0.49573609 -0.23506011 12697790
0.78651738 -0.48570973 -0.23495382 12960964
0.78572202 -0.47522795 -0.23455787 12763586
0.78652787 -0.46466577 -0.23479812 13026757
0.78696674 -0.45479414 -0.23493038 13158599
0.78717148 -0.44490799 -0.23512436 13290185
0.7874518 -0.43497503 -0.23492704 13290184
0.78673345 -0.42519182 -0.234859 13289926
0.78611761 -0.41500738 -0.23445761 13158084
0.78553098 -0.40465716 -0.23472911 12960962
0.78658319 -0.39472401 -0.23481502 13092807
0.78845459 -0.38836592 -0.23495358 13488850
0.79446441 -0.38465652 -0.23490377 11843512
0.78900003 -0.62405181 -0.22907145 8946566
0.79370016 -0.62485033 -0.22416908 9606039
0.78900003 -0.61420077 -0.22876363 11184812
0.79285747 -0.61496598 -0.22361843 8685710
0.78866673 -0.60440212 -0.22774331 10329505
0.792 -0.60528702 -0.22307754 8619660
0.788625 -0.59456211 -0.22723098 10395298
0.79162508 -0.59485376 -0.2223025 7895681
0.78860003 -0.58496708 -0.22710843 11052969
0.79100001 -0.5846628 -0.22235912 8882059
0.7883749 -0.57522553 -0.22692823 11447982
0.79053336 -0.57468021 -0.22211292 9868694
0.78866649 -0.56505829 -0.22651207 11645364
0.79041672 -0.56503445 -0.2214638 9474966
0.78878248 -0.55483454 -0.22611733 11777466
0.79030001 -0.5547753 -0.22112307 9146261
0.78875005 -0.54480094 -0.22726725 12040123
0.79064703 -0.54511064 -0.22203583 10856365
0.78899997 -0.53565663 -0.2273563 12171708
0.79089481 -0.53453422 -0.22260347 11251635
0.78899992 -0.52477211 -0.22745524 12303037
0.79094118 -0.52494586 -0.22244485 11579829
0.78894109 -0.51471049 -0.2267727 11250608
0.79069233 -0.51518291 -0.22187272 11381679
0.78890896 -0.50527805 -0.22610658 11053484
0.79100001 -0.50527018 -0.22131808 11447982
0.7883637 -0.49486178 -0.22628509 10856103
0.79049999 -0.49569792 -0.2211788 11711405
0.78799993 -0.48490739 -0.22508974 10921381
0.79000002 -0.4870621 -0.22011478 12895170
0.78771442 -0.47491744 -0.22481011 10724258
0.78792596 -0.46498013 -0.22527352 10395037
0.78772002 -0.45523015 -0.22501045 10329757
0.78710341 -0.44489762 -0.22470632 10461857
0.7878148 -0.43499568 -0.22503696 11251629
0.78821427 -0.4250679 -0.22515145 10922664
0.78815377 -0.41510084 -0.22527507 11316906
0.79000002 -0.41493532 -0.22011478 10199715
0.78803575 -0.40500933 -0.22490184 10856355
0.79000002 -0.40476361 -0.22011478 8882829
0.78784627 -0.39500424 -0.22540015 11909561
0.79042858 -0.39440748 -0.22049837 7369334
0.78900003 -0.38947475 -0.22722439 13752794
0.7953198 -0.56499738 -0.21600327 9080725
0.79563326 -0.55503654 -0.21621309 8817295
0.79592603 -0.53498214 -0.21637627 8554381
0.79580772 -0.52489024 -0.21606542 9014931
0.79576933 -0.51526344 -0.21641356 8948881
0.79556531 -0.49514696 -0.2157463 9146000
0.78900003 -0.48182794 -0.21983616 12763842
0.79320693 -0.48516378 -0.21453215 8948880
0.78900003 -0.47536317 -0.21983616 12895685
0.79252958 -0.47502977 -0.21431752 8685966
0.78900003 -0.46520439 -0.21983616 12698821
0.79303068 -0.46493271 -0.21442346 9541017
0.78900003 -0.45430669 -0.2190973 11054509
0.79276937 -0.45500448 -0.21367007 8948880
0.78880006 -0.44477361 -0.2188569 11318196
0.79200011 -0.44493553 -0.21332176 8948622
0.78900003 -0.43472782 -0.21983616 9739421
0.7924 -0.43519148 -0.21425618 10001565
0.78900003 -0.42456895 -0.21983616 9936544
0.79329425 -0.42496219 -0.21441337 10001819
0.79429436 -0.41505226 -0.21484748 10266020
0.79451734 -0.40527856 -0.21539892 10857645
