# .PCD v0.7 - Point Cloud Data file format
VERSION 0.7
FIELDS x y z rgb
SIZE 4 4 4 4
TYPE F F F U
COUNT 1 1 1 1
WIDTH 806
HEIGHT 1
VIEWPOINT 0 0 0 1 0 0 0
POINTS 806
DATA ascii
0.78900003 0.0057967617 0.12925881 13684422
0.78900003 0.012261483 0.12925881 13487041
0.78900003 0.0390439 0.12925881 13355455
0.7883001 0.045466725 0.12840554 12765377
0.79323816 0.044646211 0.12366826 10725022
0.78788239 0.054936711 0.12712081 11909556
0.79227769 0.054970391 0.12237345 11053474
0.78793329 0.06481535 0.12723778 12304570
0.79300016 0.065233998 0.1224848 11053475
0.78791672 0.074957497 0.12815818 13356488
0.79331821 0.075049102 0.1236278 11053220
0.78810012 0.08512444 0.12818806 14275788
0.78875005 0.092118204 0.12875608 14144973
0.79300016 0.095290035 0.12462366 11908527
0.78818184 -0.15339655 0.13784592 12170673
0.7867586 -0.14486881 0.13548948 13420736
0.78556263 -0.13519999 0.13518065 13617857
0.78512502 -0.12507275 0.13527477 13223873
0.78522575 -0.115079 0.13527142 13092288
0.78429639 -0.10480719 0.13602568 13355460
0.78514808 -0.094914138 0.13576476 13553869
0.77900004 -0.08363571 0.13856246 9209995
0.78470969 -0.084661864 0.13524038 13355976
0.77900004 -0.072693788 0.13856246 10592154
0.78489286 -0.075211398 0.13467737 13421252
0.77900004 -0.067222826 0.13856246 13685195
0.78500003 -0.065038502 0.13502355 13026750
0.7851072 -0.054817725 0.13537113 13092028
0.78491431 -0.044896699 0.13487798 12697528
0.78409666 -0.03479876 0.13501695 12698043
0.78528118 -0.025135221 0.13484402 12105653
0.78517634 -0.015098889 0.13527204 12500150
0.77900004 -0.0015713201 0.13856246 12631730
0.78482741 -0.0053844037 0.13483576 12763577
0.77855563 0.0057195071 0.13787551 14012357
0.78485191 0.0045415866 0.13367502 12499633
0.77828586 0.014046384 0.13791437 14538958
0.78486955 0.015192985 0.13376574 12433328
0.77900004 0.023959823 0.13856246 13553864
0.78542298 0.025218757 0.1354534 11513511
0.79033333 0.025234275 0.13132741 12303281
0.77883339 0.03550138 0.13822888 13879745
0.78536361 0.035269853 0.13433833 11709089
0.79000002 0.032620467 0.13127203 10986648
0.77738106 0.045228228 0.13775198 13156538
0.78366673 0.044806201 0.13257316 11906984
0.77695245 0.05499091 0.13706966 13157566
0.78242862 0.054942135 0.13171132 11380640
0.77700007 0.064643443 0.13711254 12895164
0.7826249 0.065294594 0.13187562 11382694
0.7774446 0.07497257 0.13706987 12895935
0.78287506 0.075049698 0.1318029 11578277
0.77665228 0.084599145 0.13735266 13421766
0.78243744 0.084855355 0.13207184 10920347
0.77866673 0.092003755 0.13789529 13814981
0.78581476 0.095304027 0.13486397 12368306
0.79000002 0.09827432 0.13127203 11974320
0.78866673 0.10241672 0.13781993 13092801
0.79179174 0.10583717 0.13465776 11777198
0.78872734 -0.16122305 0.14532818 10261905
0.78625935 -0.15470563 0.14462337 12695472
0.77890015 -0.1423391 0.14729682 12826546
0.78149998 -0.14546831 0.14412776 14011587
0.77865213 -0.13447905 0.14634557 13024693
0.7806251 -0.13612139 0.14159195 14867153
0.77816665 -0.12502067 0.14484836 13946053
0.78000003 -0.12665394 0.14056632 14209479
0.77744138 -0.11505075 0.14486703 13681854
0.7771669 -0.10527197 0.14460167 13616832
0.77683353 -0.095223784 0.14453973 13289407
0.776667 -0.085203305 0.14450945 12501691
0.77702796 -0.075238332 0.14457709 11975862
0.77653366 -0.065192081 0.14448383 11646642
0.77672261 -0.055207238 0.14451875 12040627
0.77703363 -0.045223903 0.14457646 12236980
0.77800006 -0.035529137 0.14497148 12303799
0.78000003 -0.030789241 0.14147931 9145482
0.77900016 -0.025470771 0.14691289 12632764
0.78045464 -0.024993159 0.14181043 10987171
0.77848154 -0.015004252 0.14616396 12305084
0.7804445 -0.015988141 0.14125508 10064524
0.77720696 -0.0050822976 0.144765 12105393
0.78000003 -0.0088773137 0.14056632 9865598
0.77619457 0.0047931289 0.1444211 11906985
0.77570015 0.014778527 0.1443285 11906471
0.77611136 0.024779739 0.14440659 11249309
0.7760334 0.034768354 0.1443913 11379868
0.77519983 0.044712491 0.14514479 12303030
0.77527994 0.054699373 0.14515944 12238521
0.77536654 0.064689077 0.14517546 11909815
0.77557135 0.074820824 0.14495349 11383212
0.77506882 0.084779494 0.14499502 12565171
0.77690017 0.093464546 0.14519057 12631220
0.78200001 0.098195888 0.14422056 13224646
0.78749996 0.10449614 0.14506555 12171957
0.79016668 0.10908558 0.14363103 11777198
0.78880006 -0.16132179 0.15507767 10392974
0.79175001 -0.16667683 0.15531024 10130831
0.7853182 -0.15493201 0.1548932 11972007
0.77805275 -0.14440984 0.15497747 13487047
0.78100008 -0.14940964 0.15406559 12761782
0.7773335 -0.13531998 0.15464245 13816011
0.77748007 -0.12533441 0.15467295 14013133
0.776968 -0.1151017 0.15474686 13618374
0.77653855 -0.10525671 0.15469469 13750472
0.77611148 -0.095135853 0.15530926 13025718
0.77616704 -0.085148446 0.15531929 12827826
0.77670616 -0.075420439 0.15515949 12301998
0.77664018 -0.0652017 0.15450656 12895164
0.77626699 -0.055175815 0.15443221 12632765
0.77636015 -0.04518459 0.15445085 12370880
0.77776676 -0.03525015 0.15473041 12239037
0.77892005 -0.025276311 0.15495963 12238780
0.77823335 -0.015236636 0.15482312 11119012
0.77656019 -0.0052036853 0.15449008 11314849
0.77588916 0.0047917287 0.15526509 12168872
0.77569997 0.014778996 0.15522806 12498090
0.77624279 0.024536662 0.15492299 11773598
0.77588475 0.034900911 0.15456606 11050386
0.77538872 0.044723287 0.15516618 11839649
0.77546674 0.054713096 0.15518163 11710376
0.77547222 0.064696804 0.15518256 11250599
0.774611 0.075504571 0.15500917 10659492
0.77436668 0.085453972 0.15496005 11644837
0.77640003 0.093404569 0.15473023 13091512
0.78128576 0.098497577 0.15621431 13420993
0.78687501 0.10479947 0.15469953 11908527
0.79000002 0.10937075 0.15808839 11711405
0.79357141 0.11544426 0.15508629 11645612
0.78850001 -0.1612608 0.1651718 10131086
0.79146671 -0.16650136 0.16486682 9999502
0.78436357 -0.15507704 0.16472107 11643812
0.77762979 -0.14498138 0.16481644 12697528
0.78000003 -0.14947885 0.16430426 9407623
0.7770558 -0.13527101 0.16459385 12828343
0.77720016 -0.12528996 0.16462475 13025465
0.77691454 -0.11537062 0.16469362 12696756
0.77682787 -0.10516182 0.16470188 12499633
0.77610028 -0.095134482 0.16529998 12433843
0.7760002 -0.085130222 0.16527829 12368050
0.77662528 -0.074970387 0.16507012 12302001
0.77700025 -0.065231271 0.16458179 12564656
0.7770558 -0.055230547 0.16459385 12433586
0.7772001 -0.045234077 0.16462524 12303286
0.77830553 -0.035274725 0.16485925 12171703
0.77899992 -0.025278807 0.16500542 11843769
0.77841663 -0.015239481 0.16488221 11252401
0.77720016 -0.0052071926 0.16462493 11448752
0.77693355 0.0047982321 0.16547802 10856100
0.77684015 0.014800871 0.16545916 11644074
0.77721232 0.02506236 0.16504112 11117213
0.77734494 0.034702946 0.16481307 11578792
0.77793336 0.044869602 0.16569309 11315363
0.77692014 0.054814503 0.16547655 11380387
0.77650034 0.06478253 0.16538641 11052195
0.7755385 0.074896887 0.16504148 10395807
0.77510333 0.084784016 0.16521375 11118752
0.77754551 0.092589691 0.16461466 11776169
0.7830714 0.097415932 0.16560689 13421508
0.78799999 0.10388674 0.16447106 12040370
0.79088891 0.1084661 0.16577625 11711405
0.78850007 -0.1606451 0.17470969 9473160
0.79220009 -0.16582315 0.17512599 9867918
0.78440911 -0.1547526 0.17491513 10723484
0.77800006 -0.14454395 0.17481117 12566197
0.7802 -0.14951718 0.1753056 11908269
0.77806669 -0.13544632 0.17482685 13025208
0.77823997 -0.12545785 0.1748659 13024952
0.77730012 -0.11529846 0.17465392 12827316
0.77696019 -0.10524338 0.17457731 13090228
0.77615654 -0.09502802 0.17473717 12827312
0.77607167 -0.085073017 0.17496167 12564140
0.77670032 -0.075205185 0.17451911 12169896
0.77712023 -0.065241076 0.17461367 12301997
0.77776682 -0.055279281 0.17475924 11972263
0.77872002 -0.04532288 0.17497364 11972778
0.77896422 -0.035567597 0.17476714 11710377
0.78000003 -0.031702235 0.17891219 13881286
0.77900004 -0.025126839 0.17488354 11316904
0.78000003 -0.028963247 0.17891219 13815493
0.77886659 -0.015246186 0.17500593 10725283
0.77848005 -0.0052157044 0.17492037 11447465
0.77833325 0.0048068804 0.1748866 11512230
0.77872002 0.014836879 0.17497367 11775400
0.77873337 0.024862826 0.17497657 10526616
0.77888006 0.034896832 0.175009 11249827
0.77899992 0.044931825 0.17503552 11512226
0.77844 0.054921661 0.17491081 11511194
0.77760011 0.064873263 0.17472215 11774366
0.77655578 0.074987225 0.17488994 11314590
0.77605754 0.084601454 0.17515302 11841962
0.77812511 0.092016153 0.17415592 11973034
0.78389472 0.097036898 0.17535947 12763578
0.78844452 0.10259326 0.17531186 11842736
0.79182357 0.1073359 0.17486282 11579820
0.78837508 -0.16077361 0.18590826 10328216
0.79275006 -0.16630945 0.18471278 9867920
0.78468186 -0.15514058 0.18499383 11447465
0.77783346 -0.14451337 0.18478794 12435130
0.78033334 -0.14954273 0.18538082 12040629
0.77722239 -0.13529988 0.18464217 12697788
0.77733344 -0.12531106 0.18466806 12566200
0.77708364 -0.11526576 0.18460996 12368564
0.77750009 -0.1053159 0.18471056 12631221
0.77747071 -0.095409237 0.18497154 12433327
0.77729642 -0.085339561 0.18516779 12497581
0.77816671 -0.075347088 0.18486975 12300204
0.77874994 -0.065573327 0.18468185 12366253
0.78000003 -0.061831143 0.18986815 14012354
0.77874178 -0.055203073 0.18427011 11775656
0.78000003 -0.055440161 0.18986815 13946820
0.77899992 -0.045338992 0.18506558 12236976
0.77899987 -0.035557583 0.18548006 12170671
0.78000003 -0.032615233 0.1807382 14671317
0.77899992 -0.025018288 0.18532611 11975348
0.78000003 -0.028963247 0.18165119 13881802
0.77896863 -0.015475955 0.18448833 11251883
0.78000003 -0.013442299 0.18986815 11450805
0.77900004 -0.0061304532 0.18233013 12632250
0.78022224 -0.0050236648 0.18555962 11186091
0.77900004 0.0049208845 0.18371609 11776942
0.78000009 0.0045686429 0.18837415 11120553
0.77896661 0.014840767 0.1850576 11711406
0.77899981 0.024741387 0.18493533 11315878
0.78000003 0.029468562 0.18986815 11579562
0.77899992 0.034901738 0.18506564 11512744
0.77899981 0.044931836 0.18506561 11381413
0.77886665 0.054952361 0.18503378 11380898
0.77808332 0.06491252 0.18484797 11578017
0.77689308 0.074623868 0.18489012 11644075
0.77690345 0.084970228 0.18530117 11710121
0.77844453 0.091977656 0.18462929 12500148
0.78263164 0.096879773 0.18500969 12566970
0.78788459 0.10489537 0.18561381 11645356
0.79100001 0.10904683 0.18143356 11514026
0.78900003 0.11107937 0.18836482 11711405
0.79303443 0.1154926 0.18452136 11711405
0.7883637 -0.16131683 0.19509059 10131607
0.7923125 -0.16656443 0.19506554 9736847
0.77900004 -0.15111086 0.19783118 12303032
0.78342867 -0.1548565 0.19471796 11513261
0.7777918 -0.14526476 0.19494446 12039091
0.78000003 -0.14947885 0.19169416 14145491
0.77696693 -0.13525574 0.19458641 12632253
0.77712011 -0.12527619 0.1946253 13091774
0.7771669 -0.11527757 0.19463715 13090486
0.7783103 -0.10467055 0.19504949 12892593
0.77882618 -0.095031843 0.19441865 12761264
0.78000003 -0.092873037 0.19899814 14472901
0.77877277 -0.085185744 0.1945425 12300969
0.78000003 -0.08739505 0.19899814 14407108
0.77899992 -0.075586483 0.19503285 11709089
0.78000003 -0.07096111 0.19717215 11117978
0.77899998 -0.066701785 0.19457467 11841189
0.78013045 -0.063905351 0.19553769 11972261
0.77900004 -0.05080995 0.19236022 12826798
0.78073925 -0.054897111 0.19576985 11971491
0.77900016 -0.045530956 0.19403994 11840421
0.78000003 -0.044788528 0.1986938 11709351
0.77900016 -0.035932787 0.1941359 11907756
0.78000009 -0.03427523 0.19700612 11512741
0.77899998 -0.027884031 0.19431414 11316649
0.78005552 -0.024298884 0.19566466 11053475
0.78013355 -0.015271215 0.19538023 10725540
0.77900004 -0.0024831467 0.19783118 10065556
0.78016007 -0.0055183689 0.19407038 11777972
0.77900004 0.0011641594 0.19783118 9539471
0.78011549 0.0053803334 0.19495337 11646128
0.77900016 0.015015237 0.19466153 11316394
0.78000003 0.013947612 0.19762862 9209737
0.77899998 0.024365079 0.19523077 10658462
0.78000003 0.029468561 0.19412881 10855584
0.7790001 0.03453701 0.19272494 12764608
0.78013331 0.035195667 0.19696239 9737361
0.77900004 0.049490962 0.19144839 11909556
0.78055179 0.044864155 0.19561166 10790304
0.77900016 0.055820122 0.19402298 11316391
0.78050011 0.053240299 0.1977559 9538952
0.77863324 0.064959988 0.19500469 11577762
0.77740008 0.074866809 0.19469543 11445149
0.77678156 0.084810056 0.19488014 11644327
0.77816677 0.091641121 0.19458306 11908014
0.78249997 0.096520931 0.19487187 12829628
0.78763634 0.10494012 0.19474481 11908527
0.79025006 0.108943 0.19837613 11579562
0.78900003 0.11107937 0.19205897 11579819
0.79177278 0.11568601 0.19484188 11645612
0.78836364 -0.16282718 0.20448808 9737362
0.79158336 -0.1674512 0.20473076 9736846
0.77900004 -0.15111087 0.20512579 12303539
0.78318197 -0.15642767 0.20530842 10921635
0.77726686 -0.14531678 0.20466843 12304055
0.77694476 -0.13525178 0.20458397 12698558
0.77700019 -0.12525669 0.2045975 13026239
0.77738905 -0.11530956 0.20470059 13092286
0.77844429 -0.10453154 0.2049792 13552064
0.77900016 -0.095921375 0.20594163 13617086
0.78000009 -0.09237504 0.20397808 13222328
0.77900004 -0.086371191 0.20740536 14079695
0.78006685 -0.084663048 0.2051025 12893878
0.77900016 -0.073909558 0.2032008 13682625
0.78000003 -0.075877242 0.20770672 12365483
0.77899992 -0.065524943 0.20528302 12300973
0.78033334 -0.060639456 0.20151861 14342352
0.7790001 -0.058286935 0.20694944 11116954
0.78054172 -0.053879991 0.20507319 12367533
0.78037941 -0.045356143 0.20533055 12564655
0.78038925 -0.035371598 0.20549041 12236205
0.78083348 -0.025337759 0.20560683 11841449
0.77900004 -0.011601412 0.20968492 8882057
0.78105885 -0.015505012 0.20539781 11513770
0.77900004 -0.0041244342 0.20932019 9738645
0.78028017 -0.0054471628 0.20462254 11712434
0.77900004 0.002075986 0.20968492 8949643
0.78024256 0.0050684926 0.20503764 11515827
0.77900004 0.018488863 0.20056666 11578792
0.78044456 0.014666189 0.20533682 11449008
0.77899998 0.025643192 0.20435427 11250086
0.78000009 0.022894984 0.2073977 10329244
0.78028584 0.035154823 0.20513794 11709864
0.78103137 0.045163006 0.20508842 11840935
0.77900004 0.058609232 0.20056666 12037797
0.78075004 0.054933626 0.20482509 11840933
0.77900004 0.065903842 0.20117454 12498605
0.78061903 0.064734757 0.20594433 11709604
0.77850014 0.075464129 0.20450547 11972263
0.78000003 0.071922928 0.20858459 10590097
0.77700019 0.084834188 0.20486714 11513510
0.77837503 0.091817535 0.20541787 12828343
0.78333336 0.096839249 0.20482488 12828343
0.78833342 0.10314291 0.20435441 12763066
0.79107696 0.10795441 0.20595621 11448234
0.78788882 -0.16410881 0.21566257 9670797
0.79042858 -0.16786686 0.21381728 9736590
0.77791673 -0.15196432 0.21561341 11776940
0.7827059 -0.15743674 0.21499087 11381669
0.7760334 -0.14508575 0.21524313 11776944
0.77583343 -0.13505858 0.21518834 12238013
0.7754668 -0.12501022 0.21508601 12303292
0.77616692 -0.11512807 0.21528098 12632254
0.77738476 -0.1050894 0.2145687 13026752
0.77824128 -0.095238835 0.21507102 12762294
0.77891308 -0.085766561 0.21536964 12499378
0.78016669 -0.081021585 0.21273793 13750471
0.77900004 -0.076948978 0.21576376 11511453
0.78008342 -0.074773036 0.21560752 12563883
0.77900004 -0.064588666 0.21272437 14669514
0.78019994 -0.064769283 0.21676603 11180947
0.77900004 -0.05992822 0.21150859 13683135
0.78072 -0.054576274 0.21563113 12497323
0.78111547 -0.045533694 0.21552891 12433073
0.77900004 -0.034397073 0.2188032 11182746
0.78016007 -0.035544831 0.21474548 12567227
0.77900004 -0.024670927 0.21880321 11182747
0.78009093 -0.025397105 0.21495895 12303284
0.77893764 -0.013766142 0.21662003 11710377
0.78007144 -0.016965674 0.21375592 12829884
0.77876014 -0.0052172053 0.21508855 12566199
0.7786296 0.0044382131 0.2153898 12237752
0.78000003 0.0081652971 0.21238875 12501693
0.7789377 0.014270768 0.21650605 11580080
0.78018188 0.015860282 0.212493 11450033
0.77900004 0.024415735 0.21333224 12041145
0.78038472 0.024987347 0.21581991 11120040
0.78092605 0.034784708 0.2152818 11317419
0.78050017 0.044909731 0.21492496 11382698
0.78103346 0.055106167 0.21480374 11382185
0.78166658 0.0652145 0.21497901 11381412
0.77900004 0.078365475 0.21576376 10722968
0.78078949 0.0741347 0.2154585 11841705
0.77735496 0.084843054 0.21487682 11908526
0.77900004 0.091434985 0.21515588 12895165
0.78366673 0.096531436 0.21530862 12565686
0.78845459 0.10261322 0.21457872 12434099
0.79146677 0.10772329 0.21489388 11447719
0.78694999 -0.16435552 0.22481294 9736589
0.79000002 -0.16958106 0.22466695 9802638
0.77726674 -0.15247498 0.22450179 12105140
0.78181821 -0.15781507 0.22541879 11052710
0.77519983 -0.14493041 0.22499488 12105910
0.77496415 -0.13516632 0.22466716 11909815
0.77499986 -0.12493492 0.22493687 12106935
0.77572435 -0.11503103 0.22502145 12237234
0.77706689 -0.10525702 0.22462684 12828344
0.77813882 -0.095383205 0.22493662 12762294
0.77899992 -0.085459366 0.22518593 12368050
0.7790001 -0.077556871 0.22731358 11380383
0.78016669 -0.074476682 0.22445758 12565174
0.77900004 -0.061751872 0.2297451 10854038
0.78076673 -0.06463442 0.22478266 12368049
0.7790001 -0.055004358 0.22901566 10723222
0.78033328 -0.054550245 0.22396183 12630962
0.77900004 -0.048074469 0.2297451 11118241
0.78048015 -0.045425404 0.22469968 12958900
0.77900004 -0.034397073 0.22062686 10590865
0.78064013 -0.035565645 0.22547837 13090999
0.77900004 -0.028926115 0.22062686 10393485
0.78058344 -0.025178412 0.22488354 12894650
0.77893764 -0.014222057 0.22254677 11514541
0.78021431 -0.016446926 0.22658114 13224645
0.7786895 -0.0051538246 0.22494048 11778485
0.77780557 0.0048030149 0.22484337 11253169
0.77821434 0.014568408 0.2246996 11186862
0.78000003 0.018512597 0.22821404 11187116
0.77900004 0.020312516 0.22245049 12698559
0.78092605 0.025442915 0.22503272 11512743
0.78112012 0.034995131 0.22488497 11774884
0.7790001 0.047667313 0.22700964 11973295
0.78009522 0.04382059 0.2238069 11577506
0.77899998 0.05365932 0.22896354 9538958
0.78059095 0.055323709 0.22423267 12038830
0.77900004 0.068639323 0.2297451 9209733
0.78133333 0.065185361 0.22494537 12104365
0.77788472 0.075402506 0.22535196 11380642
0.78025007 0.071945831 0.22235036 10853013
0.77620023 0.084773958 0.22450402 12302258
0.77900004 0.091434985 0.22609782 12763064
0.78477269 0.096295625 0.22501592 13223872
0.78900003 0.10184405 0.22530608 13092286
0.79154551 0.10663981 0.22468542 11974062
0.78766674 -0.16416547 0.23547551 9802892
0.79000002 -0.16803989 0.23391397 9671305
0.77692312 -0.15196888 0.23542902 11908527
0.78200012 -0.15730953 0.23441313 11382185
0.77499986 -0.14489359 0.23491487 12303542
0.77408344 -0.13475408 0.23463719 13027262
0.77426666 -0.12481623 0.23469205 13026494
0.77533323 -0.115004 0.23501557 12564916
0.77703857 -0.10539268 0.23483342 13025467
0.77776664 -0.095338933 0.23484282 13157822
0.77844012 -0.08539708 0.23504549 12894649
0.77899992 -0.075429283 0.2352161 12828085
0.7790001 -0.065150492 0.23554765 12827314
0.78000009 -0.065939628 0.23163779 12498348
0.77899998 -0.055439234 0.23493555 12565171
0.78000003 -0.053309832 0.23856133 10854042
0.77900004 -0.047162648 0.2324806 11578790
0.78049994 -0.044282809 0.23574565 12499635
0.78173518 -0.035162807 0.23502015 12564141
0.78163326 -0.025365591 0.23509637 12563884
0.78077793 -0.015284104 0.23483981 12564399
0.77900004 -0.0047627129 0.23248062 11840935
0.78005552 -0.0055301604 0.23644805 12829114
0.77895659 0.0054056118 0.23433094 12236978
0.78028578 0.0028613124 0.2384747 13553352
0.77900016 0.013139481 0.23533769 12171957
0.78009105 0.017518759 0.23488146 11581106
0.78158325 0.024955915 0.23508151 11054764
0.78173321 0.035023265 0.23512691 11382957
0.77900016 0.047797579 0.23521611 12041144
0.78036845 0.042461943 0.23476405 11119784
0.77796555 0.055013817 0.2356537 11054251
0.78000003 0.058684465 0.23004003 7697531
0.77728575 0.064925127 0.23573358 11514287
0.78020006 0.063082829 0.23046422 10659236
0.77485305 0.075260371 0.23508102 11250339
0.77434379 0.085111342 0.23448749 11710635
0.77724999 0.091685198 0.23604897 12631993
0.78454548 0.096934222 0.23463272 13224128
0.78883338 0.10182255 0.23541421 12763835
0.79194117 0.10626169 0.23476037 12303283
0.78668189 -0.1645772 0.24489945 10131085
0.79000002 -0.16988929 0.24501038 9671047
0.77672732 -0.1534005 0.24494223 12104103
0.78157145 -0.15866752 0.24383189 10788760
0.77436006 -0.14477363 0.24469128 12894392
0.77388245 -0.13455926 0.24517952 12632251
0.77400011 -0.12477371 0.24457797 12764353
0.77463335 -0.11489962 0.24477772 13093319
0.77651733 -0.10505681 0.24461967 13159110
0.77683365 -0.095224567 0.24456233 13289924
0.77713358 -0.085253246 0.24465755 12960445
0.77881241 -0.075980216 0.24495837 12762553
0.78000003 -0.07096111 0.24647397 13947593
0.7790001 -0.066228107 0.24201328 12234923
0.78061104 -0.06380716 0.24646486 14341579
0.77900004 -0.055916183 0.24105175 10851211
0.78080952 -0.054497808 0.24551292 13222065
0.78024012 -0.045411449 0.24472344 13025202
0.78063339 -0.035383444 0.24484573 12631473
0.77900004 -0.028926115 0.24889345 14671830
0.78041673 -0.025172614 0.24462503 12039853
0.7810334 -0.015289107 0.24497253 11709863
0.78008008 -0.005225955 0.24467304 11579821
0.77900016 0.007432967 0.24570204 10857898
0.78011757 0.0028308446 0.2443621 10462371
0.77830005 0.014827599 0.24502347 10791847
0.7782799 0.024666294 0.2466571 11910071
0.7803638 0.025331037 0.24193831 9277074
0.77771443 0.035017259 0.24644215 11844020
0.78044456 0.034560159 0.24194486 10066593
0.77700013 0.044944387 0.24474289 11381932
0.78000003 0.040424526 0.24099599 8356231
0.77489287 0.054864366 0.24505161 11316137
0.77385718 0.064691193 0.24530689 11382186
0.77266675 0.075314701 0.24505898 11316646
0.7718333 0.085173562 0.24479249 12171186
0.77575004 0.093236856 0.2451268 13026749
0.7832728 0.098438986 0.2443369 13223613
0.78781819 0.10269877 0.24642725 12829113
0.79193753 0.10709225 0.2450318 12040113
0.78580004 -0.16465209 0.25514457 9999499
0.79000002 -0.16988929 0.2533327 9605255
0.77555168 -0.15395197 0.25520918 12170411
0.78050005 -0.15871049 0.25119931 10327177
0.77346689 -0.14460619 0.25436708 12171699
0.7729376 -0.13472405 0.25475878 12369849
0.77330017 -0.12466073 0.25431216 12501181
0.77350014 -0.11473323 0.25437751 12369082
0.77450001 -0.10490913 0.254706 13027008
0.77536106 -0.095042512 0.25498953 13223358
0.77603352 -0.085132875 0.25521117 13288636
0.77730304 -0.075621322 0.25548923 13485757
0.78000003 -0.07096111 0.25103897 9078144
0.77875 -0.066137455 0.25732073 14540503
0.78082615 -0.063960791 0.2531718 11710121
0.77900004 -0.055369083 0.25892356 14869208
0.78096002 -0.0545954 0.25408864 11906470
0.77900004 -0.045338992 0.25892356 14342089
0.78016007 -0.045407068 0.25382945 12365480
0.77900004 -0.033029336 0.25436443 11510941
0.78000021 -0.035639539 0.25469097 12432043
0.77900016 -0.025018288 0.25683936 12564909
0.78006667 -0.025313111 0.25270373 10854553
0.77880019 -0.014698409 0.25739816 12500658
0.78061903 -0.015672309 0.25267297 11250082
0.77850008 -0.0052159792 0.25602224 12237489
0.7804001 -0.0052284729 0.25116724 11514284
0.7779668 0.0051074256 0.25523829 11251112
0.78000003 0.0016221523 0.25058246 12436417
0.77660024 0.014795206 0.25539678 11119523
0.77561122 0.024762146 0.25507179 11316644
0.77473336 0.034710348 0.25478229 11382951
0.7743333 0.044662144 0.25465187 11382182
0.77355903 0.055268969 0.25466424 11315619
0.77210706 0.065448783 0.2554037 11907500
0.76900005 0.078859694 0.25860018 13750731
0.77075768 0.07477314 0.25492486 11776427
0.76895243 0.084083952 0.25524083 12895165
0.77000004 0.08677344 0.25372899 11512485
0.77422225 0.094102889 0.25511765 12960186
0.78100008 0.098983079 0.25227344 14867924
0.7862857 0.10386559 0.25555518 12697013
0.79062498 0.10899492 0.25399372 11250340
0.78840005 -0.17212969 0.26555339 9474186
0.778 -0.1614805 0.26551121 10591126
0.78422731 -0.16631621 0.26407591 9604745
0.77465516 -0.15533589 0.26517013 12104875
0.77242869 -0.1451885 0.26500577 12368818
0.77156651 -0.13521816 0.26458061 12631479
0.77186102 -0.125333 0.26468068 12500407
0.7718749 -0.11505616 0.26445913 12434356
0.77300024 -0.1053441 0.26528424 12894649
0.77369469 -0.094838269 0.26530886 12566199
0.77436674 -0.084950447 0.26553893 12762549
0.77502632 -0.074852638 0.26542935 12695986
0.77568579 -0.065120526 0.26508048 12433584
0.77621961 -0.055281512 0.2651284 12565426
0.77716655 -0.045231584 0.26467717 12368047
0.77750015 -0.035240974 0.26479107 12235945
0.77710015 -0.025217392 0.26465559 12497063
0.77641678 -0.015199615 0.26442367 12630191
0.77554291 -0.005196136 0.26503119 12828598
0.77526838 0.0046775895 0.26507127 12434613
0.77469993 0.014759243 0.26565298 11514024
0.77380562 0.024704859 0.26534688 11185316
0.77316684 0.034639921 0.26512852 11186861
0.77280569 0.044573672 0.26500377 11317932
0.77194428 0.055366199 0.26470771 11513767
0.7688334 0.067443281 0.26784292 13222330
0.77068192 0.064543568 0.26402956 11183262
0.7682001 0.075539246 0.26588222 12235691
0.7701667 0.071767181 0.26259819 9538437
0.76761538 0.084156595 0.26515982 12500408
0.77000004 0.088576026 0.26314247 11580077
0.77400011 0.09454342 0.26502439 12698301
0.78592861 0.10526796 0.26503381 12500152
0.78840005 -0.17231438 0.274968 9408393
0.7778334 -0.16211402 0.27431816 9736587
0.78328568 -0.1667463 0.27449316 9539209
0.77449989 -0.15574998 0.2750006 11446433
0.77221209 -0.1450308 0.27523628 12038825
0.77056682 -0.13504447 0.27505982 12696754
0.77058339 -0.1251238 0.27506641 12434869
0.77093327 -0.11525571 0.27519172 12698300
0.77147222 -0.10540167 0.27538207 12763322
0.7723031 -0.094914064 0.27526808 12960441
0.77272004 -0.084769964 0.27492473 12630448
0.77330017 -0.074877001 0.2751309 12629422
0.77368009 -0.064952277 0.27526605 12826287
0.77370977 -0.054846898 0.27510101 12432811
0.77410007 -0.04505365 0.27450809 12434354
0.77455544 -0.0351068 0.27466977 12763317
0.77520007 -0.025155116 0.27489796 12499374
0.77472228 -0.015166738 0.27472904 12301739
0.77340013 -0.0051813917 0.27516633 11513508
0.77333343 0.004776543 0.2751427 11777451
0.77312005 0.014728969 0.27506682 11317420
0.77220577 0.024866143 0.27537856 11579568
0.7717576 0.035342697 0.27534804 11250859
0.77080649 0.045185525 0.27500001 11250341
0.7689231 0.057573933 0.27662084 11905954
0.77008718 0.053862728 0.27367499 11051160
0.76786208 0.065083787 0.27462068 11444633
0.77000004 0.06153727 0.27035281 13682624
0.76613909 0.074678689 0.27527338 11971234
0.76563632 0.084925249 0.27511755 12170928
0.76824999 0.09062326 0.27603278 11909043
0.7731601 0.095026933 0.27464524 12171186
0.77866673 0.10051023 0.27704069 11775912
0.78542852 0.10489301 0.27489343 12894908
0.79000002 0.10937075 0.27367616 11053477
0.78900003 -0.17152131 0.28164151 9408650
0.77900004 -0.16022913 0.28263104 14209481
0.78519046 -0.16544969 0.28504959 9539207
0.79000002 -0.16988929 0.28847137 9276807
0.77456534 -0.1548271 0.28488332 12365992
0.76846159 -0.14311664 0.28641728 12563627
0.77100015 -0.14694388 0.28342718 12431786
0.76791185 -0.13521083 0.28511 12498863
0.76900005 -0.12824325 0.28485373 11315360
0.77013659 -0.12382247 0.28466013 11842474
0.76900005 -0.11204106 0.28620392 13027263
0.77016687 -0.11624309 0.28433383 11448232
0.76868975 -0.1051781 0.28621221 12698298
0.77000004 -0.10455795 0.28142586 10263190
0.76900005 -0.097478375 0.28826135 14474967
0.77056015 -0.094272844 0.28375199 12302512
0.77132344 -0.085253909 0.28457129 12433841
0.77163881 -0.074716471 0.28447396 12234664
0.7724334 -0.064846866 0.28476748 13022637
0.77297246 -0.054940477 0.28496781 12826542
0.7729668 -0.044988014 0.28496566 12631475
0.77294469 -0.035033964 0.28495708 12631219
0.77316678 -0.025089521 0.28503835 12171955
0.77280575 -0.015128081 0.28490448 12172214
0.77246666 -0.0051752487 0.28478003 12106166
0.7717222 0.0047649532 0.28450513 12238009
0.7712 0.014692559 0.2843121 11777461
0.77087504 0.024385525 0.28475678 11185066
0.77075005 0.03543428 0.28471088 11382699
0.76900005 0.047655489 0.28860423 11712175
0.77022743 0.044916861 0.28444722 11316389
0.76783341 0.055070549 0.28486866 12038312
0.76672423 0.064740658 0.28461298 11577505
0.76481831 0.074791908 0.28513372 11250082
0.76259989 0.084921181 0.28458479 12303028
0.76716667 0.091841996 0.28462264 12763837
0.77247065 0.096203171 0.28504771 12435385
0.77740002 0.1010762 0.28550893 12435131
0.78533334 0.10636694 0.2843999 11776430
0.78877765 0.11402365 0.28720391 11250599
0.7913571 0.11644223 0.28274485 11316649
0.78527778 -0.16377349 0.29460728 10262416
0.79000002 -0.16803987 0.29771841 9670536
0.77476192 -0.15486991 0.29491219 12762291
0.76850003 -0.14300263 0.29298994 12565429
0.77100009 -0.14685236 0.29529747 11447205
0.76822227 -0.13682896 0.29210928 13289922
0.77107155 -0.13409942 0.29625994 10461600
0.77134472 -0.12509157 0.2941778 11644848
0.76900005 -0.11136596 0.29340488 10066072
0.77082616 -0.11555468 0.29426005 11710127
0.76876926 -0.10482667 0.29276344 11118753
0.77099997 -0.10558385 0.29679453 9868431
0.76900005 -0.097414084 0.29205465 12237746
0.77094752 -0.094359316 0.29519549 10724251
0.77106905 -0.08533486 0.29407245 11251364
0.77153325 -0.074706443 0.29437411 11119778
0.77195984 -0.064807676 0.29453608 11776683
0.77270013 -0.054920014 0.29481694 12236464
0.77300012 -0.044989787 0.29493096 12040114
0.77293354 -0.035033766 0.29490572 12435126
0.77248001 -0.025067421 0.29473382 12171957
0.77216661 -0.015115542 0.29461399 11843251
0.77215987 -0.0051729912 0.29461125 11909300
0.77139992 0.0047628079 0.29432154 11909045
0.77066678 0.014682323 0.29494539 11579820
0.77061129 0.024603553 0.2949242 11447463
0.76900005 0.039854437 0.294305 12567742
0.77038252 0.035151705 0.29483595 11514284
0.76873684 0.045712326 0.29415679 11382955
0.77000004 0.043511432 0.29649028 10527902
0.76703346 0.055014621 0.29445156 10789793
0.76648009 0.064844362 0.29423949 10657951
0.76521885 0.07447584 0.29493177 10328471
0.76431811 0.084183723 0.29438749 11118241
0.77000004 0.088576026 0.29919416 9539209
0.76766664 0.090704031 0.29289612 12302514
0.77315795 0.094945736 0.29556331 10658204
0.77766663 0.10038114 0.29307207 10593182
0.78521055 0.10590868 0.29513824 10987941
0.78868747 0.11415186 0.29387772 11119270
0.79037499 0.11566791 0.29855382 11119268
0.78900003 0.12031468 0.29180035 11250856
0.78673339 -0.16366452 0.3050842 9934735
0.77658337 -0.15306912 0.30341959 9671309
0.78171432 -0.15712942 0.30688387 10329752
0.77480018 -0.14485492 0.30378386 9737361
0.77558333 -0.1350133 0.30409187 9935257
0.77570003 -0.12504882 0.30413705 9869978
0.77518183 -0.11531346 0.30368683 10526879
0.78050005 -0.11211721 0.30875558 11184034
0.77442873 -0.10593772 0.30169386 9539986
0.78200006 -0.10546941 0.30843419 11184547
0.7750001 -0.092578523 0.30174327 10000272
0.78200006 -0.094941854 0.30751827 11645097
0.77530003 -0.085052513 0.30216232 9803407
0.78120005 -0.083870962 0.30720365 11118754
0.77550012 -0.075091735 0.30223995 8948354
0.78039998 -0.074652769 0.30688906 10987679
0.77573341 -0.06512665 0.3032409 9803925
0.78200006 -0.065654315 0.30934897 10330267
0.77554172 -0.055123612 0.30407616 10001046
0.77555007 -0.045137025 0.30407831 10526359
0.77560008 -0.034973413 0.30427912 10131084
0.77508003 -0.025152821 0.30480242 9670279
0.77426666 -0.01515669 0.30448088 8881791
0.77420014 -0.0051864702 0.30445468 9077630
0.77450019 0.0045241527 0.30431503 9408134
0.77483338 0.015065074 0.30530879 8948094
0.77379173 0.024704628 0.30519888 8683900
0.7737 0.034663815 0.30516323 9277324
0.77279162 0.044571545 0.30480522 8948617
0.76900005 0.055156503 0.3006058 10528678
0.77205563 0.055374041 0.30541754 8750724
0.76880008 0.065039977 0.30052766 10133664
0.77228582 0.065076731 0.3065432 8553346
0.76885718 0.07430315 0.30209303 10527135
0.7726112 0.075310975 0.307446 8224126
0.76875007 0.083932802 0.30140823 11120040
0.77300012 0.085949883 0.30579117 10922147
0.77623081 0.093488775 0.30413342 11514539
0.78299999 0.098016106 0.30699578 10724767
0.78742856 0.10489345 0.30447516 10987682
0.79000002 0.10937075 0.30696544 11053475
0.79227996 0.11525419 0.30562675 11119268
0.78685713 -0.15509161 0.31557348 10592925
0.78572732 -0.14505598 0.31543013 10592926
0.78604531 -0.13499428 0.31555614 10526877
0.7858094 -0.12509941 0.3153308 10263960
0.78641176 -0.11507566 0.31467143 10066323
0.79000002 -0.11625657 0.31944889 10461338
0.78750002 -0.10482689 0.31281692 10263446
0.79111111 -0.10489394 0.31768644 10198423
0.78811115 -0.095069416 0.31299755 10197909
0.79141665 -0.095160417 0.31770694 9803922
0.78706664 -0.084623016 0.31295326 10001302
0.79133338 -0.085577093 0.31829044 10001558
0.78719991 -0.075302459 0.31325209 9672337
0.79066664 -0.074709527 0.31833026 10198681
0.78694117 -0.064442292 0.31499127 9606287
0.79000002 -0.065397955 0.31944889 10132374
0.78584993 -0.054936357 0.31547803 9737872
0.78587484 -0.044818912 0.31548822 9672078
0.78531575 -0.034870379 0.31540871 9343113
0.77900004 -0.021631503 0.31180951 8422525
0.78421432 -0.025712386 0.31586736 9211784
0.77800006 -0.015232265 0.31140924 8290682
0.78300005 -0.015329554 0.31616208 9277835
0.77820003 -0.0052109258 0.31148928 8683896
0.78350002 -0.0052459636 0.3163642 9277064
0.7855556 0.0050570546 0.31586993 8948611
0.79000002 0.0095029166 0.31991127 9212041
0.78543758 0.014849642 0.31565639 8883076
0.79000002 0.011352321 0.31991127 8883076
0.77740002 0.02572911 0.31116906 8881533
0.78292304 0.024641611 0.31592017 8685181
0.77740002 0.034831461 0.31116906 9341832
0.78350008 0.035104994 0.31636399 9079172
0.77737498 0.045748025 0.31161496 8618879
0.78360003 0.044462308 0.31658754 9079687
0.7762 0.054762732 0.31159869 8487297
0.78262502 0.055904191 0.3176136 8948871
0.77741677 0.064859428 0.31390736 8816518
0.78266668 0.065296367 0.31877384 9409422
0.77720004 0.074848756 0.31381983 9211277
0.78240001 0.075350486 0.31866524 10198425
0.77709097 0.083935447 0.31236994 9013640
0.78237504 0.08564762 0.31705442 10790306
0.78640914 0.096159004 0.31553063 10659746
0.78880006 0.10329589 0.31333166 10856611
0.79053336 0.10722482 0.31556299 10987683
0.78900003 -0.031144502 0.32135338 9803408
0.78855562 -0.023743389 0.32178804 9540749
0.78800005 -0.01450253 0.32186961 9409421
0.78842866 -0.0060727191 0.32164836 9474699
0.78900003 0.00025557203 0.32135338 9080455
0.78900003 0.018726204 0.32135338 8948869
0.78809094 0.02557935 0.32182226 9014662
0.79130769 0.024905797 0.32671201 9277321
0.7883001 0.035318878 0.3219918 9146248
0.79079998 0.035430886 0.32671559 9474956
0.78818184 0.045040257 0.32185969 9277321
0.79100001 0.044698108 0.3267985 9606029
0.78800011 0.0550953 0.32295978 9409163
0.79079998 0.054498948 0.32727093 9672079
0.78772736 0.06513264 0.32385403 9738385
0.79088885 0.064646393 0.32870668 9738385
0.78761101 0.074929304 0.32447782 10132631
0.79016668 0.075171649 0.32922772 10396058
0.78780007 0.085090712 0.32381761 10724511
0.79014289 0.08613719 0.3286894 10790303
0.78855562 0.092762567 0.32260871 10725282
0.79066664 0.09539602 0.32684594 10856611
0.79283333 0.1047383 0.32469654 10988197
