# .PCD v0.7 - Point Cloud Data file format
VERSION 0.7
FIELDS x y z rgb
SIZE 4 4 4 4
TYPE F F F U
COUNT 1 1 1 1
WIDTH 1075
HEIGHT 1
VIEWPOINT 0 0 0 1 0 0 0
POINTS 1075
DATA ascii
0.78833342 -0.13139023 0.11930639 14013642
0.78727281 -0.1247362 0.11858616 13158592
0.78669226 -0.11520418 0.11853687 13289662
0.78649998 -0.10443138 0.11792921 14407113
0.77600002 -0.096030027 0.11986253 11316384
0.7862308 -0.095453888 0.11818264 14408141
0.78740007 -0.08637853 0.11978009 14935514
0.78800005 -0.074455999 0.11987136 12829111
0.78766674 -0.065205969 0.11889771 12830910
0.79376012 -0.064781703 0.11330584 12106671
0.78790009 -0.055078961 0.11893263 12831166
0.7930001 -0.055192072 0.11352177 12106414
0.78800005 -0.048629887 0.11987136 14803413
0.78854543 0.0052896775 0.11894684 11512218
0.78850007 0.015022551 0.11902388 11709341
0.78833342 0.021170789 0.11930639 11643551
0.78800005 0.067587607 0.11987136 11116183
0.78800005 0.070354693 0.11987136 9668737
0.78664708 -0.1437145 0.1269172 12169900
0.79142857 -0.14598002 0.12277306 11512740
0.7771818 -0.13355893 0.1278175 14736851
0.78533334 -0.13570492 0.12357319 12500145
0.79000002 -0.13844942 0.1201756 15066843
0.77499998 -0.12435976 0.12596986 11644327
0.78200001 -0.12606439 0.12180504 10723224
0.76725006 -0.11313457 0.12816361 11776427
0.77345842 -0.11570702 0.12436736 12171443
0.78000003 -0.11478496 0.12048038 11380641
0.75866669 -0.10158151 0.1290253 12237489
0.7638889 -0.10486478 0.12643069 11447461
0.77433348 -0.10549036 0.12201505 11907755
0.74833339 -0.09143889 0.12901951 11447202
0.75631249 -0.09470202 0.12677749 11315874
0.76335716 -0.095613249 0.12326511 11513510
0.77357149 -0.094174385 0.1210385 12303539
0.7465294 -0.084364638 0.12713051 10986392
0.7543 -0.086099669 0.12462938 10789270
0.76436371 -0.085149765 0.1224533 11842472
0.77500004 -0.085800111 0.12100198 12171952
0.78320003 -0.082613662 0.12060525 14869464
0.7385 -0.071508303 0.12962979 10986907
0.74481833 -0.07521157 0.12653343 10920599
0.75666666 -0.075038135 0.12396175 10461076
0.76366675 -0.075632311 0.1227207 12105389
0.77385724 -0.075318061 0.12160067 11315616
0.78300005 -0.075516157 0.12063593 14605266
0.73600006 -0.06444139 0.12772982 11117724
0.74546665 -0.065722175 0.12526371 9407621
0.75674999 -0.066187695 0.12397541 11842988
0.76328582 -0.065100603 0.12274491 11908523
0.7727778 -0.065277375 0.12197506 10789787
0.78216672 -0.064749688 0.12081505 14475476
0.72733337 -0.052833721 0.12880392 12040107
0.73277783 -0.055417091 0.12661873 10657684
0.74466676 -0.055544987 0.12431814 10460306
0.75462502 -0.054519288 0.12318307 12302766
0.76416677 -0.056998562 0.12250219 11842214
0.77450013 -0.055046704 0.12144396 10196878
0.78200006 -0.054666042 0.12078931 14541012
0.71900004 -0.041005306 0.12957332 12039338
0.72388005 -0.044640679 0.12719133 11382181
0.73411107 -0.046157282 0.12427387 10658717
0.74475002 -0.045958754 0.12375297 12106164
0.75250006 -0.048200104 0.12327915 12434870
0.76450002 -0.04536359 0.12435548 11842219
0.77512503 -0.045338783 0.12312829 11774113
0.78657138 -0.043803509 0.12149191 13748670
0.71872723 -0.03387795 0.12875909 12500146
0.72387499 -0.034929074 0.12589273 11381666
0.73133332 -0.034004394 0.12494769 11512993
0.74375004 -0.037190791 0.12532793 12039081
0.75566667 -0.033364441 0.12556696 13288120
0.77476919 -0.03546901 0.12580806 10985113
0.7859 -0.034701746 0.12230412 13089456
0.71829414 -0.024099872 0.12697163 12367791
0.72087502 -0.026979074 0.12463632 12301483
0.75700003 -0.029881353 0.12578852 13551803
0.77771431 -0.025756124 0.12792929 11577505
0.78596413 -0.02471471 0.12310106 12958899
0.71843344 -0.015743172 0.12610693 12303542
0.78618187 -0.015135267 0.12449389 11775908
0.71899998 -0.0089044301 0.12789012 12435642
0.72075003 -0.0049104542 0.12642924 11645870
0.73500001 -0.0040588579 0.12557414 12237753
0.74100006 -0.0014946704 0.12659924 13093060
0.76600003 -0.0015450979 0.12728402 10526358
0.77620006 -0.0033865166 0.12643376 11775394
0.78695655 -0.005510916 0.12307028 12303537
0.72463644 0.0030152143 0.12827338 12171953
0.73442858 0.0056402958 0.12792955 11908784
0.74471432 0.0052229133 0.12748162 11843764
0.76375002 0.0060501918 0.12691015 10922145
0.77391666 0.0047780201 0.12587924 10194567
0.78657895 0.0046135173 0.1231418 13223611
0.72900003 0.010475749 0.12966885 12236974
0.73625004 0.013171438 0.12923485 11644324
0.74600005 0.01421401 0.12876181 12435898
0.75424999 0.016137486 0.12841877 12239805
0.76314294 0.015816303 0.12731792 10199710
0.77540004 0.014776014 0.12611987 10984597
0.78580004 0.014971112 0.12321349 13946049
0.74800003 0.02125527 0.12954625 11316644
0.75900006 0.026898345 0.12967452 12303285
0.76528579 0.024049019 0.12844285 10724514
0.7741819 0.024962984 0.12732238 9998994
0.78544462 0.025520248 0.12328763 12893877
0.76783341 0.035302728 0.12938617 10854553
0.77440012 0.034695879 0.12777175 9538698
0.78556013 0.035195936 0.12316817 12105387
0.76900005 0.045255166 0.12958278 10854809
0.77450007 0.044672281 0.12778814 9802897
0.78533334 0.044913594 0.12397733 12237488
0.79000002 0.045566298 0.1201756 10524296
0.76900005 0.055156499 0.12958278 10065294
0.77476925 0.055501506 0.12748207 10394264
0.7860952 0.055200782 0.12334216 12630450
0.79000002 0.05296392 0.1201756 10062719
0.76900005 0.064157709 0.12958278 9473414
0.77482367 0.065226622 0.12693122 11051420
0.78557891 0.064617425 0.12269117 12827570
0.77535295 0.074354149 0.12744416 11382183
0.78631818 0.075225703 0.12237108 12236978
0.7771818 0.084443048 0.12831421 12105653
0.78548139 0.085247867 0.12349615 13027007
0.77900004 0.092346817 0.1294442 9671054
0.78542435 0.095252424 0.12498477 13157824
0.79000002 0.096424915 0.1201756 14078926
0.78771418 0.10492932 0.12597206 12566713
0.79049999 0.10611032 0.1211766 13421766
0.78900003 0.11107937 0.12925881 12237749
0.7930001 0.11536048 0.12493809 12040369
0.78900003 -0.16043893 0.13849412 10131346
0.78688896 -0.15346193 0.13637975 11183523
0.79208344 -0.1575142 0.13285016 10657691
0.77614295 -0.1434207 0.13688342 11644327
0.78300005 -0.14667171 0.13320549 13025980
0.76650006 -0.1322393 0.13783224 11447201
0.77373081 -0.13546161 0.13371931 11710888
0.75800008 -0.12160368 0.13867031 11907754
0.76400006 -0.12512645 0.13570662 12170922
0.77181822 -0.1260656 0.1316985 11315357
0.75622219 -0.11453295 0.13745645 11315616
0.76238894 -0.11526929 0.13243133 11908011
0.74775004 -0.10216211 0.1391298 12500404
0.75524998 -0.10527039 0.13508637 11184543
0.76050001 -0.10746448 0.13082039 11908525
0.74616659 -0.094320916 0.1359783 11183513
0.75242859 -0.097642936 0.132072 11381409
0.73774999 -0.082877696 0.13877998 11709346
0.74311543 -0.085337915 0.13418171 10854550
0.73543346 -0.074313529 0.13557097 10524815
0.74177784 -0.077710681 0.13155487 10920344
0.72707695 -0.06274417 0.13704853 10261388
0.73177278 -0.065951735 0.13366325 11117209
0.71890903 -0.052092716 0.13781859 11185057
0.72299999 -0.055512469 0.1340113 11117724
0.73100001 -0.059658159 0.13002458 11183001
0.71803015 -0.044236548 0.13540626 11841959
0.72000003 -0.047804467 0.13143906 11644324
0.71653122 -0.034994371 0.13499385 12302510
0.71548647 -0.025706844 0.13522629 12499889
0.71674973 -0.015706457 0.13503811 12631991
0.78300005 -0.014410509 0.13010886 12696492
0.71840006 -0.0057722754 0.13546976 12566457
0.72000003 -0.0014523113 0.13143906 12698554
0.71899992 0.0032836832 0.13788408 12435385
0.72162515 0.0052348454 0.1330695 12764091
0.72575861 0.014008505 0.13588104 12763577
0.73133332 0.016787499 0.1317942 12631733
0.74200004 0.01848039 0.13024417 11381665
0.72866672 0.021274759 0.13927563 12565428
0.7329033 0.025036031 0.13506199 12697527
0.7448889 0.025818726 0.13152483 11381152
0.75350004 0.025826132 0.13049881 12369073
0.73664296 0.033745937 0.13767797 12171442
0.74429417 0.035599831 0.13443145 12039855
0.75618178 0.035169952 0.13176519 11841447
0.76150006 0.035010781 0.13010164 13157820
0.74520832 0.044730674 0.13691014 12698042
0.75469238 0.045230355 0.13314734 11052960
0.76166672 0.044823602 0.13092087 12829111
0.74741179 0.054278854 0.13788277 12303284
0.7542668 0.055920746 0.13439123 12039341
0.76200002 0.054655597 0.13107724 12894904
0.75573075 0.064891018 0.13625409 12959928
0.76246154 0.065603338 0.13163652 14078151
0.75850004 0.07245674 0.1381705 13946309
0.76375002 0.075160667 0.13494755 12169900
0.77190006 0.077411629 0.13151538 12171188
0.76560009 0.083234034 0.13832685 12762294
0.77350003 0.085735746 0.13388105 12894908
0.77574074 0.094350308 0.13568957 12632249
0.78066665 0.098332167 0.13215737 10132119
0.77775002 0.10084782 0.13833836 14803673
0.78422236 0.10524497 0.13445641 12829630
0.78866673 0.11185336 0.13515271 11842991
0.79135293 0.11686175 0.13465558 11777198
0.78833336 -0.16190368 0.14563504 10131346
0.79093337 -0.16663483 0.14451014 10395031
0.77900004 -0.15111086 0.14859256 9800835
0.78400004 -0.15505764 0.14477909 10460052
0.77450019 -0.14467634 0.14520444 11314077
0.78000003 -0.14947885 0.14056632 14078667
0.75900006 -0.13123977 0.14833125 10722970
0.76400006 -0.13455744 0.1449281 11052192
0.77075005 -0.13823384 0.14205621 10591899
0.75509679 -0.12509772 0.14490831 11381153
0.76100004 -0.12980407 0.1407053 11381154
0.74775004 -0.11448904 0.14525594 11512738
0.75125009 -0.11693134 0.14153942 11578531
0.74554068 -0.10518859 0.14520088 11381154
0.7373572 -0.092976153 0.14681123 11249566
0.7422778 -0.096395746 0.14361212 11381152
0.73427039 -0.084924027 0.14504878 11315360
0.74100006 -0.089964084 0.14047679 11250077
0.72723091 -0.072972029 0.14716101 11052444
0.73164999 -0.075983979 0.14341262 11446688
0.71899998 -0.062045205 0.14808843 11185059
0.72299999 -0.065498158 0.14439288 11447202
0.73033333 -0.069292448 0.140734 10656915
0.71782351 -0.054384328 0.14532353 11711145
0.72049999 -0.058801237 0.14080662 11118238
0.71357137 -0.044923626 0.14524558 12105388
0.70850009 -0.03391074 0.14786027 11974317
0.71156657 -0.036195122 0.14344339 12040109
0.70850003 -0.02578916 0.14779116 11776940
0.71129179 -0.025232265 0.14289008 12171183
0.70900005 -0.019687723 0.14934835 12040115
0.71275008 -0.015616651 0.14487663 12302513
0.71608329 -0.0056331428 0.14496908 12434870
0.71808332 0.0044368752 0.14537555 12238519
0.7189523 0.013136683 0.14695638 12172472
0.72130001 0.016276872 0.14307138 12303284
0.72567856 0.023660457 0.14593782 12039857
0.73083335 0.027754424 0.14268325 12236464
0.73344445 0.035441615 0.14504963 12236979
0.73738468 0.043130621 0.14682615 12697530
0.74225003 0.046203393 0.14366588 12302770
0.74513519 0.055310268 0.14545232 12237490
0.74747622 0.063988484 0.14586808 12500662
0.75140005 0.067088589 0.14244674 12105905
0.75560606 0.074704528 0.14516746 12039083
0.76000005 0.07852982 0.14052041 10853525
0.75849992 0.083110519 0.1469011 13420223
0.76190907 0.086107783 0.14370646 14275789
0.76499999 0.092962556 0.14694987 15460316
0.77189475 0.096309885 0.14414464 14803159
0.77653337 0.10290379 0.14503065 12237491
0.78310001 0.10731802 0.14405781 12763834
0.78805566 0.11279281 0.14478396 11974575
0.79100001 0.11775894 0.14490436 11842989
0.78800011 -0.16195004 0.15465756 10065294
0.79109091 -0.16709462 0.1558665 10131346
0.77780008 -0.15087809 0.15473661 11840932
0.78317648 -0.15569888 0.15515801 9933450
0.77371442 -0.14485194 0.15515245 10986139
0.75900006 -0.13123977 0.15099651 11051935
0.76420003 -0.13500807 0.15507245 10460052
0.75556016 -0.12527512 0.15498352 10920857
0.76000005 -0.1296335 0.15831216 11381150
0.74754161 -0.11453154 0.15425892 11184031
0.75060004 -0.118542 0.15740846 11249823
0.74458075 -0.10535934 0.15493163 11052188
0.7374211 -0.093621299 0.15451738 10920859
0.74133337 -0.098103963 0.15616055 11052188
0.73233342 -0.084631309 0.15512091 10789530
0.72506672 -0.074402489 0.15493618 10789531
0.73000002 -0.078374922 0.15035403 10855323
0.71867859 -0.0634607 0.15559308 11249825
0.72028571 -0.068660162 0.15389243 10394516
0.71640003 -0.055115622 0.1550999 11578788
0.7117222 -0.045593902 0.15519667 11973035
0.70845711 -0.035311587 0.1549682 12434098
0.71000004 -0.039660964 0.15786961 12169387
0.7080279 -0.025461834 0.15494494 12631477
0.70899999 -0.018538645 0.15598749 12696757
0.71050006 -0.01376807 0.15479095 12499636
0.71248788 -0.0057056341 0.15496121 12499636
0.71627778 0.0044280309 0.15507233 12303029
0.7187714 0.014416383 0.15549335 12171959
0.72266662 0.025008492 0.15471451 11974321
0.72800004 0.031533096 0.15536284 12105649
0.73137504 0.036693972 0.1545597 12039857
0.7355333 0.044897851 0.15510558 12105650
0.74000001 0.048745595 0.15068132 12303285
0.73880005 0.050742097 0.15700868 12039857
0.74236667 0.055509485 0.15498543 12040114
0.74575859 0.064960867 0.15462157 12434870
0.7485556 0.070922226 0.1559277 11380639
0.75267857 0.076393947 0.15464275 10393744
0.75758624 0.085254937 0.1553008 14013129
0.76000005 0.089204863 0.15119545 12499631
0.75900006 0.090864323 0.15810384 13487301
0.76333332 0.09518782 0.15490919 15263197
0.77050006 0.099456072 0.15238187 13618116
0.77464998 0.10398623 0.15519652 12894651
0.78149998 0.10819398 0.15272549 13619146
0.7865625 0.11246607 0.15498129 11974577
0.79072726 0.11788633 0.15495139 11777198
0.78862506 -0.16082445 0.16427577 9999503
0.79294455 -0.16619553 0.16548626 9933711
0.77850008 -0.15101388 0.16125514 11314335
0.78427774 -0.15520047 0.16551179 10130832
0.77464014 -0.14482979 0.16499014 11446433
0.76569235 -0.13391753 0.1644621 9932422
0.77074999 -0.13823384 0.1659659 10590352
0.75749999 -0.12377885 0.16477406 10723480
0.7610001 -0.12883319 0.1658089 10788760
0.74820006 -0.11238285 0.16478817 11118495
0.75237501 -0.11754812 0.1652005 10921116
0.74548584 -0.10522182 0.16476364 11315361
0.73816675 -0.092213154 0.16499732 10920602
0.74225008 -0.096960098 0.16536674 11380896
0.73258829 -0.084459685 0.16521196 10657942
0.72534621 -0.074160621 0.16467677 10526614
0.73000002 -0.078374922 0.16829795 10196621
0.71891302 -0.062769726 0.16555935 10789270
0.72058338 -0.068086468 0.16444154 10395029
0.71703333 -0.055164028 0.16530989 10920600
0.71228576 -0.045607146 0.16518992 12037284
0.70868558 -0.035322543 0.16516121 11842223
0.71000004 -0.039660964 0.16119385 11247001
0.708139 -0.025465306 0.16491538 11777455
0.70894992 -0.017611604 0.16551927 12105906
0.71012503 -0.012965126 0.16485842 11710378
0.71166676 -0.0055978321 0.1654591 11841960
0.71611106 0.0044284323 0.16509593 12170926
0.71894991 0.01235116 0.16541405 11973292
0.7203573 0.01745888 0.16523282 11579307
0.72438705 0.024311863 0.16479133 11316649
0.73000002 0.029288495 0.16829795 12894907
0.72875005 0.031797659 0.1620387 11249825
0.73172426 0.035739854 0.16547716 11644583
0.73580778 0.045095943 0.16480136 11842217
0.74000001 0.048745595 0.1697372 12895676
0.73900002 0.050409734 0.16258778 12565940
0.74303573 0.055660103 0.16521607 11710633
0.74655187 0.06478925 0.16497421 12762807
0.7486667 0.070348196 0.16296269 9932938
0.75310719 0.075745702 0.16537747 11512228
0.75766677 0.085238613 0.16477396 13750469
0.76000005 0.089204863 0.16898718 12894391
0.75900006 0.090864323 0.16254592 14342607
0.76292002 0.095127948 0.16513561 14737622
0.77450007 0.10424018 0.16468385 13093056
0.78000003 0.10798631 0.16886923 10724509
0.78705877 0.11276055 0.16514117 11711405
0.79100001 0.11784321 0.16476962 11777198
0.78900003 -0.16043893 0.17543538 9867918
0.79322726 -0.16577774 0.17502147 9933711
0.78477269 -0.15482527 0.17499535 9933454
0.77542847 -0.14478324 0.17481706 11775655
0.76600003 -0.13245365 0.17480522 10196623
0.77170002 -0.13795319 0.17520371 10392720
0.75782353 -0.12227211 0.17497396 10987165
0.7610001 -0.12705125 0.17504123 11316130
0.74871433 -0.11068193 0.1739901 11052700
0.75255007 -0.11524169 0.1751705 10986907
0.74578571 -0.10432862 0.17511645 10855579
0.73726672 -0.092619695 0.17566776 10789274
0.74240011 -0.097435527 0.17445721 10526101
0.7326858 -0.084646776 0.1750657 10592152
0.7264092 -0.073665641 0.17473517 11118752
0.73042858 -0.078176796 0.17584836 11250081
0.71899992 -0.061786253 0.17463109 11182746
0.72105008 -0.066950485 0.17501238 10855323
0.71760011 -0.054927785 0.17523807 11314331
0.71225017 -0.04553593 0.17531991 11906210
0.70842868 -0.034480631 0.17440103 11842737
0.71000004 -0.038829904 0.17719178 12105906
0.70800012 -0.025460999 0.17482802 11842735
0.70842856 -0.01653138 0.17528903 12105393
0.71000004 -0.012028174 0.17407529 12565945
0.71158344 -0.0055961683 0.17543453 12368308
0.71642858 0.0043110545 0.17511286 12301741
0.71899992 0.01140317 0.17471348 11841961
0.7213183 0.016508406 0.17504761 11448491
0.72695458 0.023524238 0.17479038 11119528
0.73072726 0.028540457 0.17569743 11710892
0.7333824 0.035438824 0.17508672 11775914
0.73778576 0.043172922 0.17416599 12302514
0.74141669 0.047393922 0.17599352 11974320
0.74474299 0.055039648 0.17506094 11908784
0.74770594 0.063670002 0.17469747 12895166
0.75044447 0.068172924 0.17564833 10459797
0.75486207 0.075202525 0.17454815 12104875
0.75861907 0.08363124 0.17468487 14473937
0.76036376 0.088277094 0.17635031 14144458
0.76490915 0.094590791 0.17496315 14671059
0.77100003 0.099520616 0.17594713 12170927
0.77456254 0.10360947 0.17494488 12632249
0.78060001 0.10806938 0.17539737 12632507
0.78668422 0.11308424 0.17550188 11777198
0.79022223 0.11803465 0.17385644 11711405
0.79314286 0.12446488 0.17509209 11777198
0.78900003 -0.16043893 0.18374716 9868174
0.79191315 -0.16562943 0.18502946 9933967
0.78604764 -0.15528673 0.18512008 9933966
0.77652389 -0.1444886 0.18469322 11906726
0.78100002 -0.1493053 0.1864554 12828599
0.76700008 -0.13172644 0.18490812 10197395
0.77229428 -0.13705042 0.18501544 9867146
0.75754547 -0.12115448 0.18488599 11250335
0.76137495 -0.12641694 0.18499939 11250337
0.74900001 -0.110223 0.1823221 11249566
0.75339997 -0.11489837 0.18515491 11381408
0.74611115 -0.10475671 0.18472338 11315616
0.73723084 -0.09242896 0.18463413 11118752
0.74206668 -0.097391792 0.18549873 11118238
0.73303038 -0.084944747 0.18483061 10724252
0.7274375 -0.072993316 0.1847367 10790045
0.73076922 -0.077405132 0.18591207 10921889
0.71899992 -0.06120361 0.18427706 11578530
0.72156525 -0.066382781 0.18475108 10592151
0.71670973 -0.055248238 0.18517666 11117721
0.71211445 -0.045594484 0.18515475 11775395
0.70885712 -0.032485448 0.18452282 11842730
0.71050012 -0.037421834 0.18572758 11841962
0.70800012 -0.025460996 0.18477266 11907754
0.70844829 -0.016468436 0.18486139 12235691
0.71000004 -0.011642323 0.18541336 12368303
0.71127033 -0.0054816888 0.1854675 12171954
0.71610808 0.0045432942 0.18505153 12302773
0.71899992 0.011173644 0.18427706 12367795
0.72204167 0.016296288 0.18505646 12171956
0.72738892 0.022374753 0.1847246 11185317
0.73066658 0.027605517 0.18555667 12040624
0.73364699 0.035653386 0.18484749 12303284
0.73799998 0.042279836 0.18597798 12172214
0.74209529 0.046653293 0.18461284 11711150
0.74593747 0.055252917 0.18506856 11645872
0.7486667 0.062169451 0.18457809 13356741
0.75147372 0.06644839 0.18523942 11710374
0.75606668 0.074588217 0.18492827 13092027
0.75876915 0.081682414 0.18429065 14605524
0.7610001 0.087123208 0.1855581 14802902
0.76556259 0.093333729 0.18490002 14736852
0.77181822 0.098806016 0.1855783 12434613
0.77607149 0.10368191 0.18449955 12435128
0.78250003 0.1080277 0.18559335 13224645
0.78755558 0.11333708 0.1845372 11842991
0.79028571 0.11813227 0.18576522 11777198
0.79281479 0.12481691 0.18515374 11777198
0.78673691 -0.15348953 0.19461015 10656663
0.79049999 -0.1582769 0.19643424 9801868
0.77600002 -0.1431583 0.19498482 11249052
0.78120005 -0.14788002 0.19564901 13025463
0.7665 -0.1316402 0.19465615 10394260
0.77200013 -0.13721788 0.19480936 9801866
0.75854534 -0.12147573 0.1948157 10986394
0.76117653 -0.12616758 0.19482411 11447459
0.7539286 -0.11448582 0.19499275 11117980
0.7462334 -0.10457868 0.19475096 11183774
0.73837495 -0.092022695 0.19399521 11250335
0.74252641 -0.096465215 0.19547485 10986138
0.73360014 -0.084655173 0.19476539 10855323
0.72688895 -0.072749697 0.19537181 10724249
0.73066664 -0.077306621 0.19510627 11250594
0.71888226 -0.061936315 0.19459221 11381154
0.72150004 -0.067246012 0.19454315 10723739
0.71646667 -0.055120904 0.19536914 10854809
0.71247226 -0.045641586 0.19511202 11775142
0.7084167 -0.034114629 0.1957299 11775913
0.71016669 -0.038146663 0.1935118 11971750
0.7078613 -0.025456162 0.19467837 11776942
0.7083056 -0.015521782 0.19480075 11908265
0.70900005 -0.0091757718 0.19720538 11841958
0.71060002 -0.0048691854 0.19498853 11974059
0.7148056 0.0044217659 0.19491537 11712176
0.71870583 0.011713982 0.19503823 11711147
0.7215001 0.016789036 0.19471319 11776426
0.72716677 0.022368304 0.19488111 11579819
0.73062497 0.027497089 0.19527374 11579816
0.73283345 0.035409879 0.19468373 12303026
0.7366364 0.043823794 0.19553475 12303800
0.74090004 0.047938 0.19387658 12369594
0.74505413 0.055118084 0.19488779 12369339
0.74830008 0.06225618 0.19599089 13751504
0.75215787 0.066879727 0.19458264 10922405
0.75688899 0.074472442 0.19526681 12763578
0.75900006 0.080203325 0.19452889 15065815
0.76139277 0.085616358 0.1948241 14999509
0.7673077 0.093242243 0.19465449 13749956
0.77246159 0.098181844 0.19568303 12500662
0.77672732 0.10290652 0.19502302 12303027
0.78372729 0.10750356 0.19494542 11974576
0.78854555 0.11202287 0.19513655 12237750
0.79181248 0.11692229 0.1949463 11777198
0.78677779 -0.15272571 0.20522718 11117211
0.79140002 -0.15833452 0.20468394 9867916
0.77629417 -0.14364059 0.20521508 11841189
0.78120005 -0.14788002 0.20478836 12104361
0.76745456 -0.13172311 0.20527029 10591640
0.77205884 -0.13700832 0.20484069 10196365
0.75816661 -0.1213346 0.20496343 11117982
0.76147068 -0.12632172 0.20496498 11512741
0.74900001 -0.110223 0.20570107 11381409
0.75353849 -0.11476517 0.20472834 11184031
0.74655169 -0.1045021 0.20516925 11117980
0.73900002 -0.091451272 0.20324308 10986650
0.74308014 -0.095996492 0.20537187 10789271
0.73394299 -0.084747307 0.20486942 10986395
0.7265653 -0.073869683 0.20510988 10788501
0.73100001 -0.078482278 0.20446543 11644067
0.71899992 -0.061946195 0.20422785 11249567
0.72100008 -0.067105591 0.20526622 10460050
0.7168929 -0.054973755 0.20525458 10920603
0.70844448 -0.042154133 0.20654021 11381920
0.71196562 -0.04672971 0.20451309 11579300
0.70720005 -0.035202295 0.20500734 11645866
0.70642841 -0.025404487 0.20503262 11645872
0.70710021 -0.015660735 0.20497885 11778740
0.70831817 -0.007457294 0.20505458 12434615
0.71057147 -0.0026208577 0.20492974 12170930
0.71499979 0.0043103513 0.20516887 12237236
0.71877271 0.012853571 0.20479299 12302771
0.72076929 0.017756529 0.20465292 11973549
0.72593343 0.023694327 0.20553732 11908783
0.73049998 0.028624743 0.20364049 11579817
0.73205572 0.035371974 0.20476021 12171697
0.73585713 0.044910248 0.20483771 12040628
0.74000001 0.048745595 0.20958135 11119268
0.74452949 0.055356573 0.20501959 12237754
0.74857146 0.062078122 0.20424877 13422800
0.75230002 0.066554077 0.20531496 11119788
0.7568928 0.074858606 0.20493542 13618889
0.75890005 0.0809035 0.20587301 14934234
0.76231992 0.086484693 0.20476589 15000025
0.76775002 0.09258692 0.20418432 14407887
0.77233338 0.097284861 0.20517682 12434102
0.77716666 0.102896 0.2053992 12631738
0.78427279 0.10774529 0.20509352 12171442
0.78850007 0.1119325 0.20485847 12237749
0.79241174 0.11723638 0.20521764 11777198
0.78900003 -0.16043893 0.21884137 9670795
0.78654552 -0.15509005 0.21531038 9933451
0.79000002 -0.15879287 0.21172111 9867915
0.77599996 -0.14452416 0.21537445 11775396
0.78125006 -0.1497184 0.21303189 11709090
0.76646161 -0.1318424 0.21555278 11183516
0.77243763 -0.13729542 0.21481074 10262158
0.75786674 -0.12193786 0.21523283 11117727
0.76123077 -0.12696578 0.21449581 11250081
0.74900001 -0.110223 0.2142344 11183773
0.75337511 -0.1151345 0.21505725 11183774
0.74639291 -0.10453869 0.21507218 11249566
0.73879999 -0.091426514 0.21615872 11052443
0.74256003 -0.096067466 0.21496353 10855321
0.73394459 -0.084819645 0.21502304 11117979
0.72694123 -0.072843537 0.21499299 11052441
0.73054546 -0.077656694 0.21498801 11249822
0.71899992 -0.06120361 0.2145745 11249310
0.72147828 -0.066374667 0.21513079 10788757
0.7166453 -0.055190489 0.21503273 10986396
0.70809525 -0.043344669 0.2149903 11250084
0.71137506 -0.0484825 0.21479635 11118752
0.70629728 -0.035388917 0.21531868 11644583
0.7058332 -0.025383277 0.21560128 11907754
0.70602614 -0.015298722 0.2153561 11711661
0.70747066 -0.0060517211 0.21483438 11580848
0.71000004 -0.0014321404 0.21271966 11777200
0.71399999 0.0043305848 0.21532212 11842735
0.71875 0.012853245 0.21449988 12039600
0.72050005 0.017944353 0.21502216 11447463
0.72459465 0.024817551 0.21525407 11579819
0.72900003 0.030954977 0.21670556 12303029
0.73157591 0.035738721 0.2146689 12302769
0.73638099 0.044242863 0.21479528 12368819
0.74083334 0.048511762 0.21588643 12697785
0.74491179 0.054973114 0.21507502 12501179
0.74883336 0.061598688 0.21471207 14605790
0.75213051 0.066237234 0.21500525 10591901
0.75596678 0.074577264 0.2149875 13487300
0.75849998 0.081038907 0.21482089 14605524
0.76245457 0.086821012 0.21504682 15131611
0.76800007 0.091941766 0.21481459 14407887
0.77187508 0.095909722 0.2153331 12697787
0.77641177 0.10193251 0.21508135 11974066
0.78318191 0.10742846 0.21497522 11842735
0.7881251 0.11257192 0.21536881 12106163
0.79066664 0.11733042 0.2142123 11711405
0.78860009 -0.16128114 0.22519138 9736588
0.79142112 -0.1662966 0.22482571 9933967
0.77900004 -0.15111086 0.2297451 10789017
0.78400004 -0.15495929 0.22499157 9670538
0.77529633 -0.14495352 0.22502072 11314588
0.76623082 -0.13359608 0.22528641 10657171
0.77136362 -0.13797511 0.2243724 10459278
0.75814295 -0.1229798 0.22503024 11709861
0.76085722 -0.12850836 0.22477512 11512738
0.74879998 -0.11019357 0.22574565 11118236
0.75337511 -0.1149875 0.22505069 11183517
0.74628574 -0.10477307 0.22477569 11447202
0.73799998 -0.091327526 0.22542779 10723479
0.74221754 -0.096310399 0.22516631 10855065
0.73347235 -0.084763475 0.2251873 10855065
0.72705269 -0.073134713 0.22508243 10986650
0.73063636 -0.077666238 0.22450022 10986652
0.71899992 -0.061834808 0.22509445 11051673
0.72133338 -0.067073837 0.22479825 10788756
0.71529037 -0.054926019 0.22505057 10855837
0.70771438 -0.044032473 0.22493279 11053475
0.71066666 -0.04912626 0.22456466 11843247
0.70610803 -0.035423331 0.22544737 12104874
0.70502776 -0.025354274 0.22525883 12105648
0.70558321 -0.015461796 0.22543614 12237490
0.70700014 -0.0056279018 0.22465822 11974579
0.70900005 0.00022965853 0.22569831 11711661
0.71348393 0.0050884215 0.22518352 11974575
0.71875 0.012853245 0.22459555 11777197
0.72000009 0.017931318 0.22498614 11645097
0.72402859 0.024844509 0.22525004 11711406
0.72900003 0.031198774 0.22401956 11514285
0.73144841 0.036317188 0.22522722 12105646
0.73673928 0.044110645 0.2248541 12302252
0.74133343 0.048833426 0.22470896 12236973
0.74477148 0.055142391 0.22502823 12369334
0.7482143 0.062925115 0.22591995 12367796
0.75147069 0.067198873 0.22431463 10656662
0.75521433 0.074313924 0.22506456 13882058
0.75849998 0.08141949 0.22509427 14540499
0.76240915 0.087059036 0.22493082 15000538
0.76766664 0.091901861 0.22550136 12697527
0.77219057 0.096836962 0.22523984 12170929
0.77653331 0.10338852 0.22513965 12763066
0.78255558 0.10773092 0.22407579 12895422
0.78737503 0.11258134 0.22518604 11974577
0.79016668 0.11771809 0.22471511 11514026
0.79269224 0.12444813 0.22471902 11645612
0.79345179 -0.18501239 0.23483866 11447717
0.7921291 -0.17513323 0.23450877 11381669
0.78826314 -0.16368985 0.23519607 9670795
0.79012501 -0.16829766 0.2341817 10197140
0.77840006 -0.15099448 0.2350349 9867916
0.78305006 -0.15620969 0.23506244 9473416
0.77464288 -0.14483039 0.23480557 10788760
0.76550007 -0.13416013 0.23501807 10789018
0.77066666 -0.13866949 0.23540449 10854811
0.75769567 -0.12345904 0.23487596 11447203
0.76050007 -0.12882921 0.23497109 11183775
0.74850005 -0.11190213 0.2352933 11249567
0.7526316 -0.11669524 0.23466958 11380897
0.74582362 -0.1051374 0.2350063 11578531
0.73766667 -0.092150897 0.23482053 10921371
0.74223536 -0.09696456 0.23515189 11118493
0.73280007 -0.08466085 0.235135 10855321
0.72612506 -0.073643513 0.23497246 10920346
0.7302857 -0.078161463 0.23442699 10657431
0.71899992 -0.062045198 0.23477282 10657686
0.72066671 -0.067251481 0.23531586 10723223
0.71524137 -0.055145908 0.23501682 10723993
0.7073549 -0.044430468 0.23478945 10855582
0.71016669 -0.049645349 0.23521452 11316389
0.70579404 -0.035101682 0.23546547 11579564
0.70469451 -0.025343262 0.2350499 11645869
0.70499998 -0.01544833 0.23515198 12105391
0.70684624 -0.0054959105 0.23506749 12171439
0.7088334 0.00022960454 0.23477094 11645611
0.71319366 0.0052469871 0.23537749 11908528
0.71848279 0.013342431 0.23503803 12303029
0.72000003 0.018352702 0.23425657 11908012
0.72414297 0.024703419 0.23521473 11710890
0.72900003 0.030954974 0.23462488 12435383
0.73130018 0.036191404 0.23536478 12238258
0.73579305 0.044851117 0.23487739 12434096
0.74100006 0.048811469 0.23154825 12434096
0.74374294 0.055117313 0.2348647 12631994
0.7476154 0.064529851 0.23583589 11249315
0.75020003 0.068384893 0.23249057 10064268
0.75427788 0.075297751 0.23481019 13947850
0.75838459 0.083006963 0.23554602 15198172
0.76150012 0.087712221 0.2349447 14737365
0.76772726 0.092891052 0.23491544 12171695
0.77275008 0.098052926 0.23479761 12368818
0.77649999 0.1036417 0.2353697 12960698
0.78233337 0.10800502 0.23408639 13223872
0.78762507 0.11273197 0.23505339 12237235
0.79079998 0.11781318 0.23507698 11645612
0.79096001 -0.18491034 0.2443843 11381924
0.78900003 -0.17152131 0.24100612 11512999
0.79049999 -0.17562568 0.24462759 11381925
0.78856516 -0.16452576 0.24404344 9868431
0.79016668 -0.16715024 0.24783717 9803151
0.77900004 -0.15111086 0.24342251 9735818
0.78400004 -0.15575546 0.24471445 9538953
0.77403581 -0.14465393 0.24478194 10591638
0.76466662 -0.13491245 0.2452044 11183772
0.7568 -0.12491101 0.24530679 11710632
0.76025003 -0.12967615 0.24290189 11842217
0.74842864 -0.11339359 0.24450743 11447203
0.75173342 -0.11801881 0.24493003 11644581
0.74540001 -0.10521075 0.24501242 11315360
0.73668426 -0.09298306 0.24530987 10592150
0.74169242 -0.097796001 0.2445181 11184543
0.73205721 -0.084622845 0.2448858 11118752
0.7252143 -0.07423079 0.24492417 11446946
0.73000002 -0.078374922 0.24178249 10723224
0.71895832 -0.062883295 0.24485797 10921630
0.72049999 -0.068078689 0.2453828 11315361
0.71575862 -0.055011012 0.24495119 10855322
0.70716667 -0.04371272 0.24470335 11184032
0.71081817 -0.048935387 0.24579161 11447201
0.7053054 -0.035272952 0.24516085 11644326
0.70405579 -0.025319731 0.24472615 11511968
0.70458341 -0.015439425 0.24490993 12170154
0.70655555 -0.0055577401 0.2453194 12105904
0.70850009 0.0010593873 0.24461319 12171440
0.71252 0.0061060041 0.24536417 11645612
0.71786112 0.014334496 0.24504215 11974834
0.72000003 0.018774085 0.2409987 11513771
0.71900004 0.020431202 0.24907996 11909554
0.72289187 0.024987131 0.24488901 11776940
0.72860008 0.031620633 0.24541113 11974317
0.73108011 0.036590386 0.24511752 11645867
0.73425806 0.045044702 0.24471588 12237232
0.73799998 0.050970193 0.24560755 12828341
0.74285179 0.056344416 0.2443938 13157824
0.74610364 0.064749077 0.24521723 11841968
0.74833328 0.07148543 0.24551754 13289666
0.75291997 0.076746009 0.24418861 15066074
0.75787503 0.083523698 0.24513708 15592418
0.76141673 0.088480592 0.24505754 14933975
0.76599997 0.092600308 0.24473892 12301997
0.77177787 0.097816609 0.24477853 13156791
0.77627778 0.10434509 0.24529621 12368562
0.78160006 0.10820782 0.2433168 12763579
0.78690481 0.11315729 0.24549392 11908526
0.79055554 0.11808472 0.24425629 11579818
0.78900003 -0.16043893 0.25116497 9670795
0.79295462 -0.16504563 0.25554827 9671565
0.78600001 -0.15508921 0.25466335 9539724
0.79000002 -0.15879287 0.25888091 9408393
0.77444446 -0.14459544 0.25498775 10986908
0.78000003 -0.14947885 0.25925595 11250079
0.75900006 -0.13123977 0.25671807 11644323
0.76339996 -0.13522333 0.25498563 11184029
0.75627583 -0.12546284 0.2549082 11907497
0.7482 -0.11325909 0.25534132 11644323
0.75140005 -0.11796616 0.25467384 11446945
0.74458343 -0.10522135 0.25503564 11446945
0.73611999 -0.093857549 0.25514504 11184029
0.74059999 -0.098584309 0.25482756 10854551
0.73159391 -0.085078858 0.25451165 11118237
0.72505724 -0.074944936 0.25500545 11117980
0.71861541 -0.063177936 0.25509304 10789528
0.72030008 -0.068228111 0.25475687 10987164
0.71506256 -0.054962851 0.2549307 11249566
0.7073704 -0.044116862 0.25517073 11578274
0.71066666 -0.04912626 0.254511 11184030
0.70456755 -0.035126723 0.25495684 12235432
0.70285684 -0.025276104 0.25500426 11973802
0.70405269 -0.015600739 0.25491723 12368047
0.70648646 -0.0054451511 0.25533858 12303026
0.70850003 0.0014148877 0.25503865 12237748
0.71126097 0.0063863513 0.25501156 11909040
0.71660531 0.014365957 0.25500003 12106417
0.71899998 0.020992268 0.2558127 11975088
0.72207147 0.025956914 0.25485083 11974831
0.72781253 0.032397095 0.25511366 12236716
0.73084211 0.037517939 0.25462192 12171696
0.73283333 0.044844847 0.25472799 11974835
0.73659092 0.052443516 0.25540447 12499635
0.74211776 0.057777654 0.25442857 13026494
0.74503255 0.064888857 0.25528368 11842224
0.74755996 0.07311663 0.25505352 13157566
0.7517693 0.078492761 0.25420097 15460574
0.7570526 0.083731838 0.25507694 15789540
0.76060009 0.088385701 0.25458789 15526112
0.76586682 0.093124367 0.25563329 12301228
0.77171433 0.098066233 0.25469536 12827314
0.77552181 0.10452779 0.25484639 13288634
0.78039998 0.10986861 0.25573504 12631734
0.78600007 0.11501192 0.25447273 11579304
0.78900003 0.12031468 0.25670615 11579819
0.7913847 0.1249557 0.2545588 11579818
0.78706241 -0.15463601 0.26494372 9868172
0.79040003 -0.15887327 0.26456442 9408136
0.76900005 -0.14016984 0.26100048 8946813
0.77376473 -0.14455785 0.26506662 9867917
0.78039998 -0.1495555 0.26486921 10986653
0.75816673 -0.13198389 0.26530921 11776422
0.76323533 -0.13723195 0.26503149 10723994
0.74900001 -0.12074354 0.26911652 11382436
0.75419366 -0.12528843 0.26479724 11513250
0.74715382 -0.11473027 0.26542452 11315358
0.75060004 -0.11889316 0.26248553 11447201
0.73900002 -0.10010134 0.26984856 10461335
0.74325013 -0.10503314 0.26501834 11314845
0.73520005 -0.094314784 0.26518783 11184030
0.74000001 -0.098504432 0.26155192 12300969
0.72871435 -0.08189255 0.26584789 11381151
0.73125011 -0.086213984 0.26444992 11250080
0.71900004 -0.070461169 0.26843667 11117980
0.72381085 -0.075430468 0.26470777 10986650
0.71799999 -0.064250246 0.26498073 10855065
0.72000003 -0.068873629 0.26122507 11118495
0.71291178 -0.054948177 0.26512778 10986654
0.70724988 -0.045076106 0.26510632 11118496
0.71000004 -0.0496337 0.26175231 10789275
0.70466667 -0.035243109 0.26500928 11447202
0.70272195 -0.02527152 0.2656509 10856611
0.70391655 -0.015423645 0.26500189 11251366
0.7060554 -0.0055542598 0.26525646 11776939
0.70813793 0.0032035222 0.2648091 11776942
0.71025002 0.0081280731 0.26433763 11447464
0.71479493 0.014484732 0.26503786 11841963
0.71877778 0.02220159 0.26526839 11908011
0.72089481 0.027148319 0.26465601 11316647
0.7262941 0.034347191 0.26530468 12303024
0.73057139 0.038840372 0.26212794 12894904
0.72900003 0.041194588 0.26875693 12631730
0.73120022 0.045379769 0.2648468 12369590
0.73485303 0.054888349 0.26488861 12566713
0.74150002 0.059259593 0.2612136 14079181
0.73860002 0.061448909 0.26831895 14210765
0.74313796 0.065272428 0.26511848 12235435
0.7465294 0.074520111 0.26473215 13420481
0.75000006 0.079252295 0.26157489 15526111
0.74849999 0.080846041 0.26893628 15395040
0.75520009 0.08505448 0.2649743 15657699
0.76050007 0.089263551 0.26078552 15328732
0.76391304 0.093946904 0.26525486 13354171
0.77150011 0.099134214 0.26410398 13223099
0.77540004 0.10417714 0.2649838 13420738
0.78033334 0.1086419 0.26545414 13816011
0.78641659 0.11448108 0.26483849 11908271
0.79000002 0.11861777 0.26905262 11316390
0.78900003 0.12031468 0.2604003 11514026
0.79162502 0.12457842 0.265129 11448233
0.78707153 -0.15360127 0.27476585 9868687
0.791125 -0.15832518 0.27545527 9277063
0.77433336 -0.1447718 0.2748951 11446950
0.78166676 -0.14979826 0.27261996 11512999
0.75699997 -0.13170053 0.27513143 11250081
0.76275009 -0.1371388 0.27472264 10986398
0.74850005 -0.12153964 0.27506977 11447973
0.75210524 -0.12634435 0.27472472 11316131
0.74633336 -0.11507463 0.2751466 11250337
0.73900002 -0.10010134 0.27503857 10987162
0.74292862 -0.10579442 0.27494588 11118492
0.73446661 -0.094507366 0.27518347 10921369
0.72808343 -0.082431354 0.27523726 10723992
0.73133337 -0.087079175 0.2747533 10526612
0.71900004 -0.070461161 0.27516946 10986652
0.7225334 -0.075888678 0.27482745 10526101
0.71741182 -0.064728521 0.27465928 10986651
0.70844448 -0.051736437 0.27527487 10987683
0.71168005 -0.056485403 0.27526572 10987168
0.70660526 -0.045438092 0.27508202 11448232
0.704 -0.035122201 0.27493489 11448231
0.7029441 -0.025279123 0.27560693 11251112
0.70435297 -0.015240054 0.27475318 11185577
0.7058484 -0.0058287117 0.27476785 11908272
0.70803338 0.0035463343 0.2746186 11909299
0.71000004 0.0085405959 0.27504927 11580077
0.71400005 0.014560397 0.27530831 11974321
0.7186957 0.022910647 0.27552837 12368305
0.72035712 0.027818056 0.27448362 12105648
0.72435141 0.035027541 0.27480793 12106162
0.7289167 0.042043179 0.27555129 12434864
0.73065209 0.047387108 0.27468273 12238001
0.73270005 0.055129219 0.27492163 12303544
0.73710001 0.062793218 0.27579692 12960704
0.74155557 0.06775295 0.27434844 10723226
0.74487108 0.075113297 0.27480182 13815751
0.74746668 0.082135133 0.27608764 15460575
0.75366676 0.086701438 0.27451366 16118507
0.75849998 0.091337517 0.27572435 13816011
0.76366669 0.096281707 0.27476478 12105650
0.77000004 0.099391535 0.27035281 15131351
0.76900005 0.1010627 0.2790029 12630967
0.77459091 0.10468818 0.27509272 14473166
0.78000003 0.1088993 0.27477688 14144718
0.7861501 0.11326051 0.2749159 12105392
0.79066664 0.11840963 0.27575728 11382441
0.78664291 -0.15233408 0.2859275 9210759
0.79221433 -0.15778352 0.28477496 9277064
0.76900005 -0.14016984 0.28800413 9933708
0.77482367 -0.1448639 0.28474116 9012353
0.75788897 -0.13183683 0.28443563 11118492
0.76333338 -0.13699803 0.28432852 10920603
0.74871433 -0.12119846 0.28316182 10986909
0.75276464 -0.12601966 0.28503397 11052957
0.74646163 -0.1149608 0.28500777 11052702
0.73900002 -0.10183135 0.28541866 10657944
0.74278575 -0.10596001 0.28470564 11249824
0.73506892 -0.095124871 0.28437513 10789784
0.72880006 -0.081658348 0.28489241 10921116
0.73113054 -0.086311921 0.2851328 10592406
0.71900004 -0.070461169 0.28190219 10394514
0.72303128 -0.075361297 0.28527814 10460050
0.71766663 -0.065294176 0.28507504 10526358
0.70807153 -0.052341044 0.28424776 10263958
0.7118572 -0.05746448 0.28509235 10790043
0.70586109 -0.045215718 0.28501272 11053220
0.70375764 -0.035420213 0.28453755 11578790
0.70316118 -0.025312662 0.28490537 11249821
0.70466679 -0.015441348 0.28453121 11514025
0.7060554 -0.0055551059 0.28509167 11777711
0.70796782 0.0035462452 0.28498024 11711662
0.71000004 0.0082635758 0.2836369 11252398
0.71375006 0.014441631 0.28541073 11514542
0.71831429 0.024498194 0.28511634 12039852
0.72000003 0.028887283 0.28145149 11775908
0.71900004 0.030530354 0.28779337 11842730
0.72207898 0.035204515 0.28461763 11777710
0.72763169 0.043091971 0.285689 12303797
0.73061109 0.047938019 0.28398439 12631731
0.7321614 0.055198375 0.28515369 12368819
0.73620003 0.06470228 0.28502432 12171703
0.74050003 0.069580816 0.2816636 9473937
0.73900002 0.071169883 0.28801367 9407368
0.74243337 0.075153843 0.28453943 13487046
0.74607402 0.083628111 0.28543127 15592162
0.7518 0.088242389 0.28331727 16184041
0.75678569 0.091867402 0.2855764 12105133
0.76353341 0.096893437 0.28476411 11053216
0.76900005 0.1010627 0.28080317 13224387
0.77432001 0.10546713 0.2848458 12302514
0.78565216 0.1150922 0.28480023 11119268
0.79000002 0.11861777 0.28107378 11382440
0.78900003 0.12068409 0.28773683 11250854
0.79173094 0.12501039 0.28432322 11382440
0.78742862 -0.15424287 0.29516971 9473930
0.7906 -0.15854359 0.29350081 9276809
0.77491671 -0.1432177 0.29369798 9736331
0.78175002 -0.14752764 0.29689884 9145221
0.76460004 -0.13382313 0.29387397 11052445
0.77220005 -0.13786104 0.29751974 10065295
0.75645453 -0.12436204 0.29296702 10921886
0.76166672 -0.12635319 0.29714614 10066576
0.74766666 -0.11352739 0.29109994 10065807
0.75357145 -0.11568546 0.29457572 10263186
0.76000005 -0.11895847 0.29886687 11119265
0.74599999 -0.10483513 0.292927 10262931
0.75466663 -0.10752665 0.29853624 10527132
0.73666668 -0.092890196 0.29083979 10855835
0.74360001 -0.095156312 0.29502925 10263442
0.75000006 -0.098079823 0.29844594 10657944
0.72900003 -0.081680767 0.29435596 9671563
0.7315715 -0.085276067 0.2940453 9934991
0.72447371 -0.076096922 0.29319715 9606027
0.71745449 -0.064817682 0.2919068 10921886
0.70840001 -0.051844139 0.29151043 10987679
0.7118333 -0.056987029 0.2913107 11118751
0.70590913 -0.044090964 0.29352045 11119011
0.70505548 -0.035258852 0.29459324 11446432
0.70508564 -0.025332117 0.29472435 11051931
0.70563877 -0.015463728 0.29483616 11053475
0.70624995 -0.0055566672 0.2950902 11251368
0.7078976 0.0044379714 0.29507685 11185575
0.70900005 0.01018835 0.29872873 11908784
0.713 0.014402541 0.29502249 11185577
0.71825004 0.024616115 0.29505932 11381927
0.71900004 0.03053035 0.29536772 11447976
0.72181481 0.035599738 0.29511473 11185575
0.72763151 0.043271735 0.29438636 11317163
0.73086667 0.048486527 0.29562396 11711148
0.73196322 0.054881833 0.29507697 11776681
0.73570591 0.064729288 0.29478335 11908782
0.73900002 0.071169883 0.29406872 10263191
0.74136358 0.075896524 0.29453498 13552583
0.74525726 0.084838361 0.29496062 15460323
0.75100005 0.089906596 0.29005334 16249836
0.7548182 0.092776224 0.29440853 12368052
0.76400006 0.09718857 0.29399267 10921889
0.77000004 0.099391535 0.29378641 10856096
0.77575004 0.10376965 0.29348269 10658460
0.78220004 0.10792381 0.29551542 11316390
0.78680003 0.11464169 0.29476455 10922146
0.79000002 0.11769307 0.29956782 11054245
0.78900003 0.12077644 0.29318565 11053989
0.79095459 0.12549557 0.29479733 11185575
0.78833342 -0.15230684 0.30201229 9408393
0.79155564 -0.15601748 0.30633718 9671565
0.77800006 -0.14181033 0.30048138 9078658
0.78600007 -0.14548032 0.30553558 9408393
0.79100001 -0.14973514 0.30920574 9803408
0.76900005 -0.13116863 0.30060583 8750463
0.77600008 -0.13538983 0.30435529 9277064
0.78250003 -0.13805038 0.30863142 9408650
0.76640004 -0.12354759 0.3021028 8816256
0.77333337 -0.12587263 0.30672741 9145221
0.75900006 -0.1116946 0.30025047 11053218
0.76100004 -0.11020741 0.30282313 9540236
0.77200001 -0.11360923 0.30900761 8816256
0.75699997 -0.10343029 0.30123141 10395031
0.76385725 -0.10499872 0.30600646 8816512
0.75000006 -0.094568297 0.30020171 10723737
0.76250005 -0.097037524 0.30699009 9671562
0.70600003 -0.04109028 0.30159658 10330522
0.70606667 -0.035474163 0.30212116 10658203
0.70623541 -0.024959352 0.30252448 10000015
0.70671427 -0.01584295 0.30320314 9935764
0.70674998 -0.006181363 0.30150348 10462368
0.708 0.003547142 0.3012073 8554112
0.71350008 0.01589955 0.30124891 10395546
0.71780002 0.02342451 0.30159581 10658719
0.71900004 0.030530352 0.30125889 8882308
0.72350007 0.036936838 0.30144951 11449261
0.72900003 0.042047888 0.30118236 10922404
0.73323083 0.046321172 0.30405664 10922146
0.74000001 0.043548532 0.30832547 9934994
0.73452181 0.054444194 0.30447558 10724254
0.74400002 0.059459385 0.3099921 9276809
0.73744446 0.064118758 0.30208081 11579820
0.74300003 0.066494256 0.30641615 9869974
0.74384993 0.074686721 0.30392709 11579565
0.75200003 0.079463631 0.30980444 13421768
0.74670005 0.083976105 0.30255201 14144977
0.75400007 0.086385742 0.30709907 13881805
0.75620002 0.092654765 0.30339223 12302520
0.77900004 0.10237691 0.30633852 10921634
0.78681827 0.10675757 0.30505678 10921889
0.79000002 0.10937075 0.30789012 10987425
0.78866673 0.11164812 0.30152419 11053475
0.79171425 0.1154351 0.30604491 11119011
0.78875005 -0.14330861 0.31201917 9474443
0.79135299 -0.14544408 0.31588373 9869200
0.787 -0.13546716 0.31455359 9474443
0.79000002 -0.13536708 0.31867829 9671822
0.77800006 -0.1217759 0.31140924 9013892
0.7851001 -0.12545674 0.31554171 9145478
0.79000002 -0.1255036 0.31991127 9342857
0.77616668 -0.11513112 0.31188726 8684670
0.78433341 -0.11603873 0.31731144 9211271
0.77437508 -0.1055737 0.31290677 8750463
0.78300005 -0.1033171 0.31890962 9145478
0.77425003 -0.096719444 0.31353328 8552571
0.78100002 -0.09847711 0.31809503 8487291
0.75000006 0.058183137 0.31424782 10000789
0.74750006 0.062364552 0.31145042 9672340
0.75340003 0.063733384 0.3149696 10001048
0.76000005 0.069633953 0.31843778 9474194
0.74900001 0.072132938 0.31032196 6712939
0.75650007 0.07329651 0.31476021 7962237
0.76200002 0.071601056 0.31927577 10264478
0.75700003 0.083538622 0.3109771 13355975
0.76333332 0.087207496 0.31388357 11382443
0.77100003 0.086886138 0.31943688 10461340
0.77250004 0.095187873 0.31464007 10526877
0.77500004 0.10003693 0.31020841 10856098
0.78722227 0.1046886 0.31448567 10921891
0.7902 0.1082888 0.31536776 10922148
0.7927084 0.11523908 0.31489921 10987682
0.79258329 -0.12537342 0.32552013 9606026
0.78820008 -0.11414883 0.32102752 9211271
0.79156244 -0.11498065 0.32587284 9474443
0.78800005 -0.10550492 0.32217744 9145478
0.79138464 -0.10548707 0.32631621 9408650
0.78750002 -0.095148429 0.32120419 8684669
0.79206675 -0.095790558 0.32668373 9211271
0.76300001 0.044902068 0.32148096 10395294
0.77400005 0.049173307 0.32792762 9013894
0.76700002 0.050524149 0.32496187 9475215
0.77250004 0.059022658 0.32729208 9541008
0.764 0.066426493 0.3219023 9737617
0.77340001 0.065430082 0.32767341 10066582
0.76750004 0.072114348 0.32248038 9870232
0.77500004 0.074187413 0.3269912 10066838
0.77499998 0.085522152 0.32327223 10461339
0.78200001 0.086298004 0.3276557 10395545
0.77700007 0.093021542 0.32101214 10658717
0.78620005 0.096517786 0.32610363 10790303
0.78850007 0.10270305 0.32207209 10921891
0.7919445 0.10603711 0.32523191 10922146
0.78828573 0.055350203 0.33608943 9540750
0.78590912 0.065145887 0.33565268 10000787
0.77900004 0.073198453 0.33004603 10066580
0.78662503 0.075295255 0.33465984 10329752
0.79083329 0.076780535 0.33845401 10461338
0.78760004 0.083964303 0.33258423 10592924
0.79192859 0.086199977 0.33737919 10724510
0.78833342 0.092531264 0.33030936 10724510
0.79210007 0.095012799 0.33578381 10790303
