# .PCD v0.7 - Point Cloud Data file format
VERSION 0.7
FIELDS x y z rgb
SIZE 4 4 4 4
TYPE F F F U
COUNT 1 1 1 1
WIDTH 863
HEIGHT 1
VIEWPOINT 0 0 0 1 0 0 0
POINTS 863
DATA ascii
0.40608343 -0.13248362 -0.070841938 15000804
0.40647626 -0.12474637 -0.070933022 15132132
0.39763895 -0.13453993 -0.062079046 14868963
0.4021191 -0.13362522 -0.066591643 15132392
0.39754164 -0.12597066 -0.061092865 16383225
0.40309215 -0.12472445 -0.065983489 16053493
0.39900002 -0.11943122 -0.060732316 16580603
0.40563232 -0.115154 -0.065032847 16251128
0.40758359 -0.10623854 -0.063555166 16382970
0.4111464 -0.10381348 -0.067348018 15988214
0.40829998 -0.096978672 -0.061096996 16580349
0.4119595 -0.094702944 -0.065172136 16185591
0.41545793 -0.085146815 -0.063812874 16448506
0.42033339 -0.081207976 -0.067259654 16184563
0.41814286 -0.078733124 -0.061269607 16580093
0.42255548 -0.074759118 -0.064293467 16382201
0.42506433 -0.065680958 -0.063387781 15921650
0.42654759 -0.055467267 -0.062548786 15922164
0.42849997 -0.04862304 -0.061990518 16184823
0.43109092 -0.043342218 -0.061671879 16513787
0.43557692 -0.034949414 -0.06159313 15462384
0.43881258 -0.026887108 -0.061335165 14868961
0.44000003 -0.025608674 -0.062852792 12565948
0.43900004 -0.011676428 -0.061168376 10987175
0.44 -0.016029228 -0.061101712 12171191
0.43900001 -0.0091071613 -0.060654528 10854818
0.44160002 -0.007297649 -0.060804941 12105399
0.45244443 0.0054507819 -0.060393717 11447466
0.45412502 0.014500174 -0.060618047 11185318
0.39252707 -0.13341101 -0.054364275 15197669
0.39368373 -0.12487509 -0.05492359 16382967
0.3963232 -0.11536066 -0.054201104 16514810
0.40057147 -0.11270965 -0.05829316 16514810
0.39835295 -0.10810022 -0.051473841 16514810
0.40192008 -0.10443585 -0.05557701 16449273
0.40565166 -0.095195316 -0.054543246 16514812
0.40837845 -0.08774282 -0.053298622 16514813
0.41188157 -0.083748877 -0.05583255 16514813
0.41502985 -0.075438879 -0.054629575 16514813
0.42020002 -0.071869858 -0.059040718 16645886
0.41762963 -0.067138903 -0.052126028 16514813
0.42142865 -0.064044036 -0.056089163 16514813
0.42354268 -0.055143606 -0.054939896 16448763
0.42740002 -0.046250455 -0.053835396 16579836
0.43041033 -0.042514164 -0.056833897 16448251
0.42900002 -0.038024317 -0.05023421 16579838
0.43226084 -0.034787275 -0.055079304 16185080
0.43645549 -0.024883898 -0.055202473 15658992
0.43851289 -0.016386323 -0.052692413 15527665
0.44008204 -0.013739765 -0.056581371 15198700
0.44398797 -0.0051278165 -0.055236276 15001577
0.44777185 0.004026039 -0.053375389 14738405
0.45128128 0.0065213558 -0.057467345 14343132
0.4488 0.012613793 -0.051432293 14409954
0.45268199 0.015498179 -0.055871643 13290956
0.45388359 0.024163214 -0.05410587 13751764
0.45776191 0.03281083 -0.052326366 13949402
0.46222726 0.037485022 -0.053635824 13817557
0.46554539 0.044919241 -0.053903051 13685712
0.46700001 0.052332129 -0.052399442 14079959
0.47100005 0.05859296 -0.050741762 15527150
0.47478566 0.065812834 -0.050990917 14869218
0.47500002 0.070579492 -0.050431371 12566464
0.38900003 -0.13064419 -0.040632825 14802398
0.39150015 -0.13402037 -0.045448523 14605275
0.38899997 -0.1246664 -0.042167939 16185075
0.39040005 -0.12481393 -0.047206428 16382711
0.38900003 -0.11886638 -0.040389981 16579836
0.39229903 -0.11488477 -0.045017228 16514810
0.39654279 -0.10553221 -0.044590052 16514810
0.40017653 -0.10159752 -0.048402503 16580603
0.3985334 -0.098827772 -0.041878048 16580603
0.40234917 -0.094555251 -0.04519764 16580603
0.406982 -0.085238591 -0.044698205 16580348
0.41042861 -0.081536137 -0.048608698 16580606
0.40873912 -0.077372909 -0.041705064 16645885
0.41183892 -0.074299365 -0.045602918 16580349
0.41502815 -0.065062836 -0.045084592 16580349
0.41762254 -0.055940006 -0.043057013 16580349
0.42086014 -0.053517755 -0.046997067 16514813
0.41866669 -0.048705827 -0.04053022 16645629
0.42327175 -0.04490884 -0.045103181 16580349
0.42677921 -0.035837673 -0.044479195 16514300
0.4300555 -0.031853303 -0.048064776 16382716
0.42823526 -0.028283862 -0.041417755 16316921
0.4319886 -0.024193913 -0.045511391 15987958
0.43573338 -0.014641711 -0.044909414 15856115
0.43823522 -0.005608873 -0.043473039 15527406
0.44109368 -0.0037908365 -0.047845013 15264236
0.43891677 0.0020263025 -0.040777918 15067369
0.44258761 0.0051202206 -0.045228034 14803941
0.44516665 0.014936618 -0.04467053 14541283
0.45000002 0.019108009 -0.049532849 15396334
0.44719568 0.024250062 -0.04322068 14804455
0.45184618 0.025972528 -0.047839295 14804455
0.44900003 0.03097821 -0.041364212 15198955
0.45440581 0.03537897 -0.044911236 15067627
0.46033335 0.03894446 -0.049233664 15002348
0.45658138 0.044175696 -0.042929731 15265006
0.46205884 0.045931242 -0.04768255 15133934
0.45900002 0.051457357 -0.04112139 15527922
0.46440634 0.055126108 -0.045164715 15396335
0.47050002 0.059080511 -0.049586449 16053494
0.46724999 0.063494034 -0.042616218 15988472
0.47189742 0.065927543 -0.046650905 15725556
0.46900001 0.070419915 -0.040644862 16054266
0.47294748 0.074488908 -0.044334397 15593713
0.47299999 0.081429146 -0.041877352 12632257
0.38750729 -0.13314544 -0.034629203 14605275
0.38764679 -0.12485418 -0.035108611 16185077
0.38877553 -0.11774433 -0.034176353 16382969
0.39102671 -0.1132573 -0.035206679 16449017
0.39381748 -0.10512254 -0.035123952 16514810
0.39751351 -0.096584678 -0.033911835 16580346
0.40079993 -0.092715159 -0.036863994 16580602
0.4034453 -0.085075982 -0.034924302 16580347
0.40664837 -0.075068563 -0.034693964 16580348
0.41000003 -0.070893683 -0.039371025 16580606
0.40842611 -0.066742241 -0.033378251 16580349
0.41128573 -0.06353052 -0.036659602 16580349
0.41389519 -0.055227507 -0.035184573 16580349
0.41668546 -0.045400053 -0.034296796 16580349
0.42062503 -0.041773826 -0.038176127 16645629
0.41811115 -0.038906764 -0.031123463 16580093
0.42263824 -0.03473676 -0.035392277 16448508
0.4262875 -0.025739238 -0.034577388 16054007
0.4300909 -0.021827947 -0.038371459 15987701
0.42847368 -0.0176511 -0.031379126 15791092
0.43142158 -0.014614791 -0.035763666 15922164
0.43356365 -0.0053302948 -0.034819856 15461614
0.43550563 0.00468117 -0.034649253 14672098
0.44000003 0.0094129555 -0.03916169 14541025
0.43681416 0.014664231 -0.0338169 14475232
0.44050008 0.016180532 -0.038536422 14606818
0.43814817 0.02335589 -0.032274671 14869990
0.44231489 0.025708232 -0.036555152 15001576
0.4454942 0.034805629 -0.034723092 15199212
0.45000002 0.03912371 -0.038998269 15198957
0.44832259 0.042703118 -0.033201382 15133932
0.45240819 0.046469849 -0.035903931 15133677
0.45627147 0.054551508 -0.035063267 15396591
0.46040002 0.058135219 -0.039037596 15396593
0.45855999 0.062369421 -0.032484159 15922422
0.46274999 0.066193387 -0.035630975 15922679
0.46675006 0.07317245 -0.034282573 16054007
0.4707098 0.07775186 -0.036565226 16053493
0.47394732 0.083346285 -0.034177035 15396077
0.48000002 0.090050571 -0.030361267 12434877
0.38615632 -0.13394037 -0.025224298 14802654
0.38544211 -0.12496167 -0.025369616 16119028
0.38762081 -0.1152978 -0.024567619 16449273
0.39021426 -0.11171138 -0.028205985 16514810
0.38894442 -0.10812516 -0.021516301 16514809
0.39166343 -0.10446861 -0.025344502 16514810
0.39459234 -0.094966672 -0.024976252 16514810
0.39720479 -0.085940935 -0.023740005 16514810
0.40056747 -0.083300658 -0.027669748 16645882
0.39827272 -0.078442581 -0.021208879 16580602
0.402327 -0.074631453 -0.025356658 16580089
0.40601799 -0.065016568 -0.025177035 16645626
0.41000003 -0.060335688 -0.02977285 16711422
0.4078716 -0.055504978 -0.023333207 16645627
0.41130236 -0.053739365 -0.02818983 16645629
0.4085882 -0.047973916 -0.021287426 16645629
0.41257611 -0.044583835 -0.025242314 16579836
0.41663852 -0.035512768 -0.024407711 16382457
0.42061907 -0.032028895 -0.027918909 16448250
0.41846675 -0.027423693 -0.02150616 15856113
0.42211774 -0.024598299 -0.025847379 15987956
0.42516854 -0.015422367 -0.02487799 15725298
0.43000001 -0.011437049 -0.029211909 15922421
0.42685264 -0.0054303245 -0.02356489 15198442
0.43006906 -0.0052412399 -0.028244659 15329771
0.42714587 0.0043261494 -0.022960238 14212317
0.43064275 0.0050374605 -0.027601149 14408926
0.42792588 0.013534785 -0.02183735 14343904
0.43174246 0.015318157 -0.026350556 14541284
0.43461609 0.025032684 -0.02490994 14739176
0.43842861 0.03240066 -0.02340807 15133163
0.4417322 0.03641624 -0.025744554 15067626
0.44660339 0.044119269 -0.024536198 15067369
0.45070589 0.049115963 -0.026338488 15067370
0.45361111 0.055373956 -0.02497777 15198955
0.45811537 0.063756637 -0.02497549 15462127
0.4604286 0.068363741 -0.024350319 15462127
0.46494299 0.074609816 -0.024948519 15461870
0.47000003 0.079372294 -0.029178601 15133162
0.46900001 0.080301352 -0.02307786 16579838
0.47438893 0.085147232 -0.024634667 15922679
0.48054999 0.091955043 -0.023982601 14540769
0.38466668 -0.14035521 -0.013826254 13026242
0.38440362 -0.13477807 -0.01521555 14868190
0.38349977 -0.1248766 -0.015220923 16250614
0.38517201 -0.11506249 -0.01542512 16514298
0.38816053 -0.10539001 -0.014396814 16448760
0.39017648 -0.10190632 -0.018071275 16514553
0.3888461 -0.09730991 -0.011326656 16514553
0.39153922 -0.094324328 -0.015577343 16449017
0.3934195 -0.08497794 -0.01474046 16514810
0.39623412 -0.075533763 -0.014330408 16514809
0.40022227 -0.07180503 -0.018496893 16645882
0.39824146 -0.067347452 -0.011753181 16449017
0.40143031 -0.064335473 -0.01606142 16580090
0.4034358 -0.055164479 -0.014930564 16514554
0.40660611 -0.045455057 -0.014448603 16514297
0.4104 -0.041178774 -0.018273085 16579836
0.4084194 -0.037185039 -0.011985874 16316921
0.41230267 -0.034303963 -0.016103685 16251127
0.4152571 -0.025170067 -0.014907961 15856113
0.42033339 -0.020855755 -0.019371392 15527150
0.41727993 -0.015883205 -0.012975533 15592943
0.42122012 -0.014257589 -0.017514711 15790322
0.4180741 -0.0053370972 -0.011728739 15001320
0.42222866 -0.0052998457 -0.016830085 15067112
0.41875005 0.0020971214 -0.011047442 14410209
0.42208523 0.0049102809 -0.015617581 14409696
0.42487088 0.014529597 -0.015286617 14476002
0.428 0.022151232 -0.012820387 14870761
0.43131351 0.026186435 -0.015606466 14804969
0.43646422 0.033173021 -0.014622437 14870504
0.44141173 0.038136534 -0.015368676 14935783
0.44633341 0.045085534 -0.015172024 14935783
0.44900003 0.050832644 -0.013100842 14935784
0.45270839 0.055765748 -0.015064796 15264748
0.45776084 0.06347093 -0.015002675 15658992
0.46073914 0.068242535 -0.015731171 15856115
0.46425012 0.074862882 -0.015094069 15790322
0.46855551 0.08126168 -0.015378235 16119287
0.47342506 0.085972846 -0.016177386 15527406
0.47900006 0.090984315 -0.016281169 14803685
0.48049998 0.093051143 -0.016426966 14277083
0.38250002 -0.14090781 -0.00046557537 12959425
0.38169768 -0.13490999 -0.0050279018 14999777
0.37899998 -0.12719701 -1.7112407e-05 16250614
0.38114068 -0.12480612 -0.005103983 16250870
0.38187152 -0.11496307 -0.0050174771 16448247
0.38445696 -0.10522898 -0.0048758527 16448504
0.38640004 -0.094974287 -0.004508385 16382967
0.39000002 -0.090260372 -0.0091475798 16580603
0.38843837 -0.086108766 -0.0028222064 16448760
0.39080003 -0.083423674 -0.0066899746 16580345
0.38900003 -0.078797519 -0.00032111592 16514296
0.39265835 -0.075028159 -0.0048456299 16448759
0.39498261 -0.065013424 -0.0044614701 16448760
0.39717239 -0.055740383 -0.00333634 16317688
0.40027016 -0.053204428 -0.0075659589 16449017
0.3987 -0.048405308 -0.00095183402 16382967
0.40216216 -0.044714715 -0.0050725644 16317430
0.40529755 -0.034967721 -0.0047749565 16185332
0.40724701 -0.025643026 -0.0033554318 15724780
0.41119999 -0.023448352 -0.0079621086 15658988
0.4084194 -0.015997622 -0.0010062749 15330539
0.41257831 -0.014596635 -0.0061252154 15330280
0.40877774 -0.0075224582 -0.0003376157 15001576
0.41373286 -0.0049748044 -0.0052780667 14869990
0.41578948 0.0047680484 -0.0046331882 14410210
0.42014289 0.0089884847 -0.009292746 14541797
0.41773084 0.012586733 -0.0020894015 14607077
0.42168751 0.016108509 -0.0057127462 14607333
0.42587179 0.023995863 -0.004804478 14804712
0.43000001 0.029029787 -0.0062605687 14541539
0.43523991 0.034062643 -0.0043799393 15133161
0.44069231 0.038870569 -0.0064501343 15133162
0.44572631 0.045272361 -0.0049672266 15132905
0.44891676 0.051596988 -0.0040932507 15264491
0.45187506 0.056482509 -0.005112886 15593456
0.45666251 0.064982504 -0.0043793311 15856627
0.46000001 0.069068573 -0.0091741495 16382972
0.45900002 0.071425654 -0.0012743397 15462127
0.46257138 0.075314701 -0.0053109475 15659250
0.46790472 0.081888661 -0.0046661519 15330026
0.47281826 0.086429879 -0.0044138785 16053234
0.47785717 0.090927422 -0.006099862 14342617
0.37900004 -0.14006206 0.0082638487 13486796
0.38125002 -0.14067002 0.0031024851 13354951
0.37837332 -0.13415118 0.0065357699 15394279
0.38074279 -0.13704005 0.0026555827 14604762
0.37796843 -0.12509717 0.0054552178 16250356
0.38000003 -0.12175032 0.00087242929 16382197
0.37843341 -0.11536166 0.0064871702 16382196
0.38022223 -0.11405614 0.0019605374 16447734
0.37874073 -0.10758661 0.0083889728 16316660
0.38090479 -0.1043482 0.0045316024 16316660
0.38228697 -0.094886385 0.0052887737 16316918
0.38493821 -0.084948801 0.0054123225 16382711
0.38686362 -0.075286761 0.0059742369 16382710
0.39021429 -0.072691627 0.0013523782 16514553
0.38837937 -0.066306286 0.0077557312 16316662
0.39147827 -0.064114869 0.0035518683 16382970
0.389 -0.058546264 0.0097394651 16382709
0.39331818 -0.055020235 0.0049617994 16317175
0.39571157 -0.04535573 0.0052634031 16317174
0.40000004 -0.041657604 0.0012694993 16382456
0.39749995 -0.036024991 0.0073651355 16053490
0.40106776 -0.0341435 0.0031935694 15987952
0.39889997 -0.02704462 0.0091334973 15527404
0.40209284 -0.024933178 0.004833472 15396331
0.40387276 -0.014992669 0.0051684636 15198953
0.40603045 -0.0051693069 0.0052861748 14869989
0.41000003 -0.0013069194 0.00094130525 14672611
0.4078801 0.0026168763 0.006509278 14541540
0.41175005 0.0068855719 0.0042048781 14541282
0.41606811 0.014719898 0.0056553339 14410210
0.42050001 0.019004423 0.0016212872 14541797
0.41900003 0.02073434 0.0088090608 14212833
0.42480001 0.025409104 0.0055583422 15002090
0.42999998 0.029331779 0.0019938604 15198955
0.42900002 0.030267864 0.0085171517 15462898
0.43382058 0.034891527 0.0050148624 15199212
0.43864709 0.041157406 0.0065632733 15199726
0.44292071 0.045659102 0.00470109 15330284
0.44769481 0.053761952 0.0059816795 15593200
0.45061111 0.057872873 0.0029086582 15527407
0.44900003 0.060321894 0.0086514428 15922421
0.45355847 0.065132201 0.0051037972 15856372
0.45836103 0.072818406 0.0062367809 15462128
0.46172225 0.077196889 0.0044795643 15857399
0.46650001 0.081879169 0.0039780457 15330542
0.47158337 0.086680569 0.0039813607 15790322
0.37840006 -0.1411393 0.017048312 13684430
0.38036847 -0.14197461 0.012823924 12828095
0.37694383 -0.13490427 0.015012583 15066083
0.38000003 -0.13954206 0.012437059 14078677
0.37521133 -0.12497806 0.01490211 16118770
0.37592256 -0.11499625 0.014894748 16381940
0.37699187 -0.10502231 0.015019681 16119537
0.37764639 -0.095135845 0.015387761 16053490
0.38009098 -0.09362869 0.010822177 16316917
0.37818336 -0.086209632 0.017289368 16250869
0.38099995 -0.084055141 0.013195994 16251124
0.37899998 -0.078335114 0.019248797 15724780
0.38207445 -0.074819133 0.014950995 16316661
0.38472083 -0.065049127 0.015366563 16316661
0.38701788 -0.055397581 0.015698822 16185076
0.39063159 -0.052237846 0.01100326 16382453
0.38814068 -0.045914534 0.017655445 16185078
0.39152056 -0.044230312 0.012759789 16119284
0.38885716 -0.039017536 0.018968767 16053492
0.39290577 -0.034686822 0.014539115 15856111
0.39500806 -0.024836432 0.014763305 15198696
0.39634022 -0.015099093 0.015844494 15133160
0.40015382 -0.013416504 0.011222871 15067367
0.39780495 -0.0062968368 0.017628519 14804196
0.40147817 -0.0042524738 0.01336615 14738661
0.4057892 0.0044937478 0.01535714 14607332
0.4105556 0.0092106741 0.011940945 14607333
0.40900001 0.010664723 0.018652324 14739176
0.41410214 0.015262699 0.014924517 14673125
0.41828579 0.021305874 0.015739951 14936041
0.42329234 0.026413493 0.015285166 14935784
0.42757574 0.031837381 0.015872024 15067883
0.43210775 0.036672346 0.014076982 15133933
0.43711758 0.044345416 0.015641537 15199213
0.44125 0.048022486 0.01252805 15330797
0.43900001 0.050842408 0.019164041 15198955
0.44423535 0.055099212 0.014934008 15659505
0.44828951 0.062450673 0.016076844 15659506
0.45220938 0.066770546 0.014059881 15791092
0.45678377 0.074619755 0.015132909 15922677
0.46000001 0.079478301 0.013978519 15658990
0.46540004 0.083391733 0.015013005 16250614
0.47300002 0.086522736 0.01215896 16447993
0.3772727 -0.14082934 0.024552906 13750223
0.37488246 -0.13463005 0.024959898 14737119
0.37356415 -0.12497522 0.024933185 15657963
0.37358615 -0.1150213 0.024805009 15987182
0.37358841 -0.10498313 0.025004476 15790317
0.37405604 -0.094920203 0.024899429 15921646
0.37536708 -0.084921561 0.024938941 15921646
0.37705284 -0.075296938 0.025458338 16053745
0.38022229 -0.071480513 0.020949509 16185331
0.37824646 -0.066196784 0.027160987 15987952
0.38095304 -0.064127572 0.022888854 16119538
0.37899998 -0.058287587 0.028966248 16251122
0.38197508 -0.054918613 0.024691509 16053744
0.38388175 -0.045058142 0.025240732 15987695
0.38638201 -0.035309464 0.025186663 15658733
0.39020005 -0.031935487 0.020443816 15527148
0.38720489 -0.025559319 0.026775345 15263977
0.3908937 -0.024209064 0.021669842 15198697
0.3882826 -0.016886916 0.027921198 15067113
0.39188609 -0.014419735 0.023191132 15067369
0.39457616 -0.0052883141 0.025005303 14804455
0.39730954 0.0019025193 0.026574079 14475747
0.40259737 0.0063826288 0.024430837 14476004
0.40730926 0.012946879 0.026015775 14673383
0.41232729 0.017091895 0.023809839 14673383
0.41638812 0.023478147 0.025916567 15068141
0.42158344 0.02788309 0.02355391 15265262
0.42537975 0.034494806 0.02572464 15331054
0.4303529 0.038305152 0.022025244 15462127
0.42783332 0.041287046 0.028689953 14936554
0.43321687 0.045211159 0.024507511 15265005
0.43772087 0.052690778 0.026213352 15396335
0.44180006 0.056847773 0.024040876 15462127
0.44620776 0.064552985 0.02545107 15791092
0.4507778 0.068974286 0.021201497 15725298
0.44900003 0.070920654 0.028184703 15988471
0.45266661 0.074992359 0.024620673 15725041
0.45900002 0.080738224 0.022007085 15132643
0.4605 0.082081288 0.024239177 15856624
0.37755564 -0.14110023 0.034517393 13026500
0.37501827 -0.13464671 0.035100192 14276567
0.37270269 -0.12465107 0.034881901 15263716
0.37209058 -0.11482466 0.034867447 15395301
0.37123477 -0.10503885 0.035178836 15132386
0.37120107 -0.095033258 0.03517504 15395559
0.37204322 -0.084967069 0.035139799 15527146
0.37347847 -0.075122088 0.035207797 15658988
0.37549609 -0.064903148 0.034901164 15724781
0.37703627 -0.055056136 0.035060301 15856367
0.38000003 -0.051250551 0.030451192 15987952
0.37781259 -0.045371123 0.036805507 15658988
0.38085175 -0.04425548 0.03196289 15790573
0.37835854 -0.03570712 0.038135458 15264233
0.38152933 -0.034393709 0.033392377 15330025
0.37872231 -0.026621768 0.03938679 15067110
0.38230097 -0.024743235 0.034575474 15001574
0.38431686 -0.01509742 0.034970138 15001575
0.38717052 -0.0063494439 0.036178876 14869990
0.39137504 -0.0032832702 0.032300018 14607332
0.38866672 0.00042944847 0.039409876 14804198
0.39519396 0.0047259373 0.035190325 14672869
0.40050003 0.008702537 0.031924941 14673127
0.39793754 0.011541802 0.038407505 14803686
0.40310225 0.015342386 0.034634236 14607333
0.41000003 0.019329155 0.030695643 14936555
0.40675563 0.02332776 0.037218537 14804969
0.41315156 0.026033111 0.033384629 15002348
0.41536072 0.033902999 0.036621045 15133678
0.4221819 0.037277285 0.032741141 15133677
0.41866669 0.040646929 0.038858384 15001835
0.42468756 0.04467196 0.035462964 15133677
0.43066663 0.048198264 0.031569473 15265520
0.42770004 0.051002543 0.03832633 15265006
0.43397531 0.055299018 0.034737896 15331313
0.44000003 0.059885304 0.030881573 15922678
0.43759266 0.062064011 0.037158296 15594228
0.44309846 0.066348374 0.034118753 15791092
0.44696918 0.073858052 0.035272177 15791092
0.45083335 0.077016875 0.031114012 16250872
0.37575001 -0.14062029 0.046608508 12829118
0.37434798 -0.13510795 0.04490548 14145237
0.37219629 -0.12488201 0.044888973 15197666
0.37158787 -0.11474136 0.044817653 15131872
0.3709088 -0.10494574 0.045134582 14934751
0.36900005 -0.090871163 0.048934024 15198183
0.37039322 -0.095189579 0.044870362 15132645
0.36900011 -0.084752321 0.048604935 15066594
0.37050995 -0.085185416 0.044164591 15132644
0.36900002 -0.078705482 0.049006008 15132643
0.37072894 -0.074712187 0.04478997 15395815
0.37172046 -0.064988814 0.044688195 15527145
0.37260279 -0.05508801 0.044959847 15461608
0.37387589 -0.045108072 0.045037724 15527145
0.37505302 -0.035009053 0.04526832 15067365
0.37614897 -0.025029482 0.045254886 14869988
0.38000003 -0.020782202 0.040014252 15724527
0.37799996 -0.015681611 0.046197996 14803940
0.38077769 -0.013542896 0.042016253 15066856
0.37877777 -0.0083499709 0.049146611 14278623
0.38287589 -0.0050325058 0.0448994 14607075
0.38666293 0.0037212349 0.046067156 14475746
0.39192688 0.0069772857 0.042676304 14475747
0.38875005 0.010364366 0.049125683 14541027
0.3950415 0.014933244 0.045052215 14541540
0.40016666 0.019178094 0.040888492 14935785
0.39753336 0.02243516 0.047472332 14739176
0.40261039 0.025843546 0.044121064 15001578
0.40650022 0.033803023 0.046366077 15001835
0.41170269 0.03686608 0.042959522 15133420
0.40900001 0.040346488 0.049770303 15133164
0.41557145 0.044146206 0.045709528 15067884
0.4215385 0.047393598 0.04214675 15068141
0.41820002 0.050456583 0.048538979 15002346
0.42477503 0.05473724 0.045427624 15265520
0.43064284 0.05818085 0.041745316 15397105
0.42800003 0.061007738 0.048073087 15527921
0.43453944 0.065185882 0.045009028 15856629
0.44050002 0.068547629 0.040884718 15856885
0.43747625 0.071978748 0.047768336 15790322
0.44228801 0.075416952 0.044481684 15988471
0.44400004 0.080920987 0.047347445 13290955
0.377 -0.14086744 0.051171675 13157827
0.37446025 -0.13534793 0.05502224 14013137
0.37205333 -0.12486745 0.054854665 15263204
0.37150404 -0.11458546 0.054941602 15000287
0.37071937 -0.1048937 0.055091947 14671323
0.36876082 -0.093810052 0.055757191 14803422
0.36999992 -0.097541533 0.052776765 14869216
0.36833084 -0.084983982 0.054626156 15000801
0.3684364 -0.075365186 0.055235557 15198179
0.36999995 -0.071958415 0.05084024 15395815
0.36840171 -0.065086357 0.056063227 15198180
0.36999992 -0.064563178 0.051164158 15461351
0.36876562 -0.0556027 0.057377256 15329511
0.370395 -0.054426532 0.052680925 15263973
0.36881095 -0.045896661 0.058576886 15329767
0.37062639 -0.044786375 0.053800795 15198436
0.36899999 -0.037765834 0.059464585 14737631
0.37116146 -0.035028201 0.054864086 14935009
0.37233824 -0.024876865 0.055151533 14737890
0.37475005 -0.014941703 0.054909199 14804197
0.37691066 -0.005728073 0.05565789 14475489
0.38075006 -0.0018814572 0.051846892 14344162
0.37850004 0.0012310754 0.058296639 14409697
0.38252547 0.0050720079 0.054608952 14344161
0.38692781 0.01397849 0.055836104 14475747
0.39117864 0.016808135 0.052046914 14672869
0.38857144 0.020528171 0.058849026 14870763
0.39482135 0.025028104 0.054942708 14936298
0.40000001 0.028846055 0.050860062 14870761
0.39800009 0.03180819 0.057550002 14936298
0.40293697 0.035637334 0.054476388 15067626
0.40745625 0.043276489 0.056221478 15067370
0.41152075 0.046518281 0.05314349 15198698
0.41509536 0.053728048 0.056474734 15462128
0.42172226 0.057400245 0.053122588 15397105
0.42541775 0.064549901 0.05596704 15528434
0.43050003 0.067512535 0.051831298 15791351
0.42800003 0.070943505 0.057757523 15331056
0.43326086 0.07511387 0.055270031 15528435
0.44100004 0.078812286 0.050979633 16186108
0.43616667 0.080977023 0.056980193 13421772
0.44350004 0.081646204 0.050853811 11053996
0.37395611 -0.13439049 0.064824991 14078930
0.37213248 -0.12489358 0.06488537 15066083
0.37159389 -0.1148056 0.064940944 15065824
0.37069395 -0.1048867 0.065068215 14539737
0.36864474 -0.093950458 0.064878151 14474456
0.36999995 -0.098995529 0.065812714 14211028
0.36765659 -0.085091479 0.064960413 14605787
0.36710447 -0.075079158 0.064866818 14803422
0.36708483 -0.064827926 0.06480106 15000802
0.36719421 -0.054972291 0.064942732 15197925
0.36738911 -0.045033921 0.064915054 15000804
0.36819145 -0.034882195 0.06515266 14474460
0.37 -0.030485056 0.060904387 14803425
0.36900014 -0.027631195 0.067686446 14079960
0.37037513 -0.024246305 0.06441462 14408925
0.37153479 -0.015096595 0.064775407 14343903
0.37347746 -0.005120723 0.065111406 14146267
0.37649992 0.0042455392 0.065624632 14146524
0.38075 0.0081789428 0.062184166 14278369
0.37862501 0.011313296 0.068897203 14277855
0.38265848 0.015439026 0.064806759 14541797
0.38682047 0.023618134 0.065989226 14870505
0.39189479 0.02811073 0.063639946 14936299
0.39524209 0.034216721 0.065754831 15067627
0.40065223 0.038219057 0.062168811 15001832
0.39828572 0.040621936 0.068711631 14935784
0.40433332 0.045383845 0.06484127 15198955
0.40788242 0.052596044 0.067436911 15593456
0.4126057 0.056136012 0.06395635 15527921
0.41645768 0.06347768 0.066536136 15528179
0.42150003 0.066851012 0.063105948 15528178
0.41900003 0.070759557 0.069624029 15527922
0.42494595 0.074149802 0.06589663 15593971
0.43052179 0.077789299 0.06272921 15527921
0.42799997 0.081130445 0.068779685 16251129
0.43175 0.081653871 0.064457513 14145752
0.37762499 -0.14054857 0.074240625 11973555
0.37503394 -0.13501592 0.075128503 13947089
0.37226224 -0.12470901 0.074985825 15066083
0.37192705 -0.11474881 0.0749477 15000033
0.3709693 -0.10496221 0.075104244 14539481
0.36849123 -0.092336498 0.074609935 14079701
0.37045604 -0.097509988 0.075485766 14276566
0.36729941 -0.084907681 0.075034656 14211286
0.36641002 -0.074937023 0.075036913 14540250
0.36606079 -0.065010622 0.074966416 14802909
0.36570871 -0.055102352 0.074892022 14803168
0.36655283 -0.044960357 0.075032428 14671839
0.36807579 -0.034777582 0.074948929 9672086
0.36880851 -0.025114086 0.075291388 9606036
0.36999997 -0.021534566 0.07100977 13751509
0.36900014 -0.016310981 0.077710927 13422030
0.37017915 -0.014364961 0.07338731 13817301
0.37081507 -0.005153155 0.075003333 13685716
0.37367871 0.0050670262 0.074772254 13883353
0.37734851 0.01452121 0.075704515 14278112
0.38048005 0.017831642 0.071808793 14541027
0.37866673 0.021457443 0.078286678 14672870
0.38311204 0.025538974 0.07466016 14869992
0.3874355 0.033351753 0.076573879 14935785
0.39237875 0.036763679 0.073335253 15133163
0.39578247 0.044337105 0.075997062 15198956
0.40059257 0.047264151 0.072156101 15461871
0.39780003 0.051348694 0.079044066 15659507
0.40449512 0.055097707 0.075018339 15527921
0.4106667 0.059098195 0.070802331 15659507
0.40778384 0.062856436 0.077510081 15659250
0.41286677 0.066054277 0.073801309 15725044
0.41598538 0.073907115 0.076217681 15790323
0.42175013 0.077396385 0.072872847 15593457
0.41850001 0.081207357 0.079092875 15987702
0.42290008 0.082075194 0.074873112 15330285
0.377 -0.14038202 0.087886326 12105655
0.37429813 -0.13489217 0.085003212 13947600
0.37190744 -0.12495395 0.084767736 15263203
0.37184349 -0.11499831 0.085028574 15131874
0.3710576 -0.1049875 0.085111342 14605273
0.36878395 -0.091837391 0.083447337 14079185
0.3705532 -0.096569374 0.085557245 14473686
0.36784133 -0.085237816 0.085030265 14079444
0.3665632 -0.074885257 0.085053131 14276566
0.36600018 -0.064999223 0.085236326 14408153
0.36500055 -0.054995138 0.085003465 14540252
0.36620322 -0.044955961 0.085003696 13553359
0.36711064 -0.034922976 0.084881224 2830895
0.36707348 -0.025159866 0.08508455 3093041
0.36862487 -0.014979351 0.084983438 12698306
0.3690002 -0.0078661544 0.086309299 13488337
0.37023199 -0.0036943359 0.084381878 13553874
0.37183678 0.0049979473 0.084952429 13685973
0.37495431 0.015063794 0.084960632 14277854
0.37762001 0.023994304 0.08577244 14607076
0.38075757 0.027756996 0.082391836 14673383
0.37869999 0.031152159 0.088636793 14672611
0.38342509 0.035329714 0.084696852 14870504
0.38635483 0.044182859 0.086284168 15001833
0.39200008 0.046785388 0.082214825 15330285
0.38843748 0.051958449 0.088698566 15264748
0.39424989 0.055106495 0.085143603 15330541
0.40100005 0.058065739 0.081315383 15264748
0.39671746 0.06372989 0.087923504 15133163
0.40341678 0.065567806 0.08342433 15527664
0.39900002 0.070651241 0.089652337 15527922
0.40517735 0.074034229 0.086546041 15462129
0.41253328 0.076368302 0.082365856 15527664
0.40822223 0.081470117 0.089069523 14936042
0.41374549 0.082811505 0.084812477 14343134
0.377 -0.14020552 0.090004481 12434620
0.37315139 -0.13469307 0.094936021 14013650
0.37096933 -0.1249367 0.09507741 15263461
0.3707898 -0.11492676 0.095002607 15460583
0.37096947 -0.10500112 0.095107183 14934238
0.36899999 -0.091035694 0.095581159 14933982
0.37025461 -0.096006408 0.094743229 14671322
0.36783475 -0.085289434 0.095058188 14342358
0.36673561 -0.074929729 0.09488222 14342360
0.36577433 -0.064878419 0.095154718 14145238
0.36500055 -0.054995127 0.095257029 14145496
0.36627302 -0.044789094 0.095049873 11908535
0.36470172 -0.034947537 0.095090561 2699053
0.36471069 -0.025038477 0.095091611 2764591
0.36811805 -0.014956865 0.095207594 11777462
0.36864689 -0.0053916969 0.095709421 13159114
0.36999995 -0.0022239219 0.091186613 13093579
0.36900005 0.0021351427 0.09810067 13422543
0.37054148 0.0054428587 0.094258457 13554130
0.37254825 0.014933699 0.094962455 13883095
0.37517169 0.02472706 0.094871253 14277853
0.37810269 0.033910234 0.095693514 14278110
0.38067856 0.03790332 0.092249192 14541025
0.38212976 0.044852301 0.094882324 14672098
0.3856096 0.054822043 0.09511786 15198698
0.39039999 0.058801264 0.090826988 15462127
0.38794824 0.06399934 0.097406603 15330541
0.39264861 0.06587933 0.093123019 15330284
0.38900003 0.070701845 0.099243939 14804197
0.39507127 0.074648514 0.095417492 15264748
0.40094119 0.077538788 0.091190986 15264749
0.39641383 0.082368538 0.097674638 15264747
0.40317652 0.082803093 0.093074575 14869990
0.41100001 0.085766792 0.090424336 13026763
0.37137219 -0.13354552 0.10482638 13947600
0.36882699 -0.12375042 0.10746305 15066081
0.37014318 -0.12576146 0.1035362 14934496
0.36851174 -0.11547121 0.10688337 15658217
0.37000012 -0.11454026 0.10233136 15395302
0.36867085 -0.10450873 0.10689255 15197666
0.37000018 -0.1057383 0.10233411 15197410
0.36829412 -0.094424851 0.1056307 14803164
0.36999995 -0.097454935 0.10141259 14737370
0.36734876 -0.085019983 0.10532757 14474202
0.36667386 -0.074993163 0.10513608 14539739
0.36596912 -0.06507428 0.10504463 14211031
0.36540931 -0.055057146 0.10520427 14276824
0.36576834 -0.044904795 0.1049518 10790052
0.36220267 -0.034689553 0.10508599 2436394
0.3621065 -0.025053509 0.10493872 2567211
0.36755565 -0.014749583 0.10477491 11645363
0.36801642 -0.0050144913 0.10504785 12764357
0.36871859 0.0043296465 0.10510106 13028299
0.36999995 0.0092147039 0.10327487 13093834
0.36900002 0.010485554 0.10925855 13159372
0.37093061 0.014952867 0.10501796 13817301
0.37400019 0.024776967 0.10508579 14277853
0.37771887 0.034686524 0.10512569 14409183
0.38000003 0.03926491 0.10228533 14474462
0.37899998 0.040344574 0.10807899 14935011
0.38120842 0.045068827 0.10489236 14671840
0.38308799 0.054925662 0.10518093 14803426
0.38493061 0.064941317 0.10502794 15066855
0.38756621 0.073597915 0.10602056 15396590
0.3912093 0.077569023 0.10293547 15396590
0.38900003 0.080719061 0.10926116 15264748
0.39260474 0.083806939 0.10542086 15265005
0.36899999 -0.13031965 0.11645719 13355722
0.37057143 -0.13276003 0.11302989 12829378
0.36796099 -0.12465271 0.11503237 14474203
0.37 -0.12980665 0.11172009 13553101
0.36726233 -0.11489468 0.11500984 15329509
0.3673197 -0.1051814 0.11502654 15066338
0.36730522 -0.094980203 0.11487386 14671580
0.36700028 -0.084937334 0.11510998 14342873
0.36700022 -0.075057238 0.11511131 14277079
0.3667146 -0.064922608 0.11512483 14079444
0.36681902 -0.0550812 0.11495514 13684686
0.36709258 -0.04539641 0.11507616 10263452
0.35886672 -0.032200728 0.11905546 1449755
0.36140466 -0.035211913 0.11474036 2238758
0.35880002 -0.027377784 0.1191452 1712671
0.36109385 -0.024749184 0.11479967 2107430
0.36784321 -0.014911341 0.11491045 10396064
0.36800003 -0.0050497656 0.11499286 12106427
0.36831421 0.0047659259 0.11495484 12764870
0.36900011 0.012467292 0.11602526 13225165
0.37032026 0.016627597 0.11415038 13817045
0.37269408 0.024969039 0.11503918 14211545
0.37580132 0.035254356 0.11503074 14474462
0.3782858 0.044149552 0.11604337 15132648
0.38046509 0.047039691 0.11286943 15263977
0.37899998 0.051915739 0.11931745 15461357
0.38128209 0.055030551 0.11500861 15000805
0.38295326 0.064858146 0.11510437 15198185
0.38493007 0.074886926 0.1152293 15265005
0.3872264 0.08397986 0.11546529 15330799
0.39022225 0.087013029 0.111329 15199471
0.39561543 0.093568176 0.11813116 15659249
0.40000001 0.095643096 0.11796924 16448250
0.3687 -0.13099045 0.12362423 13223880
0.37 -0.13262172 0.12254728 12960965
0.36737984 -0.1248101 0.12504023 14605275
0.36653689 -0.11492501 0.12517923 15066597
0.36717451 -0.10517542 0.12490817 14737631
0.36748502 -0.094942436 0.12472837 14408666
0.36803544 -0.085305825 0.12458861 14079445
0.36999997 -0.082672186 0.1294045 13947859
0.36828578 -0.075555429 0.1233261 13684944
0.37030554 -0.074022174 0.12816352 13553358
0.3683193 -0.064980157 0.12285458 13421258
0.37072727 -0.064970598 0.12799639 13552845
0.36831591 -0.05530446 0.12252815 13157830
0.37067816 -0.054651987 0.12754588 12895171
0.36772716 -0.044262264 0.1235493 8947850
0.3705107 -0.046644963 0.12682413 10789795
0.35770082 -0.033654645 0.12488344 2107429
0.36159381 -0.03855934 0.1243079 2567210
0.35780016 -0.025518354 0.12533769 2107687
0.36066672 -0.021084083 0.12245733 1976615
0.36771306 -0.01479139 0.12450079 10001307
0.37000003 -0.011387925 0.12953855 10658469
0.368752 -0.0049268883 0.12502484 11645875
0.37 -0.0089750048 0.1294767 10658469
0.36877924 0.0049680127 0.12501147 12830149
0.36888626 0.013240602 0.12488627 13817044
0.36999992 0.017974893 0.12490959 14211545
0.37143472 0.025021251 0.1249681 14409180
0.37407893 0.035256848 0.12496096 14606047
0.37610778 0.044943418 0.12485144 15067112
0.37792617 0.054745693 0.12508251 15395820
0.38010007 0.058139868 0.12055346 15395563
0.37854546 0.063929334 0.12681313 15461355
0.38064596 0.066133797 0.12280168 15527148
0.38134858 0.075115688 0.12475938 15329770
0.38244998 0.084729806 0.12484892 15132648
0.38623077 0.09158878 0.12690994 15001060
0.39376667 0.096460819 0.12477478 15198698
0.3954286 0.10102964 0.12812446 7301486
0.36817861 -0.13181558 0.13367251 12697537
0.36686876 -0.12506263 0.13484997 14408667
0.36692458 -0.11517119 0.1350829 15066598
0.36789933 -0.10510114 0.13488583 14803426
0.3685815 -0.096465908 0.13417658 14540509
0.37016663 -0.092333615 0.13696329 14540253
0.36899999 -0.088747568 0.13096242 14146007
0.37076703 -0.0850069 0.13532136 14408923
0.37175006 -0.075156413 0.13488059 14211286
0.37218866 -0.065098464 0.13505432 13684686
0.37176886 -0.055142112 0.13452679 12434877
0.36754841 -0.041710779 0.13562907 8684674
0.3712309 -0.046543337 0.13384624 10790052
0.35787502 -0.033817425 0.13057432 2108199
0.36493844 -0.035454359 0.13588625 1318171
0.35883334 -0.025502697 0.13102931 2108200
0.36410418 -0.024364084 0.1360005 1121307
0.36707413 -0.017441941 0.13413069 9869977
0.37075332 -0.01310241 0.13565184 9935001
0.36900005 -0.0031815616 0.13326086 11514547
0.37020019 -0.0067077545 0.1364605 10922410
0.36892289 0.0045479666 0.13426405 12238270
0.36999995 0.0066926014 0.13882628 12435649
0.36899981 0.014038687 0.13518995 13422286
0.36999992 0.018270189 0.13459498 13883095
0.37097886 0.024874061 0.13502835 14080474
0.3724747 0.034908712 0.13490327 14343646
0.37446687 0.044694889 0.13468142 15001063
0.3766785 0.054863594 0.1350493 15264491
0.37785569 0.06469731 0.13487729 15264234
0.37835231 0.074582949 0.13641666 15132649
0.38032562 0.076010458 0.13167053 15264232
0.3784546 0.08318308 0.13752824 15264234
0.3809765 0.085599154 0.1335938 15132648
0.38617286 0.094065443 0.13510211 15198186
0.39076 0.098629415 0.13346204 15921651
0.39174357 0.10159303 0.1341728 8814981
0.366 -0.12369087 0.14050074 13882323
0.36692312 -0.11551125 0.14019422 13684946
0.36800003 -0.10498098 0.140407 11579313
0.36899999 -0.097061984 0.14078856 10460830
0.37030002 -0.092634231 0.14067775 12566463
0.37100002 -0.087047413 0.14115685 11447982
0.37290919 -0.075587302 0.14101046 11513776
0.37346154 -0.06484732 0.1411459 11316396
0.37300006 -0.057272218 0.14096521 11053223
0.3619566 -0.041029606 0.14646544 4670785
0.36428145 -0.035069894 0.14519928 726289
0.36999997 -0.031377483 0.14109133 660753
0.36321902 -0.024941595 0.14585216 1053711
0.36999997 -0.028030893 0.14117007 594962
0.36316669 -0.018389544 0.14414868 6115150
0.37093106 -0.013024342 0.14191458 9803928
0.37020576 -0.0048209806 0.14286269 10198945
0.36899999 0.0091418093 0.14433987 11449269
0.37000036 0.0046072728 0.14318424 11317682
0.3690002 0.01307706 0.14350645 12172734
0.36999992 0.016772091 0.14329217 12764614
0.37068832 0.024728905 0.14350367 13224907
0.37165332 0.03492577 0.1430067 13686229
0.37360808 0.044433989 0.14268729 14606818
0.37482476 0.055007875 0.14340748 14672867
0.37654334 0.065083638 0.14295733 14936297
0.3774462 0.074992441 0.14294736 14869477
0.37800014 0.081935905 0.14265372 14606563
0.38100001 0.089316197 0.14001547 15593715
0.38900003 0.098476857 0.14022346 8221565
0.39000002 0.099642999 0.14058393 6708328
0.3605715 -0.040922366 0.15429406 1646360
0.35846663 -0.03307895 0.15767333 989201
0.36059278 -0.035494015 0.15378927 1121045
0.35866669 -0.026508586 0.15751903 988948
0.36014 -0.024434125 0.15352549 1186324
0.36053851 -0.019036163 0.15379365 2171424
0.34564707 -0.041107308 0.16871437 2370340
0.35739997 -0.040881384 0.16603212 462345
0.36123079 -0.041320447 0.16286561 1580569
0.34647626 -0.035129316 0.16852295 1975841
0.35565171 -0.034667578 0.16460066 1317910
0.36025003 -0.039099455 0.16253817 1449239
0.34696925 -0.025508504 0.1680678 1778205
0.35631415 -0.026499134 0.16394705 1449500
0.36000001 -0.022638084 0.16010937 791569
0.33816668 -0.041056484 0.17929246 2041633
0.34180433 -0.041497931 0.17415132 2107168
0.33827773 -0.03688683 0.17842633 1975838
0.34141257 -0.035071615 0.17345171 1975582
0.33900002 -0.025285555 0.176165 1778461
0.3424921 -0.025557926 0.17277847 1975583
0.33484849 -0.041104596 0.18359223 1844510
0.33273587 -0.035367902 0.18605803 1843997
0.33264822 -0.026296807 0.18630303 1909790
