# .PCD v0.7 - Point Cloud Data file format
VERSION 0.7
FIELDS x y z rgb
SIZE 4 4 4 4
TYPE F F F U
COUNT 1 1 1 1
WIDTH 542
HEIGHT 1
VIEWPOINT 0 0 0 1 0 0 0
POINTS 542
DATA ascii
0.44385719 -0.035113968 -0.06125037 12827573
0.43651715 -0.024086321 -0.063275963 14933720
0.43778795 -0.017340915 -0.063223921 15592423
0.44340742 -0.012609024 -0.064144224 14737371
0.44900003 -0.0093146143 -0.063612856 14342613
0.45377785 -0.0062741651 -0.061803468 14342355
0.46200001 -0.00093189976 -0.060587678 14211284
0.46475002 -0.052073475 -0.050612144 13025207
0.44780004 -0.041718438 -0.056415491 12893621
0.45607144 -0.044013899 -0.052940972 12893621
0.46239999 -0.047554705 -0.052122582 12959414
0.43825004 -0.031150136 -0.053245462 12958644
0.44412124 -0.036159333 -0.055183627 12827572
0.4339425 -0.02459736 -0.054847684 15064790
0.43592417 -0.015992736 -0.054835498 15395301
0.44290912 -0.010976369 -0.055070315 13487821
0.44814292 -0.0088463547 -0.053376716 13883091
0.45565516 -0.0052873609 -0.054088406 13684942
0.46200001 -0.0014292761 -0.055016056 13421770
0.46536368 0.0013426375 -0.055626798 13289928
0.47000003 0.0034530775 -0.052284449 13289929
0.48390478 -0.062800698 -0.042962808 12828085
0.46592304 -0.052165613 -0.044992264 13024950
0.47518185 -0.057188466 -0.043107044 12828085
0.48060003 -0.059474271 -0.045026835 12893621
0.44457147 -0.041194361 -0.041651398 12893621
0.45738465 -0.044493798 -0.044913091 12959414
0.46247229 -0.047400173 -0.04690887 12893621
0.43557447 -0.033369835 -0.043955743 13156538
0.44306669 -0.036718618 -0.047803622 12893365
0.42863998 -0.023622956 -0.041523065 15460063
0.43070155 -0.025416683 -0.046192497 14933205
0.42875001 -0.019684276 -0.04092104 16052971
0.43264511 -0.016036669 -0.045374151 15394272
0.44133338 -0.010875436 -0.04892223 13882576
0.44800004 -0.0085931243 -0.048614305 13619146
0.45525002 -0.0053041815 -0.049175497 13553356
0.46000001 -0.0020047338 -0.04955671 13421774
0.47800002 0.0035095122 -0.048136529 13289929
0.48471799 0.0060411277 -0.044002593 13224392
0.48850003 0.01045052 -0.045193169 13158343
0.49387178 0.014193235 -0.043062814 13224389
0.50100005 0.018927885 -0.041072376 13224389
0.49900001 0.020020491 -0.044412915 12040115
0.50455552 0.021560859 -0.041491318 13158596
0.51125002 0.025301114 -0.041014895 11974322
0.49450001 -0.072256401 -0.032835908 12631477
0.50100005 -0.076660566 -0.030516721 12697014
0.479 -0.060397614 -0.034783404 12433840
0.48493031 -0.064483277 -0.035842791 12631219
0.49055555 -0.068745323 -0.03357986 12631477
0.45842859 -0.050291412 -0.034364775 12762291
0.46396154 -0.052951209 -0.035150714 12630962
0.47404003 -0.057645615 -0.034774844 12565426
0.44458348 -0.042883776 -0.03447837 12630704
0.4541539 -0.047699966 -0.035521053 12630706
0.42800003 -0.031724256 -0.031782724 13354172
0.43418667 -0.035436496 -0.035324026 13025207
0.42583516 -0.025045468 -0.034728896 15262428
0.43000001 -0.029053207 -0.038774967 14406347
0.42700002 -0.01829662 -0.034621414 15855337
0.43132004 -0.013831576 -0.03430827 14211283
0.4869546 0.0043065506 -0.03841649 13158853
0.49297065 0.0075270045 -0.033822086 13027267
0.49710718 0.012758792 -0.035053935 12961474
0.5030334 0.017281789 -0.034718785 13224646
0.50666666 0.021120392 -0.03744847 13487561
0.51492679 0.025048386 -0.035359774 13027266
0.52200007 0.028464608 -0.032733172 13421767
0.51800001 0.03048397 -0.037615452 11383210
0.5243333 0.031883221 -0.032647323 13553353
0.50733334 -0.080796264 -0.026147885 12697012
0.51130009 -0.083624452 -0.022464788 12697269
0.49695238 -0.071916066 -0.02517188 12499635
0.50416219 -0.077037208 -0.024515886 12697269
0.4863334 -0.062726952 -0.024602111 12368049
0.49159995 -0.067834698 -0.025661025 12499635
0.47675005 -0.057045422 -0.02903669 12499635
0.48415792 -0.05836197 -0.024354525 12434098
0.43670005 -0.041723553 -0.024102939 12236462
0.44300002 -0.043937638 -0.028230205 12236462
0.42539129 -0.032774579 -0.024573386 13288381
0.43248573 -0.037702061 -0.025768584 12433584
0.41872737 -0.025173111 -0.020960806 15460576
0.42149439 -0.024987934 -0.025691198 15328734
0.42285195 -0.017293733 -0.024812551 15395300
0.43150002 -0.012485338 -0.028810494 13158596
0.49542856 0.0065434319 -0.02752465 13290182
0.50350004 0.0078266505 -0.021002701 13224649
0.49900001 0.010675147 -0.028642645 13158596
0.50560004 0.013625899 -0.025445614 13027011
0.51147622 0.017387323 -0.024710353 12763840
0.51641178 0.022074109 -0.027184082 12895681
0.52435714 0.026508138 -0.024597559 13027011
0.53000003 0.029949427 -0.021116503 12829888
0.52754545 0.032619946 -0.028202439 13355974
0.53057903 0.033839773 -0.024080873 12829630
0.518125 -0.091409281 -0.016244307 12697525
0.52085721 -0.092501149 -0.012563682 12565939
0.51515687 -0.085350618 -0.015079585 12565683
0.52000004 -0.089913934 -0.010979443 12565939
0.49645454 -0.071687363 -0.01618842 12499890
0.50510722 -0.076028235 -0.014969036 12499634
0.51044452 -0.079631642 -0.013697715 12565426
0.48310006 -0.063636161 -0.014752572 12368047
0.49142855 -0.068539664 -0.017607581 12434096
0.47855556 -0.058225818 -0.012967696 12565426
0.48099998 -0.058484711 -0.017260797 12434097
0.43500003 -0.040592808 -0.019368155 12104877
0.41794449 -0.031065971 -0.013283859 13618117
0.42166677 -0.033784349 -0.016220804 13025722
0.43200004 -0.039301537 -0.018730093 12235693
0.41669378 -0.024741046 -0.015084891 15394783
0.42000002 -0.029360779 -0.019683514 14012874
0.4174 -0.017842973 -0.013625217 15527397
0.42074999 -0.016262893 -0.018143393 15000799
0.50568968 0.007390284 -0.015200863 13290439
0.51050007 0.0088300537 -0.011077337 13224646
0.50770003 0.011694669 -0.017375015 13158854
0.51397443 0.014706609 -0.014458045 12895682
0.52181816 0.019271096 -0.014016038 12895424
0.5265429 0.023527093 -0.01626201 12895169
0.53028578 0.027837917 -0.015984671 12697791
0.53100008 0.031974148 -0.018566595 12368824
0.52275002 -0.091614775 -0.0049677356 12828855
0.51652086 -0.083752148 -0.005211066 12565683
0.52069229 -0.088440135 -0.0042423848 12763318
0.49366668 -0.071881793 -0.0029048633 12368303
0.5057143 -0.075438365 -0.0076334835 12434096
0.51113343 -0.07840962 -0.005048776 12499889
0.48544443 -0.06588944 -0.0032087592 12236461
0.49000001 -0.068667203 -0.0069047171 12302254
0.48000002 -0.059400018 -2.1672706e-05 12697012
0.42250001 -0.040415429 -0.0015015262 12170668
0.41612768 -0.032700978 -0.005292553 13485758
0.4211601 -0.037843607 -0.0051449086 12367790
0.41309389 -0.024852792 -0.0047872062 15328991
0.41500014 -0.016990153 -0.0045830808 15000798
0.51354551 0.0086963782 -0.0075542424 13224646
0.51720005 0.012882888 -0.0075874156 12895681
0.52275008 0.017305639 -0.0046069073 12763837
0.52528131 0.02295915 -0.0056283353 12566201
0.53100002 0.025033612 -2.397543e-05 11513769
0.52366674 -0.091570191 0.0056974129 12763319
0.5176667 -0.083521381 0.0056313556 12631477
0.52085 -0.087197147 0.0063790502 12763319
0.49426088 -0.072186291 0.0053613125 12236719
0.50362504 -0.076620206 0.0057332385 12302769
0.51066667 -0.079533763 0.0063515343 12434355
0.4788 -0.060372401 0.0058075162 12499634
0.48521748 -0.065043494 0.0047930055 12170669
0.49016666 -0.069264494 0.0057149227 12039084
0.4751429 -0.057848155 0.0053021885 12368047
0.42284003 -0.042390898 0.0060381512 12236461
0.40862498 -0.030837845 0.0079925135 13880514
0.41390333 -0.034368794 0.0055911071 13222585
0.4210667 -0.038570624 0.0031992637 12302253
0.40822569 -0.025212821 0.006588249 15328989
0.41063637 -0.024655815 0.0019905495 15329246
0.40878943 -0.018755164 0.0076869414 15526884
0.41077781 -0.017390499 0.0045724493 15264226
0.52400005 0.0099832816 0.0012030341 12895424
0.5255807 0.016012894 0.0031132328 12632252
0.52900004 0.02122413 0.002452912 12237494
0.53000003 0.021264249 0.0036982885 11447978
0.51767445 -0.083991796 0.015589368 12697527
0.52020001 -0.087756857 0.011423622 12894906
0.49633333 -0.071105272 0.013541188 12105132
0.50590903 -0.075099424 0.016020365 12171183
0.51207697 -0.078493781 0.015562837 12368562
0.48546666 -0.064556442 0.01202652 12104875
0.49275002 -0.068619788 0.014696317 11908009
0.41517779 -0.042694967 0.0158455 12302254
0.42050004 -0.043997835 0.011465267 12302254
0.40719619 -0.032226026 0.015732538 13683908
0.41256604 -0.037283778 0.014391045 12696755
0.40530887 -0.025010422 0.015154265 15263711
0.40701935 -0.018081143 0.015274508 15198177
0.5156458 -0.083610348 0.024743179 12697526
0.49792308 -0.071392469 0.025261777 11842216
0.50465524 -0.075166866 0.024909617 12171182
0.51070011 -0.078622006 0.024604453 12434354
0.49327782 -0.068231374 0.024989294 11776424
0.41405004 -0.043320145 0.024190826 12301997
0.40514818 -0.034432679 0.025036797 13288893
0.4107143 -0.038533222 0.022094378 12565170
0.39900002 -0.026491642 0.029872103 15000539
0.40120897 -0.02509528 0.025244126 15197918
0.40382931 -0.018036863 0.024486797 15001056
0.51347369 -0.082398795 0.032492939 12565426
0.50591671 -0.074159741 0.035808392 12039339
0.51057148 -0.078323945 0.035777133 12368304
0.49550003 -0.069437966 0.03187868 11381665
0.41200003 -0.04423742 0.030521536 12170669
0.40399998 -0.036293037 0.03024644 13025978
0.40100002 -0.019114448 0.030021837 15198434
0.49766669 -0.074013948 0.046968002 12039082
0.50849998 -0.076021373 0.041045517 12170670
0.51025003 -0.078075051 0.041187659 12236463
0.39900002 -0.040035602 0.047619361 12499633
0.40238628 -0.042689916 0.045576934 12236461
0.39573959 -0.034167249 0.045709219 13552322
0.40061539 -0.038467135 0.042833347 12565427
0.39410737 -0.024780208 0.045183066 15197919
0.39600006 -0.017703447 0.046012875 14869214
0.4974615 -0.072760932 0.054935906 11907496
0.50120008 -0.076338381 0.053482275 12170668
0.49450004 -0.06929782 0.057280529 11710117
0.39628956 -0.041985814 0.056101423 12302512
0.40145463 -0.044216074 0.05124272 12105132
0.389 -0.031860787 0.058605917 14342351
0.39283177 -0.035291784 0.05455796 13618372
0.38884613 -0.026855841 0.058147248 14934746
0.39140001 -0.024070213 0.05401817 15132383
0.39354387 -0.017278403 0.055089179 14540250
0.49850002 -0.071025372 0.061245441 11841703
0.50388563 -0.075199902 0.066472732 12105131
0.49733338 -0.069694884 0.061685216 11841703
0.39399996 -0.04256478 0.064798884 12368050
0.38744798 -0.034042586 0.065404154 14276559
0.39118186 -0.03825343 0.062834732 13486787
0.38694412 -0.025162151 0.06502042 15131613
0.39000002 -0.020872602 0.06024019 15723751
0.38843143 -0.01779265 0.066663407 15131616
0.39072224 -0.017454222 0.061468415 14868700
0.50400001 -0.080068111 0.073129371 11973802
0.49805558 -0.072388634 0.075827524 11908010
0.50171441 -0.075681403 0.073298968 12039595
0.49533334 -0.068835594 0.075926691 11842217
0.38618371 -0.042329561 0.076321915 12960187
0.3840743 -0.035007939 0.074958876 12104363
0.3836211 -0.025018599 0.07496082 12433586
0.38619351 -0.016426479 0.075473204 14606041
0.3856667 -0.0089043817 0.079433613 12960965
0.49700004 -0.073986702 0.081103414 11973546
0.38362795 -0.043239634 0.085003406 12302001
0.37868416 -0.034660548 0.085178353 2699562
0.38060868 -0.037029993 0.083233275 2961452
0.37899998 -0.026978558 0.081286862 2830379
0.38054553 -0.023684354 0.08076784 3224370
0.38524386 -0.014913342 0.081677288 14342872
0.38557148 -0.0086443918 0.081799664 12763585
0.38320002 -0.051009793 0.098123088 12630193
0.37843752 -0.041184239 0.097544685 11710379
0.38202849 -0.045355514 0.094733335 12828346
0.37567648 -0.034987483 0.094979294 2633513
0.38000003 -0.03990832 0.091165498 6578526
0.37471008 -0.024910158 0.095557943 2567725
0.37810352 -0.01843405 0.096522801 13225157
0.38243487 -0.013933194 0.096255384 14606041
0.38534778 -0.0087761357 0.096660852 13684684
0.38247833 -0.052334704 0.10580651 12959929
0.37784132 -0.042746454 0.10567471 11249573
0.38087493 -0.047678865 0.10425974 13223102
0.36879998 -0.032127708 0.10868081 2173735
0.37205723 -0.035070609 0.10435326 2567467
0.36858195 -0.024966532 0.10779192 2370085
0.37130123 -0.024764512 0.10289225 2566953
0.37722808 -0.016847808 0.1049142 12368306
0.38099992 -0.012423595 0.10421213 14408663
0.38302994 -0.0071097803 0.10639377 13948111
0.384 -0.061004277 0.11909365 12103592
0.37872225 -0.051349547 0.11780075 13354689
0.3811771 -0.054833785 0.11541308 12960186
0.37717345 -0.044897377 0.11495346 11644071
0.38000003 -0.049100716 0.11088467 13288894
0.36678502 -0.033683155 0.11524165 2238759
0.37133333 -0.038419973 0.1139443 2566953
0.36694074 -0.025124073 0.11515038 2172451
0.36900002 -0.019748693 0.11919266 6975598
0.37659445 -0.014658486 0.11528055 12763578
0.38016668 -0.010853109 0.11137784 14474454
0.37873337 -0.0088613667 0.11790278 14277075
0.38226596 -0.0053892736 0.11490435 14013903
0.3883 0.00058110571 0.11797281 12829372
0.38123813 -0.061117876 0.12573501 12565171
0.3782728 -0.053585961 0.12555848 13223358
0.38071427 -0.057957787 0.12322777 12894137
0.37576842 -0.045182545 0.1249342 11512485
0.36343747 -0.034289535 0.12484147 2370600
0.37033334 -0.039760064 0.12251138 3223600
0.36313897 -0.025092755 0.12490289 2304808
0.36712503 -0.019002417 0.12620604 9014666
0.37516221 -0.013897798 0.12476067 12763579
0.37801331 -0.0071062185 0.12554808 14013903
0.3812592 -0.0026674736 0.12425734 14014161
0.38335297 0.0014190334 0.12643245 12829631
0.37866664 -0.060452748 0.13871397 13420737
0.38173136 -0.063128576 0.1352542 12565170
0.3774713 -0.054662246 0.13483518 13157309
0.38000003 -0.059479229 0.13253127 13289149
0.36900005 -0.040480748 0.13445376 4738897
0.373981 -0.045133479 0.1343177 10460312
0.36465913 -0.03508478 0.13263871 1581855
0.37059081 -0.035213158 0.13879339 1054484
0.36354181 -0.023767553 0.13354565 1646363
0.37100002 -0.029409427 0.13894607 857615
0.36593935 -0.018621173 0.13496962 7894385
0.37425339 -0.012945964 0.13466206 11447718
0.37685689 -0.0053748242 0.13478491 13224387
0.38033333 -0.00076716999 0.13086602 13948367
0.37899998 0.00034457675 0.13661873 13092802
0.3823559 0.0031362663 0.13452905 13158852
0.37849998 -0.061608288 0.14123741 9407110
0.38083336 -0.064514488 0.14039941 12565427
0.37719995 -0.056879152 0.14153287 8354937
0.36347365 -0.040678442 0.14524364 5331290
0.36352491 -0.035693891 0.14657597 923153
0.37260872 -0.033308893 0.14271086 923151
0.3648206 -0.024459463 0.14687939 1316367
0.37153125 -0.028094184 0.14416799 791564
0.36290911 -0.01880298 0.14639705 5252388
0.37459999 -0.012154491 0.14029434 9539979
0.37628576 -0.0070483172 0.14079957 10000273
0.36078575 -0.041027538 0.15508895 1711900
0.35886669 -0.032032643 0.15898901 1646618
0.36083832 -0.035132751 0.1547337 1383189
0.35900006 -0.027561726 0.15893626 1317912
0.36075589 -0.024695916 0.15452519 1579543
0.36100003 -0.018773705 0.1535944 3481888
0.34460717 -0.041145556 0.16742399 1843995
0.35549998 -0.040754333 0.16489021 528395
0.36075005 -0.040842474 0.1618142 1843994
0.34462699 -0.034917127 0.16729262 1646617
0.35547662 -0.034763381 0.16368303 1186069
0.36028579 -0.038320303 0.16119978 2238496
0.34554571 -0.025552759 0.1672947 1646363
0.35622492 -0.026803976 0.16348264 1252120
0.36036849 -0.022704501 0.16364898 1186328
0.34300002 -0.019561641 0.16941102 1842715
0.33681822 -0.04098811 0.17662017 1646364
0.34017649 -0.041347042 0.17190351 1777689
0.33742866 -0.03580831 0.17563073 1580569
0.34059203 -0.035086483 0.17175479 1712153
0.33785066 -0.025565414 0.17459689 1712409
0.34123999 -0.024972791 0.17150883 1712412
0.33700001 -0.019613916 0.17591463 1844257
0.34240001 -0.019607019 0.17103335 1645848
0.33323523 -0.041353274 0.18367283 1646619
0.33211479 -0.035517998 0.18646568 1909279
0.33197132 -0.026360152 0.18678977 1974558
0.79200006 0.079982251 0.31886709 10592924
0.79318511 0.085672863 0.31528485 10592924
0.79355168 0.094937094 0.31500599 10790303
0.79100001 0.079418615 0.32517555 10395800
0.79179996 0.085523769 0.32527342 10592924
0.79274064 0.094698302 0.3251442 10790303
0.79012501 0.079099372 0.33499002 10395545
0.79144007 0.085485801 0.33531609 10527131
0.79350013 0.09507411 0.33487466 10790303
0.78900003 0.074138105 0.34351814 10132375
0.79000002 0.078046456 0.34453145 10329754
0.79110724 0.085252002 0.34503058 10461596
0.79358613 0.095135525 0.34474307 10658718
0.78833342 0.078997053 0.35737622 9935766
0.79000002 0.079780273 0.35320055 10527133
0.78861547 0.085179478 0.35783529 10396060
0.7904706 0.085707054 0.35297421 10396059
0.78900003 0.094640501 0.35755584 10658718
0.79076195 0.09484309 0.35283369 10593438
0.78900003 0.10184405 0.35829464 10790303
0.79208839 0.10508129 0.35461834 10593695
0.78350008 0.078205004 0.36129606 10264731
0.78645456 0.085786708 0.36416662 10330267
0.78866655 0.093801469 0.36375824 10593181
0.79000002 0.097349614 0.36707106 10593181
0.78900003 0.10184405 0.36014169 10658717
0.79096442 0.10514234 0.36500815 10658717
0.78784621 0.087225094 0.37437138 10396058
0.78890914 0.091926619 0.37453964 10527644
0.79073334 0.09676227 0.37561843 10527644
0.79352003 0.10428896 0.3752102 10593437
0.80600005 0.21158947 0.37167513 2694943
0.81266671 0.216196 0.37570059 2629912
0.81700003 0.22021498 0.37674764 2827544
0.7931667 -0.19471173 0.38525063 10593697
0.78900003 -0.18375809 0.38900205 10593696
0.79192865 -0.18513444 0.38398543 10593697
0.78900003 -0.17521544 0.38877118 10659232
0.79221421 -0.17500129 0.38385966 10659489
0.78900003 -0.1687507 0.38969472 10921891
0.79178137 -0.16505781 0.38480836 10659489
0.78899992 0.086836666 0.3864623 10264730
0.78900003 0.091223434 0.38415352 10396315
0.79038888 0.09585657 0.3851383 10396316
0.79276466 0.10484344 0.38527554 10527901
0.80800003 0.2121145 0.38772818 2432025
0.81440002 0.21494219 0.3839314 2760736
0.82040006 0.21921086 0.38599822 2893083
0.82355565 0.2230565 0.38448307 2761751
0.79095656 -0.19473246 0.39468572 10593696
0.78839993 -0.18523495 0.39493531 10593696
0.78823996 -0.17504571 0.39485514 10593696
0.78899992 -0.16748086 0.39488959 10659232
0.79016668 -0.16273104 0.3948952 10724769
0.79266673 -0.15468483 0.39459747 10790561
0.78900003 0.087595277 0.39391661 10198937
0.79000002 0.0890273 0.39758626 10264729
0.78900003 0.091377355 0.39462021 10330522
0.79017401 0.095561951 0.39501899 10396315
0.79178119 0.10475432 0.39512211 10527388
0.79287994 0.11533809 0.39532346 10658973
0.79318506 0.12487365 0.39506227 10593694
0.79282135 0.17452154 0.39469603 10856353
0.79241931 0.18498673 0.39491478 10856096
0.81900007 0.21883678 0.39109096 2893337
0.81900007 0.22075407 0.39492553 2761497
0.82440007 0.22298542 0.39250466 2827544
0.7933501 -0.1947559 0.40503311 10527903
0.78900003 -0.1835272 0.4007771 10593696
0.79217637 -0.18508357 0.40599424 10527904
0.78900003 -0.17521544 0.4007771 10527903
0.79217643 -0.17471878 0.40599355 10593696
0.79285723 -0.16519774 0.4053925 10527903
0.78900003 0.08891461 0.40631828 10264731
0.78900003 0.091553271 0.40579054 10264730
0.79000002 0.095705718 0.40447015 10330522
0.79224139 0.10488787 0.40478957 10461853
0.79262054 0.12470534 0.40523815 10593181
0.79294717 0.13493836 0.40492806 10593438
0.79337496 0.14529957 0.40433043 10593695
0.79210269 0.15487684 0.40463126 10659488
0.79223329 0.1653201 0.40519926 10790561
0.78900003 0.094455793 0.41001242 10396315
0.79035717 0.096601442 0.41468236 10330522
0.79288894 0.10427476 0.41498864 10396315
0.79215389 0.12436063 0.41514587 10593694
0.79229027 0.13487816 0.41525194 10593694
0.79296428 0.14485261 0.41518864 10593694
0.79160011 0.15499218 0.41507038 10659230
0.79136014 0.16513751 0.4149431 10725024
0.79279977 0.17471783 0.41476837 10790560
0.79180002 0.097571425 0.42444509 10462108
0.79267734 0.10519329 0.42473286 10396316
0.79237926 0.11500716 0.42436677 10396316
0.79102802 0.12525216 0.42495334 10527902
0.78900003 0.13786179 0.42848301 10527903
0.79075009 0.13519301 0.42447254 10527901
0.78870583 0.14546716 0.42821389 10527646
0.79144996 0.14477444 0.4233261 10658974
0.78900003 0.15233044 0.42786732 10593438
0.79067767 0.15532053 0.42413747 10724510
0.79110014 0.16508348 0.42499244 10724510
0.79185182 0.17430261 0.42488191 10790047
0.79256648 0.18487182 0.42485496 10856096
0.79311538 0.19528152 0.42493409 10790814
0.78900003 0.20712666 0.42848301 3024671
0.79215795 0.20268296 0.42482436 6974055
5.4840002 -0.036738057 0.43624923 11579044
5.4840002 -0.023899915 0.43624923 11578531
0.79279989 0.10524988 0.43505451 10396317
0.79172415 0.11504085 0.4347553 10462110
0.79043365 0.12515771 0.43481287 10593439
0.78899997 0.13707019 0.4337604 10527646
0.79000002 0.13274048 0.4349106 10527646
0.78822577 0.14495768 0.43526521 10593183
0.78878552 0.15510364 0.43509349 10658719
0.79000002 0.15930465 0.43180019 10658719
0.78900003 0.16095006 0.43864188 10658719
0.79025012 0.16505992 0.43455681 10724512
0.79226929 0.17460269 0.43489566 10724512
0.792889 0.20350258 0.4343099 6972767
5.4840002 -0.049576201 0.44908735 11644324
5.4840002 -0.036738057 0.44908735 11644324
5.4840002 -0.023899915 0.44908735 11512738
5.4840002 -0.011061771 0.44908735 11512738
5.4610004 0.0017689213 0.4472039 11315359
0.79244447 0.1066159 0.44395676 10461596
0.7917999 0.11518023 0.44483271 10527131
0.79125011 0.12495788 0.4443922 10592924
0.79096299 0.13501431 0.44450143 10592926
0.78894109 0.14637995 0.44344392 10593183
0.79014289 0.14268549 0.44654432 10527390
0.78894985 0.15539926 0.44415513 10592926
0.78900003 0.16095006 0.44418308 10724512
0.79018193 0.16539603 0.44400761 10658719
5.4610004 -0.036583979 0.45998824 11710117
5.4610004 -0.023799678 0.45998824 11973289
5.4610004 -0.011015378 0.45998824 11512738
5.4610004 0.0017689213 0.45998824 11381152
5.4840002 -0.062414341 0.46192554 11841703
5.4840002 -0.049576201 0.46192554 11775910
5.4160004 0.0017543449 0.46887675 11249568
5.4160004 0.014433298 0.46887675 11381152
5.3930001 0.026997115 0.46688557 11644324
5.4610004 -0.074936882 0.47277254 11775910
5.4610004 -0.062152579 0.47277254 11841703
5.4610004 -0.049368277 0.47277254 11644324
5.4610004 -0.036583979 0.47277254 11578531
5.4610004 -0.023799678 0.47277254 11512740
5.3930001 -0.010878215 0.47951066 11381154
5.4390001 -0.010971001 0.4708679 11381154
5.3930001 0.0017468947 0.47951066 11381154
5.3710003 0.014313376 0.47755459 11512740
5.3710003 0.026886985 0.47755459 11775910
5.4390001 -0.087367781 0.48360071 11775908
5.4390001 -0.074634984 0.48360071 11775908
5.4390001 -0.061902188 0.48360071 11775908
5.4160004 -0.048961472 0.4815557 11710117
5.4160004 -0.036282517 0.4815557 11578531
5.4160004 -0.023603564 0.4815557 11512740
5.4160004 -0.086998329 0.49423465 11775908
5.4160004 -0.074319378 0.49423465 11775908
5.4160004 -0.061640427 0.49423465 11775908
5.3930001 -0.048753545 0.49213579 11644322
5.3930001 -0.036128435 0.49213579 11578531
5.3930001 -0.023503326 0.49213579 11512740
5.3930001 -0.010878215 0.49213579 11315361
5.3710003 0.0017397685 0.49012819 11315361
5.3710003 0.014313376 0.49012819 11381154
5.3710003 0.026886985 0.49012819 11775910
5.3930001 -0.086628869 0.50476086 11644322
5.3930001 -0.074003763 0.50476086 11775908
5.3710003 -0.06112827 0.50270182 11775908
5.3710003 -0.048554663 0.50270182 11710115
5.3710003 -0.035981055 0.50270182 11578531
5.3710003 -0.023407448 0.50270182 11315361
5.3710003 -0.010833839 0.50270182 11315361
5.3490005 0.0017326424 0.50064272 11249568
5.3490005 0.014254748 0.50064272 11249314
5.3490005 0.026776854 0.50064272 12104875
5.3930001 -0.086628869 0.51738602 11710115
5.3930001 -0.074003763 0.51738602 11710115
5.3710003 -0.06112827 0.51527542 11775908
5.3710003 -0.048554663 0.51527542 11644322
5.3710003 -0.035981055 0.51527542 11578531
5.3710003 -0.023407448 0.51527542 11512740
5.3710003 -0.010833839 0.51527542 11052189
5.3490005 0.0017326424 0.51316482 11249568
5.3710003 -0.073701881 0.52784902 11973287
5.3710003 -0.06112827 0.52784902 11973287
5.3710003 -0.048554663 0.52784902 12236461
5.3710003 -0.035981055 0.52784902 11710117
5.3710003 -0.023407448 0.52784902 11578531
5.3710003 -0.010833839 0.52784902 11512738
5.3490005 0.0017326424 0.52568692 11315361
5.3490005 0.014254748 0.52568692 11381152
5.3710003 -0.06112827 0.54042262 11644324
5.3710003 -0.048554663 0.54042262 11644324
5.3710003 -0.035981055 0.54042262 11578531
5.3710003 -0.023407448 0.54042262 11578531
5.3710003 -0.010833839 0.54042262 11381152
