# .PCD v0.7 - Point Cloud Data file format
VERSION 0.7
FIELDS x y z rgb
SIZE 4 4 4 4
TYPE F F F U
COUNT 1 1 1 1
WIDTH 438
HEIGHT 1
VIEWPOINT 0 0 0 1 0 0 0
POINTS 438
DATA ascii
0.43900001 -0.030689005 -0.062709942 12695731
0.44444445 -0.035582051 -0.060828015 12827573
0.4367846 -0.024575848 -0.063388452 14736084
0.43771434 -0.017217131 -0.063262023 15592423
0.44350004 -0.012521739 -0.06508559 14605787
0.44900003 -0.0093146143 -0.064488783 14145237
0.45503855 -0.0058671311 -0.062210225 14342358
0.46000001 -0.00092786551 -0.060325392 14012882
0.44825816 -0.04216991 -0.055093821 12827828
0.45366669 -0.045053162 -0.051701576 12959413
0.46266666 -0.049313501 -0.051288407 13156792
0.43784618 -0.03163461 -0.05261362 12893366
0.44427449 -0.036694989 -0.055429745 12762036
0.43394458 -0.024755022 -0.05488313 14933205
0.43533334 -0.016294921 -0.05510791 15395044
0.44466671 -0.010785007 -0.055193577 13619407
0.44900003 -0.0093146143 -0.055904668 14343387
0.45525005 -0.0052660871 -0.054545369 13487821
0.46149999 -0.0012541858 -0.055444203 13618894
0.4651053 0.0011852632 -0.055945829 13355722
0.47100005 0.0034604243 -0.052945439 13487820
0.47500002 -0.061005235 -0.040608846 12894391
0.45900002 -0.050354101 -0.040852759 12827828
0.46421435 -0.052405063 -0.044535927 12959414
0.4729 -0.058524203 -0.042532131 12828598
0.44433334 -0.040945228 -0.045453761 12827828
0.45643756 -0.046472795 -0.045093689 12827828
0.46231249 -0.048825368 -0.046899032 12959413
0.43580642 -0.033968072 -0.044104967 13156282
0.44157144 -0.037368774 -0.047867838 12893621
0.42838708 -0.023898132 -0.041817538 15394527
0.43077049 -0.025438849 -0.046476685 14801876
0.42883334 -0.019604459 -0.041347306 15986921
0.43217543 -0.016215593 -0.045463894 15328992
0.44133332 -0.011221905 -0.048579663 13290182
0.44800001 -0.0092938691 -0.048788317 14539735
0.45340005 -0.0061073988 -0.049162418 13487561
0.47900003 0.004640548 -0.049360923 13422025
0.48536116 0.0061915168 -0.04438648 13224389
0.49033335 0.0093418611 -0.041345011 13158596
0.48900002 0.010461216 -0.045812391 13158853
0.49373171 0.014124043 -0.043206077 13224135
0.49900001 0.020020491 -0.043244746 13158343
0.5054 0.021227252 -0.0409602 13487306
0.51585716 0.026055412 -0.040735938 12434873
0.52100003 0.02944085 -0.040272649 11777198
0.49568754 -0.072808966 -0.031931628 12631477
0.50100005 -0.077245824 -0.030516723 12565939
0.47662506 -0.061493978 -0.036283892 12631219
0.48483336 -0.064859785 -0.032744121 12565427
0.49033335 -0.068713911 -0.032161977 12697014
0.4578236 -0.050730556 -0.034633312 12630963
0.46354544 -0.054378118 -0.034781568 12565426
0.47142863 -0.058656845 -0.036519099 12631220
0.44555563 -0.04367239 -0.0345251 12630706
0.45309529 -0.047839981 -0.035379082 12630706
0.42800003 -0.031724259 -0.031782724 13419965
0.43371618 -0.03532806 -0.035615556 13025207
0.42581379 -0.02508828 -0.034762908 15196891
0.43000001 -0.029053207 -0.039278284 14670034
0.42681402 -0.017797047 -0.034366798 15724265
0.43057141 -0.013395124 -0.034504306 13816271
0.48725 0.0044375029 -0.038018186 13093060
0.49290621 0.0075533278 -0.034053564 13027525
0.49724004 0.012689446 -0.035776634 12961219
0.50328213 0.016663119 -0.034185316 13158597
0.50685716 0.020675512 -0.036631387 13487561
0.51488572 0.024284281 -0.034841079 13355975
0.52211761 0.028642649 -0.033885986 13158596
0.52431583 0.031955808 -0.03419219 12698044
0.52300006 -0.091658585 -0.020837605 12302767
0.5071429 -0.08107809 -0.025968401 12631732
0.51409096 -0.084414892 -0.022504222 12631732
0.52100003 -0.08886718 -0.020757921 12631732
0.49596295 -0.072347343 -0.02522371 12500146
0.50349993 -0.07738255 -0.024517724 12631732
0.51000005 -0.079827391 -0.020319656 12631732
0.47800004 -0.060271524 -0.026875399 12302513
0.48677778 -0.064358562 -0.025721412 12302768
0.4913182 -0.067964368 -0.025221003 12434354
0.45700002 -0.050134692 -0.029976301 12302256
0.46475002 -0.05425413 -0.028128026 12433842
0.47242859 -0.057991173 -0.027028318 12434098
0.48050004 -0.059461892 -0.023640227 12368305
0.43668753 -0.041262813 -0.024947168 12236463
0.44175002 -0.043553475 -0.027427122 12302256
0.45166668 -0.04778916 -0.028573012 12433842
0.42561707 -0.03285465 -0.024487788 13222844
0.4322564 -0.037746843 -0.025476404 12433841
0.41890007 -0.024380859 -0.020906884 15460834
0.42174453 -0.025096962 -0.025663055 15262941
0.42230362 -0.017233023 -0.02484907 15395045
0.49614817 0.005841929 -0.026213536 13290438
0.50183338 0.0077035571 -0.021070167 13290437
0.49900001 0.010675147 -0.02922673 12895681
0.50556821 0.013941082 -0.025355993 13027266
0.51092869 0.01810706 -0.025053069 12961216
0.51565003 0.022201978 -0.026935389 12961216
0.52392691 0.026858287 -0.02442985 13027009
0.5282501 0.032943141 -0.025556749 13224388
0.53000003 0.034292012 -0.022977613 12566457
0.52520591 -0.092878737 -0.015537091 12631476
0.51521426 -0.083448581 -0.015357683 12565683
0.52218747 -0.088459313 -0.015302525 12631475
0.49463642 -0.071425982 -0.017390775 12434353
0.50506663 -0.075829588 -0.014371059 12499633
0.51073349 -0.079225346 -0.013892812 12499890
0.48474002 -0.063942678 -0.014958847 12302254
0.4904286 -0.068563387 -0.016753064 12434096
0.48093331 -0.058990192 -0.015483359 12565426
0.43400002 -0.04049949 -0.01932363 12170670
0.41800004 -0.031179171 -0.013154078 13749443
0.42178962 -0.033830062 -0.016236573 13091257
0.43100002 -0.039210562 -0.019190056 12039084
0.41685417 -0.024750238 -0.015049137 15395040
0.42000002 -0.029360779 -0.0191919 14472653
0.41744 -0.017884253 -0.013391492 15461349
0.42061546 -0.01588244 -0.017970908 14737884
0.5043031 0.0070733996 -0.016003761 13290438
0.51033336 0.0089269569 -0.011173312 13290181
0.50700003 0.011836737 -0.017131636 13158852
0.51377779 0.014843045 -0.014353414 12895680
0.52200001 0.019546697 -0.01398473 12698301
0.52666658 0.024967398 -0.015726916 12763836
0.53000003 0.029949427 -0.016153544 13027008
0.52900004 0.031544115 -0.019425463 12895422
0.53000003 0.032608155 -0.017926028 11711148
0.52322727 -0.0914753 -0.0049261418 12828855
0.51568753 -0.083492063 -0.0045010657 12565683
0.52099997 -0.088432088 -0.0057759071 12697269
0.49728575 -0.071352668 -0.0015193669 12236719
0.50520009 -0.075294226 -0.0037316075 12433841
0.51085722 -0.078424342 -0.0058328034 12434097
0.48486668 -0.064474702 -0.0040372065 12302254
0.49214289 -0.068639427 -0.0024923293 12170670
0.47900003 -0.059276268 -2.1627555e-05 12697014
0.48000002 -0.059400018 -0.0011453613 12762807
0.42033336 -0.040208172 -0.0013299487 12499120
0.41604117 -0.033973929 -0.0043863873 13157307
0.42025 -0.037002951 -0.0073990347 12696244
0.41306028 -0.024806838 -0.0047780825 15263710
0.41476202 -0.016895032 -0.0043549608 14869470
0.509 0.0061227651 -0.0095556071 13356230
0.51230776 0.0086562783 -0.0073054978 13158852
0.51642102 0.012833172 -0.0075924434 12961472
0.52359998 0.017894519 -0.0050935508 12763836
0.52628124 0.02338847 -0.0062949099 12566714
0.53060007 0.024021694 -0.00052072143 11514024
0.52253848 -0.091389567 0.0067487922 12894648
0.51631582 -0.084290206 0.0056420746 12631733
0.52025008 -0.088739254 0.006674163 12894648
0.49693754 -0.071385957 0.0052151508 12236719
0.50400007 -0.0756272 0.0051055131 12302513
0.51062506 -0.079327971 0.0040116888 12499891
0.47850001 -0.060334574 0.0050174366 12565426
0.4834483 -0.063541122 0.0044634817 12302254
0.49142861 -0.068375625 0.0046640271 11973547
0.47631249 -0.058108967 0.0045063151 12433584
0.42136011 -0.042674735 0.0066878973 12236462
0.4086667 -0.030801058 0.0084318426 13881287
0.41448724 -0.0347846 0.0051764837 13025722
0.42050004 -0.039239712 0.0029342081 12367535
0.40834823 -0.02522089 0.006671241 15263454
0.41075 -0.024572628 0.0021705658 15132125
0.40877774 -0.01863423 0.0078490535 15329763
0.41087505 -0.017298423 0.0040638917 14869470
0.52739143 0.015151922 0.003145213 12632509
0.53037506 0.01817569 0.0049425224 12895167
0.53200001 0.021034015 0.0037128292 11842736
0.51640743 -0.084464535 0.015109022 12697270
0.49850002 -0.071025372 0.011064554 12171183
0.50531822 -0.074530326 0.01508739 12105390
0.51121438 -0.078308344 0.015450714 12434099
0.48500001 -0.064560339 0.010196645 11973804
0.49585718 -0.068991713 0.015247068 11908011
0.41547507 -0.042297661 0.015313444 12367790
0.42000002 -0.043617584 0.010796539 12170668
0.40698165 -0.032300588 0.015677936 13552835
0.41260791 -0.037409391 0.014464792 12565426
0.40525445 -0.025007091 0.015151815 15263711
0.40698117 -0.018041138 0.015164407 15198178
0.51537496 -0.083591662 0.024807958 12631734
0.49763641 -0.071220919 0.025498247 11776423
0.50482154 -0.075223863 0.024667589 12105389
0.51090008 -0.078652844 0.024615914 12368562
0.48750001 -0.062610634 0.027939107 11973802
0.49273336 -0.067248598 0.026193019 11842216
0.41273341 -0.041479625 0.022332311 12367792
0.40434384 -0.033765826 0.024816321 13289407
0.41075 -0.03865118 0.021936493 12433841
0.40119508 -0.025185233 0.025365084 15197917
0.40351227 -0.018207802 0.024974149 15198175
0.51335013 -0.082337864 0.033020288 12631475
0.49739999 -0.070868649 0.032583706 11644837
0.50480956 -0.075083822 0.036557954 12105131
0.51083344 -0.0792602 0.035652686 12565426
0.49329636 -0.067122027 0.034109075 11710630
0.40111113 -0.033992231 0.030551679 13552320
0.39900002 -0.026491642 0.030806167 15131868
0.40012503 -0.023872266 0.030775681 15329247
0.40100002 -0.018645072 0.030491211 15198176
0.51100004 -0.081180178 0.040649775 12434353
0.49636364 -0.071568437 0.044235811 11775911
0.50580007 -0.076688267 0.041889343 12105388
0.51100004 -0.079983912 0.041247904 12434353
0.49366668 -0.068796337 0.040811308 11579044
0.39900002 -0.040035602 0.048553426 12762807
0.40223691 -0.042642385 0.045993738 12236461
0.39556816 -0.034132056 0.046078023 13618114
0.40040001 -0.038583018 0.04347359 12762805
0.39392743 -0.024768207 0.045624837 15132383
0.39597562 -0.01770898 0.045784198 14868956
0.49711114 -0.072382182 0.055192187 11776423
0.50100005 -0.075838879 0.055336367 11973802
0.49257144 -0.068533942 0.055657201 11644581
0.39650008 -0.042179931 0.056474615 12302255
0.40116671 -0.043752428 0.05173685 12104876
0.38890907 -0.031656966 0.058415953 14473681
0.39279073 -0.035342347 0.054544684 13618372
0.38885003 -0.02661385 0.058241267 15000282
0.39142218 -0.024153044 0.053786714 15263711
0.39325002 -0.017411193 0.055158693 14606041
0.4975 -0.071465805 0.06053967 11776423
0.50342846 -0.075167619 0.066444665 12039595
0.49575001 -0.068894759 0.064105704 11644324
0.39369231 -0.042450462 0.064644113 12433841
0.38755012 -0.034290947 0.065525897 14276303
0.39105004 -0.038186319 0.062460143 13420993
0.38706371 -0.025133949 0.064999051 15066077
0.38841829 -0.017795479 0.066340774 15000800
0.39033329 -0.017173532 0.061144117 14408665
0.49820003 -0.071449429 0.075201198 11973289
0.50230551 -0.075525016 0.07334061 12104874
0.49654549 -0.069056466 0.074685641 11841959
0.38705558 -0.042110227 0.073726803 12959930
0.38528368 -0.03512384 0.072540224 14407888
0.3847425 -0.02509271 0.072486669 14803163
0.38685417 -0.016605994 0.072921969 14540249
0.49450001 -0.071035445 0.081587315 12039082
0.38272917 -0.043430623 0.087395422 12105134
0.37884617 -0.035830639 0.088056847 2634026
0.38039136 -0.037898067 0.086709201 2698792
0.38330764 -0.050886258 0.097929634 12630194
0.37850007 -0.041301854 0.097782306 11644587
0.38196111 -0.045284726 0.094656289 12828345
0.37561584 -0.034887578 0.095259026 2698539
0.38000003 -0.039685924 0.09138789 5723475
0.37444863 -0.024901301 0.096371077 2764077
0.37803575 -0.01814476 0.097330317 13355462
0.38218004 -0.013719209 0.097125731 14671320
0.38635299 -0.0084345778 0.098032922 13750733
0.39000002 -0.0056559858 0.098281741 14013904
0.38288686 -0.052575994 0.10555669 12828087
0.3778986 -0.042910188 0.10543554 11249826
0.38085961 -0.04791531 0.10437525 13288639
0.36868182 -0.03201158 0.1084574 2304295
0.37188688 -0.035219472 0.10444226 2567467
0.36840749 -0.024971746 0.10782003 2500644
0.37155801 -0.024713431 0.10295626 2698026
0.37763083 -0.016368743 0.1050607 13157824
0.38083994 -0.012107521 0.10423837 14540249
0.38292313 -0.0074145822 0.1060219 13947856
0.38420001 -0.06049668 0.11888577 11775912
0.37875003 -0.051193159 0.11779712 13288896
0.38122377 -0.054532334 0.1153926 13091772
0.3771638 -0.044867326 0.11491312 11578535
0.38000003 -0.049100716 0.11088467 13288897
0.36671299 -0.033793006 0.11527366 2173221
0.37130767 -0.038395058 0.11374888 2633003
0.36681491 -0.025173029 0.11506195 2172450
0.36900002 -0.019748693 0.11314581 10065040
0.37679437 -0.014545328 0.11528695 12763578
0.38016668 -0.010853109 0.11137784 14343127
0.37871429 -0.0087425951 0.11821367 14277077
0.38219354 -0.0055715684 0.11496628 14079697
0.38740006 0.00030714917 0.11842585 13027008
0.38156253 -0.060951959 0.12525123 12433586
0.37798893 -0.053464763 0.1256143 13223101
0.38088635 -0.057977404 0.12327088 12894393
0.37591583 -0.045236502 0.12488842 11447204
0.36338758 -0.0343142 0.12485819 2436136
0.37100002 -0.039831638 0.12331276 3355445
0.3634479 -0.025007067 0.12483713 2370345
0.36737502 -0.018907527 0.1269059 8751494
0.37493166 -0.014001756 0.12480564 12697786
0.37789619 -0.0071135862 0.12551051 14079696
0.38161701 -0.0028192461 0.12375963 14145232
0.3843548 0.0010545636 0.12567921 13027009
0.37875003 -0.060392044 0.13918802 13355971
0.3817015 -0.063016646 0.13549712 12565685
0.37736747 -0.054753579 0.13491732 13026493
0.38000003 -0.059479233 0.13297608 13618628
0.3689 -0.040469773 0.13599953 4146500
0.3741501 -0.045435056 0.13393547 10920862
0.36490768 -0.035083879 0.1336523 1449499
0.3705 -0.032982957 0.13933744 922895
0.36430112 -0.024297431 0.13447413 1383448
0.36641458 -0.018414978 0.13492157 8354167
0.37371799 -0.013108281 0.13455804 11513254
0.37666103 -0.0054587671 0.13486892 13224387
0.38057145 -0.0011492362 0.13145706 13882318
0.37900001 0.00012276527 0.13617513 13224645
0.38195717 0.0025287513 0.13464946 13092802
0.37866667 -0.061339729 0.14102899 9999245
0.38075 -0.064053923 0.14036897 12499124
0.37771434 -0.057607155 0.14082931 9210502
0.3631905 -0.040811379 0.1455489 5199703
0.36387849 -0.035480458 0.14605138 988690
0.37110811 -0.033268023 0.14224933 922895
0.36505681 -0.024641516 0.14622135 1250320
0.37039995 -0.028322143 0.14311388 857102
0.3626667 -0.018773565 0.14549136 5053728
0.3744286 -0.01252456 0.14048029 9999504
0.37691668 -0.0065661985 0.14130966 10066324
0.38100001 -0.0043362263 0.1444751 10198166
0.38066664 0.00086657825 0.14078374 10000788
0.3606286 -0.041226704 0.15476875 1515289
0.35878131 -0.032063492 0.15778166 1383187
0.36051276 -0.035506696 0.15417874 1448725
0.35880774 -0.027279358 0.15828624 1317397
0.36070016 -0.024524719 0.15417694 1514263
0.36100003 -0.018602196 0.15282139 3677984
0.34456262 -0.041226521 0.16764921 1843996
0.35549995 -0.040766772 0.16491087 462346
0.36062503 -0.040722828 0.16207434 1515286
0.3449659 -0.03490869 0.16697291 1646104
0.35551226 -0.034783375 0.16352895 1317653
0.36021438 -0.0383128 0.16116801 1976095
0.34527382 -0.025151841 0.16714475 1646363
0.35595244 -0.025927318 0.16348357 1186583
0.34516668 -0.019281188 0.1672361 1974302
0.33719999 -0.040970583 0.17632701 1711641
0.34028572 -0.041142527 0.17233624 1777434
0.33728912 -0.035637937 0.17586812 1580312
0.34108308 -0.034988597 0.17193611 1711897
0.3377229 -0.025323058 0.17491695 1777691
0.34112808 -0.02481024 0.17150223 1777692
0.33775005 -0.019163614 0.17561114 1975327
0.34093335 -0.019364027 0.17216413 1842458
0.33200002 -0.040307794 0.18729454 1382676
0.3319999 -0.034867272 0.18768312 1843743
0.33176467 -0.026483471 0.18752712 1777951
0.79288876 -0.21492176 0.38460365 10659489
0.7922222 0.12492563 0.3947905 10593694
0.79132164 0.13489237 0.39474604 10593694
0.79156005 0.14479601 0.39466611 10659487
0.79211116 0.096579976 0.4138931 10461595
0.79122227 0.097809106 0.42474955 10330524
0.79181588 0.10518429 0.42503327 10396317
0.78900003 0.10738524 0.43864191 10330522
0.79020005 0.10597563 0.43366623 10396316
0.78900003 0.11292642 0.43882662 10396315
0.79080778 0.1154645 0.43409044 10396316
0.79145455 0.12489962 0.43469727 10462109
0.7917878 0.13506293 0.43437663 10462109
0.79193318 0.14486347 0.43471 10462109
0.79224986 0.155122 0.43488207 10527902
0.78900003 0.10861661 0.44202816 10395547
0.78899992 0.1147735 0.44436777 10461853
0.79000002 0.11713824 0.44160205 10461596
0.78900003 0.12169998 0.44556838 10462110
0.7901541 0.12561378 0.44355181 10527389
0.79176003 0.13556506 0.4448103 10592926
0.79156005 0.14479281 0.44469777 10593182
0.78900003 0.15540889 0.44603014 10527133
0.79004997 0.15422827 0.44246215 10527646
0.78900003 0.16095006 0.44603014 10922148
0.79117393 0.16542192 0.44423836 10593440
5.4390001 0.001761795 0.4708679 11184286
5.4840002 -0.023899915 0.48760182 11644324
5.4610004 -0.011015378 0.48555684 11841703
5.4160004 0.0017543449 0.4815557 11381152
5.4610004 -0.036583979 0.49834111 11710117
5.4390001 -0.023703799 0.49633348 10854808
5.4160004 -0.010924608 0.49423465 10920601
5.3930001 0.0017468947 0.49213579 11315359
5.4390001 -0.061902188 0.50906628 11644324
5.4390001 -0.049169391 0.50906628 11644324
5.4840002 -0.049576201 0.50043994 11644324
5.4160004 -0.036282517 0.5069136 11512738
5.4160004 -0.023603564 0.5069136 11973289
5.3930001 -0.010878215 0.50476086 11644324
5.3710003 0.0017397685 0.50270182 11381152
5.4160004 -0.074319378 0.51959258 11644324
5.4160004 -0.061640427 0.51959258 11644324
5.4160004 -0.048961472 0.51959258 11775910
5.3930001 -0.036128435 0.51738602 11775910
5.3930001 -0.023503326 0.51738602 11644324
5.3710003 -0.010833839 0.51527542 11381152
5.3710003 -0.023407448 0.52784902 11513251
5.3930001 -0.061378654 0.53001112 11644837
5.3930001 -0.048753545 0.53001112 11710630
5.3930001 -0.036128435 0.53001112 11513251
5.3710003 -0.035981055 0.54042262 11578531
5.3710003 -0.023407448 0.54042262 11513251
4.8870001 0.058785763 0.98366702 11972521
4.9050002 0.059002288 0.9987728 11972521
4.8870001 0.070226319 0.99510759 12104107
4.8870001 0.070226319 1.0065482 12104107
5.0580001 0.02532012 1.0180863 11840935
4.98 0.048246194 1.0140445 11709349
4.9050002 0.059002288 1.0102555 12039084
4.8870001 0.070226319 1.0179888 11841705
5.0580001 0.02532012 1.0299271 11840935
5.0380001 0.037014049 1.0258547 11643556
4.98 0.048246194 1.0257028 12302256
4.9050002 0.059002288 1.0217383 11973291
4.8870001 0.070226319 1.0294293 11841705
4.868 0.081349365 1.025427 12039597
5.0970001 0.013583182 1.0378685 11710117
5.0380001 0.037014049 1.0376488 11249568
4.98 0.048246194 1.0373611 11710119
4.9240003 0.059230838 1.0372232 11841705
5.0970001 0.013583182 1.0498006 11644324
5.0580001 0.02532012 1.0417681 11644326
4.9990001 0.036727518 1.0413189 11644326
4.98 0.048246194 1.0490195 11775912
4.9240003 0.059230838 1.0487504 11841705
4.9050002 0.070484981 1.0447036 11841705
4.8870001 0.081666879 1.0408698 11973291
5.0580001 0.01347925 1.053609 11578531
5.0580001 0.02532012 1.053609 11644326
4.9990001 0.036727518 1.0530217 11841705
4.8870001 0.081666879 1.0523103 12104877
5.0970001 0.0016510147 1.0617329 11250079
5.0580001 0.01347925 1.0654498 11841705
5.0380001 0.025220001 1.0612369 11644326
4.9990001 0.036727518 1.0647244 11446177
4.9420004 0.047878053 1.0641536 11710119
4.98 0.048246194 1.0606776 11775142
4.9240003 0.059230838 1.0602776 12433842
5.0580001 0.01347925 1.0772907 11184034
5.0380001 0.025220001 1.0730309 11381154
4.9990001 0.036727518 1.0764272 11315361
5.0580001 0.01347925 1.0891316 11249827
5.0380001 0.025220001 1.084825 11249568
5.0380001 0.013425952 1.096619 10986655
5.0380001 0.025220001 1.096619 11183521
