# .PCD v0.7 - Point Cloud Data file format
VERSION 0.7
FIELDS x y z rgb
SIZE 4 4 4 4
TYPE F F F U
COUNT 1 1 1 1
WIDTH 406
HEIGHT 1
VIEWPOINT 0 0 0 1 0 0 0
POINTS 406
DATA ascii
0.43900001 -0.030689007 -0.063737646 12630451
0.44366673 -0.035119303 -0.061699875 12762036
0.43612507 -0.024603624 -0.062702097 14736084
0.4375807 -0.017137313 -0.062807135 15526629
0.44290003 -0.012652775 -0.064353153 14737371
0.44900003 -0.0093146143 -0.063612856 14408406
0.45450011 -0.0056920312 -0.062258571 14276820
0.46000001 -0.00092786551 -0.061402261 11974322
0.46200001 0.00014965054 -0.060587678 11513771
0.46500003 -0.051828757 -0.050367519 12959414
0.44793749 -0.041473527 -0.056380823 12893366
0.45428577 -0.044373997 -0.054249857 12827828
0.46335721 -0.047195662 -0.051078018 12959157
0.43900001 -0.03120286 -0.054488286 12762035
0.4440001 -0.036560666 -0.056062251 12761779
0.43446437 -0.02445643 -0.056396715 14999255
0.4359723 -0.016692456 -0.056665361 15526630
0.44295007 -0.011826848 -0.057207562 14144981
0.44880003 -0.0088900197 -0.057386447 13947859
0.45450002 -0.0054814047 -0.058007181 14079444
0.46059999 -0.0013598232 -0.058031224 13816526
0.46362501 0.0011009228 -0.058493126 13027010
0.47800002 -0.060271524 -0.040305819 12894389
0.48100001 -0.062059384 -0.04154348 12697010
0.46552172 -0.052162819 -0.044468507 12959413
0.47550002 -0.05759421 -0.042603713 12828340
0.48000002 -0.059400018 -0.044969216 12960182
0.442 -0.040656757 -0.041702785 12893108
0.45633337 -0.046627544 -0.042154767 12893363
0.46308342 -0.048001707 -0.046460073 12959157
0.43536586 -0.034204163 -0.042627431 13156281
0.44116667 -0.038758185 -0.045129776 12893108
0.42853847 -0.023977008 -0.04146095 15328477
0.43005255 -0.026354736 -0.043257277 14735826
0.42900002 -0.019612208 -0.040526003 15986922
0.43106896 -0.016592754 -0.042960115 15329506
0.47820002 0.0050799316 -0.048829947 13290440
0.4840239 0.0055881701 -0.04390825 13158854
0.49033335 0.0089594955 -0.040580276 13355721
0.48850003 0.01045052 -0.045193169 13158853
0.49375001 0.01409818 -0.043275766 13224389
0.50100005 0.018927885 -0.041072376 13224389
0.50433332 0.021025738 -0.040949229 13487561
0.514 0.025684059 -0.041171752 11908528
0.49500003 -0.072736725 -0.031770065 12565683
0.47780004 -0.061141979 -0.037603807 12631218
0.4851 -0.065303035 -0.033826515 12565426
0.49033335 -0.06909667 -0.033884183 12631219
0.45854551 -0.050792657 -0.034079537 12499633
0.4648065 -0.054087799 -0.035014674 12565426
0.47284213 -0.058458667 -0.035498865 12565426
0.44444194 -0.042935673 -0.034714721 12630706
0.45363638 -0.047789987 -0.035506058 12564913
0.42775002 -0.031530153 -0.031689189 13485245
0.43421128 -0.035050556 -0.03523989 13090744
0.44000003 -0.038999297 -0.038646664 12827828
0.42554638 -0.025071574 -0.034741733 15196891
0.43000001 -0.029053207 -0.039278284 14472142
0.42652777 -0.018109098 -0.034165483 15789800
0.43193552 -0.01322911 -0.03387583 13882575
0.48725003 0.0047228141 -0.038946401 13290182
0.49410534 0.0074064871 -0.034165312 13092803
0.49727267 0.01275845 -0.035857264 13027011
0.50305718 0.016890928 -0.034070142 13224389
0.50722229 0.021011325 -0.036300614 13487561
0.51455885 0.024552301 -0.03538293 13092802
0.52253336 0.028550353 -0.033293515 13356230
0.52500004 0.031923626 -0.033198852 13092801
0.52200001 -0.090259753 -0.020797763 12631734
0.50619996 -0.080417618 -0.023717703 12631220
0.51340008 -0.084454477 -0.021177089 12631734
0.52000004 -0.088696606 -0.020718079 12697527
0.49613515 -0.072861657 -0.025357151 12499890
0.50300002 -0.077723972 -0.023732875 12631220
0.48515397 -0.063744895 -0.024689995 12434098
0.49093753 -0.068296582 -0.025809649 12499891
0.45850003 -0.05029925 -0.025244001 12302256
0.46675003 -0.053938907 -0.027474485 12302256
0.47582352 -0.057378735 -0.025696944 12433842
0.48044449 -0.058830485 -0.021890962 12433842
0.43700004 -0.040907901 -0.024839791 12170669
0.44442859 -0.044007149 -0.027813802 12301999
0.45225 -0.047761858 -0.026749577 12302255
0.42568097 -0.032880928 -0.024512593 13222844
0.43240005 -0.037694264 -0.025679352 12433585
0.41869244 -0.024067083 -0.020979661 15461346
0.4215633 -0.025150636 -0.025797477 15132124
0.4226 -0.017163154 -0.024795692 15330020
0.43360001 -0.012035652 -0.02864461 13422025
0.49682355 0.0069381781 -0.027662417 13290180
0.50380003 0.0081842206 -0.021132408 13159364
0.49900001 0.010675147 -0.02922673 13158594
0.50539529 0.013789303 -0.025743797 13027266
0.51204008 0.017718252 -0.023417754 12829889
0.51586962 0.022277303 -0.026742756 12829890
0.52410007 0.026923507 -0.024436796 13027011
0.52829176 0.032430451 -0.025992667 13158853
0.53022224 0.035065401 -0.024436854 12369337
0.52400005 -0.091895714 -0.015173907 12631733
0.51462501 -0.083872698 -0.01564463 12500147
0.52149999 -0.088708773 -0.014551436 12565940
0.49500003 -0.071834445 -0.016822373 12565684
0.50526321 -0.076291643 -0.014591706 12499890
0.51063645 -0.079275124 -0.01317149 12434354
0.48310173 -0.064088203 -0.014785063 12302512
0.49000001 -0.068667203 -0.019522805 12433842
0.47790477 -0.05781047 -0.014832976 12434097
0.48025003 -0.058588192 -0.018853419 12433841
0.43450004 -0.041055322 -0.019345893 12236461
0.4181875 -0.030947849 -0.013176281 13683909
0.42244241 -0.034311917 -0.015941733 12894134
0.43050003 -0.039165072 -0.018664476 12236461
0.41676769 -0.024701269 -0.015102406 15395041
0.42000002 -0.029360779 -0.019683514 14143688
0.41741377 -0.017958436 -0.014040819 15592935
0.42065227 -0.015746532 -0.018130636 14671834
0.50565636 0.0073417928 -0.015037825 13225158
0.51033336 0.0093249306 -0.011173311 13290437
0.50779998 0.01157765 -0.017139282 13159366
0.51435715 0.015172256 -0.014699904 12895680
0.5211429 0.019341078 -0.013267338 12764095
0.52567273 0.024859795 -0.015865231 12698559
0.53000003 0.029949427 -0.014912805 12172728
0.52900004 0.031544115 -0.019425463 12632509
0.53000003 0.032785401 -0.018280525 11514027
0.52399999 -0.092269436 -0.0044951555 12828855
0.51722729 -0.083439477 -0.0049453974 12565940
0.52149999 -0.08834289 -0.0049082101 12763062
0.4861429 -0.070727877 -0.0029508977 12368305
0.50650001 -0.07631699 -0.009508674 12434353
0.51300001 -0.078697272 -0.0066154692 12434354
0.48469695 -0.066451557 -0.0036333657 12170926
0.48050004 -0.059461892 -0.0005847101 12697014
0.42262501 -0.040922511 -0.0013797989 12105388
0.41625494 -0.032502867 -0.0051860628 13486272
0.42084619 -0.037493117 -0.0043750061 12368047
0.41329914 -0.024856595 -0.0047482615 15197918
0.41475001 -0.016657086 -0.0043807663 14803677
0.50800002 0.0065079294 -0.0091404216 13356230
0.51085716 0.008195838 -0.007367508 13356231
0.51650012 0.012716625 -0.0078053037 12961473
0.52405411 0.017613623 -0.0051540984 12764095
0.52593935 0.02371476 -0.0066983439 12500665
0.53125006 0.023026854 -0.00048984931 11908784
0.52327275 -0.091483064 0.0067674546 12894392
0.51765519 -0.08374539 0.0054498464 12631734
0.52092856 -0.087723613 0.005986541 12828857
0.48740005 -0.071041368 0.0020324704 12236976
0.49346158 -0.071819261 0.0069157756 12171183
0.50440007 -0.077064469 0.0061186524 12368562
0.51000005 -0.078633472 0.0071404884 12171183
0.47783336 -0.06025051 0.0050077122 12434098
0.48468766 -0.065285578 0.0044725775 12105390
0.49025002 -0.06927637 0.0074375183 11973804
0.47610003 -0.058583796 0.0047658854 12368306
0.42117646 -0.041681863 0.0058964603 12236461
0.40880004 -0.030874833 0.0087856427 13684165
0.41430143 -0.034473833 0.0053706048 13091514
0.42060003 -0.038658641 0.0025404443 12301997
0.40822086 -0.02508002 0.0067112031 15263967
0.41074997 -0.024974177 0.0021436443 15132124
0.40857893 -0.018846411 0.0074809412 15395812
0.41173333 -0.01669855 0.0032544655 14672090
0.52742857 0.016224207 0.0020931347 12698300
0.53075004 0.018809348 0.0030831518 12764094
0.53275001 0.021220662 0.0026277336 12369078
0.51654899 -0.084273167 0.014984622 12697526
0.49716666 -0.071613401 0.011228874 12105390
0.50555557 -0.074667007 0.016213303 12105389
0.51115394 -0.078351453 0.015626987 12368562
0.49433339 -0.06863381 0.012715679 11908011
0.41380006 -0.042608917 0.016174136 12302254
0.40727285 -0.032444414 0.015733512 13618371
0.41179544 -0.037269864 0.014569778 12697012
0.40519065 -0.025003733 0.015150012 15263710
0.40700004 -0.018080158 0.015293096 15198434
0.51645845 -0.083866268 0.024759816 12697268
0.49654549 -0.071277022 0.025229717 11776423
0.50431585 -0.07471583 0.02408528 12105388
0.51105893 -0.078234732 0.02496013 12368303
0.48675004 -0.06586358 0.027252348 11842217
0.49180001 -0.068574153 0.024609284 11710630
0.41296303 -0.042583577 0.022611285 12302255
0.40443069 -0.033963747 0.024743823 13354942
0.41062504 -0.038679317 0.021249902 12302255
0.40128854 -0.025191505 0.025370738 15197918
0.40372509 -0.018203378 0.024785798 15132640
0.51414287 -0.082716763 0.032125983 12565682
0.49566671 -0.070621677 0.03247017 11644580
0.50606257 -0.075440273 0.036927633 12105388
0.51052952 -0.078645281 0.034916781 12368560
0.48714289 -0.066313736 0.031747293 11907753
0.49133337 -0.06847091 0.032951057 11710374
0.40206251 -0.035114814 0.030630307 13223356
0.39900002 -0.026491642 0.030806167 15526626
0.40020004 -0.024414536 0.030804941 15132126
0.40100002 -0.018832823 0.030585086 15198177
0.49578947 -0.072474413 0.046704091 11776424
0.50440001 -0.076002799 0.041302748 12105388
0.51000005 -0.079827391 0.040570226 12434353
0.40187189 -0.042496521 0.045954701 12236462
0.39560914 -0.034125399 0.04608044 13618114
0.40027276 -0.038545027 0.043596372 12631219
0.39390001 -0.024766307 0.045621313 15197919
0.39592856 -0.017635398 0.046056643 14868956
0.49712494 -0.072942376 0.054022513 11776425
0.50019997 -0.076420166 0.054310571 12105133
0.49314287 -0.068943098 0.054570615 11579046
0.3960239 -0.042033236 0.055840485 12433327
0.40127274 -0.044281043 0.051219534 12039084
0.3888889 -0.031738147 0.058753178 14407891
0.39279619 -0.035436716 0.054482881 13618372
0.38886106 -0.026955979 0.058217663 15000028
0.39159036 -0.024014547 0.053766198 15263456
0.39341182 -0.017297313 0.055033516 14605529
0.49800003 -0.070954129 0.060600515 11776423
0.50347376 -0.074872278 0.066195786 12039594
0.498 -0.0697883 0.063714847 11776423
0.39356253 -0.04263334 0.065233864 12499121
0.38737512 -0.034074455 0.065382354 14276559
0.39086369 -0.038263854 0.062909134 13420993
0.38704786 -0.025168849 0.064995959 15131614
0.39000002 -0.020872602 0.06024019 15329763
0.38839221 -0.017595053 0.06692411 15000286
0.39066663 -0.017466208 0.061604869 14737627
0.49785718 -0.072434366 0.074677505 11973546
0.50113046 -0.075737961 0.072915763 12105388
0.49376923 -0.068662927 0.075193532 11841960
0.38618746 -0.042328581 0.076406173 12959929
0.39300004 -0.043857615 0.070823804 12433585
0.38414896 -0.035014611 0.07497336 12104363
0.38373476 -0.025026167 0.074982852 12367795
0.38608241 -0.016196538 0.075553514 14539993
0.3854 -0.0090786396 0.079017714 13224393
0.49413526 -0.073095068 0.085453585 11908009
0.49221048 -0.06746161 0.087612055 11644581
0.38362369 -0.043559104 0.085140273 12236720
0.37848783 -0.035146322 0.085084967 2764842
0.38058531 -0.037059672 0.082992457 3027245
0.37900001 -0.027381856 0.080722257 2765613
0.38052946 -0.024030535 0.080471568 3093298
0.38509679 -0.014932083 0.081176974 14342617
0.38571429 -0.0089057041 0.080862746 12763843
0.49538887 -0.072903737 0.092176542 11973546
0.49280006 -0.067676984 0.091347679 11710374
0.38299996 -0.050775789 0.09785112 12499381
0.37843755 -0.041184243 0.097543955 11644330
0.38188127 -0.045288142 0.094731517 12828602
0.37540832 -0.034891941 0.095160961 2698796
0.38000003 -0.03990832 0.091165498 6447457
0.37485823 -0.025006121 0.095711604 2633261
0.37821436 -0.018470189 0.096617118 13159109
0.38260001 -0.013993715 0.096290193 14605785
0.3856957 -0.0087448778 0.096747749 13816013
0.48283339 -0.071619987 0.10830101 12038827
0.47742105 -0.065731458 0.10686082 11512740
0.48037499 -0.069005683 0.10709363 11775912
0.38227269 -0.052228987 0.10584087 13025468
0.37779307 -0.042638741 0.10566881 11183779
0.38088229 -0.04751689 0.10431688 13156798
0.36845961 -0.032472361 0.10771012 2370342
0.37192941 -0.035498641 0.10400532 2567465
0.36831737 -0.025049947 0.10743318 2566439
0.37130508 -0.024509549 0.10266475 2698026
0.37720755 -0.016945604 0.10484601 12565173
0.38095081 -0.012506702 0.10433587 14539734
0.38277426 -0.0075326897 0.10608005 14013904
0.48436365 -0.072312504 0.1123372 11973290
0.38424999 -0.060369782 0.11894675 12170669
0.47766671 -0.065449186 0.1110566 11381152
0.48072729 -0.068596363 0.11210859 11775910
0.37866673 -0.051403534 0.11710579 13420224
0.38114497 -0.05481302 0.11525508 13025722
0.37694269 -0.044841714 0.11484561 11643815
0.38000003 -0.049100712 0.11088467 13025725
0.36674774 -0.033728365 0.11511806 2238758
0.37096429 -0.038588155 0.11439758 2435881
0.36677641 -0.025144462 0.11508217 2237985
0.37659311 -0.014700431 0.11538358 12763321
0.38016668 -0.011149638 0.11093304 14277075
0.37881252 -0.008523114 0.11831594 14211539
0.38175681 -0.0060045258 0.11480612 14079696
0.38152635 -0.060892589 0.12539171 12630963
0.37790522 -0.053576294 0.12555924 13288638
0.38073686 -0.05802368 0.12326198 12828600
0.37594125 -0.045238059 0.12489811 11578021
0.36342174 -0.034274526 0.12485542 2436135
0.37066665 -0.039651487 0.12247858 2829356
0.3634406 -0.025040472 0.1248389 2435879
0.36768186 -0.018972753 0.12670685 8027768
0.37488785 -0.014105218 0.1248816 12631992
0.37800011 -0.0071042213 0.12544166 14013903
0.38108689 -0.0025703069 0.1241035 13948111
0.38240004 0.0012886792 0.12668481 13092802
0.37900001 -0.060209952 0.13883686 13487042
0.38198629 -0.063262105 0.13545202 12630706
0.37726071 -0.054548755 0.13482259 13026236
0.38000003 -0.059479233 0.13297607 13618115
0.36771432 -0.040462937 0.1355571 4672846
0.37446418 -0.045544468 0.13349697 11052447
0.36457145 -0.035505321 0.13366358 1449499
0.37054548 -0.032212622 0.13924958 791566
0.36410987 -0.023979397 0.13422956 1580569
0.37 -0.02846398 0.13943774 791822
0.36629412 -0.018643232 0.13498521 7960178
0.37403622 -0.013227643 0.13447005 11447718
0.37708321 -0.0055133104 0.13501249 13224131
0.38050005 -0.001123575 0.13190293 13619404
0.37900001 0.00030021445 0.1382158 11579564
0.38165575 0.002499375 0.13465557 13290438
0.37885714 -0.060821004 0.14100148 10262417
0.3804 -0.063104406 0.14068504 12170155
0.37730002 -0.056675334 0.14095205 8223865
0.36262506 -0.040680043 0.14592209 4212808
0.36422643 -0.035297491 0.14560229 988688
0.37079999 -0.032517523 0.14192545 726029
0.36524674 -0.024855526 0.14606322 1184782
0.37037495 -0.028384998 0.14282985 791565
0.36245459 -0.018937416 0.14629067 4859428
0.37440005 -0.012148 0.14021944 9605774
0.37712499 -0.0063857264 0.14135061 10197911
0.36032358 -0.041166313 0.15452205 1515032
0.35880953 -0.032083362 0.15857942 1448725
0.36037713 -0.03521236 0.15436268 1448981
0.35900003 -0.028070292 0.15882421 1514773
0.36075401 -0.024743633 0.1545049 1645332
0.36100003 -0.018757135 0.153089 3613215
0.34460008 -0.041137192 0.16755322 1778202
0.35570589 -0.040833592 0.16489874 462346
0.36066669 -0.040786222 0.16199933 1646361
0.34465599 -0.034957562 0.16699481 1580568
0.35561493 -0.034862336 0.16349833 1317654
0.36030775 -0.038294893 0.16108918 1778203
0.34537259 -0.02553251 0.16724096 1711643
0.35604203 -0.026217502 0.16372968 1252117
0.36034793 -0.022255369 0.16356583 1317911
0.34300002 -0.019561641 0.16941102 1973274
0.35699999 -0.019942204 0.16713023 726036
0.33690619 -0.040977199 0.17656925 1646106
0.34030768 -0.041132383 0.17206262 1711897
0.33736718 -0.03590573 0.17577732 1580826
0.34086195 -0.034888081 0.17185472 1646617
0.33783323 -0.025581755 0.17462109 1646620
0.34124002 -0.025025757 0.17150891 1843227
0.33700001 -0.019613916 0.17591463 1844257
0.34266672 -0.019943725 0.17084996 2105370
0.33330297 -0.041365296 0.18348505 1646107
0.33221611 -0.035378411 0.18577923 1843997
0.33192855 -0.026145915 0.18596342 1909278
0.79044449 0.079002939 0.32379028 10461338
0.79185736 0.085729159 0.32522821 10592924
0.78900003 0.078447916 0.33305144 10330265
0.79000002 0.077930875 0.33840528 10264729
0.79008013 0.0853374 0.33473998 10527388
0.79224139 0.09497381 0.33488688 10659230
0.79041666 0.078434713 0.34398237 10264729
0.79056013 0.085389517 0.34419909 10461852
0.7918399 0.094797954 0.34475648 10527901
0.79179418 0.12537135 0.35492691 10856096
0.79075879 0.13539287 0.35462219 10921889
0.79263991 0.17468132 0.35438192 10921889
0.79213321 0.18476921 0.35415477 11053475
0.78900003 0.085220478 0.36937702 10330522
0.79066688 0.12527734 0.36477181 10659487
0.78900003 0.13324413 0.36383584 10921889
0.7900002 0.13512543 0.36491355 10856352
0.79196292 0.14507712 0.36478928 10856096
0.78866673 0.085800163 0.3735292 10264729
0.79016668 0.088429622 0.3763977 10264729
0.79192317 0.12475149 0.37452719 10725280
0.79158348 0.13530095 0.37498915 10725023
0.79247999 0.14496495 0.37471893 10856096
0.79163355 -0.18506856 0.38450557 10659233
0.79000002 0.087917648 0.38353077 10395801
0.7923333 0.095475659 0.3840079 10396059
0.79200006 -0.17445517 0.39438912 10658976
0.78900003 0.087991081 0.39523593 10395801
0.79000002 0.087177895 0.3901886 10396315
0.78899986 0.094261363 0.39611089 10461338
0.79000002 0.095269039 0.39134452 10396315
0.79096991 0.10479436 0.39515457 10461851
0.78850007 0.088550806 0.40359959 10395801
0.78894985 0.093618862 0.40407628 10527131
0.79000002 0.097904436 0.40646333 10592924
0.79175007 0.10478433 0.40502068 10527132
0.79130006 0.14474636 0.40472358 10593694
0.79075027 0.15482894 0.40443951 10659231
0.78900003 0.094455793 0.412783 10461338
0.79013336 0.096688099 0.41516435 10461594
0.79210001 0.1048436 0.41514549 10461851
0.79100031 0.15487663 0.41475776 10658975
0.79207695 0.16543025 0.4151071 10724767
0.79150003 0.097302988 0.42428312 10396314
0.79160005 0.10496017 0.42433617 10396315
0.79215389 0.11537597 0.4244172 10462109
0.79219985 0.18478391 0.42465782 10790561
0.79180002 0.19488682 0.42444253 10790049
0.77600002 0.12741545 0.43958941 10396317
0.78790897 0.12584776 0.43761235 10462110
0.791682 0.12434635 0.43313697 10462110
0.78887504 0.13299242 0.43787959 10462110
0.79211116 0.13562283 0.43380773 10527646
0.78625 0.12403191 0.44079283 10396317
0.78750008 0.1334555 0.44241333 10462110
0.79057139 0.13853332 0.44334909 10396317
5.3710003 -0.035981055 0.47755459 11644839
