# .PCD v0.7 - Point Cloud Data file format
VERSION 0.7
FIELDS x y z rgb
SIZE 4 4 4 4
TYPE F F F U
COUNT 1 1 1 1
WIDTH 1032
HEIGHT 1
VIEWPOINT 0 0 0 1 0 0 0
POINTS 1032
DATA ascii
0.79219991 0.065166578 0.14461873 10658717
0.79199994 0.065149404 0.15478063 10790303
0.78888893 0.055659108 0.1692546 14408915
0.79175001 0.054469842 0.16432604 11053473
0.78850007 0.064861655 0.16886301 14408143
0.79135001 0.065096557 0.16391395 10987421
0.78850007 0.075014062 0.16886301 14670801
0.79221743 0.075086035 0.16405146 10987422
0.78850007 0.085166477 0.16886301 15131866
0.78900003 0.091685206 0.16989419 14210765
0.79228115 -0.18486872 0.17500427 11579816
0.78900003 -0.15397421 0.17912951 12171699
0.78866673 -0.14483166 0.17766853 11777196
0.79145002 -0.14509627 0.17310598 11908781
0.7881667 -0.13484798 0.1769914 11776426
0.79107147 -0.13519756 0.17205837 11974574
0.78805 -0.12519404 0.17614451 12434354
0.79081821 -0.12512919 0.17112635 11974320
0.78824997 -0.11507562 0.1761896 12500662
0.79072726 -0.11501601 0.17127509 11974320
0.78869236 -0.10541196 0.17749676 12566712
0.79149997 -0.10474049 0.1725916 11974320
0.78900003 -0.097269371 0.17876008 14276814
0.78900003 -0.062544577 0.17912953 15198173
0.78855562 -0.054715317 0.1782077 13684418
0.78850007 -0.044968963 0.17809246 14802642
0.79233354 -0.045188069 0.1733893 11447715
0.78830004 -0.034807019 0.17804706 14606035
0.7885384 -0.02431014 0.17788807 14473939
0.79217398 -0.024981001 0.17323379 11579558
0.78853339 -0.014512813 0.17717679 14408403
0.79226661 -0.014581991 0.1724492 11119527
0.78833324 -0.0052811517 0.17713186 14013903
0.7918666 -0.0053049773 0.17236243 11908783
0.78822231 0.0048679062 0.17710663 14145745
0.7876876 0.015236199 0.17721535 14079950
0.79173338 0.015083374 0.17233355 12830398
0.78675014 0.025119089 0.17769279 14145743
0.79100013 0.02525478 0.17217503 12829886
0.78740901 0.035196129 0.17675224 14276815
0.79072726 0.035089839 0.17144322 14013129
0.78714287 0.045464125 0.17606905 14342352
0.79028571 0.043864135 0.17069943 14539731
0.78560603 0.054923199 0.17534028 14276558
0.77900004 0.068639323 0.17868282 14671317
0.78381252 0.064876005 0.17513216 14210764
0.7786001 0.075711407 0.1774971 14671315
0.78418177 0.074684881 0.17335655 14342094
0.77818197 0.084551066 0.17766686 14999767
0.78328568 0.084865801 0.17346004 14670803
0.78620684 0.094696514 0.17556903 14341839
0.79050004 0.096948877 0.17067954 11316392
0.78866673 0.10241672 0.17843814 11052702
0.78900003 -0.18075661 0.18744129 10657692
0.79143482 -0.18534587 0.18499956 10987169
0.78753847 -0.17453855 0.18588468 12566202
0.79000002 -0.17774926 0.18166828 11185061
0.77880007 -0.1638353 0.18957606 15197407
0.7854687 -0.16489209 0.18452191 13881801
0.77833343 -0.15422074 0.18865196 14868442
0.78459269 -0.15511931 0.1838342 14341838
0.77850008 -0.1446342 0.18828727 14736856
0.78357702 -0.14522415 0.18346375 14408146
0.77890927 -0.135179 0.18877369 14605270
0.78326905 -0.13522407 0.18318115 14671576
0.77900016 -0.12523779 0.18791509 14341841
0.78248018 -0.12467562 0.18277372 15131099
0.78320003 -0.1149375 0.18435222 14999514
0.78463632 -0.10494608 0.1848096 14276561
0.78481805 -0.094837926 0.18457136 14276304
0.77900004 -0.08363571 0.18962474 13749448
0.78439403 -0.085325941 0.18552862 14012618
0.79000002 -0.082967289 0.18120594 14736852
0.77883339 -0.075414114 0.18958418 13749448
0.78488457 -0.074938983 0.18532252 14209997
0.79000002 -0.076494381 0.18120594 14737110
0.77741671 -0.064812489 0.18787295 14473170
0.78518522 -0.065307088 0.18336137 14802646
0.77663636 -0.054869521 0.18656681 14802392
0.7845 -0.0550716 0.18200579 15394781
0.77740014 -0.045245048 0.18650271 14802649
0.78358829 -0.044959232 0.18145862 15131867
0.77835011 -0.035915434 0.18718791 14407891
0.78275007 -0.034379356 0.18228616 14605524
0.77900004 -0.028318232 0.18901686 14407891
0.78248399 -0.025213648 0.18431932 14210512
0.78366685 -0.015339025 0.18433489 14012876
0.78436679 -0.0052545774 0.18450047 13618632
0.78369457 0.0048393225 0.18434161 13684681
0.78265512 0.014783812 0.18425556 13487045
0.77900004 0.027607128 0.18962474 13816008
0.78143752 0.024834542 0.18506977 12960701
0.7790001 0.035233315 0.18846425 13026493
0.78190476 0.035120506 0.18335482 13223617
0.77873695 0.045443505 0.18744935 13289410
0.78210008 0.044193424 0.18250301 14013132
0.77878964 0.054947808 0.18698224 13355203
0.78027284 0.055051088 0.18196338 13947337
0.77893925 0.065345816 0.18541011 13684424
0.78000003 0.061119124 0.18134685 13816521
0.77766669 0.07489191 0.1847484 13947597
0.77725017 0.084862083 0.18464878 14473427
0.77846676 0.093681566 0.18682148 14868186
0.78205878 0.096965604 0.18336459 15065820
0.78677785 0.10490417 0.18551086 13289665
0.79000002 0.10875428 0.1818224 11448230
0.78880006 0.11142062 0.18757777 11382437
0.79192328 0.11569933 0.18392345 11316901
0.78900003 -0.18075661 0.19205894 10526618
0.78625 -0.17553048 0.19507161 12039345
0.77810007 -0.16459928 0.19486995 15131358
0.78166676 -0.16992712 0.19484937 14802138
0.77720016 -0.15530926 0.19464509 14934235
0.77776009 -0.14540753 0.19478633 14802649
0.77840006 -0.13550325 0.19494559 14736856
0.77900016 -0.12603563 0.19350004 14473171
0.78092861 -0.12340815 0.19740771 14670807
0.78128576 -0.11477778 0.19508184 14605014
0.78177762 -0.10498032 0.19487558 14407634
0.7790001 -0.092588186 0.1949299 13947340
0.78066671 -0.096202411 0.19439477 14078926
0.77784002 -0.085335009 0.19480526 13618374
0.77637529 -0.074948728 0.19477822 13486531
0.77563345 -0.065117694 0.19516031 14078669
0.7749998 -0.05508478 0.19500108 14736599
0.77583349 -0.045153901 0.1952105 14802649
0.77732265 -0.03537745 0.19485161 14539477
0.77888906 -0.026389267 0.19557407 14210512
0.78062505 -0.022361374 0.19367404 14078926
0.78183323 -0.015302815 0.19488853 13750217
0.78280014 -0.0052443957 0.19513056 13421511
0.78202754 0.0048297439 0.19493821 13355718
0.78106678 0.014880386 0.19469939 13355460
0.77900004 0.028063042 0.19190431 13618629
0.78070384 0.024283348 0.19579403 13289666
0.7790001 0.03526647 0.19254257 13421250
0.78080004 0.034738138 0.19725294 13420995
0.77888882 0.045364071 0.19473068 13157824
0.78000003 0.04103319 0.19838946 13289410
0.77886373 0.054538369 0.19464764 13026495
0.78000003 0.058075801 0.19838946 12960958
0.7790001 0.06438414 0.19266416 13289410
0.78038883 0.065513998 0.1970678 13157824
0.77842873 0.075573504 0.19452018 13355203
0.78000003 0.071922921 0.19762862 13157824
0.77817237 0.084805831 0.19476466 13947341
0.78000003 0.089726366 0.19899812 14277077
0.77900004 0.093486592 0.19258817 14408407
0.78129417 0.096117355 0.19685467 14474456
0.78580004 0.10511614 0.19496045 13027265
0.78888893 0.11188465 0.19449466 11382437
0.79061115 0.11634549 0.19512586 11251108
0.78671426 -0.17497528 0.20491982 12170417
0.79000002 -0.17913631 0.2061729 9867919
0.77726328 -0.16370413 0.20442745 15000028
0.78088897 -0.1687436 0.20572357 14604758
0.77675027 -0.15521929 0.20453168 15131357
0.77849984 -0.14490107 0.20520793 14933978
0.7786451 -0.13504705 0.20465142 14802649
0.78000003 -0.13304491 0.20995408 14736343
0.7790001 -0.12849757 0.20585528 14671063
0.7813043 -0.12372255 0.20481761 14671063
0.78195983 -0.11507323 0.20498973 14671063
0.78186649 -0.10499346 0.20496565 14407891
0.77900004 -0.092298053 0.20147848 13947340
0.78020835 -0.094877481 0.20567201 14210512
0.77874076 -0.085026614 0.2048222 13684168
0.78000003 -0.089221038 0.20751943 13881547
0.77805889 -0.07555303 0.20514901 13420996
0.77660018 -0.065199092 0.20540462 13749705
0.77570015 -0.055134017 0.20516591 14210512
0.77616012 -0.045173515 0.20528702 14539477
0.77682877 -0.035079617 0.20468381 14473684
0.77733344 -0.025224334 0.20468523 14210512
0.77863169 -0.017687129 0.20545977 13947340
0.78080004 -0.012662794 0.20444112 13421254
0.78272021 -0.0052424236 0.2051889 13027010
0.78263342 0.0048330878 0.20516753 13026752
0.78220004 0.014902242 0.20505372 12961215
0.7823332 0.02497776 0.20508909 12763836
0.78187978 0.035030216 0.20496906 13092801
0.77900016 0.047379367 0.20555767 13355460
0.78024995 0.042377599 0.20465605 13290180
0.7790001 0.053801417 0.20537448 13223874
0.78000009 0.058227967 0.20470436 13289667
0.78153324 0.06520509 0.20487891 13355459
0.77900004 0.077757582 0.20056666 13355973
0.78126085 0.075000651 0.20512685 13421252
0.77900004 0.083228543 0.20147848 13421768
0.78054547 0.085886307 0.20561565 13750731
0.78240013 0.095499441 0.20510444 14342869
0.78703576 0.10508245 0.20506966 13290181
0.78900003 0.11107936 0.20498841 11316901
0.7918638 0.11628895 0.20522618 11185315
0.78700006 -0.17470387 0.21485923 12104880
0.79000002 -0.17913631 0.21819402 10065555
0.77800006 -0.1631704 0.21405244 14933978
0.78144449 -0.16703446 0.21684755 14736856
0.77609128 -0.15500657 0.21484816 15065308
0.77791667 -0.14535795 0.21424966 14999771
0.78033346 -0.14162618 0.21795999 14868441
0.77900004 -0.13743347 0.21150859 14867929
0.7812174 -0.13484241 0.21608877 14802391
0.77900004 -0.12831521 0.21150859 14802392
0.7817741 -0.12460936 0.21562825 14671318
0.78199977 -0.1150793 0.21506913 14671062
0.78177762 -0.10498176 0.2150076 14539220
0.77900004 -0.090930313 0.2188032 14341839
0.78065395 -0.09513101 0.21504954 14341841
0.77900016 -0.086067244 0.21442643 13947083
0.78035718 -0.083388783 0.21657513 13881033
0.77900004 -0.079988405 0.21150859 13552582
0.78104001 -0.074712589 0.21572109 13420995
0.77826327 -0.064380221 0.21447343 13552326
0.78049999 -0.06857077 0.21709299 13552068
0.77656692 -0.055196781 0.21448471 13947340
0.77652025 -0.045193907 0.21447138 14210512
0.77733344 -0.035232186 0.21469642 14407891
0.77820015 -0.025251539 0.21493672 14407891
0.778889 -0.018791886 0.21411258 14276305
0.78126085 -0.013581333 0.21570116 13947340
0.78314316 -0.0054410184 0.2150564 13420997
0.78369731 0.0050336453 0.21511921 13092545
0.782767 0.01491285 0.2152793 13092545
0.78272259 0.024990421 0.21526641 12895422
0.78189981 0.035031203 0.21504201 13092801
0.77880013 0.046742782 0.21510041 13290180
0.78045464 0.041278079 0.21505938 13224387
0.77866673 0.054331858 0.21462972 13355716
0.78000003 0.058227967 0.21771458 13355973
0.78152764 0.065205283 0.21493906 13421253
0.78193313 0.075304851 0.21505041 13552326
0.77900004 0.089611337 0.21789137 13947340
0.78120583 0.08502166 0.21463504 13815754
0.77900016 0.094170459 0.21645847 14408148
0.7808125 0.096104436 0.2127991 14342613
0.78578579 0.10518073 0.21499006 13224388
0.78900009 0.11191893 0.21556701 11251108
0.79075009 0.11664906 0.21446665 11251108
0.78691316 -0.17387541 0.22534947 12170674
0.79000002 -0.17913631 0.22374225 10065043
0.77870005 -0.16107926 0.22509961 15065820
0.78133327 -0.1661986 0.22494529 14802649
0.77721447 -0.15459807 0.22499619 15000284
0.77861124 -0.14738916 0.22507453 15000283
0.78079998 -0.14231929 0.2247919 14934235
0.78261542 -0.13511018 0.22538528 14736856
0.78375876 -0.1252699 0.22558303 14539477
0.78284013 -0.1152045 0.22538044 14605270
0.77900004 -0.10096041 0.22792147 14605269
0.78107697 -0.10545206 0.22444972 14605013
0.77899998 -0.094156772 0.22574709 14342098
0.78025001 -0.097469538 0.22189386 14407378
0.7790001 -0.088277735 0.22477151 14210512
0.78114998 -0.082950607 0.22489433 14013133
0.78187978 -0.074793503 0.22510363 13618374
0.7790001 -0.062663682 0.22518599 13618118
0.78060001 -0.067361675 0.22473508 13552325
0.77813888 -0.055308953 0.22493918 13618118
0.77753341 -0.045253001 0.22476417 13749704
0.77841663 -0.035281714 0.22501943 14144719
0.77896297 -0.025547603 0.22534427 14342098
0.78000003 -0.0228766 0.22395338 14473684
0.77900004 -0.019807851 0.2297451 14342098
0.78130001 -0.015290891 0.22493556 14210512
0.78311127 -0.0050411974 0.22504902 13815754
0.78339434 0.0046429522 0.22503804 13289923
0.78227997 0.014903486 0.22521913 13289923
0.78219986 0.024973582 0.22519633 13092287
0.78199983 0.03503615 0.22513784 13224130
0.77899998 0.04792783 0.22192946 13421253
0.78056532 0.044107433 0.22544071 13355973
0.77900004 0.052226447 0.22153866 13420996
0.78109521 0.055633023 0.22540179 13355717
0.78189987 0.065234318 0.22510999 13421252
0.77899998 0.076845758 0.22792147 13486789
0.78050005 0.074709818 0.22397454 13486789
0.77886206 0.085697092 0.22599423 13683912
0.78042859 0.082467012 0.22207522 13683655
0.77859253 0.094628617 0.22496693 14144977
0.78000003 0.098856337 0.22456205 14473686
0.78503698 0.10494705 0.22492091 13487047
0.78900003 0.1116071 0.22451448 11119011
0.79100001 0.11626993 0.22513697 11185060
0.78900003 -0.18075661 0.23638846 9802640
0.78674996 -0.17491846 0.23512158 11183780
0.78241676 -0.16475029 0.23457158 14802392
0.77892327 -0.15432207 0.23308903 15000282
0.78109097 -0.15534125 0.23800902 15000027
0.7790001 -0.14680041 0.23355824 15000282
0.7804091 -0.14357711 0.23572403 14934490
0.78251517 -0.13463689 0.23494454 14802903
0.78499991 -0.12470926 0.23518999 14605525
0.78384 -0.11535362 0.23484239 14605268
0.77900004 -0.10004859 0.23156877 14737110
0.78146654 -0.10506271 0.2349858 14605524
0.77900004 -0.095185511 0.23187272 14473939
0.78078949 -0.094602674 0.23681663 14473938
0.78143746 -0.084924161 0.23475251 14276560
0.78220004 -0.074823543 0.2343521 13881802
0.77900004 -0.062663697 0.2324806 13618629
0.78103852 -0.065430112 0.23569265 13750215
0.77895838 -0.054530531 0.23459543 13684167
0.78000003 -0.057570487 0.23856133 13881545
0.77896005 -0.04533666 0.23520422 13552582
0.77899992 -0.035308897 0.23521608 13618375
0.77900004 -0.025278807 0.2352161 14079183
0.77899998 -0.019286808 0.23495555 14276305
0.78053576 -0.014102793 0.23476526 14276048
0.78206897 -0.0053639058 0.23506826 14012876
0.78320032 0.004838421 0.23465106 13487045
0.78384018 0.014933862 0.23484507 13289924
0.78410029 0.025034517 0.23492342 13158594
0.78332007 0.035093702 0.23468924 13224387
0.7828669 0.045155875 0.2345532 13290180
0.78428006 0.055335484 0.23497742 13355973
0.78383344 0.065392494 0.23484354 13421509
0.77900004 0.077301674 0.23202467 13618375
0.78147614 0.074910752 0.2352688 13618375
0.7790001 0.085964024 0.23430425 13881805
0.7806251 0.082716092 0.2382201 13947341
0.7788502 0.094152503 0.23517117 14079697
0.78000003 0.098856337 0.23460501 14211284
0.78507149 0.10508619 0.23501253 13224132
0.78900003 0.11107936 0.23454142 11250597
0.79209536 0.11628734 0.23519655 11053475
0.78900003 -0.18075661 0.24100612 9933716
0.79178274 -0.18542719 0.24487989 9868177
0.78795242 -0.17436954 0.24485987 11380648
0.79000002 -0.17867395 0.24824685 10064789
0.78539276 -0.16502658 0.2450927 14670807
0.78386217 -0.15528211 0.24586211 15000028
0.78277767 -0.14492103 0.24531928 14934235
0.78371894 -0.13448066 0.24541564 14802649
0.78441942 -0.12479515 0.24502663 14671063
0.78390336 -0.11518296 0.24510291 14605270
0.78366691 -0.105601 0.24488336 14473684
0.78384995 -0.095165871 0.24494056 14539476
0.78432268 -0.084621504 0.24523644 14407889
0.78430003 -0.075025298 0.24508081 14276303
0.78287119 -0.064957514 0.24537151 14210767
0.77900004 -0.051823091 0.24332118 14079183
0.78068757 -0.056061625 0.24543513 14210768
0.77899992 -0.045338985 0.24524614 14079182
0.77891654 -0.035305545 0.24522008 13947340
0.77896661 -0.025277572 0.24523577 14013389
0.77900004 -0.019807851 0.24251068 14079183
0.78088886 -0.014775611 0.24513099 14210512
0.7826156 -0.0051009441 0.24525768 14144462
0.78405571 0.0048446413 0.24500299 13553096
0.78519994 0.014960465 0.24535961 13553352
0.78593737 0.024920862 0.24501501 13289923
0.78519982 0.035178579 0.24444212 13355973
0.7852 0.045290608 0.24444245 13421766
0.78619993 0.055470668 0.24475315 13421766
0.78643996 0.064692102 0.2448284 13487559
0.78503454 0.074585885 0.24483569 13618631
0.77900004 0.089611337 0.24433434 14013135
0.78204 0.084465444 0.24528976 13881547
0.77900004 0.094352826 0.24542849 14079441
0.78000003 0.098856337 0.24464798 14145492
0.78492594 0.10493193 0.24510184 13487306
0.78885716 0.11132312 0.24531476 11316390
0.7920953 0.11611067 0.24499647 11184804
0.78795004 -0.17360058 0.2553488 11117987
0.79028571 -0.17867269 0.25448081 9933970
0.78555554 -0.16546179 0.2551761 14473684
0.78589994 -0.15520822 0.25569779 14999772
0.78604007 -0.1451167 0.25574359 14934235
0.7852332 -0.13485773 0.25548097 14736856
0.78479993 -0.12467796 0.25534013 14671063
0.78533334 -0.11464931 0.25551388 14671063
0.78592581 -0.10441311 0.25529742 14539477
0.78599983 -0.095427714 0.25480968 14473683
0.78521866 -0.08545427 0.25513008 14342353
0.78372002 -0.074969515 0.25498667 14342097
0.7828337 -0.064805664 0.25469983 14342097
0.7809667 -0.0545974 0.25500688 14276304
0.77871996 -0.045323353 0.25518402 14144975
0.77894753 -0.036793929 0.25429916 13947596
0.78081822 -0.032814808 0.25753462 14013133
0.77900004 -0.026190635 0.25162897 13816524
0.78117639 -0.025349576 0.25599143 13816267
0.78190005 -0.01530334 0.25439772 13882317
0.78416008 -0.0052518817 0.25513348 14144719
0.78430009 0.0048431465 0.25517765 13487046
0.78416008 0.01493996 0.25513074 13355973
0.78444129 0.025208175 0.25457132 13290180
0.78503329 0.035172753 0.25449499 13421766
0.785972 0.045334145 0.25480109 13618888
0.78596652 0.055453457 0.25479829 13618631
0.78613341 0.064666815 0.25485066 13618631
0.78569442 0.074744135 0.25501376 13618375
0.77900004 0.089003444 0.25831568 13947340
0.78196985 0.085010983 0.25497186 13815754
0.7790001 0.094765127 0.25503835 14079184
0.78000003 0.098856337 0.25834292 14078928
0.78368962 0.10483456 0.25497511 13421255
0.78838891 0.11335281 0.25568643 11184547
0.79089999 0.11764256 0.25306347 11119011
0.78900003 0.12031468 0.25855324 11315620
0.79170007 0.12474311 0.25480005 11119011
0.78795999 -0.17476517 0.2649273 10526362
0.79000002 -0.17913632 0.26627854 9605774
0.78514808 -0.16496894 0.26505056 14473684
0.78331429 -0.15482935 0.26480708 14934235
0.78387123 -0.14489222 0.26527435 14868442
0.78367776 -0.13533083 0.26491407 14736856
0.77900004 -0.1215677 0.26913601 14539477
0.78230321 -0.12527999 0.26445785 14605270
0.77900004 -0.11828512 0.26986548 14671063
0.78342432 -0.11478528 0.26472384 14605270
0.78436375 -0.10491014 0.26554361 14736856
0.78380013 -0.095161565 0.26510316 14539990
0.78330588 -0.085016035 0.2649374 14342355
0.78343356 -0.074940354 0.26498258 14276305
0.78372753 -0.064796641 0.26466647 14276305
0.78183997 -0.054658227 0.26535895 14210769
0.7790001 -0.044178486 0.26240507 14210511
0.78014284 -0.046319176 0.26634771 14145232
0.77900004 -0.039260153 0.26135507 14210511
0.78144443 -0.034976337 0.26556307 14078926
0.78335732 -0.0254192 0.26495764 13881547
0.78409994 -0.015347964 0.26429242 13750474
0.78540003 -0.005261126 0.26472932 13618632
0.78533328 0.0048501934 0.26470706 13618632
0.78450006 0.015086178 0.26463744 13487560
0.78300041 0.024999358 0.26483557 13421767
0.78346694 0.035103429 0.26499191 13619146
0.7856127 0.04516653 0.26497686 13750218
0.78563988 0.055429563 0.26480889 13815754
0.78461289 0.0654293 0.26517272 13749961
0.78312916 0.07494355 0.26478919 13749961
0.77900004 0.088699512 0.26257086 13815756
0.78120834 0.084377237 0.26560208 13815755
0.77894461 0.094670251 0.26326135 13947598
0.78057146 0.09631785 0.26779959 13815756
0.78412008 0.10489124 0.26503095 13355461
0.78845447 0.11402418 0.26416385 11119011
0.79000002 0.11738483 0.2678197 11053475
0.79088014 0.12430608 0.26472518 11053218
0.78861547 -0.17314249 0.27433294 11052448
0.79075003 -0.17776482 0.27655926 9671308
0.78557694 -0.16526543 0.27490062 14407635
0.78219229 -0.15518159 0.27477464 14802905
0.7831381 -0.1453364 0.27484068 14802648
0.78348023 -0.13547406 0.27508771 14736855
0.77900004 -0.12193242 0.27168912 14473684
0.78140008 -0.12552997 0.27523458 14539733
0.77900004 -0.11828512 0.27168912 14407891
0.78128576 -0.1147119 0.27549097 14539732
0.78236663 -0.10505844 0.2746945 14736856
0.78268015 -0.095025614 0.27480507 14736856
0.78188211 -0.084645271 0.27517012 14473941
0.78214282 -0.075013645 0.27520299 14145489
0.7832731 -0.064924702 0.27451134 14211282
0.78212005 -0.054676306 0.27460825 14211025
0.78103852 -0.045246497 0.27437034 14079696
0.78137928 -0.035257395 0.2742222 14145232
0.78380781 -0.025291029 0.27498925 13816267
0.78566658 -0.015378501 0.27493516 13750475
0.78599989 -0.0052655195 0.27505049 13684939
0.78599977 0.004854701 0.2750504 13553353
0.78486198 0.01482586 0.27481076 13882061
0.78326702 0.025007326 0.27501181 13618890
0.78344017 0.035101704 0.27507302 13881548
0.7848857 0.045402903 0.27479184 13947340
0.78496659 0.05538306 0.27468875 14078926
0.78464514 0.064899176 0.27501976 14013133
0.78407431 0.075102039 0.27522752 14078670
0.78362972 0.085046463 0.27493766 14078927
0.78296441 0.09497606 0.27510443 14144721
0.78636009 0.10518926 0.27499244 13355204
0.78885716 0.11158698 0.27433604 11184291
0.79084218 0.11640688 0.27581987 10987682
0.78842115 -0.1735338 0.28575709 10723228
0.79069996 -0.17818515 0.28428352 9802638
0.78393555 -0.16497949 0.28477216 14342099
0.78153127 -0.15491685 0.28423381 14802648
0.78350008 -0.14529075 0.28539479 14802649
0.78465515 -0.13567625 0.28544196 14736855
0.78257155 -0.12537198 0.28497386 14539476
0.78131998 -0.11498072 0.28530189 14473684
0.78180534 -0.10498317 0.28456345 14605525
0.78213316 -0.094958194 0.28468257 14737110
0.78156245 -0.08505404 0.28504702 14605525
0.78207397 -0.074607752 0.28517058 14276817
0.78255576 -0.064783059 0.28483665 14211025
0.78199977 -0.054666985 0.2846348 14211282
0.78199977 -0.044598259 0.28463477 14211282
0.78203315 -0.034530863 0.28464696 14079439
0.78432149 -0.025644872 0.28515139 13882317
0.78616655 -0.015388654 0.28523153 13816524
0.78608 -0.0052663367 0.28519937 13816524
0.78556651 0.0048512053 0.28501233 13882318
0.78499991 0.014955874 0.28480801 14079698
0.78411788 0.025250349 0.28513545 14079185
0.7846539 0.035014771 0.28489432 14210512
0.78479993 0.045265343 0.28473571 14210512
0.78380024 0.055300105 0.28528914 14342098
0.78366697 0.064526185 0.28517908 14407892
0.78496546 0.074836358 0.28466851 14407892
0.78519988 0.084809653 0.28488123 14407893
0.78487492 0.09488067 0.2851066 14473686
0.78735721 0.10551826 0.28507075 13684169
0.78900003 0.11169507 0.28584871 11053218
0.79044455 0.11621822 0.28482991 11053218
0.78784221 -0.17389275 0.29486704 10394778
0.79028571 -0.17893687 0.2957128 9605517
0.78450006 -0.16495904 0.2951121 14342099
0.78331059 -0.15485618 0.29532617 14736856
0.78303868 -0.14477269 0.29495382 14802649
0.78346181 -0.13546926 0.29504159 14671063
0.7826001 -0.12524566 0.29492956 14407891
0.78123993 -0.1149696 0.29441771 14342098
0.78113341 -0.10489295 0.29437819 14539477
0.78207994 -0.094951652 0.29473412 14671063
0.78148478 -0.084568121 0.29500759 14539477
0.78149986 -0.07475666 0.29542741 14342098
0.78169435 -0.064710505 0.29550132 14276305
0.78196138 -0.054804936 0.29490006 14211025
0.78199977 -0.044598263 0.29470354 14211025
0.78191978 -0.034525916 0.29467303 14145232
0.78311116 -0.025205866 0.29471236 13882317
0.78511095 -0.01536854 0.29495406 13816267
0.78430003 -0.0052550673 0.29464868 13684681
0.78386116 0.0048415228 0.29448411 13750732
0.78386694 0.014934042 0.29448655 13882060
0.78315657 0.024774451 0.29479462 13881803
0.78444839 0.035274193 0.29486525 14079183
0.78499991 0.045277901 0.29491532 14144719
0.78376007 0.055295516 0.29536733 14079181
0.78359276 0.064799935 0.29523519 14342355
0.78491426 0.074804358 0.29475075 14539479
0.78476661 0.084761977 0.29482415 14605272
0.78350025 0.094714358 0.29461855 14605015
0.78662974 0.10502075 0.29501423 14012622
0.78900003 0.11200289 0.2954945 10987425
0.79094124 0.11680006 0.29502359 11053218
0.78856242 -0.17315769 0.30490702 10460828
0.79069996 -0.17837033 0.30538708 9539981
0.78696293 -0.1657588 0.30537608 14407892
0.78434384 -0.15496249 0.30516765 14934235
0.7827816 -0.14485706 0.30530435 14868442
0.783167 -0.13541856 0.30522615 14605270
0.78275025 -0.12526916 0.30506495 14342098
0.78219986 -0.11510842 0.30485114 14276305
0.78269446 -0.10510352 0.30504376 14473684
0.78256685 -0.095011882 0.30499238 14671063
0.77899998 -0.083635703 0.30868322 14473684
0.78103703 -0.085820608 0.30422646 14671063
0.77873337 -0.075160608 0.30611122 14342098
0.78000003 -0.075069591 0.30171031 14407891
0.77893353 -0.06685219 0.30716306 14276305
0.78057903 -0.063126273 0.30417007 14276305
0.7818619 -0.054530118 0.30487639 14276305
0.78230548 -0.044615198 0.30489266 14276562
0.78253341 -0.034552932 0.30498186 14079696
0.78273368 -0.025399731 0.30505902 13816524
0.78283358 -0.015324273 0.30509588 13684938
0.78226668 -0.0052409787 0.30487427 13618633
0.78180546 0.0048290868 0.30469307 13684683
0.77900004 0.013017905 0.30998585 13618377
0.78190017 0.01489712 0.30472946 13750733
0.78199983 0.024967236 0.30477136 13619146
0.77900004 0.033078089 0.30998585 13882319
0.78213334 0.035042282 0.30482036 13816268
0.77900004 0.041284524 0.30998585 14144721
0.78258348 0.045139138 0.30499518 13881805
0.78256673 0.055213332 0.30499017 13947341
0.78233331 0.065270126 0.30489954 14276306
0.77900004 0.077210486 0.30925637 14407893
0.78167874 0.07508368 0.30431631 14473686
0.77866673 0.085016072 0.30802962 14473686
0.78149992 0.085325152 0.30274525 14736858
0.77900004 0.093258642 0.30998585 14407893
0.78156656 0.095397048 0.30460078 14736601
0.78603452 0.10521077 0.30504104 14144464
0.78900003 0.11200291 0.30472979 10921120
0.79175001 0.11714526 0.30544385 10921889
0.78866673 -0.1726802 0.31475562 9802897
0.79086667 -0.1774831 0.31532517 9539981
0.78666675 -0.16528852 0.31528664 14276306
0.78332156 -0.15568577 0.31517461 14802649
0.78155547 -0.14520216 0.31557444 14802649
0.78265387 -0.1351174 0.3150326 14473684
0.78317273 -0.12517692 0.31537691 14144719
0.78284001 -0.11520366 0.3151792 14210512
0.78145725 -0.10480928 0.31540328 14342098
0.77900004 -0.093564481 0.31809098 14342098
0.78085709 -0.095238864 0.31376958 14407891
0.77900016 -0.084729895 0.31600389 14144719
0.78000003 -0.088612385 0.31312275 14276305
0.7786665 -0.075397767 0.31532276 14013133
0.77900004 -0.068134658 0.31431702 14013133
0.78140002 -0.063220784 0.31560674 14078926
0.78288007 -0.054728877 0.31519735 14078926
0.78286701 -0.044647064 0.31519011 14210512
0.78348023 -0.034593672 0.31543732 14342098
0.78280014 -0.02540325 0.31516266 13816268
0.77900004 -0.012715866 0.31748307 13684169
0.7813462 -0.015999155 0.31429413 13684681
0.77900016 -0.0047627138 0.31693855 13618634
0.78050005 -0.0057513905 0.31240907 13619145
0.77900004 0.004887451 0.31629264 13750732
0.78025007 0.0046671177 0.31154841 13553096
0.77900004 0.014689586 0.31560877 13684683
0.78000003 0.015956206 0.31074899 13552584
0.77883339 0.024865938 0.31630036 13553353
0.78033334 0.02491344 0.31142944 13421768
0.77895659 0.035137452 0.31575614 13947854
0.78000003 0.034337878 0.31099245 13750476
0.77843314 0.044898562 0.31522548 14013135
0.78000003 0.046815507 0.31038377 14013135
0.77737951 0.054972533 0.31554979 14013135
0.78000003 0.055032481 0.31038377 14078928
0.77816147 0.064777382 0.31529117 14210514
0.78000003 0.06507545 0.31038377 14276307
0.77867997 0.074990451 0.31532627 14276307
0.78000003 0.072379425 0.31038377 14342100
0.77750015 0.084889792 0.31484893 14342100
0.77900016 0.094170459 0.31545684 14407893
0.78028578 0.098631687 0.31441197 14473686
0.78507704 0.10494986 0.31480545 14013392
0.78900003 0.11181818 0.31414983 11052964
0.79164714 0.11657832 0.31556281 10856098
0.79189998 0.15505545 0.3151198 10921889
0.78850007 -0.17233613 0.3248415 9539211
0.79150009 -0.1776257 0.32515052 9605261
0.78517252 -0.16505459 0.32498699 14210256
0.77794123 -0.15315589 0.32638133 14802649
0.78131258 -0.15670399 0.32313508 14736858
0.77803135 -0.14505897 0.32530683 14802649
0.78000003 -0.14095755 0.32194838 14802649
0.77866673 -0.1388932 0.32808116 14671063
0.78153563 -0.13487384 0.32445404 14473684
0.78375024 -0.12565477 0.32506377 14013133
0.78338474 -0.11514402 0.32478067 14013133
0.77900004 -0.10004859 0.32366323 14539734
0.78092605 -0.10571574 0.3253105 14408148
0.77900016 -0.095272362 0.32457507 14539734
0.78050005 -0.091105402 0.32520181 14474197
0.78079325 -0.084898546 0.32544932 14473940
0.77900004 -0.075429268 0.32092774 13881547
0.78129995 -0.074737221 0.3264499 14342099
0.78202951 -0.064519703 0.3251909 14210513
0.78360039 -0.054779138 0.32557303 14210513
0.78300041 -0.044655297 0.32532513 14013391
0.78392011 -0.034613006 0.32479066 14276306
0.7829631 -0.025205912 0.32480127 13816013
0.77900016 -0.013775767 0.32275137 13618634
0.78088897 -0.016607458 0.32637778 13684426
0.77900016 -0.0050883656 0.32275146 13553354
0.78027284 -0.0053937901 0.32743064 13618890
0.77887088 0.0049573602 0.32469741 13816525
0.77866656 0.014834894 0.32534614 14013903
0.77788883 0.024834871 0.32502115 13948110
0.77773339 0.034844682 0.32495591 14079440
0.77655578 0.044788949 0.32446355 14078927
0.77549994 0.054574881 0.32472104 14078927
0.77622885 0.064892612 0.32445711 14013135
0.77763337 0.074891433 0.32491571 14078928
0.77853328 0.085002027 0.32438174 14342100
0.77899998 0.092216551 0.32327244 14473686
0.78083336 0.096424937 0.32584709 14407893
0.78527594 0.10491992 0.32503089 14078928
0.78900003 0.11107936 0.32504749 10921121
0.79168183 0.11609342 0.32522392 10921889
0.78866673 -0.17206453 0.33414236 9407625
0.79143751 -0.17703316 0.33566257 9539468
0.78511536 -0.16531168 0.33496821 13947342
0.77763647 -0.154076 0.33426836 14736856
0.78100002 -0.15881217 0.33729255 14605270
0.77764279 -0.14479883 0.33512983 14671063
0.77881831 -0.13798103 0.33311826 14473684
0.78088236 -0.13373137 0.33503672 14473684
0.78332376 -0.12514199 0.33489493 14013133
0.78372437 -0.11546088 0.33495528 13881291
0.77900004 -0.10004859 0.33825245 14013392
0.78133333 -0.1049851 0.3347531 14013648
0.77896297 -0.094978377 0.33489305 14539992
0.78000003 -0.091047041 0.33229569 14935005
0.77900004 -0.086143233 0.33848041 14474454
0.78088903 -0.084446289 0.33409497 15000541
0.77900004 -0.079988405 0.33916429 14539477
0.78143328 -0.074750043 0.33564761 15000028
0.78100008 -0.064900383 0.33504683 15065821
0.78199995 -0.054736402 0.33518738 14802650
0.78280032 -0.044643026 0.33532044 14539478
0.78390026 -0.034612108 0.33487239 14342099
0.7836073 -0.025626129 0.33507517 14013391
0.78160596 -0.015052824 0.33530673 13750220
0.77866679 -0.0038500188 0.33704373 13816526
0.78050011 -0.0061427113 0.33352292 13750476
0.77759469 0.0048745018 0.33446532 13948112
0.77680016 0.014799486 0.33547637 14013905
0.77636123 0.024786452 0.33528623 13948112
0.77560008 0.034748551 0.33495742 14013905
0.77494437 0.044697065 0.33467594 13882319
0.77436662 0.054635566 0.33442661 14013904
0.77552766 0.064704366 0.33492893 14144977
0.77707428 0.074702673 0.33509076 14276306
0.77819437 0.084964603 0.33425671 14473686
0.77877796 0.093738727 0.33582562 14671065
0.78033334 0.097224362 0.33319813 14605272
0.78399992 0.10519146 0.3350082 14013133
0.78834784 0.11395819 0.33585122 10855840
0.79087502 0.11759298 0.33252963 10790304
0.78900003 0.12169998 0.33936226 10790303
0.7911517 0.12513205 0.33434847 10856096
0.79073101 0.13517378 0.33487159 10790303
0.79178572 0.14503615 0.334865 10921633
0.78900003 -0.17152131 0.3453652 9407626
0.79140913 -0.17651123 0.3450717 9473932
0.78684014 -0.16553056 0.34515572 13947342
0.77900004 -0.15293452 0.34098795 14736856
0.78184998 -0.1556 0.3450737 14671063
0.77900004 -0.14746356 0.34098795 14671063
0.78220004 -0.14468035 0.34541255 14605270
0.78212506 -0.13508715 0.34434184 14342098
0.77900004 -0.12102061 0.34645891 14144719
0.78116679 -0.12574713 0.34413004 14144719
0.77900016 -0.11477809 0.34673947 14013133
0.78123534 -0.11485934 0.34239507 13947340
0.7790001 -0.10409233 0.34550738 13947083
0.78063643 -0.10657226 0.34153712 13947340
0.77857143 -0.09433154 0.34503084 14012876
0.77806669 -0.085358053 0.3451314 14144463
0.77802765 -0.075334266 0.34511289 14407378
0.77875 -0.065985285 0.34573886 14868442
0.78037506 -0.062317371 0.34113243 15197407
0.77879173 -0.05581044 0.34682116 15065821
0.78042859 -0.053643458 0.34200385 15065821
0.77866673 -0.046079054 0.34828472 14736857
0.78119993 -0.044587564 0.34311959 14736857
0.77828586 -0.034626726 0.34822223 14407892
0.78154159 -0.035041694 0.34369883 14407892
0.77771443 -0.024803778 0.34649128 14078927
0.78164291 -0.026018383 0.3421433 14144719
0.77779424 -0.01501081 0.34527642 13947340
0.78080004 -0.018391419 0.34067839 13881549
0.7774334 -0.0052098483 0.34484977 13815756
0.77617693 0.0045792721 0.34456038 13881805
0.77538455 0.014911696 0.3450588 13881805
0.77438885 0.024723582 0.34531304 13750732
0.77400011 0.034677729 0.34514123 13882318
0.77397233 0.044641674 0.34512869 13882062
0.77376676 0.054593079 0.34503606 13816525
0.77455878 0.064410068 0.34512234 14013391
0.77603585 0.074867472 0.34455517 14210514
0.77713901 0.084850341 0.34472105 14341845
0.77849996 0.094531626 0.34483439 14407894
0.78000003 0.098856337 0.34781665 14342100
0.78340012 0.1045005 0.34482208 14210514
0.78803998 0.11463636 0.34494618 10855840
0.78899997 0.12216174 0.34451273 10724767
0.79015005 0.12733448 0.34559172 10790303
0.79044014 0.13533823 0.34414688 10856096
0.79152 0.14478879 0.34461755 10790304
0.78900003 -0.17152131 0.35275343 9079177
0.79140002 -0.17593673 0.35493666 9408396
0.78714818 -0.16566311 0.35485968 13881551
0.78409386 -0.15485238 0.35457718 14539477
0.78539991 -0.14499685 0.35482267 14539477
0.78437036 -0.13542561 0.35476452 14342098
0.77900004 -0.1210206 0.35010621 14078926
0.7819643 -0.12540621 0.35536233 14013133
0.77900016 -0.11390836 0.352173 14013133
0.78033346 -0.11529169 0.35725132 14013133
0.77885282 -0.10485639 0.35449091 13947340
0.77824134 -0.0950514 0.35491663 13947084
0.77724016 -0.085267201 0.3547737 13947084
0.7767781 -0.075214155 0.35547099 14012877
0.77678144 -0.065041862 0.35507259 14605272
0.77640575 -0.055308186 0.35512632 14934236
0.77603221 -0.045048684 0.35492215 14802651
0.77597326 -0.03529517 0.35492867 14342356
0.77556664 -0.025167165 0.3549161 14013392
0.77602798 -0.015189729 0.35512698 13816012
0.77590007 -0.0051987171 0.35506833 13749962
0.77472222 0.0047837435 0.35452959 13881804
0.77424139 0.014625612 0.35446638 13750732
0.77400011 0.024712013 0.35510695 13684938
0.77400011 0.034677729 0.35510689 13882317
0.77360016 0.044619046 0.35492402 14013390
0.77336013 0.05456512 0.35481381 13947596
0.77478123 0.064869061 0.35512596 14079182
0.77586693 0.074720807 0.35505569 14144719
0.77645743 0.084800571 0.35519433 14276562
0.77736008 0.094156206 0.35540789 14342613
0.78060007 0.098932378 0.35447961 14342356
0.78538471 0.10499029 0.35502481 13947598
0.78883332 0.1132108 0.35298693 10790047
0.79053849 0.11642153 0.35671666 10790303
0.79171437 -0.17476274 0.36491027 9342090
0.78762966 -0.16569623 0.36504743 13684171
0.78450012 -0.15493469 0.36478555 14474197
0.78476673 -0.14488047 0.36463711 14539477
0.78368974 -0.13557406 0.36467403 14342098
0.78199983 -0.12514931 0.36518314 14013133
0.78107148 -0.11514045 0.36507663 14013133
0.77887511 -0.10428742 0.36478862 14144719
0.78000003 -0.10930698 0.3642506 14078926
0.77732378 -0.095017448 0.36503381 14210512
0.77640039 -0.08517459 0.36438558 14013133
0.77576691 -0.075116999 0.36499697 14013133
0.77479988 -0.065047428 0.36544782 14407891
0.77428585 -0.055008251 0.36528355 14671320
0.7742334 -0.045061644 0.36518148 14802648
0.77458328 -0.035108291 0.36534613 14342098
0.77456653 -0.025135027 0.36533824 14013133
0.77408338 -0.015152835 0.36510921 13815754
0.77356666 -0.0051827738 0.36486503 13815754
0.7728976 0.0045650927 0.36503655 13881804
0.77283871 0.01484077 0.36472708 13882318
0.77336127 0.024692683 0.36476946 13619147
0.77393347 0.034674976 0.36504072 13750733
0.77400011 0.044643436 0.36507246 13948111
0.77447999 0.054643676 0.36439362 13882318
0.77503127 0.064888157 0.36499125 14079697
0.77572006 0.074706964 0.36497459 14145490
0.77661318 0.084763363 0.36522016 14079696
0.77670389 0.095006622 0.3650336 14211283
0.77900004 0.10055325 0.36651909 14342870
0.78565383 0.1054529 0.36476418 13882318
0.78900003 0.11107937 0.36014169 10592667
0.78803855 -0.16556731 0.37538287 13618634
0.79000002 -0.16988929 0.37169459 11907506
0.78437155 -0.15477903 0.37534016 14407891
0.78336692 -0.14462164 0.37499124 14539477
0.78282779 -0.13548754 0.37489146 14407891
0.78133327 -0.12504287 0.37493342 14144719
0.77899998 -0.11125103 0.37537679 14210768
0.78042859 -0.11571866 0.37475947 14144975
0.7787931 -0.10561818 0.3747828 14276305
0.77666682 -0.094957605 0.37500727 14276562
0.77566677 -0.085094772 0.37493724 14144976
0.77449995 -0.074994974 0.37437284 14013133
0.7734288 -0.064738229 0.37534207 14408148
0.77319473 -0.0549566 0.37555203 14605527
0.77326685 -0.045004915 0.37558687 14737111
0.77350014 -0.035059609 0.37569955 14342096
0.77313346 -0.025089139 0.37552193 13947340
0.77213895 -0.015115811 0.37503892 13816011
0.77119994 -0.0051665297 0.37458315 13750218
0.77084851 0.0050072083 0.3748219 13816268
0.76900005 0.014651038 0.37981653 14079698
0.77062094 0.014557274 0.37445581 13816526
0.77152765 0.024635129 0.37474188 13685197
0.77316684 0.034641486 0.37553832 13882576
0.77400011 0.044417601 0.37537745 14013904
0.7749331 0.054675318 0.37458313 14013904
0.77455872 0.064406835 0.3746689 14013904
0.77479994 0.07461863 0.37451932 14145491
0.77640653 0.084543362 0.37472767 14079698
0.7774002 0.094888218 0.3748672 14145491
0.77900004 0.10055325 0.37472555 14211283
0.78456533 0.10598949 0.37480238 14079697
0.78866673 0.11134028 0.3769128 10527134
0.79180956 -0.17496035 0.38481426 9079177
0.78746426 -0.16572721 0.38504997 13421511
0.78273338 -0.15525757 0.38500938 13882060
0.78191423 -0.14513858 0.38540924 14079183
0.7820999 -0.13523427 0.38537061 14473941
0.78141665 -0.12505704 0.38503468 14210769
0.7790001 -0.11226705 0.38457325 14211282
0.78011757 -0.11652128 0.38476974 14145233
0.77891666 -0.10535667 0.38456282 14277075
0.78000003 -0.10930698 0.3889015 14145489
0.7769357 -0.09526784 0.38479266 14145489
0.77560008 -0.085087754 0.38489297 14145233
0.77430004 -0.074974686 0.38424817 14013133
0.77409095 -0.065234445 0.3846387 14276306
0.77361542 -0.054708406 0.38516238 14539478
0.77304006 -0.044992305 0.38543153 14802650
0.77300018 -0.035036944 0.38541135 14211026
0.77300012 -0.02508411 0.38541135 13816525
0.77286679 -0.015129206 0.38534546 13684939
0.77236009 -0.0051747058 0.38509396 13750732
0.77083862 0.0049046902 0.38450986 13816525
0.76900005 0.012850795 0.38341701 14014162
0.77029186 0.014901261 0.38564017 13948368
0.77122575 0.024538483 0.38470206 13882576
0.77259994 0.034616027 0.3852115 13948369
0.77363658 0.044706307 0.38495976 13948369
0.77491987 0.054675464 0.38455558 13948369
0.77562499 0.063801974 0.38445282 13948369
0.77655005 0.074787788 0.38454795 14145748
0.77836365 0.085315786 0.38377988 14211286
0.78083342 0.085254125 0.38931701 14145748
0.7786876 0.094474547 0.38312083 14145494
0.78066677 0.096300416 0.38821945 14079702
0.78372008 0.10483903 0.38488278 14211029
0.78854555 0.11202285 0.3852745 10395290
0.78791314 -0.16535306 0.39477241 13158338
0.79000002 -0.16988929 0.39851093 10986404
0.78445005 -0.15492344 0.39479598 13421766
0.78319043 -0.14485174 0.3949489 13750218
0.78338087 -0.13519289 0.39530712 14276820
0.78321725 -0.12514304 0.39497375 14013904
0.78295237 -0.11495723 0.39509138 14079953
0.77900004 -0.10187224 0.3902266 14079696
0.78229994 -0.10523359 0.39490527 14013903
0.77900004 -0.095185511 0.39174631 14079696
0.78280002 -0.095039919 0.39671332 13948110
0.77785712 -0.084553421 0.39199612 14013903
0.78233337 -0.085823998 0.3967818 13685195
0.77750015 -0.075284027 0.39220712 13750731
0.78280002 -0.074880943 0.39762777 13619145
0.77740014 -0.065265313 0.3921566 14013647
0.78266668 -0.064792447 0.39756003 13816524
0.7766667 -0.054900784 0.39293867 14276564
0.78200001 -0.055582315 0.39859498 13684939
0.77461112 -0.044782989 0.39407504 14605528
0.77375019 -0.034811966 0.39458632 14079698
0.77396005 -0.025114793 0.39495265 13948112
0.77443343 -0.015159133 0.39519399 13422026
0.77420837 -0.005338205 0.39492843 13421770
0.7736522 0.0045816875 0.39400777 13224391
0.77366668 0.014740883 0.39480171 13027267
0.77388889 0.024540646 0.39478266 13027013
0.77375001 0.034666523 0.39393854 13355977
0.77517384 0.044595163 0.39422998 13356232
0.78000003 0.047728501 0.39985749 13422025
0.77720016 0.054351579 0.39308691 13487818
0.78120005 0.056581687 0.39827865 13027267
0.77850008 0.063433118 0.39210257 13619404
0.78209096 0.065667763 0.39610386 13487818
0.77900004 0.074110284 0.3902266 14145748
0.78366667 0.075471789 0.39593261 13882832
0.78394127 0.084780931 0.39464867 13882833
0.78415781 0.095421679 0.39513299 13751251
0.78613645 0.1054102 0.39463919 13685200
0.78877783 0.11186901 0.39471495 10658719
0.79141182 0.11665261 0.3952446 10461852
0.78885716 -0.16278468 0.40149614 12303287
0.79068422 -0.16526285 0.40621325 10197911
0.78860009 -0.15555735 0.40223604 11974322
0.79074997 -0.15539521 0.40737498 10000532
0.78816676 -0.14458503 0.40219894 12960448
0.79083341 -0.14507441 0.40633771 10065815
0.78840005 -0.13447629 0.402318 13618379
0.79120004 -0.1349546 0.40652651 10395294
0.78900003 -0.12534472 0.40262419 13750733
0.78840005 -0.11435946 0.4030568 13027012
0.79128563 -0.11591603 0.40696695 10329244
0.78840005 -0.1049467 0.40324154 13158599
0.79071432 -0.10446096 0.40773082 9474190
0.78800005 -0.094747953 0.4030374 13356232
0.79083341 -0.095088221 0.40818903 9539985
0.78790009 -0.084591702 0.40298638 13421767
0.79088891 -0.085324146 0.40811503 9868950
0.78720009 -0.075302765 0.40262824 13487560
0.79090905 -0.074309491 0.40814418 10526879
0.78726673 -0.064618193 0.40321639 13290181
0.79100001 -0.065348469 0.40867159 10724000
0.787 -0.055018384 0.40492281 12960961
0.79000002 -0.05892504 0.40868264 11447208
0.77900004 -0.042603515 0.4011685 14803423
0.78466672 -0.04530298 0.40592706 12303291
0.77766675 -0.03615405 0.4010897 14211284
0.78233337 -0.034950558 0.40573618 11513775
0.77900004 -0.028926115 0.40299216 14145748
0.78277773 -0.024995102 0.40596712 12237751
0.77900004 -0.014336891 0.40299216 13027013
0.78300005 -0.015019174 0.40709993 10197915
0.77866668 -0.0046100696 0.40251657 12829378
0.78362501 -0.0059372839 0.4081381 8947848
0.77766675 0.0048047905 0.40048185 12960963
0.78299999 0.0048387074 0.40597963 10395291
0.77700001 0.014803454 0.40013847 12829632
0.78260005 0.014907804 0.40577239 10329498
0.77833337 0.02606301 0.40204096 10921895
0.78225005 0.024975415 0.40604821 9276812
0.77700001 0.034812134 0.40013847 12238268
0.78219998 0.035047449 0.40556502 9276812
0.77900004 0.041284524 0.4011685 12172475
0.78443754 0.045705691 0.40569404 10198170
0.78629416 0.05493661 0.40536141 10987429
0.78710014 0.06474825 0.40442228 11382444
0.78827786 0.074481219 0.40420482 12105911
0.79000002 0.076697938 0.4083744 9145224
0.78835708 0.085414588 0.40242881 13553359
0.79000002 0.085328497 0.40775791 9408397
0.78837502 0.09484259 0.40253672 13224650
0.7902 0.094600156 0.40786138 9671569
0.78850007 0.10491787 0.40200034 13093320
0.79073334 0.10540061 0.40721184 10264218
0.78900003 -0.051462196 0.41001242 9408399
0.78866673 -0.044056103 0.4120959 9343375
0.79162508 -0.045957904 0.41705391 9606543
0.78850001 -0.034816556 0.41252199 9408398
0.7883001 -0.024289059 0.41223288 9211273
0.79155564 -0.024656456 0.41669482 9408650
0.78781819 -0.014497694 0.41308859 9145481
0.79071426 -0.015347091 0.41777918 9277064
0.78809094 -0.0049445489 0.41390216 9211271
0.79000002 -0.0052923169 0.41792971 9342857
0.78800011 0.0045137401 0.41247371 9342601
0.79045451 0.0053039161 0.41732931 9342857
0.78781819 0.015343902 0.41241732 9342601
0.79055554 0.014650734 0.41740161 9277064
0.7876668 0.025148354 0.41300979 9145992
0.79000002 0.025222853 0.41792968 9212042
0.78791672 0.034840841 0.41267875 9146249
0.79037499 0.036105782 0.41743451 9277836
0.78857148 0.043770276 0.41216347 9277579
0.79115385 0.045134664 0.41697469 9409163
0.78900003 0.054743934 0.41093597 9342859
0.79140002 0.055279754 0.41644973 9408906
0.78900003 0.063055724 0.41001239 9408652
0.79100001 0.065319806 0.41526249 9540493
0.79136682 0.075287372 0.4149498 9606286
0.79160005 0.085501306 0.41507119 9737873
0.7917999 0.025280327 0.42444372 9540238
0.79170585 0.075536989 0.42504534 10001045
0.79111129 0.15489928 0.42499912 10592926
0.79131263 0.075048558 0.43494913 10001300
0.78900003 0.1498677 0.43956542 10462108
0.79037058 0.1443707 0.43436509 10461596
0.78900003 0.15463927 0.43802619 10527132
0.79004353 0.15481052 0.43371359 10527133
0.79100019 0.16526152 0.43452743 10527133
0.79172415 0.075477079 0.44466186 10066837
0.79056013 0.085389987 0.44413468 10264216
0.79153341 0.12533003 0.44468164 10461340
0.79064012 0.13537228 0.44418022 10461597
0.78900003 0.14894417 0.4451066 10396317
0.79000014 0.14435528 0.44374427 10396317
0.78899992 0.15475698 0.44423744 10396316
0.79000002 0.15468113 0.44443777 10396316
0.78900003 0.16095006 0.44418305 10462109
