# .PCD v0.7 - Point Cloud Data file format
VERSION 0.7
FIELDS x y z rgb
SIZE 4 4 4 4
TYPE F F F U
COUNT 1 1 1 1
WIDTH 1075
HEIGHT 1
VIEWPOINT 0 0 0 1 0 0 0
POINTS 1075
DATA ascii
0.79194432 0.1050061 0.1547682 11447976
0.79209995 -0.024778428 0.16499805 10856096
0.78900003 0.047355682 0.16989419 14540502
0.78872734 0.055143837 0.16899592 14080208
0.78850007 0.064861655 0.16886301 14342350
0.78808337 0.074974917 0.16877347 14670801
0.78849995 0.085430168 0.1680714 14144972
0.78882343 0.095086992 0.16811782 12171185
0.79080003 0.094669722 0.1628754 11645098
0.79113811 0.10506137 0.16467038 11448231
0.78900003 -0.15212713 0.17912951 11843248
0.78863645 -0.14509195 0.17803946 11711918
0.79213643 -0.14489208 0.17351596 11974574
0.78845459 -0.1349901 0.17816611 11579303
0.78861547 -0.12485738 0.17747928 12564913
0.79189473 -0.12551199 0.17266141 12105646
0.78866649 -0.1151372 0.17720674 12697785
0.79093748 -0.1148897 0.17227712 11909040
0.78839999 -0.10494747 0.17714685 12369591
0.79093331 -0.10528423 0.17216052 11974832
0.78850007 -0.095269255 0.17740008 12566711
0.79120004 -0.094761536 0.17258838 11843503
0.78900003 -0.085325025 0.17882164 14079179
0.78900003 -0.064391643 0.17912951 15132124
0.78855562 -0.054715313 0.1782077 13815493
0.78800011 -0.044387341 0.17742544 14013385
0.78806674 -0.03479711 0.17707132 14278100
0.79173332 -0.034959629 0.17233372 11053729
0.78839993 -0.02429207 0.17677736 14145486
0.7906875 -0.025196599 0.17187621 10592922
0.78820002 -0.014506208 0.17525516 13092801
0.79000002 -0.014539337 0.17010953 10856098
0.78812003 -0.0052800034 0.17523699 13422021
0.79000002 -0.0052923169 0.17010953 11184802
0.78804761 0.0044721053 0.17653938 14211536
0.79093343 0.005441865 0.17179035 12697784
0.78786659 0.015010017 0.17702588 14145487
0.79153341 0.015079875 0.17229035 12895679
0.7865715 0.025441213 0.17673039 14079694
0.7913847 0.024909783 0.17154631 12500920
0.78643996 0.035234984 0.17670019 14276815
0.79069996 0.035425235 0.17118494 13947593
0.78617656 0.045072 0.17593567 14342608
0.79000002 0.04279219 0.17010953 14342351
0.77900004 0.058001351 0.17807494 14408143
0.78462076 0.054658934 0.17470634 14276558
0.77800012 0.065362453 0.17685892 14473424
0.78368419 0.064754941 0.17289734 14144716
0.77760011 0.074887432 0.17653991 14605011
0.78350002 0.075110622 0.17226073 14341839
0.77833343 0.083614595 0.17716275 14867670
0.78299993 0.08561819 0.17357175 14605267
0.78599995 0.095229253 0.17511873 13947339
0.78862506 0.10271889 0.17650495 11381926
0.79109097 0.10683035 0.17421561 11514024
0.78900003 -0.18075661 0.18836482 10592667
0.78756523 -0.17465925 0.18649617 12763068
0.79088897 -0.17687096 0.18140827 11316134
0.77900004 -0.16022913 0.18962474 15065308
0.78538686 -0.16468452 0.18582967 14539219
0.79000002 -0.16619049 0.18120594 10986654
0.77900004 -0.15475819 0.18962474 14999515
0.78483874 -0.15485074 0.18463424 14407888
0.77900004 -0.14655173 0.18871292 14802136
0.78406906 -0.14468926 0.18426678 14408403
0.78458834 -0.13501498 0.18433315 14605783
0.78418761 -0.12492424 0.1846842 14868184
0.78372955 -0.1148369 0.18481459 14933721
0.77900004 -0.10187224 0.18962474 14341585
0.78315806 -0.10487565 0.1852705 14341841
0.77858347 -0.093768537 0.18800382 14078413
0.78395838 -0.095329821 0.1831007 14342096
0.77763647 -0.085641339 0.18813337 13617862
0.78446442 -0.08481171 0.18360017 14210509
0.77725005 -0.074918613 0.18760468 13815240
0.7856667 -0.075242341 0.18318206 14408145
0.77639997 -0.065182157 0.1871724 14473425
0.78486973 -0.065173961 0.18265882 14867926
0.77616668 -0.055168774 0.1862065 14867927
0.7840001 -0.054808978 0.18166099 15394013
0.77625 -0.045178242 0.18622816 14736600
0.78288233 -0.044917453 0.18129435 15197146
0.77754188 -0.035240311 0.18653768 14342098
0.78293759 -0.034912135 0.18152949 14802645
0.77883339 -0.027704159 0.18836839 14473684
0.7826786 -0.025005309 0.18390308 14210510
0.78383332 -0.015342812 0.18437394 14012876
0.78363359 -0.005250602 0.18432757 13618375
0.78302711 0.0049593998 0.18435715 13618886
0.78245449 0.014962494 0.18463099 13487043
0.77891678 0.025932297 0.18838871 13421251
0.78140008 0.02425145 0.18376693 12894908
0.77837509 0.035101697 0.18742172 12894651
0.78107154 0.03473369 0.18268287 13158079
0.77854556 0.045071404 0.18702774 13289665
0.78078568 0.044772215 0.1822249 13750472
0.77866668 0.055140775 0.18549183 13421251
0.78000003 0.053206485 0.1807382 14671573
0.77816653 0.06492243 0.18486838 13684423
0.77753335 0.074880399 0.18471912 13947596
0.77788889 0.084932052 0.18480092 14473427
0.77878577 0.093884788 0.1872284 14802393
0.78241181 0.096579164 0.18301797 15000028
0.78689659 0.10513443 0.18525441 13026495
0.79000002 0.10937075 0.18120594 11645609
0.78900003 0.11107937 0.18651776 11382438
0.79164016 0.11582648 0.18439527 11382437
0.78900003 -0.18075661 0.19205894 10263961
0.78649998 -0.17516805 0.19555038 12236728
0.77890021 -0.16294408 0.1950708 15131101
0.78110009 -0.16870764 0.19397542 14933468
0.77792007 -0.15454251 0.1948266 14933722
0.77880007 -0.14706065 0.19419537 14867929
0.78043753 -0.14248243 0.19591294 14867929
0.78179985 -0.13518144 0.19488135 14802392
0.77900004 -0.1210206 0.198743 14802649
0.78126478 -0.12524836 0.19447899 14473684
0.7790001 -0.11447204 0.19559307 14539477
0.78025007 -0.11619184 0.19129851 14671063
0.77899998 -0.10491165 0.19469048 14407634
0.78000003 -0.10200301 0.19899814 14276305
0.77824003 -0.094486944 0.19490723 14013133
0.77660012 -0.085197553 0.19449505 13552325
0.77552783 -0.075094521 0.19513381 13486276
0.77459991 -0.065030634 0.19489966 14078669
0.77419448 -0.055027422 0.19479728 14736599
0.77463329 -0.045083832 0.1949074 14802649
0.77591699 -0.035167158 0.19523071 14539477
0.77813643 -0.025745265 0.19512744 14210512
0.78049999 -0.021673154 0.19272943 14210512
0.77899998 -0.015900023 0.19848248 13552582
0.78117239 -0.015133427 0.19368264 13815754
0.77900004 -0.0015713201 0.19600753 13619145
0.7808215 -0.0054931059 0.19450526 13421766
0.77900004 0.0048114653 0.1950957 13618888
0.78017253 0.0046610921 0.1944436 13355972
0.7790001 0.016665211 0.19526148 13421507
0.78012502 0.013493349 0.19457772 13421508
0.77892309 0.025149308 0.19451557 13421506
0.78000003 0.023077583 0.19899812 13223871
0.77859992 0.034883812 0.19499689 13421250
0.77874064 0.044950865 0.19462664 13092286
0.78000003 0.044685174 0.19899814 13355457
0.77886969 0.054714959 0.19490509 13092286
0.78000003 0.057771467 0.19717214 13158078
0.77891678 0.063313864 0.19294763 13223616
0.78094441 0.066273317 0.19700538 13223871
0.77900004 0.075629987 0.19175233 13420996
0.78147364 0.075066648 0.19677632 13289665
0.77825016 0.085802943 0.19430089 14012876
0.78049999 0.081865773 0.19790797 13618375
0.77844459 0.093800925 0.19465341 14539478
0.78112501 0.098542422 0.19562788 14605272
0.78623992 0.10517581 0.19506961 13223619
0.78900003 0.11107937 0.19298247 11382184
0.79127288 0.11561156 0.19488668 11316389
0.78622729 -0.17368488 0.20518623 12959935
0.79000002 -0.17913631 0.20524819 9605776
0.77852184 -0.16298439 0.20488004 15065565
0.78100002 -0.16795385 0.20473638 14670552
0.77857131 -0.15525737 0.20520759 15131101
0.78000003 -0.15130484 0.20447612 14999515
0.78153121 -0.14542452 0.20522064 14933722
0.7818799 -0.13519636 0.20496881 14802393
0.77873915 -0.1240322 0.20580974 14605270
0.7803334 -0.12843353 0.20354775 14605270
0.77867723 -0.11558861 0.20465846 14671063
0.78000003 -0.11174164 0.20934542 14605270
0.77900004 -0.10871093 0.2019344 14407891
0.78134608 -0.10428786 0.20518167 14342098
0.77900004 -0.090930313 0.20056666 14013133
0.78104168 -0.094978839 0.2049033 14210512
0.77807415 -0.084954962 0.20457955 13684167
0.78000003 -0.089221038 0.20812809 14013133
0.77650017 -0.075188555 0.20537747 13355458
0.77507991 -0.065071948 0.20500165 13749960
0.77420002 -0.055027913 0.204769 14210512
0.77479994 -0.045093521 0.20492788 14473684
0.77573353 -0.03515967 0.20517397 14539477
0.77696687 -0.025211656 0.20458953 14210512
0.77865618 -0.015639342 0.20452207 13684168
0.78000003 -0.012529301 0.20934542 13684168
0.78072006 -0.0052295867 0.20466708 13092544
0.78076661 0.004822494 0.20467956 12961216
0.7808001 0.014876132 0.2046878 13092031
0.78133321 0.024945756 0.20482804 12828859
0.77900004 0.038549047 0.20056666 13486789
0.78112507 0.034844682 0.20492552 13223617
0.77900004 0.044931829 0.20056666 13420996
0.78060722 0.045023564 0.20489721 13420996
0.77900004 0.053340904 0.20218769 13223616
0.78023529 0.055694245 0.20593484 13289665
0.78176671 0.065225616 0.20493992 13355458
0.78248 0.07535585 0.2051262 13487043
0.77895021 0.087417193 0.20511289 13881803
0.78073335 0.08237689 0.20527683 13684167
0.77900016 0.093144648 0.20592362 14211282
0.78130776 0.097476281 0.20439664 14474456
0.78678572 0.10504993 0.20500372 13355720
0.78680789 -0.1748053 0.21525854 11842224
0.79000002 -0.17913631 0.21079642 9539981
0.77900004 -0.16235673 0.21211648 14933978
0.78168416 -0.16492434 0.21637961 14868184
0.77900016 -0.15389436 0.21457998 15065564
0.78066665 -0.15783101 0.21744494 15065819
0.77900016 -0.14584252 0.21657425 15000027
0.78131247 -0.14344254 0.21282074 14933978
0.77900016 -0.13399661 0.2171198 14671063
0.78111774 -0.13560231 0.21262003 14736856
0.77899992 -0.12482513 0.21503013 14671063
0.78000003 -0.12026295 0.21908407 14539477
0.77900004 -0.11828512 0.21150859 14868442
0.78100014 -0.11477763 0.2158616 14671063
0.78188872 -0.10499603 0.21503811 14473684
0.77875006 -0.092496842 0.21713756 14144719
0.78122729 -0.09559717 0.21377435 14276305
0.77844018 -0.085398003 0.21499981 13881546
0.77810007 -0.075343333 0.21490912 13487043
0.77636015 -0.065178655 0.21442804 13552836
0.77626687 -0.055173792 0.21440361 13947595
0.77716017 -0.045232091 0.21465075 14144719
0.77663356 -0.035202142 0.21450382 14407891
0.77740008 -0.025224736 0.21471554 14276818
0.77900004 -0.018997338 0.21475062 14145489
0.78095454 -0.013539993 0.21561302 13816524
0.78258622 -0.0053682583 0.21507363 13487045
0.78257155 0.0049632834 0.21509653 13092288
0.78203315 0.014899506 0.21507853 13158337
0.78276497 0.02477709 0.21501051 12895166
0.7826072 0.035259333 0.21491048 13092545
0.78169435 0.045085456 0.21498556 13355460
0.78055185 0.055197749 0.21482702 13420996
0.77900004 0.065174378 0.21843846 13355203
0.78090334 0.065122329 0.21408686 13486789
0.77900004 0.071374804 0.2188032 13355203
0.78106892 0.075347692 0.21465226 13552582
0.77894759 0.087013893 0.21523719 13947340
0.78033334 0.081695996 0.21491371 13749961
0.77804357 0.094649605 0.21512815 14408148
0.78066665 0.098940827 0.21195953 14474455
0.78475869 0.10497901 0.21490338 13224387
0.78871429 0.11249042 0.21599218 11316388
0.79042858 0.11683204 0.21394941 11185060
0.79170376 0.12464177 0.21454255 11250597
0.78750002 -0.17368698 0.22496986 12433850
0.79083341 -0.17901702 0.22644842 9671058
0.78292298 -0.16484608 0.22519103 14802650
0.77900016 -0.15280427 0.22609782 15000282
0.78079998 -0.15670158 0.2245481 15000282
0.77899981 -0.14472809 0.22518593 14934489
0.77896422 -0.13488717 0.2248501 14802648
0.7790001 -0.12740338 0.22278209 14605270
0.7806316 -0.12334068 0.22561041 14539477
0.78195983 -0.11507323 0.22512656 14539477
0.7790001 -0.1020546 0.22573307 14539477
0.78126317 -0.10679023 0.2244442 14539477
0.77711791 -0.094992459 0.22485428 14342098
0.77690017 -0.08522781 0.22457857 14144719
0.77868557 -0.075476371 0.22496542 13618375
0.77837938 -0.065472834 0.22485192 13552582
0.77872235 -0.05676651 0.2230809 13552582
0.78016669 -0.053321093 0.22628446 13618375
0.77900016 -0.043515336 0.22507201 13815498
0.78000003 -0.047375351 0.22486639 13749705
0.77822214 -0.03527566 0.22496141 14078926
0.77876002 -0.025926692 0.22464357 14276562
0.78000003 -0.021659272 0.22638804 14407891
0.77900004 -0.019807851 0.22062686 14145489
0.78148276 -0.015136715 0.22511551 14079440
0.78311563 -0.0051043844 0.22524667 13619146
0.78325838 0.00468896 0.2253222 13224131
0.78296018 0.014917659 0.22541545 13355459
0.78415644 0.025266171 0.22541603 12961215
0.7834447 0.034895375 0.22514518 13092801
0.78143322 0.045069098 0.22497405 13355716
0.77891678 0.055487555 0.22546583 13355716
0.78000003 0.053206485 0.22136657 13355460
0.77857131 0.064826302 0.22493199 13355716
0.77900004 0.072185308 0.22467941 13355973
0.78031248 0.076747276 0.22442479 13355716
0.7790001 0.08793965 0.22321035 13684425
0.78061116 0.083298653 0.22544938 13618632
0.7784 0.095009208 0.2250133 14079441
0.78400016 0.10494559 0.22496437 13224389
0.78861547 0.11258812 0.22477004 11184804
0.79021424 0.11732877 0.22525737 11184804
0.79137933 0.12425637 0.22490123 11184804
0.78781253 -0.17310935 0.23511003 12433847
0.79190004 -0.17864153 0.23540394 9933969
0.77900004 -0.16022913 0.2352161 15065308
0.78230435 -0.16513361 0.23470068 14736600
0.77839994 -0.15463993 0.23503496 14999771
0.78000003 -0.15860882 0.23004003 15000282
0.77856654 -0.1446459 0.23508468 14933979
0.77900004 -0.1383453 0.23339242 14802649
0.78100008 -0.13435681 0.23559271 14802649
0.78182834 -0.12509429 0.23502462 14605270
0.77900004 -0.11244942 0.23813391 14539477
0.78116 -0.11539549 0.23418374 14539477
0.77900016 -0.10360469 0.23621909 14539477
0.78041673 -0.10753918 0.23290247 14605270
0.77830768 -0.094703898 0.23486927 14473684
0.77856266 -0.086322159 0.23383214 14276305
0.7805385 -0.082816392 0.23750876 14210512
0.77900004 -0.078164749 0.23156877 14013133
0.78108698 -0.074478902 0.23576938 13947340
0.78087509 -0.064414531 0.23544237 13749961
0.7790001 -0.05226887 0.23649263 13749961
0.78004992 -0.055626135 0.23352416 13684168
0.77839994 -0.045305386 0.23503324 13552582
0.78000003 -0.048136182 0.23004003 13486789
0.77735502 -0.0353208 0.23489468 13552582
0.77900004 -0.028115604 0.23501346 14013133
0.78100002 -0.023616038 0.23531339 14144976
0.78296685 -0.015323984 0.23458359 14211026
0.78432006 -0.0052537038 0.23498839 13947597
0.78426683 0.0048434483 0.23497221 13487045
0.78428 0.014942435 0.23497546 13355715
0.78483325 0.025056917 0.23514004 13158594
0.78266674 0.035267871 0.23489763 13289923
0.78162849 0.044953715 0.23496503 13355716
0.78163624 0.054898832 0.23468408 13421509
0.78148001 0.06538111 0.23486976 13355973
0.78175843 0.075414762 0.23497747 13487559
0.77900004 0.089611337 0.23521607 13816524
0.78135478 0.0845697 0.23486423 13684938
0.77872002 0.095048577 0.23513122 14145489
0.78485191 0.10499199 0.23514417 13224133
0.78890002 0.11198882 0.23451214 11053219
0.7907334 0.11687768 0.23505665 11053218
0.78839999 -0.17323764 0.24494536 11841709
0.79175001 -0.17829902 0.24539755 9933969
0.77900004 -0.16022913 0.24068701 15065308
0.78280008 -0.16490208 0.24508414 14670807
0.77873075 -0.15435463 0.24474168 15000028
0.78000003 -0.15860882 0.24282199 14934235
0.77869689 -0.14508519 0.24490336 14934235
0.78000003 -0.14034888 0.24738696 14802649
0.78185189 -0.13478082 0.24543308 14802649
0.78310353 -0.12504132 0.24524429 14671063
0.7786364 -0.11259635 0.2430606 14539477
0.78150004 -0.1165752 0.24603447 14671063
0.77845448 -0.10445116 0.24477193 14473684
0.77858055 -0.094702795 0.24514216 14473684
0.77900004 -0.088802725 0.24646193 14407891
0.78169227 -0.084133558 0.24510837 14407891
0.78323102 -0.074851103 0.2454502 14276305
0.78266686 -0.064792216 0.2454849 14210512
0.77866673 -0.052611858 0.24514119 14144719
0.78070009 -0.057318367 0.24486825 14144719
0.77703357 -0.045224681 0.24462679 14078926
0.77728587 -0.035152104 0.24483746 13947340
0.77875012 -0.028005006 0.24516773 13881804
0.78139997 -0.023526169 0.24508712 13947597
0.78457147 -0.015485398 0.24503174 14079183
0.78600001 -0.0052655195 0.24468987 14079440
0.78551608 0.0049985545 0.24471775 13487559
0.78543997 0.014965096 0.24451645 13553095
0.78566647 0.025083484 0.24458691 13289410
0.78377789 0.035046265 0.24508798 13486789
0.78267747 0.045292221 0.24531154 13486789
0.78396684 0.05531352 0.24497546 13487302
0.78355587 0.065369934 0.24484664 13553095
0.78184611 0.075154133 0.24501505 13618375
0.7790001 0.088243596 0.24448633 13947340
0.78049999 0.083083101 0.24470298 13816011
0.77888894 0.094663732 0.24490792 14145232
0.78000003 0.098856337 0.24738696 14144977
0.78488886 0.10492724 0.24509065 13487049
0.78900003 0.1120029 0.24470027 11184804
0.79064709 0.1167559 0.24493873 11119011
0.78833336 -0.17322268 0.25464374 11315624
0.7917273 -0.17868671 0.25523245 9933970
0.78384626 -0.16504271 0.25481898 14539478
0.78126097 -0.15544631 0.2545093 15000028
0.77900004 -0.14746356 0.25162897 15065821
0.78121442 -0.14468279 0.25620022 14934235
0.78236365 -0.13472189 0.25510162 14736856
0.78511536 -0.12493785 0.25558299 14671063
0.78424001 -0.11541107 0.25515977 14671063
0.77900004 -0.10141633 0.25208485 14473684
0.78165221 -0.10564195 0.25543106 14671063
0.77840918 -0.094092801 0.25466892 14407891
0.78033334 -0.097784393 0.25875807 14671063
0.7783913 -0.085630253 0.25539237 14407891
0.7806251 -0.082210377 0.25146794 14342098
0.77900004 -0.078772634 0.25770777 14276305
0.78174073 -0.074439906 0.25481597 14276305
0.78275019 -0.065026402 0.25501573 14342098
0.77900004 -0.05153941 0.25308788 14210512
0.78149998 -0.055365235 0.25573018 14342098
0.7781201 -0.045288615 0.25499019 14144719
0.77825928 -0.035711922 0.254697 13947340
0.78000003 -0.031397905 0.25864729 14013133
0.77900004 -0.028470203 0.25299668 13947340
0.78112501 -0.024583913 0.2556676 13947340
0.78338253 -0.015438505 0.25519964 14013133
0.78576654 -0.0052631763 0.25473359 14144718
0.78585696 0.0047216848 0.2548953 13487302
0.78593326 0.014973963 0.25478852 13421509
0.78594422 0.025093043 0.25479177 13355460
0.78538454 0.035045348 0.255317 13487046
0.78426683 0.045234282 0.25516784 13618888
0.78384024 0.055302367 0.25502717 13684168
0.78330022 0.065349326 0.25485152 13684424
0.78239989 0.075348794 0.25456023 13749961
0.78156239 0.08555942 0.25463206 13815754
0.78130764 0.095504597 0.25582394 13947599
0.78507686 0.10509113 0.25486311 13289927
0.78900003 0.11200291 0.25485909 11184806
0.79106253 0.11704275 0.25517768 11119011
0.78856254 -0.17304209 0.26441002 11183782
0.79091668 -0.17795692 0.26550692 9802642
0.78592306 -0.16519499 0.26511693 14473684
0.78303349 -0.15556149 0.26484576 14934235
0.78199977 -0.14528544 0.26541269 14868442
0.78173065 -0.13502979 0.2651096 14736856
0.77899998 -0.12323504 0.26882342 14539477
0.78168762 -0.12532625 0.26381612 14605270
0.77883339 -0.11734759 0.26919988 14539477
0.78253585 -0.11496121 0.26434669 14671063
0.78288603 -0.10526016 0.26492751 14736856
0.77900004 -0.091538198 0.26135507 14605270
0.78149992 -0.095298812 0.26565993 14605270
0.77872747 -0.084601142 0.2619822 14407891
0.78068751 -0.085530356 0.26691028 14407891
0.77900004 -0.078772634 0.26196298 14276305
0.78099996 -0.074291945 0.26549017 14276305
0.78285313 -0.064588487 0.26505539 14276305
0.7829631 -0.054939874 0.26533246 14276305
0.7790001 -0.043059424 0.26424256 14079439
0.78086674 -0.046911392 0.2658816 14144976
0.77899998 -0.036781851 0.26558688 14079696
0.78011119 -0.031605177 0.26436561 13816524
0.78099996 -0.025342025 0.26507181 13750474
0.78236353 -0.015063151 0.26503566 13684938
0.78523999 -0.0052584624 0.26467389 13618632
0.78596658 0.0048543001 0.26491895 13553096
0.78587997 0.014972917 0.26488954 13487560
0.78586662 0.025090415 0.26488516 13421767
0.78592002 0.035211682 0.26490372 13553352
0.7858665 0.04532735 0.26488611 13619145
0.78417867 0.055522356 0.2649065 13684938
0.78373355 0.064470336 0.26508355 13619145
0.78486663 0.074667856 0.26454875 13618889
0.78392601 0.084738575 0.26497987 13750475
0.78276694 0.094625227 0.26567379 13881806
0.78581494 0.10511795 0.26486719 13289668
0.78878564 0.11236853 0.26547292 11184804
0.7907334 0.11700129 0.26479694 11053219
0.78900003 -0.17204903 0.27438518 12236467
0.79133332 -0.17647679 0.27512455 9670798
0.78532153 -0.16521248 0.27480999 14407891
0.7790001 -0.15308651 0.27655223 14802649
0.78105557 -0.15628514 0.27372509 14868441
0.77900004 -0.14837539 0.27624825 14868442
0.78043354 -0.144263 0.27456242 14802649
0.78137028 -0.13531065 0.27475068 14736856
0.77899998 -0.12219294 0.27325225 14539477
0.78057903 -0.12621932 0.27531874 14605270
0.77885723 -0.11774205 0.27320245 14473684
0.78072226 -0.11397656 0.27533671 14539477
0.78233337 -0.10505407 0.27468267 14736856
0.78219986 -0.094966888 0.27463576 14736856
0.78250003 -0.084926829 0.27474275 14473684
0.78256017 -0.074858166 0.27476415 14276305
0.78280026 -0.064801298 0.2748473 14342098
0.78214276 -0.05448183 0.27520326 14276305
0.77899998 -0.042473253 0.27403384 14276305
0.78071433 -0.046658773 0.27559322 14210512
0.77900016 -0.03670704 0.27448544 14210769
0.78012502 -0.03376215 0.27619115 14144975
0.78111547 -0.025486208 0.27446765 13750731
0.78253353 -0.015316398 0.2747542 13750731
0.78506655 -0.0052584098 0.2747235 13816267
0.78599977 0.004854701 0.27505046 13619145
0.78596658 0.014974209 0.27503878 13750731
0.785972 0.025094159 0.27504089 13553352
0.78543323 0.035189427 0.27485123 13750731
0.7849443 0.045272548 0.27467883 13816267
0.78285205 0.055028897 0.27445549 13882317
0.78296691 0.065324478 0.27490464 13882061
0.78409696 0.075334728 0.27423304 13947853
0.78340757 0.084411539 0.27465087 13947855
0.78313363 0.094670899 0.27496439 14013649
0.78646153 0.105132 0.274858 13289925
0.78880006 0.11197474 0.27510774 11184547
0.7906875 0.11698673 0.275419 11053218
0.78839999 -0.17286822 0.28567117 10986659
0.79130775 -0.1777239 0.28467205 9670799
0.78350002 -0.16482943 0.28481063 14276562
0.77900016 -0.15390715 0.28336054 14802649
0.78030008 -0.15629603 0.28657302 14736856
0.77900004 -0.14928721 0.28171921 14934235
0.78078586 -0.14473243 0.28530475 14868186
0.78185701 -0.13499472 0.28491053 14671063
0.78228575 -0.12532383 0.28487086 14473684
0.78239298 -0.11494046 0.28510681 14473684
0.78194422 -0.10500401 0.28461438 14671063
0.78093344 -0.094811887 0.28424338 14736856
0.78233349 -0.084908009 0.28475472 14605270
0.78293359 -0.07489346 0.28497419 14276305
0.78277808 -0.064801253 0.28491798 14276305
0.78185171 -0.054860383 0.28509009 14276562
0.78185713 -0.044916604 0.28569636 14276818
0.78159255 -0.034917761 0.28519982 14079439
0.7826553 -0.025270205 0.28503221 13947597
0.78424257 -0.015599699 0.28503519 13881804
0.78499991 -0.0052588205 0.28480789 13816267
0.7852999 0.0048511969 0.28491583 13882317
0.78579992 0.014971392 0.28509736 14079696
0.78599989 0.025095139 0.28517076 14013903
0.78571999 0.035201877 0.2850695 14079439
0.78400022 0.045467593 0.28494608 14276305
0.7826336 0.055217728 0.28486675 14342098
0.78294492 0.065321416 0.28497881 14342098
0.78300029 0.075407341 0.28499883 14407891
0.78260016 0.0845282 0.28485313 14407891
0.78365737 0.094604887 0.28510648 14407892
0.78760725 0.10555244 0.28516117 13750216
0.78900003 0.11107937 0.28164151 11249827
0.79147828 0.1154597 0.28554812 11053218
0.7883572 -0.17309634 0.29499072 10592415
0.79049999 -0.17801674 0.29513076 9605008
0.78433329 -0.16492604 0.29504853 14342356
0.78233331 -0.15501329 0.2950348 14802393
0.78246421 -0.14504389 0.29468384 14802649
0.78311121 -0.13500041 0.2953282 14605270
0.7840358 -0.1251436 0.29527611 14407891
0.78428 -0.11541574 0.29556456 14341842
0.78154558 -0.10470448 0.29503021 14539477
0.77900016 -0.094664477 0.29583082 14605270
0.78000009 -0.094496146 0.29171804 14671063
0.77900016 -0.086110666 0.29722026 14473684
0.78070003 -0.084091067 0.29284197 14605270
0.7790001 -0.075843737 0.29821497 14407891
0.7811904 -0.074552856 0.29369977 14342098
0.77900004 -0.068134651 0.29904392 14342098
0.78167647 -0.064492956 0.29522511 14276305
0.78320009 -0.054748345 0.29515731 14210769
0.78433335 -0.04473203 0.29558441 14145490
0.78312021 -0.03457946 0.29512569 14145233
0.78320014 -0.025414169 0.29515576 13947598
0.78463638 -0.015109019 0.29519546 13882061
0.78416687 -0.0052537066 0.29459971 13684425
0.78372252 0.0048408266 0.29443207 13750475
0.78390014 0.01493538 0.29449809 13947597
0.78430539 0.025041202 0.29464948 13816267
0.78463328 0.035153739 0.29477361 13948111
0.78378803 0.044955481 0.29487449 14079183
0.78226912 0.055121817 0.29501492 14078926
0.78250009 0.065284535 0.29489061 14342098
0.78196549 0.07543283 0.29544553 14473684
0.77900004 0.085964024 0.29904392 14933722
0.78130311 0.085220821 0.29493728 14605270
0.78307426 0.095582247 0.29510605 14605270
0.7874074 0.10512432 0.29530627 13947340
0.78887504 -0.17218676 0.30398947 11381930
0.79144454 -0.17730488 0.30567375 9473934
0.78666663 -0.16569741 0.30526116 14408149
0.78360635 -0.1545087 0.30498129 14934235
0.78325951 -0.1446026 0.30475432 14802649
0.78382164 -0.13494116 0.30476192 14539477
0.78448278 -0.12481608 0.30501103 14276305
0.78380013 -0.11534597 0.30547044 14276305
0.77899998 -0.10083016 0.30633855 14605270
0.78144848 -0.10585456 0.30502823 14407891
0.77896297 -0.094708383 0.3050409 14605270
0.78000003 -0.09469904 0.30855778 14473684
0.77899998 -0.085256718 0.30492014 14539477
0.77880538 -0.075411066 0.30534971 14407891
0.77859259 -0.065701813 0.30570447 14276305
0.78033334 -0.061248511 0.30259988 14342098
0.77900004 -0.05992822 0.30816218 14210512
0.7822668 -0.054683205 0.30487341 14210512
0.78322244 -0.044668749 0.30524603 14276562
0.78256685 -0.034553863 0.30499214 14210768
0.78317273 -0.025476776 0.30507088 13947597
0.78373545 -0.015127103 0.3051765 13750732
0.78233349 -0.005241971 0.3049002 13553611
0.77899998 0.0065048574 0.30946478 13618889
0.78123522 0.0046099671 0.30420253 13619404
0.77900004 0.011194251 0.30998585 14145489
0.78123343 0.014884496 0.30447063 13750476
0.78199977 0.024967432 0.30477226 13619146
0.78213316 0.035042048 0.30482465 13684939
0.78202748 0.045106243 0.30478272 13750732
0.78113788 0.055175252 0.30459443 13816524
0.7808612 0.065147452 0.30432722 14145232
0.77900016 0.075369462 0.30677274 14408148
0.7804001 0.074059702 0.30250344 14473684
0.77888876 0.085040241 0.30538318 14670551
0.77900004 0.092245497 0.30674377 14604758
0.78136367 0.096453421 0.30402392 14802392
0.78627586 0.1052433 0.30513471 14013133
0.78900003 0.11107937 0.30565333 11117984
0.78900003 -0.17152131 0.31488866 10920866
0.79133344 -0.17604496 0.3148931 9539214
0.78676003 -0.16551255 0.3149167 14210514
0.78450012 -0.15493383 0.31493083 14802650
0.78425014 -0.1447856 0.3151584 14802649
0.78371 -0.13533551 0.31446368 14539477
0.78266668 -0.12533927 0.31460816 14144719
0.77900004 -0.11190233 0.31454498 14276305
0.78115392 -0.11495663 0.3150616 14210512
0.77900004 -0.10391472 0.31567562 14407891
0.78025007 -0.10797223 0.31322226 14342098
0.77900016 -0.095261492 0.31568477 14342098
0.78020012 -0.093261577 0.31502998 14276305
0.7806564 -0.08512719 0.31572911 14210512
0.7789287 -0.074641213 0.3132138 14078926
0.78058338 -0.07497362 0.31838283 13947340
0.77875 -0.066137455 0.31322917 14078926
0.78107703 -0.064025037 0.31742349 13947340
0.77900004 -0.05992822 0.31180951 14210512
0.78183997 -0.054654665 0.31477857 14013133
0.78243327 -0.044622861 0.31501675 14210512
0.78332007 -0.034586325 0.31537428 14276305
0.78376949 -0.025363972 0.31534168 13881547
0.77900004 -0.010689585 0.31910411 13749963
0.78217161 -0.015444371 0.31506395 13749962
0.77885729 -0.0037854675 0.31657082 13684170
0.78068745 -0.0064870575 0.3133972 13749961
0.77880001 0.0048109326 0.31537512 13684682
0.78000003 0.00025265676 0.31038377 13618375
0.77900004 0.011194251 0.31545681 13816524
0.78095454 0.015628135 0.31491956 13553097
0.78246677 0.024983501 0.3150298 13487305
0.78288019 0.035075117 0.3151949 13816526
0.78256685 0.045137666 0.31506899 13882318
0.78271997 0.055224109 0.31513202 13882318
0.78186667 0.065229625 0.31478924 14079697
0.77900004 0.077757582 0.31180951 14342098
0.78084213 0.075102665 0.31581923 14276561
0.7790001 0.083958007 0.31272134 14342099
0.78029996 0.085741937 0.31735405 14342098
0.77900004 0.091434985 0.31180951 14407893
0.7810418 0.09548521 0.31529394 14407893
0.78557706 0.10501602 0.31500581 14012877
0.78900003 0.11107936 0.31488866 10920863
0.78900003 -0.17152131 0.32504749 9802128
0.79159093 -0.17671987 0.32560804 9604748
0.78662068 -0.16535558 0.3248277 14144722
0.78512114 -0.15530637 0.32478526 14802649
0.78491998 -0.14490928 0.32520378 14736856
0.78412926 -0.13475628 0.3250539 14408146
0.78348023 -0.12446769 0.32460964 13947340
0.78260881 -0.11524969 0.32496554 14013133
0.77900016 -0.10229307 0.32317224 14408661
0.78076476 -0.10662063 0.32638654 14408148
0.77900016 -0.095489465 0.32457507 14474197
0.78000003 -0.091047041 0.32499173 14474454
0.78110009 -0.084773459 0.32544988 14277075
0.78220004 -0.074822418 0.32590881 14079696
0.78327286 -0.064755656 0.32557836 14079183
0.78468001 -0.054854136 0.32510602 14078926
0.78450012 -0.044741817 0.32503188 14078926
0.78479993 -0.03465233 0.32515511 14276305
0.78303462 -0.025285902 0.32518017 13815754
0.77900016 -0.013121124 0.32487899 13618376
0.78078574 -0.018548474 0.32414219 13684168
0.77895659 -0.0051392494 0.32424 13618634
0.78000003 -0.0061383219 0.32864371 13684681
0.77875745 0.0050589317 0.32497141 13882319
0.77900004 0.013017904 0.32822239 13882317
0.78091663 0.015336913 0.32445791 13948111
0.78180563 0.024961516 0.32482541 13882317
0.77900004 0.037941162 0.32761452 14079696
0.78133339 0.034666836 0.32418945 14013903
0.7790001 0.044202372 0.32749289 13948110
0.78115374 0.045338068 0.32307881 14013903
0.78163338 0.055148341 0.32475299 14013390
0.78194451 0.065237999 0.32488424 14078926
0.78203434 0.075188026 0.32508188 14013134
0.78156662 0.085331537 0.32564545 14276563
0.78164279 0.095602274 0.32508782 14342613
0.78526682 0.10504506 0.32516047 13947597
0.78887504 0.11175441 0.32568806 10855583
0.79157138 0.1167381 0.32469082 10790560
0.78858346 -0.17235424 0.33502886 9472904
0.79053336 -0.17740767 0.33493215 9605004
0.78578573 -0.16524222 0.3349565 14078671
0.78308344 -0.15465204 0.33452311 14671063
0.7833336 -0.14461651 0.33463109 14671063
0.78411448 -0.13458376 0.33509719 14342098
0.78513324 -0.12472983 0.33540165 13947340
0.78520685 -0.1156789 0.335592 13815755
0.78141952 -0.1047895 0.33490688 14013134
0.77899998 -0.095138736 0.33488575 14605270
0.78000003 -0.091047041 0.33320868 14934235
0.77900004 -0.085459359 0.33916429 14736856
0.78050005 -0.084708892 0.33433494 14934748
0.77900004 -0.074745394 0.33870837 14934235
0.78104341 -0.07487119 0.3342483 15000541
0.77900004 -0.068134651 0.33916429 15197407
0.78167659 -0.06449157 0.3351593 15000285
0.78349996 -0.054770749 0.33469978 14802649
0.78452778 -0.044741344 0.33514085 14473684
0.78479993 -0.034653328 0.33525819 14342099
0.78261554 -0.025539745 0.33502957 13947340
0.77900004 -0.011601412 0.33916429 13946827
0.78046888 -0.015278677 0.33466497 13749961
0.7789287 -0.0033948293 0.33574638 13750218
0.78050005 -0.0068280282 0.33422115 13816011
0.77729768 0.0047734873 0.33492777 13816525
0.77685732 0.014800729 0.33458868 14013903
0.77688098 0.024804467 0.33459774 13882318
0.77702856 0.034813877 0.33466214 13948111
0.77799988 0.044665679 0.33466181 13882317
0.77799994 0.054890744 0.33417282 14013646
0.77789998 0.064415149 0.33491936 14144976
0.78016669 0.067524977 0.33114901 14078926
0.7790001 0.073861599 0.33750641 14210771
0.78084213 0.075873233 0.33371109 14144721
0.7810294 0.085380465 0.335206 14408150
0.78093112 0.095193021 0.33527476 14605529
0.7846539 0.10496287 0.33519509 14079185
0.78868413 0.11307641 0.33512077 10856096
0.79000002 0.11779581 0.334501 10725024
0.79064304 0.12486307 0.335177 10725024
0.78900003 -0.17204903 0.34457359 9276037
0.79080003 -0.17682041 0.34541228 9473416
0.78628004 -0.1654125 0.34490967 13947340
0.77900004 -0.15111086 0.34828255 14539477
0.7815358 -0.15526442 0.3445141 14671063
0.77872729 -0.14608628 0.34816 14539477
0.78160721 -0.14475392 0.34376022 14605270
0.78363645 -0.1348286 0.34535 14342098
0.7850399 -0.12471563 0.34546971 14144719
0.78439993 -0.11543462 0.34518695 14013133
0.77900004 -0.10004858 0.34402737 13881547
0.78131258 -0.10549305 0.34485701 13881547
0.7786538 -0.094396405 0.34469259 13947340
0.77824134 -0.085251808 0.34505153 14144719
0.77766669 -0.07530003 0.34495327 14342099
0.77867848 -0.065631963 0.34540328 14934235
0.78020006 -0.060385734 0.34224313 15263200
0.77853334 -0.055275202 0.34843752 15000028
0.78104341 -0.054758284 0.34339064 15065821
0.7782858 -0.045557607 0.34809199 14802649
0.7817201 -0.04447091 0.34327427 14671063
0.7786001 -0.038389109 0.34883225 14539477
0.78189665 -0.034524083 0.34477648 14407891
0.77866673 -0.022230132 0.34874061 14078926
0.7814644 -0.025556263 0.34448105 14144463
0.77803701 -0.014387492 0.34616306 13881548
0.78045464 -0.018018417 0.34245443 14078413
0.77723366 -0.0052080392 0.34475997 13749962
0.77581257 0.0045627244 0.3446992 13816012
0.77443331 0.014753927 0.34533292 13816524
0.77416676 0.024717331 0.34521455 13750732
0.77446663 0.034699257 0.34534767 13882318
0.7755 0.044731446 0.3448993 13816525
0.77600008 0.054750714 0.34421426 13816524
0.77647251 0.064782172 0.34442461 13948110
0.7777335 0.074900746 0.34498215 14144977
0.77802932 0.085053168 0.34538069 14211027
0.78049999 0.083388805 0.34073037 14473686
0.77825016 0.094080292 0.34521127 14276821
0.78066665 0.098940827 0.34445727 14474199
0.78512007 0.10502612 0.34476843 14079184
0.78872734 0.11221638 0.34491065 10724255
0.79033339 0.11694138 0.34520951 10790303
0.78900003 -0.17152131 0.35460049 9079174
0.79145008 -0.17668888 0.35523751 9408137
0.78671426 -0.16543821 0.35488734 13750477
0.77872735 -0.15188691 0.35495532 14539478
0.7816667 -0.15691704 0.35476002 14539478
0.77700013 -0.14507177 0.35407829 14473684
0.77800012 -0.13743731 0.35502887 14342099
0.78152943 -0.13287409 0.35371459 14210512
0.78314292 -0.12519865 0.3548449 14013133
0.78211784 -0.11499042 0.35500294 14013133
0.7790001 -0.10154066 0.35541141 13947340
0.78044015 -0.10615414 0.35499087 14013133
0.77896547 -0.09469936 0.35480702 13881547
0.7783078 -0.08552514 0.35505119 13947340
0.7772668 -0.075262122 0.35478646 13947340
0.77667761 -0.065087356 0.35521796 14539477
0.77569455 -0.055135004 0.35497323 14868442
0.77526665 -0.045121472 0.35477695 14802649
0.7764501 -0.035009246 0.35468009 14342098
0.77702969 -0.025322761 0.35483336 14013133
0.77583355 -0.015187968 0.35503778 13815754
0.77506679 -0.0051928228 0.35468641 13684425
0.77441669 0.0047825389 0.35438997 13816012
0.77372009 0.014740778 0.35497731 13816269
0.77370018 0.024702549 0.35496804 13750475
0.77380008 0.034669142 0.35501426 13947853
0.77412128 0.044898011 0.3546674 13882317
0.77436668 0.054635648 0.35436726 13882060
0.7752499 0.064680278 0.35477173 13948110
0.77570015 0.074703977 0.35497755 14079440
0.77544445 0.084664062 0.35486054 14211026
0.7767334 0.09480913 0.35508659 14277078
0.78596294 0.10507082 0.35473287 13816526
0.78900003 0.11107936 0.35460049 10724255
0.79115003 0.11601432 0.3551037 10856097
0.78900003 -0.17152131 0.36475936 9079177
0.79142112 -0.17624359 0.36465845 9342603
0.78681487 -0.16559419 0.36500984 13684684
0.77900004 -0.15111086 0.36104813 14473684
0.78182608 -0.15548104 0.36522323 14473684
0.77845472 -0.14504163 0.36179009 14473684
0.7809999 -0.14509965 0.36746171 14473684
0.77850008 -0.1373439 0.3614243 14342098
0.78111106 -0.13394612 0.36558425 14276305
0.77900004 -0.12056469 0.36469543 14013133
0.78087509 -0.12548314 0.36454511 14013133
0.77900004 -0.11448586 0.36484745 14013133
0.78050005 -0.11851288 0.36082917 13881547
0.77899992 -0.10476492 0.36456966 14210512
0.7779063 -0.094787583 0.36531916 14210512
0.77666688 -0.085204154 0.36450988 13947340
0.77638924 -0.075177148 0.36437884 13947340
0.77543992 -0.065100953 0.36484298 14473684
0.77451509 -0.054804616 0.36490259 14736856
0.77400011 -0.045047984 0.36507252 14802649
0.77419448 -0.035090536 0.36516333 14342098
0.77446657 -0.025131546 0.36529103 13881804
0.77408332 -0.015153615 0.36510983 13815754
0.77306455 -0.005063097 0.36483294 13881291
0.77242851 0.0047705984 0.36523214 13881804
0.77228564 0.014713236 0.36516497 13882317
0.7723335 0.024450779 0.36477068 13684938
0.7729668 0.034631588 0.36458495 13750732
0.77325028 0.044601448 0.36471897 13948111
0.77403462 0.054486785 0.36493272 13882317
0.77486646 0.064647868 0.36457485 14013903
0.77523988 0.074660547 0.36475089 14079697
0.77550012 0.084670477 0.36487374 14079696
0.77623087 0.094886094 0.36500594 14211028
0.77900004 0.10055325 0.36743093 14342870
0.7854138 0.10525664 0.3647761 13947857
0.78900003 0.11107937 0.36752996 10658207
0.79140019 0.1154967 0.36471981 10658975
0.78900003 -0.17152131 0.37122408 8750212
0.79177785 -0.17511503 0.37520757 9144970
0.78780007 -0.16558281 0.37515929 13684683
0.79000002 -0.16988929 0.37909219 12763585
0.78414303 -0.15499555 0.37503785 14342611
0.78373927 -0.14453079 0.37577024 14408405
0.78364313 -0.13569821 0.37545341 14342611
0.78230006 -0.12519786 0.37539858 14144719
0.77900004 -0.1109905 0.37016639 14210512
0.78069246 -0.11481769 0.37518862 14210512
0.7788502 -0.10422324 0.3744702 14276306
0.78000009 -0.10821138 0.37557179 14210513
0.77622241 -0.095151611 0.37520468 14276305
0.7748999 -0.085010737 0.37456578 14144719
0.77425015 -0.074969627 0.37425181 13947340
0.77426678 -0.06500157 0.37425977 14407891
0.77397233 -0.055012472 0.37502345 14605526
0.77346677 -0.045017101 0.37568358 14671576
0.773278 -0.035049397 0.37559211 14276562
0.77310014 -0.025087666 0.37550589 13750731
0.77233362 -0.015119131 0.37513232 13750731
0.77127576 -0.0052924086 0.37477517 13684938
0.76900005 0.0081701623 0.37837631 14079698
0.77037054 0.0043901908 0.37474805 13816524
0.76900005 0.012850795 0.37891638 13948369
0.77027297 0.014921305 0.37454268 13750988
0.77133322 0.024874737 0.37505865 13685196
0.77263337 0.034617815 0.37528071 13816782
0.77331269 0.044379048 0.37504444 13948368
0.77446151 0.054782625 0.37505272 13948368
0.77548569 0.064569846 0.3747223 14013904
0.77636015 0.074768595 0.37436599 14079696
0.77656692 0.084786013 0.374466 14079696
0.77656019 0.094785765 0.37446153 14145489
0.77883339 0.10053175 0.37464514 14277075
0.7837826 0.10588336 0.37490726 14079697
0.78846163 0.11228212 0.37622327 10658462
0.79100001 0.11691713 0.37434137 10724510
0.78828567 -0.16504101 0.38538727 13619146
0.79000002 -0.16988929 0.3846404 12961218
0.78524989 -0.15496702 0.38479787 14013903
0.78388906 -0.14485644 0.38492683 14145232
0.78300017 -0.13518669 0.38530433 14474197
0.78224981 -0.12518917 0.38544375 14210512
0.7790001 -0.11231679 0.38558456 14210769
0.78058827 -0.11669974 0.38403437 14144976
0.77771431 -0.10515309 0.3847042 14211025
0.77556664 -0.095069937 0.38487592 14276561
0.77455992 -0.084973484 0.38437682 14210512
0.77410007 -0.074955173 0.38414812 14013133
0.77400011 -0.064979412 0.38409805 14211025
0.77345175 -0.055004813 0.38487774 14408405
0.77300012 -0.04498978 0.38541138 14671833
0.77260017 -0.035019044 0.38521099 14145489
0.7723999 -0.025065854 0.3851119 13816525
0.77143329 -0.015102046 0.38463077 13684939
0.77115989 -0.0051659178 0.38449466 13684939
0.76900005 0.0086502265 0.38221684 14013904
0.77050012 0.0043074833 0.38513258 13750731
0.76900005 0.012850795 0.38251689 14079698
0.7702859 0.01544818 0.38612008 13948112
0.77154839 0.024491085 0.38486287 13816783
0.77296013 0.034631319 0.38539162 14014162
0.77371895 0.044628564 0.38486379 13948112
0.77531987 0.054703783 0.38475448 13882577
0.77720016 0.06466195 0.38466871 13948370
0.78000003 0.069640435 0.3889015 13750990
0.77860016 0.074498527 0.38285771 14211540
0.78090012 0.07593666 0.3882544 14079955
0.77864301 0.085532658 0.382236 14211283
0.78112495 0.084826544 0.38786355 14211284
0.77864295 0.094778672 0.38262695 14211282
0.78090912 0.095649011 0.38819215 14145491
0.77900004 0.10055325 0.38110831 14211539
0.7833479 0.10486753 0.38498807 14145747
0.78821731 0.11418035 0.38545704 10527133
0.79000002 0.11815541 0.38232866 10592924
0.79046899 0.12528214 0.38452059 10527645
0.78831822 -0.1634896 0.39464334 13355974
0.79000002 -0.16919577 0.39527449 12039861
0.78595454 -0.15455279 0.39421341 13619146
0.78451997 -0.14483739 0.3948313 13750218
0.78395844 -0.13555467 0.39500794 14342099
0.78317374 -0.12513593 0.39495128 14079183
0.77900004 -0.1109905 0.3902266 14277075
0.78265005 -0.11508353 0.39508301 14013903
0.77866668 -0.10446255 0.39208511 14145489
0.78255558 -0.10599908 0.3964881 14013904
0.77763647 -0.094908781 0.39219287 14013904
0.78340006 -0.095110424 0.39793256 14013905
0.7766 -0.084466606 0.39120707 14013390
0.78260005 -0.085119218 0.39716098 13750733
0.77691668 -0.07522998 0.39191258 13750475
0.78220004 -0.074825421 0.39732301 13355975
0.77618182 -0.064831436 0.39179003 14013904
0.78133339 -0.064677387 0.39749375 13685197
0.77616668 -0.054866031 0.39375633 14079697
0.78066665 -0.05579422 0.39898038 13750733
0.7741819 -0.044812869 0.3945713 14540248
0.77333319 -0.035052598 0.39463359 14079696
0.77344 -0.02509848 0.39468762 13948111
0.77319986 -0.015135184 0.39456514 13553354
0.77339995 -0.005180737 0.39466792 13355976
0.77376193 0.0044784034 0.39433369 13290182
0.77350003 0.015492334 0.39441526 13224648
0.77378255 0.02490258 0.39407387 13158856
0.77444994 0.034698825 0.39429647 13093064
0.77577269 0.044498548 0.39414418 13422029
0.78000003 0.047728501 0.3989445 13093577
0.77755558 0.053850774 0.39233536 13553613
0.7816667 0.055556621 0.39725676 13093064
0.77900004 0.061344706 0.39113843 13750990
0.78265011 0.065663196 0.39499027 13553356
0.78480965 0.075319745 0.39602825 13816785
0.78510523 0.084605746 0.39590049 13882321
0.78508711 0.094706133 0.39591664 13816527
0.78619051 0.10560371 0.39444402 13750733
0.788625 0.11321967 0.39447159 10527132
0.79009998 0.11770807 0.39615726 10461594
0.79084396 0.12464638 0.39500284 10593181
0.78900003 -0.162286 0.4007771 12895425
0.79095006 -0.16453917 0.40565807 10461086
0.78861547 -0.1543967 0.40214443 12171446
0.79033333 -0.15562223 0.40746799 9803412
0.78868747 -0.14468119 0.40431175 10790050
0.79000002 -0.14558282 0.40841842 9934997
0.78846663 -0.13510445 0.40395248 11710896
0.79033333 -0.13418983 0.40854684 9671825
0.78850001 -0.12526529 0.40329251 12829632
0.79100001 -0.12566115 0.40796599 9671314
0.78825003 -0.11415285 0.4027032 13355973
0.79099995 -0.11578543 0.40652624 10658462
0.78810012 -0.10490841 0.40308824 13224390
0.79100001 -0.10459886 0.4080435 9474188
0.78783339 -0.09472692 0.40295199 13289929
0.7910834 -0.095117599 0.40831795 9539985
0.78810006 -0.084613182 0.40308842 13487306
0.79149997 -0.084977739 0.40853271 9737109
0.78746152 -0.074901864 0.40340123 12961220
0.79087502 -0.075654246 0.40867296 9671316
0.78722215 -0.065167099 0.40417761 12829634
0.79000002 -0.066322654 0.40868267 9737366
0.78543752 -0.054909628 0.40540618 11908532
0.77825004 -0.044384684 0.40169349 14277081
0.78299999 -0.045571636 0.40689713 10461089
0.77749997 -0.035242669 0.40221617 14211029
0.78209108 -0.035031341 0.4072561 9276557
0.77760005 -0.025231976 0.40226787 14013905
0.78288889 -0.025811821 0.40765297 10197655
0.77749997 -0.015218771 0.40221617 13158598
0.78299999 -0.016245866 0.40750706 9737362
0.77850002 -0.0061253468 0.40273347 12763585
0.78240001 -0.0045091333 0.40621749 9737107
0.77816671 0.0048096348 0.40073934 12895171
0.78416663 0.0048466935 0.40658483 10394780
0.77900004 0.014841558 0.4011685 12895171
0.78499997 0.014954934 0.40701699 10460317
0.77833337 0.024852706 0.40082517 12369597
0.78449994 0.025049396 0.40675783 9606033
0.78466672 0.035156559 0.40592903 10132635
0.7854445 0.045200795 0.4058198 10527650
0.78677779 0.055511206 0.40486991 11053738
0.78780001 0.064805366 0.40478092 11448238
0.78855544 0.075019874 0.40424421 12040376
0.79000002 0.075156763 0.40868261 9145226
0.78860003 0.085300103 0.40389785 12238012
0.79000002 0.085636728 0.4083744 9408396
0.78856242 0.095095195 0.40367097 12435647
0.79000002 0.09536811 0.40815422 9737874
0.7885384 0.10505111 0.40210518 12895682
0.79021424 0.1053048 0.40747246 10133144
0.78900003 0.11200289 0.4007771 10329752
0.79060894 0.11524944 0.4056187 10396315
0.79076684 0.12521142 0.40537593 10462108
0.79129034 0.13530445 0.40456751 10592924
0.78900003 -0.060697515 0.41924775 9671824
0.79100007 -0.064488791 0.41516602 9671569
0.78849989 -0.054892045 0.41505957 9671825
0.79000002 -0.058925044 0.41423085 9737363
0.78812498 -0.04533175 0.41570994 9606032
0.79000002 -0.040430997 0.41977909 9671824
0.78727281 -0.035097767 0.41397521 9671567
0.79000002 -0.034471802 0.41895711 9606031
0.788077 -0.024437426 0.41393328 9474188
0.79033333 -0.024719926 0.41810605 9408652
0.78760004 -0.014497275 0.41278988 9080201
0.79137504 -0.013870824 0.41796356 9212042
0.78750008 -0.0052741645 0.41199932 9079689
0.79100001 -0.0052990159 0.41753402 9146249
0.78850007 0.0048701423 0.41252199 9211020
0.79149991 0.0048884763 0.41779754 9211787
0.78837502 0.015712818 0.41222587 9211019
0.79150003 0.014617942 0.41733515 9080202
0.78850007 0.024483483 0.41206026 9145480
0.78900003 0.033502709 0.41185948 9211273
0.78900003 0.045508616 0.41185948 9211786
0.79146665 0.044722915 0.41648379 9343370
0.78900003 0.054641321 0.41062814 9212044
0.79052383 0.054893084 0.41582862 9343627
0.78900003 0.062132187 0.41001242 9014664
0.7908262 0.065295242 0.41498795 9278090
0.79108018 0.11507493 0.4147974 10396316
0.7901336 0.12511112 0.41430101 10396316
0.79040015 0.13533138 0.4144417 10462109
0.79104018 0.14469984 0.41477638 10462109
0.7912668 0.15493003 0.41489571 10461852
0.78900003 -0.061313201 0.42232618 9803410
0.79054564 -0.064939268 0.42511666 10000789
0.78899992 -0.055156328 0.42294183 9803667
0.79049999 -0.055261184 0.42837295 9804180
0.78900003 -0.047460228 0.42171049 9803410
0.79066664 -0.044268742 0.42548168 9803667
0.79060012 0.11500631 0.4247233 10396317
0.79106468 0.12469198 0.42440715 10396317
0.78900003 0.099381298 0.43894973 10264731
0.78886342 0.1059394 0.43621504 10330010
0.7903077 0.10286589 0.43232331 10330267
0.78894728 0.11398838 0.4366197 10461596
0.79009092 0.11627763 0.4326064 10396061
0.78900003 0.12031468 0.43956542 10527133
0.79103583 0.12472715 0.43487781 10461597
0.78900003 0.1498677 0.43956542 10527133
0.78891677 0.15616189 0.43797979 10592926
0.79089671 0.15431373 0.43321332 10527389
0.78900003 0.16361804 0.43853927 10527133
0.79115385 0.16545023 0.43363857 10396060
0.79093343 0.075241975 0.44434634 10066838
0.78900003 0.087067544 0.4451066 10395547
0.79000002 0.08507628 0.44356918 10263961
0.78889453 0.096192427 0.44465837 10264731
0.79000002 0.092931598 0.44156098 10330011
0.78824997 0.10543716 0.44376022 10395802
0.78840005 0.11468656 0.44384426 10461339
0.78892314 0.12286042 0.44477907 10461340
0.79012501 0.12707621 0.44285083 10461340
0.78900003 0.1490761 0.44457886 10592926
0.7906819 0.14412752 0.44395158 10461340
0.78820008 0.15525097 0.44373217 10461340
0.78874999 0.16459295 0.44404197 10527133
