# .PCD v0.7 - Point Cloud Data file format
VERSION 0.7
FIELDS x y z rgb
SIZE 4 4 4 4
TYPE F F F U
COUNT 1 1 1 1
WIDTH 972
HEIGHT 1
VIEWPOINT 0 0 0 1 0 0 0
POINTS 972
DATA ascii
0.78900003 -0.1512036 0.099705793 11842734
0.78800005 -0.1454778 0.099579424 11645611
0.78866673 -0.13544476 0.099663675 11973804
0.78900003 -0.12534474 0.099705793 11973804
0.78900003 -0.11518586 0.099705793 11777196
0.78900003 -0.10502703 0.099705793 11711405
0.78816676 -0.094768964 0.099600486 12040113
0.78800005 -0.084601976 0.099579424 11579819
0.78900003 -0.077321082 0.099705793 11514026
0.78900003 -0.052385725 0.099705793 11317672
0.78866673 -0.044978857 0.099663667 11514283
0.78900003 -0.036685694 0.099705793 11711659
0.78900003 -0.16043893 0.10894111 10789278
0.77725005 -0.15122731 0.10777229 13750479
0.78638893 -0.15479648 0.10509896 10921121
0.76680005 -0.14300084 0.10874686 14145239
0.77442122 -0.14430454 0.10501268 14342873
0.78350008 -0.14601886 0.10175881 12500666
0.76587498 -0.13511732 0.10753651 15460837
0.7754705 -0.13472722 0.10354456 14803419
0.7852 -0.13466601 0.10106375 14342869
0.76488245 -0.12509227 0.10739546 15329508
0.77445465 -0.12434962 0.10396349 14474455
0.78259993 -0.12524122 0.10164209 14277332
0.76370579 -0.11480539 0.10733672 15132386
0.77438462 -0.11465462 0.10399231 15066592
0.78322232 -0.11505287 0.10162076 14474968
0.76425016 -0.10497242 0.10719537 15395558
0.77420014 -0.10486867 0.10417757 14935263
0.78300005 -0.10472634 0.10177722 14408918
0.76335287 -0.095094822 0.10728745 15263971
0.77529413 -0.09476763 0.10352062 14935260
0.78500003 -0.095306084 0.101038 12105906
0.76388234 -0.084955558 0.10715109 15329765
0.77533346 -0.085056953 0.10341879 14803420
0.78433329 -0.08512482 0.1009522 13619402
0.76300001 -0.075108312 0.10724315 15132386
0.77478582 -0.075541839 0.10386592 14672349
0.78411114 -0.074597195 0.10173646 14146261
0.75900006 -0.066385373 0.10835253 15132641
0.76300007 -0.064726636 0.10690883 14935264
0.77440012 -0.065013453 0.10420401 14606299
0.78508335 -0.064990848 0.10196427 14146517
0.76246667 -0.055086419 0.10705747 15264229
0.77399993 -0.054663267 0.10393993 14607069
0.78422236 -0.055230703 0.1017505 14213080
0.75900006 -0.043286547 0.10835253 15066850
0.76285714 -0.045801558 0.10660311 15001057
0.77486676 -0.045099206 0.10335562 14541019
0.78516674 -0.044779826 0.10105946 12764351
0.75849992 -0.03526755 0.1091684 15066850
0.76341671 -0.034601107 0.10629907 15067107
0.77433336 -0.035642289 0.10364841 14409433
0.78425008 -0.033941217 0.1016271 12764093
0.75808334 -0.025487496 0.10910892 14869470
0.76470006 -0.024813367 0.10647688 14475483
0.7741251 -0.025347693 0.10439376 14673119
0.78581816 -0.024995679 0.10197651 11711149
0.75825 -0.014841665 0.1091327 14474712
0.76533341 -0.014981195 0.10656507 14277591
0.77333337 -0.015137794 0.10496754 14278361
0.7863636 -0.014974242 0.10221504 10856353
0.75855559 -0.0054759979 0.10907775 14343128
0.76570004 -0.0051283571 0.10661658 13949139
0.77350003 -0.0057873242 0.10468739 14278103
0.78450006 -0.0058684279 0.10250273 10724253
0.75837493 0.0040173242 0.10937236 14474460
0.76359999 0.0050696079 0.10757533 14212057
0.77266675 0.0038648131 0.10567793 13751759
0.75800002 0.011779726 0.10998426 14408667
0.76409096 0.015046355 0.10826249 14277081
0.77428579 0.014492557 0.10638972 13948882
0.76414293 0.024520531 0.10857235 14080472
0.77341676 0.024386225 0.10708655 13619918
0.75799996 0.03484812 0.10998426 13948886
0.76200002 0.035032015 0.10878079 13883093
0.77241665 0.035057429 0.10740068 13817298
0.75799996 0.045495067 0.10998426 14146008
0.76480007 0.045006357 0.10828109 13948886
0.77437508 0.04557265 0.10646731 13554384
0.75800002 0.055254772 0.10998426 14277081
0.76314294 0.055247072 0.10766322 14079959
0.773 0.054702044 0.10541243 13751764
0.78600007 0.054075483 0.10346414 11119786
0.76252943 0.065140568 0.10717193 13817300
0.77280009 0.066106677 0.10380564 13620175
0.78683347 0.064421006 0.10188577 10790817
0.76442856 0.074642822 0.10746152 14146265
0.77405894 0.07518521 0.10388848 13027267
0.7853334 0.075321466 0.10138563 10724510
0.76600003 0.081840791 0.10935182 14277852
0.77425003 0.084082253 0.10735378 14211800
0.78528565 0.08508148 0.10395759 12039859
0.78685719 0.09183149 0.10785163 11053223
0.78842866 -0.16111399 0.11545318 10394520
0.77480006 -0.15332216 0.11568309 13420743
0.78428572 -0.15790714 0.11431964 10328727
0.75900006 -0.14154539 0.11830278 14540249
0.76260871 -0.14452091 0.11460776 14868959
0.77166671 -0.1490867 0.11196727 15658477
0.75873321 -0.13474637 0.11719488 15592423
0.76060003 -0.13507836 0.11214115 15723753
0.75845468 -0.1246088 0.11650544 15328739
0.76035726 -0.12575299 0.11159711 15723497
0.75809097 -0.11519101 0.1158035 15000800
0.76040012 -0.11421402 0.11104417 15132386
0.75829172 -0.10537702 0.1162378 15461351
0.76050007 -0.10479397 0.11123659 15329765
0.75814295 -0.094454519 0.1155808 15395558
0.7601251 -0.095845543 0.11073738 15395557
0.7575174 -0.084753834 0.11449649 15395300
0.76000005 -0.088712506 0.11027446 15658728
0.75650012 -0.075022243 0.11507203 15198178
0.75648731 -0.064733811 0.11479752 15066848
0.75709099 -0.055179637 0.11468124 15198437
0.75749993 -0.04497432 0.1143413 15000802
0.75642312 -0.035036191 0.11526936 14540505
0.75558329 -0.025403703 0.11581983 14211540
0.75561118 -0.014791865 0.11582398 14079698
0.75487101 -0.0049431035 0.11550739 14145748
0.75467563 0.0045893206 0.11550973 14474458
0.75510001 0.015448391 0.11512192 14013908
0.75565737 0.025011072 0.11494017 14079958
0.75544429 0.034730501 0.1157967 14211287
0.75547224 0.045342732 0.11580142 14146008
0.75579429 0.05509438 0.11511939 14277337
0.75626808 0.064801782 0.11516602 14079960
0.76000005 0.067854784 0.11027446 14014679
0.75659376 0.074746802 0.11575216 14409182
0.76025003 0.07588689 0.11031073 14080472
0.75819999 0.083313815 0.11628329 14935269
0.76233333 0.085791163 0.11358266 14541024
0.77300006 0.088317931 0.11095354 14277851
0.76766664 0.091303326 0.11677822 12830148
0.7743333 0.092093639 0.11355668 13685714
0.78500003 -0.16220114 0.12584063 9999762
0.76766676 -0.15190893 0.12486801 15197666
0.77466673 -0.15616731 0.12464217 11579051
0.78200006 -0.15901552 0.12078931 9998479
0.75809526 -0.14401469 0.12546216 14539736
0.76142865 -0.14872204 0.12448805 15724010
0.75705546 -0.13533543 0.12490937 15197922
0.75609094 -0.12494472 0.12450864 14934494
0.75563651 -0.11521921 0.12491608 14803168
0.75555539 -0.1049973 0.12466082 15000803
0.75509369 -0.094879307 0.12436298 15000800
0.75411749 -0.085118391 0.12463177 14869214
0.75333333 -0.07470829 0.12517814 14935264
0.7533201 -0.065005966 0.12517628 14606043
0.75479996 -0.055286732 0.12466432 15000801
0.75600034 -0.044885263 0.1247374 15000801
0.75537938 -0.035246607 0.1247877 14145235
0.75356668 -0.025336986 0.12521799 13553610
0.75296676 -0.014741111 0.12511742 13882320
0.75057143 -0.0048422357 0.12528448 13356232
0.74900001 0.0050645266 0.12445918 13948369
0.75000006 0.0045774807 0.12561294 13948369
0.75013894 0.015170162 0.12552562 13750990
0.74900001 0.025667241 0.12708932 13619150
0.75045455 0.024519444 0.1249382 13553355
0.74900001 0.030050797 0.12971945 13224393
0.75090641 0.034413315 0.12510328 13750736
0.75216675 0.045144841 0.12498402 14014164
0.75153345 0.055485066 0.12558024 14079956
0.74900001 0.065995954 0.12971945 13290186
0.75148278 0.064668223 0.12486722 13948629
0.74900001 0.070379511 0.12971945 13224393
0.75270599 0.075240321 0.12506966 13883095
0.75575 0.084285013 0.12469238 14343132
0.76100004 0.089322239 0.12378091 14145493
0.76766664 0.091901861 0.12217037 11579821
0.78800005 0.09987025 0.12540552 11448232
0.78480005 -0.16234355 0.13500033 9867667
0.79119998 -0.16737022 0.13517681 9867663
0.76900005 -0.15277156 0.13498349 14737630
0.77516669 -0.15702277 0.13455598 10525853
0.75750005 -0.14383854 0.13500333 14474200
0.76187503 -0.14912772 0.13551553 15263974
0.75666678 -0.13526537 0.13547689 14737629
0.75622869 -0.12469114 0.13552596 14606043
0.75622594 -0.11499771 0.13525632 14540250
0.75586128 -0.10504076 0.13533403 14342615
0.75449985 -0.095136404 0.13508977 14342868
0.75377774 -0.085340321 0.13495943 14211540
0.75327784 -0.074702263 0.13487026 14211541
0.75326675 -0.065002128 0.13486791 14474713
0.75369442 -0.055333253 0.13494328 14277079
0.75586134 -0.044875093 0.13533133 14145238
0.75633335 -0.035167437 0.13541819 13289931
0.75491661 -0.025383895 0.13516523 12698044
0.75286126 -0.014738843 0.13479501 13093061
0.75133348 -0.0052301018 0.13501093 12961732
0.7512334 0.004641254 0.1353849 13093064
0.75156671 0.015198885 0.13544415 12829889
0.75060004 0.024842177 0.13526928 13093060
0.75109088 0.034772456 0.13487858 13093063
0.75197244 0.045131955 0.13463666 13224649
0.74900001 0.059858978 0.13585642 13553358
0.75054848 0.055050049 0.13469186 13619151
0.74899995 0.065119244 0.13497971 13619151
0.74899995 0.072007693 0.13523018 13553359
0.750579 0.07737229 0.13424568 13948374
0.75513041 0.084102623 0.13501008 14277340
0.76166672 0.089400493 0.13459054 14145495
0.77000004 0.092181198 0.13696161 11448752
0.78666669 0.099396937 0.13409701 11514026
0.78650004 -0.16246384 0.14403863 9736336
0.76540005 -0.15026453 0.14510386 14999777
0.77520001 -0.15618792 0.14460292 11512748
0.78000003 -0.15860882 0.1460443 9407372
0.7580626 -0.14361148 0.1451541 14276567
0.76083344 -0.1475869 0.14512827 14737117
0.75700003 -0.13532433 0.14528219 14737373
0.75709999 -0.12470744 0.14530174 14606042
0.75716001 -0.11496898 0.14531355 14606042
0.75693333 -0.10518889 0.14526962 14540249
0.75603473 -0.094597079 0.14521976 14145491
0.75596154 -0.08490479 0.14494906 14342614
0.75599998 -0.074972115 0.14509329 14013650
0.75544006 -0.06519004 0.1449855 14342871
0.75520003 -0.055444375 0.14493938 14474457
0.75660008 -0.044919319 0.14520639 14671837
0.75776011 -0.035232484 0.14542851 13618893
0.75700009 -0.025453238 0.14528359 12500668
0.75439996 -0.01476991 0.14478521 12369338
0.75308001 -0.0050457339 0.14453202 12303548
0.75276685 0.0046503339 0.14447111 12698563
0.75251454 0.015342449 0.14517719 12566463
0.75106663 0.024858234 0.14502238 12435390
0.75205576 0.034576062 0.14521377 12698307
0.75277793 0.045180466 0.14535314 12830149
0.75102782 0.055622976 0.14501579 13355722
0.74900001 0.066872664 0.14023997 13553101
0.7501483 0.065024413 0.14533356 13290186
0.74900001 0.070379511 0.14023997 13882323
0.7507143 0.075060643 0.14508153 13488080
0.75532013 0.084417649 0.14552103 14408669
0.76140004 0.089369193 0.14434135 13553101
0.76833338 0.091981672 0.14505692 11645104
0.77450001 0.094543576 0.14683816 11053221
0.7847001 0.098721609 0.14489956 11514026
0.78642857 -0.16202095 0.15592611 9736336
0.7665 -0.15048049 0.15517838 14803166
0.77423084 -0.15534894 0.155698 12105140
0.78000003 -0.15860882 0.15243527 9275786
0.75833333 -0.14355217 0.15530206 14144981
0.76120007 -0.14765802 0.15499908 14737374
0.75722218 -0.13536495 0.15507478 14605529
0.75752777 -0.12477681 0.15513681 14671580
0.75799996 -0.11509643 0.1552338 14539995
0.75763875 -0.10528696 0.15516138 14606042
0.75733328 -0.094606489 0.15509883 14342870
0.75739992 -0.084862448 0.15511249 14474457
0.75747228 -0.075118192 0.15512744 14342616
0.75700003 -0.064438283 0.15502898 14671582
0.7572 -0.054705363 0.15507056 15197926
0.75741667 -0.044970442 0.15511513 15263718
0.75713331 -0.035203848 0.15505551 14737630
0.75713897 -0.025455939 0.15505677 13948113
0.75644457 -0.014808307 0.15491699 13355976
0.7560001 -0.0050647804 0.15482746 13158598
0.75541669 0.004665317 0.1547085 12566463
0.75448394 0.015114008 0.15522927 12369084
0.75360006 0.024941845 0.15521771 12171705
0.75316674 0.034625243 0.15512726 12501440
0.75293356 0.045190658 0.1550778 12961221
0.75148404 0.055741183 0.15494964 12763841
0.75006455 0.06504181 0.15550613 13092807
0.75109094 0.074733987 0.15517735 13684944
0.75262958 0.085015438 0.15462166 14145496
0.75900006 0.090864323 0.15632701 11448237
0.76050007 0.091043897 0.1521845 11448235
0.78572732 -0.16261905 0.16500758 9605004
0.76620001 -0.1504216 0.16498563 14934496
0.77382362 -0.15554644 0.16481213 11973555
0.75846672 -0.14357741 0.16509554 14473945
0.76133341 -0.14768387 0.16482753 15131877
0.75786662 -0.13547978 0.16496482 14868958
0.7578333 -0.124828 0.16495751 14868959
0.75855988 -0.11518004 0.16511558 14737374
0.75890011 -0.10546214 0.16518991 14474459
0.75849992 -0.09475258 0.1651037 14276822
0.75848025 -0.084983565 0.1650994 14539993
0.75809997 -0.075180769 0.1650157 14145494
0.75703335 -0.064441316 0.16478324 14605787
0.75776011 -0.054745432 0.1649417 14868702
0.75766665 -0.044985771 0.16492091 15000546
0.75700003 -0.035197806 0.16477583 14737375
0.75700003 -0.025450977 0.16477583 14211031
0.75700003 -0.014818074 0.16477582 13882323
0.75700003 -0.0050712456 0.16477585 13619408
0.75696665 0.004675338 0.16476874 13355979
0.75669998 0.015301912 0.16471165 12434878
0.75628006 0.025030827 0.16462147 12237498
0.75566673 0.034739908 0.16448873 12434877
0.75442851 0.045405023 0.16497552 12763842
0.75251746 0.054731764 0.16483389 13092807
0.75086671 0.064401701 0.16520005 12960708
0.75139403 0.07524351 0.16483472 13619151
0.75442314 0.084547214 0.1646235 14145753
0.76050007 0.089263551 0.16820878 14737632
0.76249999 0.091283329 0.16508636 11776946
0.78690004 -0.16277735 0.17497054 9605005
0.76716667 -0.15061136 0.17507155 15328996
0.77442855 -0.15540828 0.17491332 12565434
0.78000003 -0.15860882 0.17891219 9275526
0.75899994 -0.14190076 0.17498371 14671067
0.76083344 -0.14669691 0.17540739 14539482
0.75880015 -0.13475831 0.17493865 15065824
0.758111 -0.12487508 0.17477912 14934240
0.75866675 -0.11519648 0.17490689 15000290
0.75900018 -0.10582568 0.17463377 14671325
0.76000005 -0.10175978 0.17906916 14408665
0.75899994 -0.094814695 0.1723185 14342617
0.76000017 -0.094939612 0.17788304 14474203
0.75900006 -0.084713072 0.17462181 14736862
0.76000005 -0.088119447 0.17847611 14276824
0.7588613 -0.075256318 0.17495242 14342615
0.75844455 -0.064561248 0.17485774 14408663
0.75876689 -0.054818865 0.17493115 14671837
0.75824988 -0.045020383 0.17481214 14540252
0.75716662 -0.035206258 0.17456147 14276824
0.75700003 -0.025450977 0.17452265 13947859
0.75716662 -0.014821339 0.17456204 13750480
0.75710005 -0.0050719157 0.17454626 13816530
0.75761104 0.0046798135 0.17466503 13816530
0.75752771 0.015318735 0.17464598 13158599
0.75726664 0.025064062 0.17458543 12435133
0.75733322 0.034817465 0.17460105 12434878
0.756742 0.045274302 0.17517889 12829633
0.75384003 0.054949656 0.17467791 13092804
0.75257152 0.064673461 0.17513892 12961219
0.7512778 0.074990235 0.17496175 13355979
0.75590914 0.084306769 0.17515469 14014679
0.76160002 0.089392662 0.17469312 14343646
0.76816672 0.091961719 0.17530251 13356750
0.77600002 0.09580797 0.17726572 11449006
0.78700012 -0.16187464 0.18512376 9670540
0.76660001 -0.15050012 0.18481028 15000030
0.77425003 -0.15487464 0.18559842 12960191
0.7815001 -0.15891385 0.18565893 9209733
0.75899994 -0.14190076 0.18475632 15000288
0.76070011 -0.14667098 0.18516943 14473688
0.75840008 -0.13468781 0.18549697 14737117
0.75772214 -0.12481109 0.18533105 15131619
0.7577666 -0.11506059 0.18534105 15592169
0.75850016 -0.10540549 0.18552035 15591912
0.75879335 -0.09445186 0.18654257 15131620
0.76000011 -0.096337542 0.18194975 15066340
0.75873345 -0.085012458 0.18557817 15132133
0.75866681 -0.07523647 0.18556172 14934754
0.7588532 -0.064804614 0.18534672 14934496
0.75892603 -0.054633442 0.18513261 14803167
0.7583611 -0.045026381 0.18548739 14868961
0.7579 -0.035239879 0.1853763 14408153
0.75779992 -0.02560452 0.18522561 13684686
0.7584334 -0.014845859 0.18461972 13553356
0.75814807 -0.0048822914 0.1849438 13816529
0.75788879 0.0046809441 0.18537249 13882322
0.75799984 0.015328707 0.18540019 13619150
0.75803566 0.024899641 0.18509214 12961220
0.75806046 0.035092596 0.18501191 12763841
0.75749993 0.045463298 0.18527783 12698046
0.75543326 0.055065256 0.18477336 13027013
0.75361282 0.064494468 0.1850387 12961220
0.75088239 0.075155728 0.18515919 13158600
0.7553913 0.084363982 0.18495151 13948887
0.76133341 0.08936137 0.18443042 14212059
0.76833338 0.091981672 0.18582654 13356750
0.77462506 0.09477859 0.18515886 11777458
0.78627276 -0.16256417 0.19557422 9539211
0.76700008 -0.15129878 0.19461025 15065824
0.77414292 -0.1557398 0.19530158 11907246
0.75899994 -0.14208779 0.1946692 14671582
0.76078576 -0.14732517 0.19498684 14342615
0.75816 -0.1346449 0.19520149 14737375
0.75684375 -0.12444556 0.19519334 15132133
0.75620025 -0.11482327 0.19558042 15197668
0.75667655 -0.10536009 0.1954428 15000033
0.7573334 -0.094606638 0.19498698 14605789
0.75707412 -0.084761195 0.19531414 14671582
0.75693548 -0.07497929 0.19505692 14737375
0.75743753 -0.064252913 0.19468075 14869218
0.75810713 -0.054961827 0.1946163 15066340
0.75799996 -0.045004006 0.19515984 15066340
0.75816017 -0.035251264 0.19520169 14671582
0.7587744 -0.025367144 0.19518793 13882066
0.75900024 -0.014857222 0.19452891 13553357
0.75871438 -0.0052741915 0.19477285 13421772
0.75773329 0.0046796449 0.19509183 13750994
0.75819999 0.015333767 0.19521171 13750994
0.75896305 0.025317885 0.19501312 13158599
0.75875771 0.034639731 0.19487073 13224392
0.75766659 0.045473654 0.19507447 12961218
0.75629646 0.055325657 0.19511545 13092549
0.75397217 0.064667016 0.19500649 13158599
0.75228131 0.074867785 0.19511995 13553358
0.75517249 0.085049041 0.19479609 14343131
0.76350003 0.091403037 0.19537693 13948373
0.77450001 0.09498895 0.19305688 11777202
0.78535712 -0.16311757 0.20548567 9408394
0.76833344 -0.15234064 0.20591052 14539480
0.7743637 -0.15647565 0.20530488 10723485
0.75899994 -0.14179623 0.20524214 14013652
0.76111782 -0.14733015 0.2046604 14144981
0.75803334 -0.13462348 0.20492744 14474202
0.75650012 -0.12481901 0.20477399 14671579
0.75600028 -0.11479276 0.20526379 14671836
0.75656259 -0.10491405 0.20508482 14408408
0.75661129 -0.094516009 0.20454314 14408665
0.75660723 -0.084837131 0.20485935 14276822
0.75648594 -0.07509736 0.20463634 14145494
0.75700003 -0.064438276 0.20464922 14145495
0.75796664 -0.054761145 0.20491058 14408667
0.75883347 -0.045053616 0.20514517 14606046
0.75900012 -0.035290796 0.20518994 14408667
0.75897247 -0.025517449 0.20518227 13816530
0.75883335 -0.014853439 0.20514402 13355979
0.75870007 -0.0050837263 0.20510831 13159113
0.75799984 0.0046817604 0.20491952 13422542
0.75836116 0.01533754 0.20501703 13553615
0.75900012 0.025121512 0.20518993 13092807
0.75900024 0.034894094 0.20518991 13355979
0.75827771 0.04550992 0.2049946 13224136
0.75696433 0.054987881 0.20495579 13026757
0.75520003 0.06477166 0.20504704 13026757
0.75359994 0.075221449 0.20461313 13290186
0.75645846 0.085031539 0.20472454 14211800
0.76100004 0.089322239 0.2075121 14409690
0.76475 0.09155269 0.20495787 14079955
0.77166677 0.0941872 0.20500399 12763839
0.78569233 -0.1631671 0.21431407 9408138
0.76666671 -0.15081327 0.21443892 14276053
0.77333337 -0.15529552 0.21479426 11973552
0.75870001 -0.14273308 0.21487682 14144723
0.76054555 -0.14672235 0.21491431 13354952
0.75728571 -0.13525002 0.21523605 14408407
0.75696969 -0.12482084 0.21487096 14671835
0.75684005 -0.11492012 0.21435148 14539995
0.75686669 -0.10517907 0.21435918 14342617
0.75703228 -0.094425909 0.21457684 14408665
0.75690001 -0.084806822 0.21525425 14342871
0.75694442 -0.075065702 0.21526666 14605787
0.75700003 -0.064438283 0.21528213 14342617
0.75781482 -0.054946799 0.21502069 14539996
0.75830007 -0.04502083 0.21476339 14803168
0.759 -0.0352908 0.21496247 14539996
0.75863349 -0.025507493 0.21485849 13882066
0.75799996 -0.01483765 0.21467927 13224393
0.75800002 -0.0050779446 0.21467924 13224393
0.75799996 0.0046817604 0.2146793 13355979
0.75819993 0.015333532 0.21473536 13158600
0.75844008 0.025103161 0.21480247 12895428
0.75873357 0.034881756 0.21488586 13355979
0.75733328 0.045453299 0.21537529 13027012
0.75616682 0.055120345 0.21504411 13027012
0.75516665 0.064769372 0.21475995 13092550
0.75399983 0.075262152 0.21442899 13158600
0.75704771 0.08413583 0.21491453 14145495
0.76171434 0.089151911 0.2149667 14737630
0.76860005 0.092013597 0.21408466 14408921
0.77442855 0.095303215 0.21440731 11842993
0.78425008 0.099394977 0.21568823 11316648
0.78654552 -0.16262008 0.22510806 9407880
0.7676 -0.15069644 0.22458741 14275537
0.77466661 -0.15547346 0.22447506 11972782
0.78000003 -0.15860882 0.22821404 9209733
0.75869232 -0.14252663 0.22498639 13749710
0.76118183 -0.1466836 0.22497684 13420489
0.7578333 -0.13547347 0.22498165 14407638
0.75796962 -0.12471653 0.22483343 15000800
0.75816661 -0.11512127 0.22448914 15066595
0.75841671 -0.10539471 0.22456405 14540253
0.75802845 -0.094820268 0.22457434 14013909
0.75740016 -0.084863111 0.22514915 14145238
0.75746673 -0.075117163 0.22516902 14408410
0.75723332 -0.064458586 0.22509903 14474203
0.7576071 -0.054544028 0.22463891 14474203
0.75799984 -0.045003999 0.22443901 14539996
0.75850016 -0.03526653 0.22458623 14408411
0.75888908 -0.025515003 0.22470267 13882322
0.75855577 -0.014848524 0.22460519 13224647
0.75846684 -0.0050809928 0.22457883 13027269
0.75880575 0.0046874178 0.22467835 13158856
0.75863904 0.015340555 0.22462882 13092806
0.75799996 0.025088418 0.22443894 12698303
0.75752777 0.034825202 0.22429827 13290183
0.75643355 0.045399591 0.22486076 13092803
0.75576019 0.055090636 0.22466087 13224646
0.75493747 0.064971052 0.22474819 13027013
0.75399983 0.075262159 0.22501969 13421773
0.75670379 0.084885925 0.22513545 14211546
0.76066667 0.089283109 0.22255667 14474205
0.76300007 0.091343187 0.22561161 14145240
0.77280003 0.094688393 0.22393639 12237494
0.78283334 0.099215426 0.22445737 11382439
0.78766674 -0.16283266 0.23475841 9407367
0.76900005 -0.15097131 0.23219661 14670552
0.77384609 -0.15429507 0.23546951 13091521
0.78116673 -0.15884607 0.23495924 9275526
0.759 -0.14083467 0.23468535 14276823
0.76187497 -0.14578618 0.23506059 13816015
0.75880009 -0.13475852 0.2353349 14079444
0.75844455 -0.12492922 0.23522544 14211287
0.75886691 -0.11522754 0.23535532 14540508
0.75900024 -0.10547569 0.23539609 14408924
0.75850004 -0.094753288 0.2352422 13947859
0.75819987 -0.084952317 0.23514895 13750737
0.75861108 -0.075230703 0.23527701 14145494
0.75830555 -0.064550109 0.23518194 14539995
0.75786668 -0.054753765 0.23504527 14671839
0.75802767 -0.045005485 0.23509468 14606046
0.75860012 -0.035271499 0.2352733 14540252
0.759 -0.025980197 0.23386805 14211284
0.76000005 -0.023238916 0.23801914 14079955
0.75900012 -0.014091348 0.23469149 13487563
0.76000005 -0.018435147 0.23748538 14211284
0.75900012 -0.0050846431 0.23539601 13355978
0.75900024 0.0046879356 0.23539607 13421769
0.75863904 0.015340358 0.2352834 13224647
0.75793332 0.025085974 0.23506485 13290182
0.75713891 0.034807846 0.2348184 13487304
0.75677782 0.045421194 0.23470752 13422025
0.75663346 0.055154987 0.23466367 13356232
0.7560885 0.064640947 0.23475397 13158596
0.75406653 0.07526841 0.23474893 13158600
0.75607139 0.085397355 0.23480274 14211546
0.76409107 0.09245339 0.2346085 12961223
0.77600002 0.098349378 0.23521268 11250602
0.78712505 0.10229467 0.23467435 11316645
0.78760004 -0.16199803 0.24518843 9407111
0.77425009 -0.15370554 0.24499762 13354948
0.78260005 -0.15913753 0.24546394 9143939
0.76283997 -0.14419764 0.24476445 13750478
0.77000004 -0.14936504 0.24872182 13750480
0.75900012 -0.13352427 0.24237646 14277334
0.76011121 -0.13548549 0.2466152 14408663
0.759 -0.12502085 0.24250336 14211541
0.76000017 -0.12518556 0.24727088 14343127
0.75900006 -0.11591459 0.24228126 14408667
0.76000017 -0.11412929 0.2467625 14474460
0.75900006 -0.10419243 0.24240467 14803679
0.76000017 -0.10524835 0.24674755 14935011
0.75899994 -0.094861455 0.24357887 14408666
0.76000017 -0.094858743 0.24824129 14474459
0.759 -0.084894039 0.24502061 14211284
0.76000005 -0.088712506 0.24905002 14277334
0.75900012 -0.075269535 0.24516855 14343127
0.75890005 -0.064600617 0.24513616 14671835
0.75775003 -0.054556359 0.24533401 14868960
0.75826675 -0.045018196 0.24493189 14540251
0.759 -0.037245315 0.24374719 14408666
0.76027787 -0.033371657 0.2466695 14211286
0.76051515 -0.025164414 0.2445268 14079702
0.75900006 -0.011599697 0.2433918 13553357
0.76011127 -0.015901001 0.24533017 14013908
0.75896001 -0.005084563 0.24515548 13684943
0.75863355 0.0046852413 0.24504919 13816528
0.75840002 0.015335392 0.24497457 13422025
0.75737929 0.025188956 0.24537803 13158853
0.75722224 0.034812883 0.24548006 13487561
0.75697225 0.04543303 0.24539931 13684686
0.75666672 0.055157259 0.24529916 13750479
0.75588906 0.064831451 0.24504717 13750478
0.7543053 0.075292811 0.24453503 13290186
0.75632143 0.085045286 0.24487345 14277081
0.76330006 0.092097081 0.24458763 13224138
0.78572732 0.10242803 0.2449346 11185063
0.78850007 -0.16310668 0.25469759 9341831
0.77564287 -0.15383522 0.25482243 13026753
0.78242862 -0.15858062 0.25587407 9539467
0.76371431 -0.14372465 0.25494793 13881810
0.77140009 -0.1496366 0.25459301 13619150
0.76016682 -0.13500133 0.25533259 14605529
0.76000017 -0.12518558 0.2552771 14539993
0.75900012 -0.1139791 0.25862184 14211031
0.76000017 -0.11512641 0.25397691 14342874
0.75899994 -0.10534878 0.25709879 14408410
0.76000017 -0.10472507 0.25216356 14540253
0.75899994 -0.094814695 0.25760648 14408666
0.76000017 -0.094939619 0.25260839 14540253
0.75899994 -0.084424093 0.25590691 14079702
0.76000011 -0.087187506 0.25210002 14342874
0.75883365 -0.075253271 0.25488436 14145494
0.75836122 -0.064555228 0.25472558 14211285
0.75718522 -0.054901823 0.25482365 14540249
0.75830573 -0.045020416 0.25470793 14277078
0.759 -0.036919564 0.25686613 14079701
0.76033342 -0.033656668 0.25390503 14277079
0.76048487 -0.025163502 0.25568104 13947859
0.759 -0.013450564 0.25590369 13750734
0.76008344 -0.017695943 0.25337717 14211286
0.75823337 -0.005080054 0.25468275 13553101
0.75799984 0.00468176 0.25460538 14013652
0.75802779 0.015328652 0.25461391 13158086
0.75662971 0.025041411 0.25502914 13224392
0.75511104 0.034715172 0.25539875 13487564
0.75508338 0.045318868 0.25538993 13421769
0.75459981 0.055006698 0.25522721 13553355
0.75430548 0.064696841 0.25512868 13684685
0.75449985 0.07531447 0.25519595 13487564
0.75703722 0.085512117 0.25477365 14408666
0.75900006 0.090864323 0.25938332 14868961
0.7639001 0.092348948 0.25533149 14211031
0.77433342 0.096931748 0.25736931 10986916
0.7883001 -0.16214296 0.26478201 9145223
0.77527279 -0.15302937 0.265439 13092804
0.78362501 -0.1582012 0.26458538 9342602
0.7626667 -0.14348491 0.26464927 14211284
0.77149993 -0.149656 0.26455638 13882319
0.75899994 -0.13426037 0.26489148 14474200
0.76000005 -0.13710603 0.26435089 14276564
0.759 -0.12484317 0.26542461 14868957
0.76000005 -0.12607516 0.2615042 14671065
0.759 -0.11524827 0.26471376 14868703
0.75881261 -0.10528379 0.26498058 14277334
0.75788897 -0.094677255 0.265212 14540507
0.75749999 -0.084874041 0.26507556 14474714
0.75730562 -0.075101592 0.26500785 14343128
0.75780541 -0.064505912 0.26518363 14211542
0.75810707 -0.054961156 0.26497313 14474714
0.75866681 -0.045043278 0.26459849 14343128
0.75896001 -0.035288755 0.26469958 13619150
0.75900012 -0.02551822 0.26496759 13290184
0.76000005 -0.025551841 0.2615042 13750480
0.75890005 -0.014855694 0.2646789 13816270
0.75884002 -0.0050834781 0.26465869 13355977
0.75896674 0.0046875346 0.26470238 13816530
0.75805879 0.015536527 0.26501194 13158086
0.75617254 0.02490361 0.26476538 13092550
0.75396651 0.034662567 0.26472342 13684687
0.75352937 0.045432761 0.26519132 13487563
0.75280017 0.054875012 0.26519272 13684685
0.752639 0.064554475 0.26513466 13882066
0.75305557 0.075169966 0.2652812 14013908
0.75531256 0.084955424 0.26469475 14408667
0.75666666 0.090584986 0.26478377 14474461
0.76183343 0.092986971 0.26480654 12500671
0.77300006 0.096159555 0.2605485 10855841
0.7881251 -0.16187631 0.2746416 9145223
0.79256254 -0.16673289 0.27491021 9145223
0.77462494 -0.15366603 0.27582633 12236210
0.78357154 -0.15855083 0.27485663 9078916
0.75900006 -0.14071621 0.2768555 14473429
0.76233339 -0.14498416 0.27464783 14407891
0.77000004 -0.14936504 0.27125412 14013133
0.75900012 -0.13479343 0.27448636 14079185
0.75900024 -0.12502085 0.27448633 14145234
0.75900012 -0.11524827 0.27448639 14342870
0.75852937 -0.10556845 0.27457657 14211286
0.7571944 -0.094590656 0.27560529 14211286
0.75616699 -0.08472503 0.27523118 14342872
0.75686115 -0.07505662 0.27548462 14474458
0.75757575 -0.064673789 0.27534148 14539996
0.75825936 -0.054584235 0.27471086 14474460
0.75900024 -0.045063384 0.27448633 14606300
0.75900012 -0.035481174 0.27416906 13816527
0.76000005 -0.032668535 0.27929598 13553354
0.75900012 -0.024997424 0.27359796 13355462
0.76000011 -0.027712267 0.27853346 12960961
0.75900024 -0.014857222 0.27448639 13487561
0.75886685 -0.0050841407 0.27443746 13355977
0.75824398 0.004790782 0.27496749 13816529
0.7572369 0.015125041 0.27529141 13224393
0.75563347 0.0250079 0.27503636 13290442
0.75338459 0.03483744 0.2746914 13816528
0.74900001 0.047292788 0.27817586 13421513
0.7515626 0.044446554 0.27421153 13487307
0.74869984 0.056066312 0.27645704 13553101
0.75018752 0.05479458 0.27206734 13947859
0.74799985 0.065099195 0.27643248 13750738
0.75011116 0.065020241 0.27117413 14079447
0.74799997 0.073788486 0.2765699 13685458
0.75050008 0.076294757 0.272165 14080216
0.75326669 0.084891684 0.27487919 14474717
0.75779998 0.090720668 0.27494174 13421516
0.76233339 0.093048006 0.27421191 11250603
0.78725004 -0.1628488 0.28469995 9144453
0.7917273 -0.16756624 0.28488824 9210246
0.76900005 -0.15097131 0.28620392 15131615
0.7748667 -0.15515143 0.28536507 10460313
0.78125006 -0.15886301 0.28253087 9210246
0.75899994 -0.14190078 0.2851474 15066080
0.76161546 -0.14664353 0.28496188 14934237
0.75845158 -0.13486829 0.28508303 14342614
0.75833321 -0.12491051 0.28489545 14211027
0.75853342 -0.11517773 0.28497064 14342870
0.75774992 -0.10530306 0.28467715 14408664
0.75690001 -0.094552927 0.28524444 14342873
0.7561202 -0.084719896 0.28495085 14211287
0.75683337 -0.075053699 0.28521928 14605787
0.75709087 -0.06425783 0.28483236 15000545
0.75753331 -0.054729205 0.28459531 15132131
0.75866675 -0.04504215 0.28502184 15197924
0.75900006 -0.038400259 0.28470317 14737373
0.76000017 -0.034205094 0.28568476 14013907
0.75899994 -0.022345304 0.28565502 12895681
0.76000017 -0.027573628 0.28519958 13158597
0.75866681 -0.014851676 0.28502098 13027010
0.75776666 -0.0050772396 0.28468335 13158598
0.75628144 0.0046681082 0.28500938 13224649
0.75463879 0.015260641 0.28527266 12895427
0.75403321 0.024955561 0.28504503 13092805
0.74885714 0.037808549 0.28747228 13816526
0.75151622 0.033666369 0.28451857 13750733
0.74805695 0.045021705 0.28466216 13356232
0.75000006 0.040625501 0.28088829 13224389
0.74724984 0.055345383 0.28423056 13158599
0.74653578 0.065091275 0.28539437 13355721
0.74627787 0.074493259 0.28531525 14079702
0.74900001 0.080900043 0.28752744 13290186
0.75377274 0.084472291 0.28470519 14145752
0.76050007 0.089263551 0.28749186 14079702
0.76166672 0.091183566 0.28347692 12105912
0.78672731 -0.16265768 0.29514578 9144453
0.76900005 -0.15097131 0.294305 15197670
0.7749334 -0.15528563 0.29493731 10262936
0.78050005 -0.15871049 0.29870674 9144455
0.7588889 -0.14168257 0.29448247 15066593
0.76228571 -0.14608793 0.29619512 14210773
0.75822228 -0.13504979 0.29442146 14935007
0.7579999 -0.12471301 0.29470307 14408663
0.75799996 -0.11509643 0.29541862 14408920
0.75793743 -0.10554998 0.29484043 14408664
0.75749993 -0.094406448 0.29467112 14540506
0.7568 -0.084796548 0.29495236 14671835
0.75616699 -0.07498882 0.29470491 14671579
0.75675011 -0.064415812 0.29493105 14934753
0.75779307 -0.054869849 0.29518592 15197926
0.75886363 -0.045943011 0.29397905 15197926
0.76000011 -0.042676389 0.29775488 15263976
0.76048154 -0.034963358 0.29569483 14737377
0.759 -0.022142239 0.29420921 12895171
0.76000017 -0.026935641 0.29540733 13421772
0.75830299 -0.014602885 0.29513356 12961221
0.75773329 -0.0050768601 0.29531571 13027014
0.75654304 0.0045445724 0.29497832 13026757
0.75446659 0.015255463 0.29492578 12895428
0.74900001 0.028297376 0.29892468 12632513
0.75196564 0.024764366 0.294673 12829378
0.74793923 0.0347283 0.29534325 13092806
0.75050002 0.030549921 0.29161599 13158600
0.74708325 0.044839557 0.29466137 12895426
0.74669433 0.055303451 0.29450771 13092548
0.74592614 0.064656988 0.29469007 13355722
0.74600017 0.074607484 0.29493976 14540254
0.74900001 0.080900043 0.29804799 15132392
0.75418758 0.083452113 0.29503354 14803427
0.76187503 0.088312082 0.2946977 12961222
0.76700002 0.090026483 0.29892623 11250604
0.7753334 0.094941027 0.29672337 10592925
0.7845 0.09897016 0.29839522 10921889
0.78811121 -0.16292408 0.30500138 8947332
0.77500004 -0.15396696 0.30518425 9670288
0.78299999 -0.15921886 0.30516377 8946821
0.75900006 -0.14012393 0.30025047 12895171
0.76352638 -0.14407125 0.304957 14606044
0.77050006 -0.14946203 0.30750591 14868448
0.75900006 -0.13439856 0.30104017 12631999
0.76045001 -0.13505118 0.30669984 14277079
0.75899994 -0.12462601 0.30242211 13026757
0.76005894 -0.12587588 0.30778667 14079955
0.75899994 -0.11524828 0.30469245 13421772
0.76000005 -0.11451053 0.30954191 14408920
0.75899994 -0.10602567 0.30329642 13882321
0.76000017 -0.10368722 0.30791101 13751248
0.75899994 -0.094037332 0.30269355 14014163
0.76022238 -0.09605518 0.30745783 13487564
0.75836372 -0.084729366 0.30484203 13421771
0.76000005 -0.086933337 0.30954191 14079955
0.75776672 -0.075147428 0.30508673 13750992
0.75763333 -0.064491846 0.30503288 13948371
0.75870842 -0.054887753 0.30494595 14277336
0.76000005 -0.052239444 0.30954191 15198693
0.75900006 -0.04906125 0.30158308 15197926
0.76043749 -0.044646796 0.30565965 14671838
0.76099986 -0.034416687 0.30536813 14539995
0.75900006 -0.021076137 0.30025047 13355979
0.76041377 -0.024799513 0.30541438 13421515
0.75895649 -0.014663493 0.3037096 12961477
0.76000011 -0.01612222 0.30865231 12303292
0.75872713 -0.0048407339 0.30498767 12632513
0.76000005 -0.0068705161 0.30954191 11382191
0.75836664 0.0046832049 0.30532789 12566718
0.75690007 0.015303538 0.3047381 12829634
0.75330436 0.024929738 0.30505434 12764099
0.74835718 0.035279419 0.30267319 13357003
0.75090909 0.033801731 0.30695891 12501439
0.74753851 0.04513593 0.30392972 12895938
0.75025004 0.043272685 0.30908352 11448236
0.74706447 0.055359658 0.30444437 12632254
0.74669242 0.065052859 0.30432555 13027014
0.74697214 0.074561745 0.30511099 14211286
0.74862504 0.081297904 0.30622226 14803424
0.75478572 0.084686019 0.3047668 14606048
0.76185715 0.088659681 0.30571255 12237500
0.76700002 0.090026483 0.30251735 11447983
0.77400005 0.093567669 0.30437094 10592926
0.78440011 0.098498888 0.30570412 10724510
0.78900003 0.10184405 0.30596116 10790303
0.78833342 -0.16122651 0.31554574 8881798
0.77620012 -0.15202361 0.31523103 10789798
0.78350008 -0.15748869 0.31452605 8815749
0.76700002 -0.14294899 0.31374139 13882322
0.77188891 -0.14692248 0.31598958 12632000
0.76371437 -0.13537647 0.31531596 13618893
0.76165217 -0.12526461 0.31455839 13422025
0.76104164 -0.11466724 0.31442216 13487561
0.76174992 -0.10496621 0.31471497 13619149
0.76192844 -0.09492562 0.3154262 13816786
0.76173073 -0.084799118 0.31566831 13948627
0.75900006 -0.070827454 0.31091145 15066850
0.76125938 -0.075328238 0.31533828 14014163
0.75900006 -0.064608537 0.31091145 14935264
0.76137513 -0.064810269 0.31634298 14079957
0.75900006 -0.057501212 0.31091145 15132643
0.76136857 -0.054912813 0.31507385 14672095
0.76262498 -0.045276895 0.31507775 14869474
0.76212001 -0.034653313 0.3146894 14803680
0.76095003 -0.024693783 0.31438392 14343130
0.76075006 -0.014891478 0.31430182 13619151
0.76075006 -0.0050969524 0.31430134 13027267
0.75900006 0.0082416013 0.31091145 11448235
0.76100004 0.0042713191 0.31542867 12500921
0.75846153 0.01622403 0.31192029 11645357
0.76045471 0.014325634 0.31587732 12764092
0.75718743 0.024838541 0.31349534 12040373
0.76300001 0.027933199 0.31969476 11777200
0.75617653 0.034503952 0.3134037 12237496
0.76280004 0.035960719 0.31961095 12698302
0.75464284 0.045795806 0.31392619 12106165
0.76050001 0.043863602 0.3186473 12895681
0.74900001 0.055300079 0.31032196 10724258
0.75509995 0.055041976 0.31550446 11579567
0.74900001 0.064242534 0.31032196 12434877
0.75492859 0.065254606 0.31581226 11513519
0.74800009 0.075362511 0.31235963 13422281
0.75475007 0.074454159 0.31756511 12632252
0.74849999 0.081722751 0.31099033 14737885
0.75600004 0.084904484 0.31440148 14014164
0.76099998 0.088728398 0.31469989 10724259
0.76800007 0.091941752 0.31639758 10000535
0.77528572 0.095149986 0.31550679 10527132
0.78437507 0.098725483 0.31395978 10592924
0.78900003 0.10184405 0.31488866 10592667
0.78900003 -0.16043893 0.32227689 8947591
0.77700001 -0.15072289 0.32192278 9803157
0.78549999 -0.15536603 0.32555711 8553089
0.76900005 -0.14016984 0.32040852 13750737
0.77468753 -0.14472276 0.32448104 13750733
0.78000003 -0.14765285 0.32864371 11579821
0.76749998 -0.1336108 0.32158026 13882576
0.77258348 -0.13524748 0.32642555 14408920
0.76636368 -0.12484939 0.32208416 13816783
0.77200007 -0.12494481 0.327903 14474969
0.76636368 -0.11505861 0.3219218 13751247
0.7728889 -0.11554733 0.32806087 14278104
0.76672727 -0.10516363 0.32223737 13685714
0.77287501 -0.10401186 0.32813045 14146518
0.76500005 -0.095946305 0.32181263 13685455
0.77181822 -0.095017932 0.32799074 14277332
0.76614285 -0.085582912 0.32254967 13685454
0.77212507 -0.086060591 0.3275862 14343125
0.76620001 -0.075087644 0.32282925 13619403
0.7724545 -0.074384212 0.32809645 14408918
0.76616669 -0.065218002 0.32281521 13750731
0.7725001 -0.064853474 0.32819808 14606297
0.76700002 -0.054513346 0.32244974 13290698
0.77237505 -0.055803444 0.32769212 14475483
0.76700008 -0.045922782 0.32162791 12633027
0.77166671 -0.044511605 0.3261379 14278104
0.76666665 -0.034750659 0.3212311 12435649
0.7715835 -0.034972243 0.32600248 14277334
0.76700002 -0.024889406 0.32137075 12040891
0.77269995 -0.025073672 0.32647392 13751507
0.76733333 -0.015020345 0.3215104 11645618
0.77349997 -0.015142228 0.32681176 13093576
0.76642853 -0.0043668887 0.32164502 11447979
0.77236366 -0.0051741684 0.32723624 12370108
0.76688892 0.004833424 0.32332084 11449004
0.77190006 0.0051287147 0.32812366 11646899
0.76566672 0.014584409 0.32141194 10856353
0.77225 0.014937401 0.32696205 11449519
0.76400012 0.023498466 0.32011378 12369337
0.77180004 0.026270885 0.3255516 10593185
0.76400006 0.030652618 0.32011378 12303544
0.77218187 0.035087239 0.32617342 11053223
0.76700008 0.045132782 0.32316631 12105912
0.77333337 0.044603426 0.32764515 9934486
0.76260006 0.054515101 0.32131243 12106682
0.77050006 0.057066087 0.32644475 10132633
0.76380008 0.064792797 0.32289374 11842996
0.773 0.064487152 0.32931355 8750981
0.75900006 0.076649658 0.32157245 13487816
0.76437509 0.074057847 0.32519406 11448237
0.76225007 0.082330018 0.32295173 12171701
0.77516669 0.094315536 0.32267359 10067095
0.78488892 0.098458387 0.32539102 10395802
0.78900003 0.10184405 0.32504749 10461595
0.78810006 -0.15343091 0.33371753 9079688
0.77900004 -0.14016895 0.33186969 10329503
0.78573334 -0.14542812 0.33609229 9671314
0.77642858 -0.1339945 0.33155411 12961221
0.78311116 -0.13500178 0.33728945 9145484
0.77690911 -0.12474635 0.33379152 11185066
0.78280008 -0.12435837 0.33898622 8948104
0.77644449 -0.1142612 0.33199388 14212311
0.78266668 -0.11578723 0.33740249 9211020
0.77671432 -0.10598982 0.33219585 14212311
0.78250003 -0.10508024 0.33702442 10066329
0.77600002 -0.095120549 0.33240822 14343127
0.78200006 -0.094941847 0.33726853 10724259
0.77616668 -0.085150875 0.3315725 14408919
0.78366667 -0.085049726 0.33752692 11052965
0.77800006 -0.074781835 0.3329021 14277077
0.78500003 -0.075091384 0.33810121 11578797
0.77900004 -0.06539917 0.33369333 14013907
0.78500003 -0.064984038 0.33810118 10724260
0.77740014 -0.054529648 0.33228222 13948886
0.78459996 -0.054850139 0.33792895 9342608
0.77670008 -0.045205828 0.33180097 13355978
0.78316671 -0.044665769 0.33731154 8684420
0.77660006 -0.035928406 0.33157647 12434875
0.78371435 -0.033819657 0.33702502 8618883
0.77700001 -0.025212035 0.33101764 13882836
0.78581816 -0.024995042 0.33761999 8356225
0.77780002 -0.015412276 0.33135849 13028556
0.78563637 -0.014962774 0.33737415 7896445
0.77671432 -0.0049431263 0.33245605 9212305
0.78333336 -0.0058586616 0.33738494 8619653
0.77616674 0.0047951359 0.33338988 8356995
0.78283334 0.0048368978 0.33900061 8817286
0.77628571 0.014530326 0.33149323 9607316
0.78387499 0.015166197 0.33738899 8356736
0.77833337 0.023334555 0.33158568 9804436
0.78583336 0.025085336 0.33693162 8356477
0.77900004 0.035813566 0.33186969 8552573
0.78670007 0.035250474 0.33754796 8487806
0.7766667 0.044794519 0.33087564 8618369
0.78627276 0.044929821 0.33764803 8750723
0.7753334 0.054096904 0.3303076 8553348
0.78563637 0.054924488 0.33754277 8882823
0.77660006 0.06569425 0.33266526 9013898
0.7832858 0.064688571 0.337102 9080457
0.77600002 0.074126869 0.33392289 9474706
0.78325003 0.076346159 0.33918107 9672341
0.77600008 0.084339045 0.33266777 9869461
0.78380001 0.084659755 0.33831894 10001560
0.78680003 0.095302537 0.33470115 10264474
0.78900003 0.10184405 0.3305887 10396315
0.78900003 -0.14104477 0.34167105 10000536
0.78800011 -0.1341783 0.34262273 9540752
0.78780007 -0.12515387 0.34391922 9606286
0.79083329 -0.12470854 0.348019 9737871
0.78790009 -0.11502423 0.34211779 9276811
0.79233342 -0.11489645 0.34744442 9803151
0.78790009 -0.10488178 0.34211826 9276812
0.78770006 -0.094896704 0.34203172 9276811
0.79157144 -0.094514012 0.3462266 9605772
0.78800005 -0.084601976 0.34123802 9078917
0.78800005 -0.075378366 0.34123802 9210246
0.78800005 -0.065232389 0.34123802 8882312
0.78800005 -0.055086415 0.34123802 8685450
0.7881819 -0.044531986 0.34215638 9014411
0.78850007 -0.035431068 0.34176239 8948617
0.78900003 -0.010826807 0.34167105 8883078
0.78766674 -0.0049696215 0.34170899 8685699
0.78808337 0.0048670811 0.34404254 8948871
0.78855562 0.014203734 0.34291494 8685699
0.78800011 0.066663682 0.34123802 9212043
0.78785723 0.07455878 0.34249452 9606801
0.78850001 0.085166089 0.34237805 9935768
