# .PCD v0.7 - Point Cloud Data file format
VERSION 0.7
FIELDS x y z rgb
SIZE 4 4 4 4
TYPE F F F U
COUNT 1 1 1 1
WIDTH 1043
HEIGHT 1
VIEWPOINT 0 0 0 1 0 0 0
POINTS 1043
DATA ascii
0.78900003 -0.15212713 0.099705793 11645612
0.78830004 -0.14461038 0.098693796 11777198
0.78777784 -0.13560086 0.098935649 11842220
0.78771436 -0.12514047 0.099015586 12105135
0.78800005 -0.11569872 0.099315561 11908781
0.78787506 -0.10418522 0.098870978 11842988
0.78800011 -0.094747953 0.098655879 12040112
0.78812504 -0.085307166 0.098902568 11908783
0.78880006 -0.075453952 0.099680513 11317417
0.78900003 -0.065315172 0.099705793 11448746
0.78820008 -0.055101335 0.099604696 11382183
0.78800005 -0.044940442 0.099579424 11579560
0.78840005 -0.034810729 0.099629976 11908781
0.78900003 0.067673378 0.099705793 10987684
0.78840005 0.075743377 0.098891154 10987682
0.79232001 0.074892052 0.09411145 10987682
0.78850007 0.082398221 0.099642605 10987682
0.79232162 0.085449807 0.094822183 10987682
0.78900003 -0.16043893 0.10894111 10658460
0.77700001 -0.15117824 0.10773719 14539994
0.78616667 -0.1547531 0.10506944 10855584
0.76683336 -0.14246708 0.10827179 14211288
0.77468425 -0.14502388 0.10485766 14014164
0.78383332 -0.14532192 0.10119296 12500923
0.76450002 -0.13487679 0.10734431 15263973
0.7741766 -0.13503666 0.10315904 14737885
0.78200006 -0.13521674 0.10065188 14408919
0.76300001 -0.1251211 0.10724504 15329765
0.77375001 -0.12507167 0.10332131 14474713
0.78220004 -0.12499672 0.10067762 14211282
0.76327783 -0.11500302 0.10717219 15066850
0.77411771 -0.11508969 0.10315106 14869470
0.78275001 -0.11564674 0.10074842 14408918
0.76406252 -0.10494731 0.10716949 15198436
0.77425021 -0.10521469 0.10338857 14869469
0.7828334 -0.10512266 0.10075914 14079952
0.76347059 -0.095109098 0.1073041 15132642
0.77433342 -0.094917409 0.10328665 14737883
0.78220004 -0.094967075 0.10067762 12105906
0.76370591 -0.08493799 0.10712671 15263970
0.77440006 -0.084954403 0.10329538 14803677
0.78333336 -0.085015893 0.1008235 13356488
0.75900006 -0.071715876 0.10835253 15132384
0.76300007 -0.075536788 0.1070044 15066848
0.77527767 -0.075069174 0.10341094 14672347
0.78540003 -0.075128242 0.10108949 13685967
0.75900006 -0.066385373 0.10835253 15263970
0.76271445 -0.064417034 0.10658355 14935006
0.77473342 -0.065041289 0.10333767 14672347
0.7856667 -0.06504079 0.10112381 13949139
0.75900006 -0.053059131 0.10835252 15790316
0.76225001 -0.055516537 0.10658276 15132642
0.77433342 -0.05503843 0.10328457 14475226
0.78500003 -0.054876696 0.101038 14343896
0.75861543 -0.044699293 0.10870676 15066850
0.76190007 -0.045236144 0.10591094 15001057
0.7736668 -0.045028582 0.10319614 14672090
0.78333336 -0.044675857 0.10082349 12566715
0.75839996 -0.035263371 0.10915413 15264229
0.76241666 -0.034554616 0.1061604 15066850
0.7742222 -0.035090398 0.10327014 14474710
0.78440011 -0.034632236 0.10096078 11579562
0.7578333 -0.025479386 0.10907283 14672092
0.76370013 -0.024780447 0.1063381 14540505
0.77410007 -0.025118399 0.10416375 14540762
0.7851001 -0.025286902 0.10178269 11711147
0.75824994 -0.014841665 0.10913271 14408920
0.76472735 -0.015212584 0.10656203 14277333
0.77377784 -0.014441328 0.10482395 14146517
0.78645462 -0.014974851 0.10222676 10725280
0.75849992 -0.0050812946 0.1091684 14211286
0.7647143 -0.0051229238 0.1068637 14079955
0.77320004 -0.0049971719 0.10512643 14146005
0.78655553 -0.0054736906 0.10225865 10527645
0.75827277 0.0042787674 0.10921618 14408922
0.76300001 0.0053502354 0.10739152 14014675
0.77283335 0.0040182034 0.10564999 13948625
0.78633338 0.0051604416 0.10325229 11185059
0.75766665 0.015323528 0.10993589 14146262
0.76336378 0.015030795 0.10815973 14014932
0.77280009 0.014724372 0.10670429 13883346
0.7871111 0.015404727 0.10396888 11711146
0.75800008 0.023313923 0.10998426 13949140
0.7650001 0.024122279 0.10840921 13948886
0.77380002 0.025064269 0.1068391 13422538
0.78725004 0.025135929 0.10409001 11644839
0.76400006 0.034673899 0.10861624 13882837
0.7736668 0.03526365 0.1069695 13882577
0.78709996 0.035264179 0.10407001 11776426
0.75800002 0.048156805 0.10998426 14342874
0.7646001 0.04499412 0.10825324 14013909
0.77362502 0.045527928 0.10636434 13816786
0.78527278 0.044870976 0.10391107 11974578
0.75800002 0.053480279 0.10998426 14277081
0.76314288 0.055248242 0.10766308 14079702
0.77384627 0.054317016 0.10517114 13817043
0.78616667 0.054543257 0.1030286 10527134
0.76335299 0.065210246 0.10728577 13948116
0.77433336 0.066519059 0.10409326 13553869
0.78430009 0.064513355 0.10186279 10724513
0.79200006 0.061441392 0.1000849 11119268
0.76438469 0.074574932 0.10760135 14145752
0.7745294 0.075227484 0.10427088 13092805
0.78400004 0.075500414 0.10136609 10724257
0.76600003 0.082289092 0.10890176 14212058
0.77541667 0.084814794 0.10691128 14211288
0.78561532 0.085281685 0.10309502 11316394
0.79100001 0.089139998 0.10088323 11185062
0.78583336 0.091624863 0.10757995 11053223
0.79375005 0.095648706 0.10409341 11316648
0.78828579 -0.16108496 0.11543278 10328725
0.77441669 -0.15264046 0.1150801 13882062
0.78412509 -0.15784316 0.11469057 10197140
0.75900006 -0.14071621 0.11842123 14935007
0.76267987 -0.1444508 0.11494391 14737631
0.77166671 -0.1490867 0.11196727 15724524
0.75892848 -0.13452724 0.11735238 15592681
0.76037502 -0.13526031 0.11233057 15461351
0.75852197 -0.12474918 0.11638967 15263715
0.7602309 -0.12556654 0.1114028 15592423
0.75834781 -0.11538101 0.11566708 15066593
0.76022232 -0.11365337 0.11089976 15198179
0.75833344 -0.10538324 0.11624431 15461351
0.76050007 -0.10479397 0.11123659 15461608
0.75814807 -0.094413072 0.11572251 15395556
0.76033342 -0.095872015 0.11091587 15263971
0.75760728 -0.08469633 0.11467458 15329763
0.76000005 -0.087822914 0.11027446 15527142
0.75727022 -0.074979275 0.11447361 15198177
0.75669235 -0.064751998 0.11482908 15066592
0.75666684 -0.055256143 0.11509841 15198436
0.75687104 -0.045080263 0.1149618 15066595
0.75607145 -0.034966428 0.11557912 14606299
0.75536108 -0.025395906 0.11578593 14211284
0.75541669 -0.014787896 0.11579362 14014162
0.75416666 -0.005053747 0.11559921 14145495
0.75430554 0.0046604695 0.11562174 14539995
0.75477791 0.015263159 0.11569545 13882319
0.75431252 0.02513192 0.11523344 14079955
0.75561905 0.034739882 0.11493466 14079957
0.7562502 0.045256771 0.1153001 14277080
0.75579411 0.055145826 0.11511911 14277081
0.75545245 0.064795546 0.11490932 14145494
0.75572973 0.074886516 0.11524075 14474460
0.76000005 0.07852982 0.11027446 14146265
0.75833338 0.0826483 0.11580109 14869218
0.76288235 0.086289994 0.11447177 14606559
0.77200001 0.086998828 0.11020836 14146265
0.76900005 0.092061482 0.11878131 13290186
0.77433336 0.09391313 0.11678444 12237754
0.7852143 0.097286202 0.11366311 11250854
0.7881667 0.10491624 0.11641003 11382440
0.79089999 0.10560785 0.11179471 11316647
0.78885716 0.11237858 0.11657182 11382440
0.78620005 -0.16244867 0.12603489 9933970
0.76800007 -0.15167511 0.12492359 15263974
0.77441669 -0.15551347 0.12399627 12236983
0.78150004 -0.15891385 0.12162624 9473163
0.75864995 -0.1429897 0.12499566 14342614
0.76127279 -0.14816011 0.12520222 15526889
0.75775754 -0.13505766 0.12526773 15197922
0.7565589 -0.12488027 0.1246191 14934752
0.75537497 -0.11502953 0.1248512 14803422
0.75538892 -0.1049736 0.12463251 14935264
0.75534374 -0.094910681 0.12440392 14935006
0.75420576 -0.085129179 0.12464655 14869212
0.75374287 -0.074875169 0.12448826 15066591
0.75320005 -0.064996451 0.12515613 14606042
0.7537812 -0.055118643 0.12492137 14803678
0.75538898 -0.044847481 0.12463608 14935007
0.7547406 -0.035290096 0.12502153 14079699
0.75373328 -0.025342394 0.1252459 13553354
0.75213343 -0.014725697 0.12497851 13816526
0.75023341 -0.0050269291 0.12554169 13422027
0.75051433 0.0045625512 0.12546256 13882577
0.75145173 0.015110007 0.12503392 13619660
0.74900001 0.026543953 0.12621261 13816782
0.75004768 0.024072511 0.12513468 13356231
0.74900001 0.031414568 0.1277712 13487819
0.75040746 0.035508685 0.1247566 13685198
0.7529335 0.045192294 0.12511152 14013907
0.75182772 0.055530142 0.12529156 14145492
0.74900001 0.063365825 0.1262126 14211284
0.75048399 0.064964384 0.12532674 13947857
0.74900001 0.070963986 0.12913497 13553358
0.75156254 0.075298369 0.12493693 13948117
0.75618517 0.084827751 0.12505998 14079703
0.76066667 0.089283109 0.12283555 14474460
0.76666665 0.09178213 0.12200966 11053222
0.77300006 0.094349951 0.12392318 11250857
0.78300005 0.099236555 0.12400427 11316647
0.78853327 0.10461582 0.12315236 11316647
0.79109997 0.10711577 0.12664121 11382440
0.78900003 0.11169505 0.12063917 11316647
0.78454554 -0.16237491 0.13537312 9802383
0.76900005 -0.15277156 0.13498349 14671580
0.77440012 -0.15656529 0.1359316 10986913
0.75752944 -0.14329606 0.13536876 14211028
0.76172733 -0.14873479 0.13500339 15263717
0.75700003 -0.13532431 0.13553533 14671579
0.75638252 -0.12485065 0.13563444 14671321
0.75518751 -0.11500186 0.13499303 14605785
0.75527787 -0.10495791 0.13523002 14211285
0.75534368 -0.094910175 0.13546269 14343127
0.75400001 -0.085106239 0.13479227 14145492
0.75333351 -0.074707568 0.13488041 14342870
0.75326669 -0.065002434 0.13486807 14474456
0.75388885 -0.055347178 0.13498013 14277334
0.75621229 -0.045137882 0.13499366 14079699
0.75680006 -0.035188507 0.13461605 13421769
0.75548565 -0.025276391 0.13514109 12632510
0.7522223 -0.014728452 0.13468236 13093060
0.75064009 -0.0050287326 0.13527761 12895682
0.75096774 0.0047244905 0.13516629 13093064
0.75105733 0.015263654 0.13459866 12830147
0.74900001 0.027420662 0.13147287 12434873
0.75013053 0.024598731 0.13548928 13093062
0.74900001 0.031804219 0.13147287 12961221
0.75029629 0.034787182 0.13560453 13092807
0.7516945 0.045118596 0.13458429 13290186
0.7515716 0.055537686 0.13468865 13684687
0.74900001 0.067311026 0.13454135 13553103
0.75000006 0.063180313 0.13556512 13684944
0.74900001 0.07125622 0.1349797 13553358
0.75063646 0.076845095 0.13479565 13816273
0.75518191 0.083982289 0.13489069 14408666
0.7614001 0.08901336 0.13579103 14145493
0.76700002 0.091822043 0.13283686 12369084
0.77300006 0.094349951 0.1302568 10987682
0.78866673 0.099954747 0.13474382 11579562
0.78520006 -0.16242653 0.1451814 9736590
0.76725006 -0.15152787 0.14454722 14933726
0.77372724 -0.15569267 0.14585519 11841198
0.75800008 -0.14359991 0.14514256 14210772
0.76155561 -0.14832291 0.14437263 14934239
0.75703335 -0.13533048 0.14528872 14737374
0.75700003 -0.12469138 0.14528213 14540250
0.75700003 -0.11494459 0.14528216 14671835
0.75696671 -0.10519302 0.14527588 14474456
0.75696671 -0.094560869 0.14527592 14211284
0.75636017 -0.084747069 0.14516073 14342615
0.75600022 -0.074972034 0.14509216 14013905
0.75524002 -0.065173335 0.14494704 14277333
0.75606662 -0.055505726 0.14510517 14474456
0.75833338 -0.044780292 0.14505531 14539993
0.75870019 -0.035276931 0.14472182 13618889
0.75777429 -0.025622334 0.14526002 12566202
0.75536668 -0.014789108 0.14497152 12369337
0.75340009 -0.0050483453 0.14459397 12369082
0.75270009 0.0046496098 0.14445861 12698307
0.75278807 0.01546351 0.14495568 12632258
0.75210011 0.024893057 0.14522529 12500670
0.75233352 0.034587365 0.14438938 12829634
0.75186127 0.045125544 0.14517838 13027013
0.75145161 0.054946356 0.14506826 13355720
0.75039995 0.064486675 0.14491941 13224905
0.75044447 0.074909538 0.14490215 13487564
0.75534999 0.083800994 0.14575934 14408665
0.762375 0.088816449 0.14407952 14013650
0.77175003 0.092390694 0.14540032 11578795
0.78600007 0.098304458 0.14611861 11514026
0.78718185 -0.16275159 0.15526184 9670797
0.76633334 -0.15044777 0.15514641 14868445
0.77523082 -0.15596989 0.15547845 11512488
0.75833344 -0.14355217 0.15530206 14210773
0.76120007 -0.14765802 0.15499908 14539738
0.75788873 -0.13548355 0.15521166 14605529
0.75733322 -0.12474695 0.15509826 14737115
0.75720006 -0.1149748 0.15507104 14539992
0.75733328 -0.10524408 0.15509887 14606042
0.75727773 -0.09459956 0.15508722 14342870
0.75733322 -0.084855348 0.15509883 14539736
0.75749993 -0.075120777 0.15513319 14408150
0.75725716 -0.064587459 0.15520993 14737629
0.75770968 -0.054913174 0.15503223 15132130
0.75877786 -0.045049664 0.15539223 15263716
0.75886691 -0.035284601 0.15541051 14671836
0.75824988 -0.025494074 0.15528445 14013138
0.75763875 -0.01483159 0.15516122 13421513
0.75666672 -0.0050700274 0.15496346 13158343
0.75547206 0.004664944 0.15472054 12566463
0.75503033 0.015027248 0.15503074 12434620
0.75504023 0.024990629 0.15551406 12105913
0.75519454 0.034718845 0.15466221 12566720
0.75406659 0.045257274 0.15531255 12961221
0.75256014 0.054856449 0.15500171 12829375
0.75051433 0.064495891 0.15533212 13027269
0.74900001 0.073886357 0.15755504 13619151
0.75003576 0.075117476 0.15466864 13619406
0.75233346 0.084788695 0.15477271 14145495
0.75866669 0.090824418 0.15625834 11447726
0.76300001 0.091792077 0.15358549 11447723
0.77400005 0.094472006 0.15035672 11446955
0.78475004 0.098543599 0.15152617 11447720
0.7869091 -0.16286319 0.16525672 9670797
0.76525009 -0.15023509 0.16477898 14803168
0.77382362 -0.15554726 0.16481143 12039346
0.75868756 -0.14339676 0.16536614 14473948
0.76142871 -0.14795788 0.16472079 14934756
0.75834477 -0.13541141 0.16494724 14934240
0.75799996 -0.12485612 0.16499349 14803164
0.75840002 -0.11515689 0.16508186 14671582
0.7585333 -0.10541092 0.16511092 14474458
0.75863361 -0.094768696 0.16513266 14211285
0.75883985 -0.085023992 0.16517709 14474199
0.75866687 -0.075237803 0.16513899 14276563
0.75789994 -0.064515404 0.16497135 14736602
0.7573601 -0.054717183 0.16485298 14868702
0.75756675 -0.044978313 0.16489786 15066337
0.75768006 -0.035229228 0.16492264 14737371
0.75793332 -0.02548204 0.16497861 14276824
0.75779992 -0.014834672 0.16494949 13816530
0.75716001 -0.0050725983 0.16481037 13619151
0.75736654 0.0046778866 0.16485681 13355980
0.7572 0.015312063 0.16482078 12500669
0.75696009 0.025053525 0.16476844 12237495
0.75676668 0.034791216 0.16472596 12434874
0.75572741 0.04559797 0.16498253 12763583
0.75340009 0.054917734 0.16487448 13027010
0.75125808 0.064291626 0.16511521 12829631
0.74900001 0.074763067 0.16128105 13816530
0.75039291 0.074902654 0.16534661 13684943
0.75383335 0.084810734 0.16467559 14014680
0.76000005 0.089204863 0.16898718 14476002
0.7615 0.091163605 0.1648646 11250605
0.77149999 0.09416686 0.16883567 10987946
0.78600001 0.099616773 0.16924821 11316647
0.787 -0.16279815 0.17499068 9670284
0.76616669 -0.15041506 0.17484336 15263461
0.77390915 -0.15523571 0.17619795 12630971
0.75899994 -0.14225614 0.17480609 14605790
0.76080006 -0.14686877 0.17575504 14474203
0.7589668 -0.13478766 0.17497587 14868704
0.75858349 -0.12495237 0.17488711 14802911
0.7589668 -0.11524305 0.17497584 15065570
0.75900024 -0.10547569 0.17498375 14671066
0.75900024 -0.094814695 0.17498375 14539480
0.75893342 -0.085034885 0.174968 14605529
0.75847226 -0.075218514 0.17486122 14473688
0.75772214 -0.064500347 0.1746881 14539480
0.75713331 -0.054700851 0.17455371 14671580
0.75711113 -0.044951484 0.1745488 14540251
0.75713331 -0.035203453 0.17455395 14145495
0.75780547 -0.02547822 0.17470917 13882066
0.75763887 -0.014830548 0.17467105 13684944
0.75763327 -0.0050745523 0.17466965 13750737
0.75799984 0.0046817604 0.17475325 13750737
0.75799984 0.015328707 0.1747532 13158599
0.75796664 0.025087155 0.17474571 12500668
0.75777763 0.034837831 0.17470318 12566462
0.75690913 0.045186415 0.1749047 12763841
0.75404 0.054963671 0.17472377 13026756
0.75247073 0.064745866 0.17498261 13092293
0.75197232 0.07506147 0.17512511 13355722
0.75622731 0.084501602 0.17474765 13948887
0.7610001 0.089322239 0.17544483 14146265
0.76775002 0.09191183 0.17520575 13883093
0.77360004 0.094786979 0.17635985 11251370
0.78550005 0.099553406 0.17419598 11382697
0.78900003 0.10184405 0.17728244 11382440
0.79162973 0.10630237 0.17478107 11316902
0.78900003 0.11688443 0.17781018 11382183
0.79073924 0.11438208 0.17388798 11316901
0.78672719 -0.16265789 0.18463995 9604491
0.76560009 -0.15030381 0.18456921 15065823
0.7745294 -0.15568915 0.18490683 12039089
0.75894439 -0.14228524 0.1853347 14868444
0.7610001 -0.1472249 0.18504757 14473687
0.75826663 -0.13466404 0.18546449 14868444
0.75769442 -0.12480661 0.18532434 15131873
0.75809991 -0.1151109 0.18542384 15592169
0.75852799 -0.10541048 0.18552776 15592169
0.75811106 -0.094704248 0.18542689 15131872
0.75799996 -0.084930062 0.18540014 15263458
0.75763881 -0.075135812 0.18531096 14934496
0.75713891 -0.064450338 0.18518908 14868960
0.75730002 -0.05471329 0.18522745 14803168
0.75733334 -0.04496371 0.18523581 14803168
0.75746661 -0.035218719 0.18527018 14145495
0.75808322 -0.025486909 0.18542063 13684685
0.75876683 -0.014852694 0.18470053 13553100
0.75880003 -0.0050833039 0.18470855 13816273
0.7583549 0.0048256582 0.18477137 13882323
0.75799984 0.015328709 0.18540016 13619150
0.75799996 0.025088418 0.18540019 13027267
0.75774986 0.034835551 0.18533845 12895426
0.75705552 0.045437735 0.185169 12698047
0.75573355 0.055088367 0.18484731 13026757
0.75406241 0.064454123 0.18498993 12960964
0.75210011 0.075071536 0.18483816 13027013
0.75591666 0.084306628 0.18488894 14014425
0.76080006 0.089298762 0.18519357 14277854
0.7665 0.091762193 0.18657437 13948888
0.77350003 0.094713748 0.18526991 11514287
0.78416675 0.099384427 0.18445516 11382440
0.78833342 0.101758 0.18543585 11382439
0.79060012 0.10667795 0.18504551 11316645
0.78900003 0.11846761 0.18097657 11316390
0.79050016 0.11483786 0.18517774 11316645
0.78900003 0.12031468 0.18097657 11382183
0.78583336 -0.16255741 0.19496292 9670025
0.76900005 -0.15277156 0.19889212 14999773
0.77350003 -0.15548158 0.19583297 12104625
0.75899994 -0.1437711 0.19457568 14342617
0.76150012 -0.14860931 0.19463345 14539739
0.7577666 -0.13546234 0.19509916 14803167
0.75706667 -0.12470276 0.19491933 15132130
0.75724006 -0.11498028 0.19496344 15197922
0.75769997 -0.10529452 0.1950815 14934752
0.75799996 -0.094689779 0.19515981 14605788
0.75800002 -0.084930055 0.19515978 14671582
0.75749987 -0.075122081 0.19503073 14737375
0.75700003 -0.064438298 0.19490236 14803425
0.75708002 -0.054696955 0.19492318 14935010
0.75726658 -0.044960074 0.19497199 15000804
0.75784004 -0.035236672 0.19511905 14474714
0.75809997 -0.025487371 0.19518544 13816528
0.75894469 -0.01485581 0.1945148 13553355
0.75900012 -0.0050846427 0.19452895 13487565
0.75882882 0.0045590238 0.19461156 13750994
0.75799996 0.015328706 0.19515987 13685201
0.75800002 0.025088415 0.19515987 13290185
0.7579 0.034843169 0.19513458 13289929
0.75703335 0.045436859 0.19491115 12960964
0.75644463 0.055336807 0.1951531 13092550
0.75477767 0.064734913 0.19521345 13158600
0.75322229 0.075183295 0.19481319 13487565
0.75596428 0.085134611 0.19482441 14145752
0.76400012 0.092261702 0.1963046 12698049
0.77333337 0.095606409 0.19307488 11119272
0.78300005 0.099236563 0.1924291 11382695
0.78811115 0.10255023 0.19594169 11382694
0.79105264 0.10717817 0.19470358 11251109
0.79283988 0.11533461 0.19485226 11250852
0.78546673 -0.16328081 0.20529476 9539466
0.76640004 -0.15082093 0.20593098 14539226
0.77357149 -0.15562427 0.205376 11775403
0.75882351 -0.14354007 0.20488028 13816272
0.76137507 -0.14791642 0.2044916 14276567
0.75733334 -0.13538541 0.20473899 14474202
0.75650007 -0.12461003 0.20451279 14605787
0.75663352 -0.11488846 0.20454933 14671836
0.75711113 -0.10521256 0.204679 14342871
0.75725001 -0.094596498 0.20471559 14408663
0.75696665 -0.084814906 0.2046393 14276822
0.75633359 -0.075006075 0.20446721 14276567
0.75636131 -0.064382888 0.20447555 14211032
0.75739998 -0.054718953 0.20475736 14408667
0.75799984 -0.045004003 0.20491952 14540253
0.75836676 -0.035261195 0.20502028 14474203
0.75872225 -0.025508359 0.20511603 13816273
0.75900024 -0.014857222 0.20518996 13355722
0.75896674 -0.0050845766 0.20518072 13290186
0.75836092 0.0046829176 0.20501617 13487566
0.75799984 0.015328707 0.20491956 13487565
0.75793332 0.025085976 0.20490147 13158853
0.75794435 0.034845822 0.2049045 13290439
0.75724995 0.045449182 0.20471762 13158343
0.75639296 0.054946151 0.20480074 12961221
0.7543332 0.064698413 0.20481125 13026757
0.75406653 0.075269192 0.20473908 13355979
0.757375 0.084984422 0.20482457 14146009
0.76033336 0.089243986 0.20644112 14540253
0.76516676 0.092202254 0.20386969 13158343
0.77099997 0.094105832 0.20753312 11776947
0.78750002 0.10257397 0.20515117 11250854
0.79242855 0.10771962 0.20508572 11251109
0.78658336 -0.16317324 0.21464169 9473673
0.76840007 -0.15085351 0.21582823 14276308
0.77486676 -0.15563396 0.21473935 11973552
0.78100002 -0.15881217 0.21936494 9143940
0.75849992 -0.1426957 0.21482089 13881808
0.76145458 -0.14689869 0.21517158 13224135
0.75724244 -0.13512722 0.21494807 14408407
0.75700003 -0.1246914 0.21528213 14671581
0.75700003 -0.11513446 0.21496569 14605788
0.75716674 -0.10522057 0.21444394 14211286
0.7573666 -0.094610311 0.21450114 14277334
0.75685722 -0.084612973 0.21492589 14342872
0.75608367 -0.074980527 0.21502212 14540251
0.75650012 -0.064394563 0.21514139 14342874
0.75737035 -0.054913823 0.21489477 14474460
0.75809991 -0.045009352 0.21470766 14671839
0.759 -0.0352908 0.2149625 14605790
0.75900012 -0.02551822 0.21496245 13882067
0.7585668 -0.014849405 0.21483865 13224136
0.75804001 -0.0050783064 0.21469042 13158600
0.75806659 0.0046824836 0.21469848 13290186
0.75866675 0.015342893 0.21486911 13158599
0.75856 0.025106763 0.21483932 13026754
0.75830007 0.034861796 0.2147654 13224647
0.75759375 0.0456907 0.21489689 13027013
0.75626677 0.055126391 0.21507387 12961219
0.75461096 0.064721718 0.21460386 13027013
0.75391656 0.075253807 0.21440445 13223879
0.75718188 0.084285036 0.21492924 14013910
0.76183337 0.08942005 0.21487302 14737632
0.76800001 0.091941759 0.21391705 14408667
0.77440006 0.095247947 0.21533027 11843248
0.78375006 0.099331617 0.21555364 11185316
0.78820008 0.10174079 0.21585402 11251109
0.79333335 0.10612109 0.21540242 11251109
0.78772736 -0.16286379 0.2254449 9407624
0.76900005 -0.15097131 0.22409552 14341843
0.77400011 -0.15437159 0.22554964 13091519
0.78100002 -0.15881217 0.22484997 9143940
0.75900006 -0.14123446 0.22318034 14078931
0.76163161 -0.14511843 0.22593582 13355721
0.75844002 -0.13490719 0.22439328 14408149
0.76000005 -0.13675021 0.22947912 14277081
0.75779998 -0.12482356 0.22526819 15066337
0.75785178 -0.11487632 0.22488841 15132132
0.75808316 -0.10534787 0.224464 14539996
0.75813872 -0.09470769 0.22448073 14145495
0.75785184 -0.085111149 0.22488832 14145496
0.75723344 -0.075094536 0.22509931 14276825
0.75753337 -0.064482838 0.22518863 14408410
0.75796425 -0.054570917 0.22474541 14277081
0.75838876 -0.045025535 0.22455443 14539996
0.759 -0.036105182 0.22436488 14474203
0.76000005 -0.032075476 0.2265138 14342872
0.75900006 -0.024629805 0.22088531 13750480
0.76011121 -0.025851715 0.2263497 14013651
0.75890464 -0.014475055 0.22254983 13224393
0.7601335 -0.015413785 0.22809601 13290184
0.7585001 -0.0050812936 0.22281249 13026757
0.76000011 -0.0050913421 0.2285895 12895427
0.75877267 0.0043641631 0.22264987 13158343
0.76000017 0.0052024485 0.22820829 12961221
0.759 0.014460516 0.22147755 13158599
0.76000017 0.015813949 0.22666214 13092550
0.75900006 0.025516365 0.22108272 12961474
0.76000017 0.024985166 0.22659852 12632256
0.75899994 0.036156576 0.22281797 13224393
0.76000017 0.033527192 0.22717662 13158600
0.75782353 0.045272961 0.22464703 13092806
0.755 0.055155795 0.22516368 13158343
0.75436091 0.064702131 0.22512764 13026758
0.75344449 0.075205207 0.22485439 13487052
0.75640732 0.084853232 0.22504742 14211288
0.76033336 0.089243986 0.22245915 14408668
0.76524997 0.092062607 0.22523868 14013910
0.77333337 0.095300905 0.22445701 12105911
0.78283334 0.09921544 0.22445463 11250855
0.78866673 0.10180103 0.22336383 11251108
0.78699994 -0.16288148 0.23528446 9473418
0.79275012 -0.16769879 0.23472267 9407881
0.77399993 -0.15427388 0.23531839 12828348
0.78000003 -0.15860882 0.23277901 9143940
0.76315993 -0.14447282 0.23507816 13750480
0.75900006 -0.13123977 0.2318424 14013652
0.76043475 -0.13535838 0.23518421 14013652
0.75882608 -0.12418177 0.2336821 14408666
0.76000011 -0.12785433 0.2373583 13947859
0.75862098 -0.11506829 0.23512688 14671838
0.75886136 -0.10545584 0.23535365 14474461
0.75852782 -0.094757378 0.23524997 13816530
0.75799996 -0.08493007 0.23508593 13750480
0.75827777 -0.075197451 0.2351733 14079700
0.75822204 -0.064542204 0.23515555 14540250
0.75876683 -0.054819264 0.23532408 14737375
0.75894469 -0.045059886 0.23537904 14606046
0.75899994 -0.037067633 0.23539607 14540252
0.76000011 -0.032668538 0.23481663 14474458
0.76069993 -0.025573933 0.23503304 14211284
0.76099986 -0.014896372 0.23512554 13487818
0.76032007 -0.0050946097 0.23491508 13355978
0.75900012 0.0073531857 0.2388228 13422026
0.76000017 0.0042657936 0.23448707 13224649
0.75895232 0.015643939 0.23753864 13290440
0.76000017 0.014954016 0.23268159 13158600
0.75894994 0.025120091 0.23715711 13158854
0.76000011 0.025154611 0.23214784 13027014
0.75880009 0.035358489 0.23610288 13290185
0.76000005 0.032567833 0.23185132 13158343
0.75730556 0.045451209 0.23487033 13355979
0.75561559 0.054944176 0.23502804 13487563
0.75556672 0.064805575 0.23521705 13158598
0.75476664 0.075337395 0.23496847 13158599
0.75657141 0.085453101 0.23495936 14145495
0.76475006 0.092452027 0.23448807 13750480
0.77700001 0.098476119 0.23461217 10987426
0.78680003 0.10229889 0.23480627 11185061
0.7876001 -0.16384448 0.24457332 9341832
0.79049999 -0.16783802 0.24516447 9407623
0.77506673 -0.15398069 0.24491711 13223106
0.78180003 -0.15897486 0.2452163 9078147
0.76434785 -0.14399657 0.24487215 13881809
0.77050006 -0.14946203 0.24617887 13421511
0.76116651 -0.13517883 0.24497826 14276824
0.76069438 -0.12530039 0.24482696 14277079
0.76041943 -0.11471798 0.24545595 14474715
0.75900006 -0.10369886 0.24161497 15132133
0.76000017 -0.10489451 0.2461694 14869218
0.75896442 -0.094493151 0.24496694 14408667
0.76000005 -0.099387549 0.24816042 14803168
0.75800002 -0.084930055 0.24484561 14211286
0.75819987 -0.075189799 0.24490929 14342615
0.75794441 -0.064519197 0.24571334 14606044
0.75792849 -0.054948259 0.24539195 14803168
0.75873351 -0.045046456 0.24508192 14539996
0.75900006 -0.038133733 0.24445792 14342871
0.76012516 -0.034082077 0.24545838 14211285
0.76085281 -0.025317738 0.24466741 14211284
0.76077771 -0.014892999 0.24485165 13882319
0.75899994 -0.0035616443 0.24618399 13882320
0.76000017 -0.006425723 0.24293408 13553356
0.75858635 0.004837506 0.24515642 13816527
0.76000005 0.00083923625 0.2407472 13619151
0.75781816 0.0155658 0.24526931 13422025
0.75736648 0.025067376 0.24552576 13224646
0.75755537 0.034828268 0.24558721 13421769
0.75736362 0.04569719 0.24512362 13684941
0.75623351 0.055125132 0.24515967 13553614
0.75555575 0.064804427 0.24493872 13684944
0.75566673 0.075429566 0.2449757 13355722
0.75721437 0.085145645 0.2451617 14145752
0.76375008 0.092106305 0.24356979 13553101
0.78691673 0.10249866 0.24497306 11185061
0.78822225 -0.16212705 0.25501648 9341574
0.79223084 -0.16694735 0.2556183 9210757
0.77518183 -0.15301131 0.25451985 13355461
0.78314286 -0.15820216 0.25453797 10394262
0.76436365 -0.14380459 0.25494957 13947599
0.77200001 -0.14975299 0.25478965 13355975
0.76066661 -0.13508973 0.25549951 14605785
0.75900006 -0.12057877 0.25938332 15000030
0.7603429 -0.12536947 0.25526366 14539993
0.759 -0.11489291 0.25831723 14276821
0.76004362 -0.11486544 0.25347358 14211541
0.75896162 -0.1049922 0.25629485 14343127
0.76000011 -0.10548758 0.25133756 14540508
0.75855565 -0.094760485 0.25479099 14408921
0.75759995 -0.084886424 0.25447041 14145493
0.75716662 -0.075087726 0.25432441 14079444
0.75700003 -0.064438298 0.2551555 14145238
0.75740737 -0.054522514 0.25489846 14342874
0.75852776 -0.045033619 0.25478271 14211288
0.75900006 -0.038400259 0.25805071 14211288
0.76031035 -0.03436866 0.25467473 14145495
0.76057571 -0.025166309 0.25571167 13882322
0.75899994 -0.012191976 0.25678638 13553101
0.76026094 -0.016391454 0.25431931 14079700
0.75870001 -0.0050838045 0.25484031 13553101
0.75783324 0.0046798205 0.25454926 14013652
0.75709087 0.015068348 0.25470218 13158341
0.75692004 0.025052385 0.25512892 13224391
0.75700003 0.034802139 0.25515547 13487563
0.75696975 0.045190189 0.25466049 13421768
0.75503337 0.055036254 0.25537488 13487563
0.75399983 0.064671382 0.25502688 13618893
0.75461096 0.075325631 0.25523269 13487565
0.75729162 0.085122712 0.25525382 14212058
0.76000005 0.08920487 0.25260839 14671839
0.76370007 0.091966584 0.25508243 14540253
0.77471435 0.096639022 0.25594464 11908019
0.78700006 0.10211363 0.25473779 11053219
0.7882728 -0.16129856 0.26519281 9079428
0.79381251 -0.16688132 0.26546893 9145221
0.77558345 -0.15317343 0.26504782 12895169
0.78283334 -0.15735234 0.26477829 9737617
0.76291662 -0.14353146 0.26473722 14342613
0.77150005 -0.149656 0.26455638 13947598
0.75900006 -0.13230586 0.266846 14539736
0.76000017 -0.13559373 0.26452881 14408149
0.75899994 -0.12489394 0.26598299 15131616
0.76000017 -0.12529677 0.26395059 14736858
0.759 -0.11524826 0.26471382 14803164
0.75860614 -0.10518017 0.26506001 14342871
0.75738883 -0.094614722 0.26503763 14540249
0.75700003 -0.084818013 0.26490232 14606042
0.75700003 -0.075071208 0.26490235 14342870
0.75700003 -0.064438276 0.26490232 14211285
0.75773329 -0.054743424 0.26515952 14474458
0.75854838 -0.045178045 0.26472798 14408665
0.75899994 -0.035522562 0.26502278 13553356
0.76000005 -0.032668535 0.2615042 13290439
0.75899994 -0.027802719 0.26522148 13092803
0.76000017 -0.023550272 0.26461777 13553099
0.75900012 -0.014857223 0.26471379 13816014
0.759 -0.0050846431 0.26471379 13289929
0.75848389 0.0048263799 0.26470605 13750736
0.75733334 0.015313991 0.26501986 13092805
0.75716668 0.025061455 0.26496062 12961221
0.75716668 0.034808502 0.26496065 13553869
0.75555575 0.045345485 0.26439473 13422025
0.75383323 0.054950584 0.26555726 13619404
0.75311118 0.064593978 0.26530135 13948112
0.75316662 0.075180732 0.26532111 13948371
0.75583339 0.085180029 0.26449171 14408924
0.75760001 0.090696722 0.26599675 14474461
0.76287508 0.092891723 0.26404759 13027014
0.77266669 0.096421249 0.26314119 10855332
0.78685719 0.10262225 0.2649577 10921890
0.78800011 -0.16281913 0.27574876 9079430
0.79214287 -0.16743772 0.27467769 9145223
0.77482361 -0.15382576 0.27566987 11907502
0.78362501 -0.15888858 0.27375752 8947590
0.7624827 -0.14415886 0.27552679 14408148
0.77033335 -0.14942969 0.27227244 14210512
0.75899994 -0.13289814 0.27561176 13684427
0.76000017 -0.1368688 0.27372119 14211027
0.75891441 -0.12498165 0.27458185 14145234
0.76000005 -0.12607516 0.27040011 14868444
0.7584064 -0.11499197 0.27465761 14408663
0.75771809 -0.10550334 0.27531645 14277079
0.75650018 -0.094503552 0.27535176 14276823
0.75633353 -0.084743246 0.27529082 14342871
0.75694442 -0.075065374 0.27551475 14540249
0.75749999 -0.064701051 0.27516314 14474457
0.75836015 -0.054788686 0.27514324 14474713
0.75900012 -0.045584179 0.27396563 14671835
0.76000005 -0.041860938 0.27810988 14474456
0.75900006 -0.036277931 0.27103144 13750733
0.76034784 -0.034501441 0.27663869 13816526
0.75900006 -0.029960301 0.2700443 13947859
0.76024252 -0.025155565 0.27485591 13158596
0.75900006 -0.011747766 0.2704885 13224389
0.76000017 -0.015265991 0.27534842 13421767
0.75900012 -0.0050846431 0.27448642 13355977
0.75831598 0.0047756261 0.27484381 13685455
0.7574445 0.015316629 0.27569568 13158599
0.75676674 0.025047043 0.27544928 13224136
0.75550008 0.034730647 0.27498546 13750737
0.7534104 0.045420773 0.27469942 13421770
0.74900001 0.059274506 0.27817586 13684944
0.75116134 0.054981228 0.27502304 13553357
0.74847364 0.065533318 0.2764425 13816783
0.75028574 0.064100489 0.27171102 13816783
0.74833328 0.072848164 0.27666149 13816783
0.75085008 0.07626836 0.27338344 14079701
0.75416124 0.084878273 0.27469891 14408669
0.75800008 0.0907446 0.27501339 13750738
0.76100004 0.092885263 0.27075589 11316396
0.77800006 0.10042418 0.27225101 11053475
0.78750002 0.10418662 0.27534479 10921889
0.78672731 -0.16282475 0.28493193 9079430
0.79110003 -0.16734917 0.28516957 9079430
0.76900005 -0.15097131 0.28800413 14999777
0.77340007 -0.15377037 0.28482202 11513004
0.78083342 -0.15877828 0.28420919 9079175
0.759 -0.14136772 0.28710189 15000543
0.76150006 -0.14531372 0.28456929 14934494
0.75866675 -0.13473526 0.28502128 14408149
0.75799984 -0.12485646 0.28477144 14145490
0.75724995 -0.11517327 0.28480616 14277078
0.75616688 -0.10508323 0.28496781 14277077
0.75590026 -0.094426923 0.28486726 14408663
0.75604028 -0.084710188 0.28492078 14342616
0.75690001 -0.075060703 0.28524455 14606043
0.75785285 -0.064301468 0.28497741 14935007
0.75863338 -0.054808136 0.28500983 15066594
0.759 -0.04861705 0.28532508 15263717
0.76011556 -0.043760333 0.28549758 15132387
0.76084363 -0.034707878 0.28528276 14145748
0.76053572 -0.024490265 0.28540596 12895423
0.75899994 -0.012414079 0.28648004 13290439
0.76000017 -0.016833888 0.28445548 12632509
0.75853342 -0.0050828443 0.28497151 13093061
0.75690925 0.0044314847 0.28476292 13290443
0.75551432 0.015404557 0.2854782 12960963
0.75490004 0.024984561 0.28537139 13092548
0.75265795 0.034784414 0.28484717 13684940
0.74900001 0.047935702 0.28857952 13684941
0.75082356 0.044390608 0.28450185 13355720
0.74896145 0.056483932 0.2858941 13224392
0.75000006 0.052915849 0.28264409 12829378
0.74786198 0.064897522 0.28461435 13290184
0.74741161 0.074812129 0.28454944 13882576
0.75437504 0.084358506 0.2849519 14211031
0.76050007 0.089263551 0.28749186 14211031
0.75900006 0.090864323 0.2807053 12829378
0.76200002 0.091223463 0.28449175 12237242
0.78846157 0.10532586 0.28393313 10921889
0.79000002 0.10775252 0.28592846 10856096
0.78787506 -0.16274725 0.29438198 9013382
0.76900005 -0.15097131 0.29340488 15066342
0.77318192 -0.15360595 0.2945022 11644848
0.78260005 -0.15913753 0.29493108 9079177
0.759 -0.14154541 0.29420921 14935007
0.76207703 -0.14604786 0.29584032 14276821
0.75823087 -0.13486211 0.29455349 14737628
0.7579999 -0.12471301 0.2947031 14342870
0.75776929 -0.11519852 0.29464719 14342870
0.75721878 -0.1050074 0.29456246 14474456
0.75708324 -0.094575167 0.29506427 14671578
0.75744838 -0.08492896 0.29505253 14606043
0.75738877 -0.07511054 0.29518184 14671582
0.75749993 -0.064479351 0.29522306 14868961
0.75857699 -0.054940626 0.2949605 15197926
0.75899994 -0.046892479 0.2940838 15197926
0.76000017 -0.042727709 0.29640338 15263719
0.76038235 -0.034254305 0.2948283 14539998
0.76051855 -0.024878325 0.29511434 13158599
0.75899994 -0.013080391 0.29492003 12961220
0.76000011 -0.018435147 0.29530853 12829890
0.75817859 -0.0048898524 0.29517111 12961221
0.75705558 0.0046753422 0.29505166 13092550
0.75616133 0.01514695 0.29541713 12895428
0.75327593 0.025051283 0.29518729 12829633
0.74900001 0.03662613 0.29804799 13092549
0.75058061 0.034079745 0.29419729 13224392
0.74899983 0.04694742 0.29541782 12895171
0.75000006 0.041742805 0.29461518 13224136
0.7487222 0.055453673 0.29530871 13026757
0.74739993 0.064978734 0.29478681 13487308
0.74733323 0.074598595 0.29476082 14540253
0.75462502 0.083389789 0.29520458 14803426
0.76230007 0.088584781 0.29531074 12697793
0.77375001 0.094220266 0.29747862 10658462
0.78366667 0.099321045 0.29716778 10921889
0.7876001 0.10166334 0.29497156 10921889
0.79025006 0.10663084 0.29503873 10790303
0.78860009 -0.16220371 0.30457672 9013125
0.77480012 -0.15338232 0.30486879 9934228
0.78357142 -0.15881301 0.30577546 8947076
0.75900006 -0.14012393 0.30025047 13157826
0.76322222 -0.14378792 0.30460039 14539736
0.7713334 -0.14962368 0.3069374 15000029
0.759 -0.13372733 0.30149427 12960705
0.76047373 -0.13543019 0.30673751 14540250
0.75899994 -0.12528217 0.3021318 12960961
0.7603333 -0.12524047 0.30789852 14079699
0.75899994 -0.11524827 0.30202729 13618893
0.76047373 -0.11444127 0.30776796 14013905
0.759 -0.10606796 0.30173114 14211028
0.76052636 -0.10498488 0.30722737 13553355
0.75899994 -0.094472997 0.3031207 13552841
0.76023537 -0.095231213 0.30796322 13553354
0.75899994 -0.084775597 0.3043372 13487564
0.76000005 -0.085747212 0.30924541 13750990
0.7584334 -0.075213842 0.30535415 13619407
0.75809985 -0.064531341 0.3052201 13948628
0.75885707 -0.055671085 0.3040854 14474459
0.7601251 -0.052247889 0.30714646 14408667
0.76055551 -0.045154754 0.30531824 14737632
0.76097208 -0.034491614 0.30548441 14671068
0.76076663 -0.024687987 0.30540234 13552844
0.75899994 -0.012826559 0.30253497 13290186
0.76004559 -0.016171897 0.30648729 12435133
0.7589047 -0.0051689511 0.30410466 12895684
0.76000005 -0.0056844004 0.30924541 11184810
0.75871426 0.0048130043 0.30521327 12632512
0.76000005 0.0029149391 0.30954191 10789795
0.7573334 0.01531148 0.30491158 12698049
0.75319237 0.02479009 0.304804 12632510
0.75065523 0.03441887 0.30410215 13093317
0.75036675 0.045036957 0.3047415 12829634
0.74900001 0.058105551 0.3036589 12698047
0.75015008 0.054243255 0.30623311 12763584
0.74795657 0.065331228 0.30440912 13026756
0.75000006 0.061694663 0.30810264 13092548
0.7478053 0.074645564 0.30545142 14211288
0.75440919 0.083899476 0.30509305 14474974
0.7624445 0.089096405 0.30458325 11447983
0.76900005 0.092061482 0.30960706 10790052
0.77500004 0.094597705 0.30557454 10724255
0.783889 0.09853714 0.30499688 10724510
0.78875005 0.10181178 0.30463442 10790303
0.7917369 0.10697928 0.30578858 10658717
0.78860009 -0.16109642 0.31380549 8947074
0.77614295 -0.15185656 0.31377909 11446953
0.78411114 -0.15679686 0.31568885 8947077
0.76716679 -0.142831 0.31335899 13882064
0.77208334 -0.14660822 0.31581959 13157826
0.76422715 -0.13523567 0.31557816 13684940
0.76299995 -0.12527312 0.3150717 13356232
0.7632916 -0.11500623 0.31535423 13487562
0.76310015 -0.1051534 0.31527299 13685199
0.76206893 -0.095106289 0.31561589 13750735
0.76161516 -0.085129865 0.31568858 13816786
0.75900006 -0.07216008 0.31135565 14672093
0.76059997 -0.07574898 0.31548545 13948117
0.75900006 -0.065496951 0.31150374 14935265
0.76061898 -0.064363934 0.31640872 13750995
0.76159096 -0.055264913 0.3150551 14540766
0.76333338 -0.045318801 0.31537056 14869474
0.76237506 -0.034557652 0.31497326 14803679
0.76190001 -0.024723323 0.31477743 14343127
0.76212502 -0.014919029 0.31487116 13554125
0.76115012 -0.0050996318 0.31446695 12961732
0.7610001 0.0048539485 0.3151741 12369338
0.75831252 0.016331643 0.31240547 11645615
0.76138467 0.01450811 0.31737503 12040373
0.7566666 0.025041942 0.31350169 11843763
0.7622 0.025226489 0.31935957 11712693
0.7560001 0.034756169 0.31322685 12040631
0.76300001 0.031505592 0.31969476 12238778
0.75553328 0.04481522 0.31338626 11909043
0.76200008 0.04484041 0.31927577 12633279
0.75439996 0.055578541 0.31409591 11250345
0.76000005 0.050952628 0.31843778 12435900
0.74900001 0.066872664 0.31032196 13224136
0.75481254 0.064961649 0.31538615 11513518
0.74833339 0.075572453 0.31208986 13948114
0.75383335 0.074804828 0.31659296 12697277
0.75568765 0.084281623 0.31397805 14145752
0.76100004 0.088965937 0.31529516 10330271
0.76540005 0.091630504 0.31353217 9935512
0.77383333 0.09535978 0.31517026 10461596
0.78371429 0.099327087 0.31552282 10527131
0.78871435 0.10207104 0.31543297 10592924
0.79190475 0.10681242 0.31538397 10527132
0.77900004 -0.15111086 0.32092774 8617856
0.78593332 -0.15540531 0.32476467 8618624
0.79000002 -0.15879287 0.32915828 8750722
0.77468753 -0.14427063 0.32436734 13882317
0.78150004 -0.14885214 0.32836038 10921121
0.76875007 -0.13382636 0.32210401 13948111
0.77285713 -0.13466956 0.32679933 14408919
0.76728576 -0.12446084 0.32174763 14013905
0.77206671 -0.12482253 0.32711151 14146006
0.76779997 -0.1147861 0.32170594 13882319
0.77266669 -0.11536207 0.32676148 14014419
0.76687509 -0.10432808 0.32199201 13750990
0.77220005 -0.10513969 0.32698616 14211283
0.76709086 -0.095252708 0.32386035 14079954
0.77300006 -0.094753981 0.32931355 14408916
0.76600003 -0.084929816 0.322745 13684944
0.77200007 -0.085182831 0.32790387 14343640
0.76599997 -0.075068988 0.32364443 13948114
0.77300006 -0.074848302 0.32931355 14474713
0.76575011 -0.065179706 0.32353804 14079955
0.77300006 -0.064895466 0.32931358 14540506
0.76718181 -0.054283164 0.3227545 13422284
0.77270013 -0.054921649 0.3282828 14343897
0.76800007 -0.044698775 0.32268989 13225164
0.773 -0.045391917 0.32830924 14541533
0.76733333 -0.035680093 0.3221105 12961993
0.77218193 -0.034591034 0.32699513 14343385
0.76850009 -0.025836447 0.32199925 12237755
0.77310008 -0.024905924 0.3262817 13750990
0.76900005 -0.011452485 0.32220876 11645614
0.7734375 -0.015591138 0.32610911 12830145
0.7675001 -0.0045446265 0.32188031 11316649
0.7728889 -0.0055819028 0.32665417 12566975
0.76714283 0.0040964568 0.32297066 11447981
0.77263641 0.0051825838 0.32817349 11909303
0.76800007 0.014036586 0.32328954 10593442
0.77266675 0.014118861 0.3276647 11975096
0.76900005 0.025452493 0.324009 10133664
0.77200001 0.024195168 0.32617897 10988457
0.76400006 0.036912497 0.32011378 12699072
0.7724545 0.035102013 0.32628873 10922148
0.76800007 0.046992656 0.32358766 11975349
0.77285725 0.043414034 0.32692838 10527389
0.76383334 0.056278121 0.32213211 12040371
0.77166671 0.056253355 0.32754302 9671824
0.76380008 0.064792551 0.3228935 11908530
0.77250004 0.064445622 0.32910058 8750465
0.75900006 0.077538073 0.32157245 13750731
0.76400006 0.074169278 0.32488608 11711151
0.76233333 0.082934424 0.32268974 11316393
0.77200001 0.088806093 0.32708025 10066325
0.76900005 0.092061482 0.32040852 10264478
0.77510011 0.094245747 0.32512796 10330009
0.78220004 0.098768562 0.32591307 10396058
0.78750008 0.10303494 0.3245827 10330266
0.79146671 0.10809302 0.3251977 10527131
0.7877273 -0.15297319 0.33324173 9079687
0.7851876 -0.1455365 0.33600378 9671824
0.77700001 -0.13475639 0.33223158 11776946
0.78257143 -0.13557707 0.33731872 9211021
0.77654552 -0.12468538 0.33363488 11185067
0.78250003 -0.1252255 0.33885631 9013643
0.77644444 -0.11547308 0.33158991 14212056
0.7831251 -0.11386862 0.33683711 10658466
0.77671432 -0.10546978 0.33193636 14277079
0.78250003 -0.10507869 0.33672011 11052455
0.77600002 -0.095121711 0.33240822 14342869
0.78140002 -0.094867602 0.33655071 11447465
0.77679998 -0.085217074 0.33275095 13882832
0.78266668 -0.084945492 0.33709621 10855843
0.77566671 -0.075108059 0.33226544 14014162
0.78100002 -0.074708752 0.3363784 11710894
0.77560008 -0.06511233 0.33223692 14079702
0.78200006 -0.064733751 0.33680913 10987431
0.77700001 -0.054576632 0.33257741 13817299
0.78300005 -0.05473689 0.3372398 9145741
0.7768333 -0.044607345 0.33246282 12566976
0.78233337 -0.044615712 0.33695266 8750212
0.77650005 -0.035650622 0.33171499 11908275
0.78316671 -0.033053149 0.3367025 8618880
0.77775002 -0.026146563 0.33133715 13948370
0.78575009 -0.024729021 0.33735514 8816260
0.77900004 -0.011601412 0.33186969 12238270
0.78540003 -0.015555737 0.33656219 9672084
0.77716666 -0.0046023619 0.33139256 11251373
0.78433341 -0.0056645535 0.33700043 8487809
0.77683336 0.0032820785 0.33246282 8751240
0.78300005 0.0048350007 0.33723977 8882308
0.77671432 0.014536151 0.33167717 9672595
0.78400004 0.015723733 0.33714813 8422527
0.77733332 0.024821946 0.33115965 9803666
0.78618187 0.024684884 0.33760887 8093305
0.77900004 0.032166265 0.33186969 8684672
0.78450012 0.035833493 0.33536431 8355706
0.77780002 0.045769293 0.33135849 8553343
0.7856667 0.045216087 0.33675668 8684671
0.77600002 0.05430137 0.33104753 8750722
0.78520012 0.054478176 0.33745557 9079685
0.77650005 0.064778171 0.33262244 9079687
0.78350002 0.065360621 0.33745512 9145478
0.77633333 0.074157409 0.33406648 9409422
0.78300005 0.077238791 0.33907282 9606799
0.77600002 0.084827408 0.33281326 9935252
0.78299999 0.084569491 0.33815747 10001044
0.77700001 0.091200233 0.33101764 10198166
0.78652942 0.096113816 0.33594546 10395545
0.78866673 0.10241672 0.33260354 10329752
0.78850007 -0.14280185 0.34145454 9737364
0.78770006 -0.13491172 0.34276885 9671569
0.79187506 -0.13576746 0.34778306 9869202
0.78760016 -0.12512091 0.34383166 9671823
0.79016668 -0.1246042 0.34772566 9737615
0.78775007 -0.11592428 0.34159124 9144970
0.79153335 -0.11474987 0.3465997 9737359
0.78785723 -0.10408498 0.34170389 9341578
0.79210007 -0.1065533 0.3465395 9671565
0.78775001 -0.094717003 0.34205329 9210759
0.79233336 -0.095267415 0.34682429 9737615
0.78830004 -0.084634185 0.3422915 9276551
0.79300004 -0.085138783 0.34711608 9540236
0.78780001 -0.075359456 0.34207502 9276552
0.7931667 -0.074943215 0.34718904 9605772
0.78781819 -0.065300763 0.34199888 9211018
0.79300004 -0.064719252 0.34680787 9539979
0.78800011 -0.055086423 0.3421616 9145482
0.79266667 -0.054794226 0.34728035 9539979
0.78766662 -0.044920653 0.34201726 9145226
0.7922501 -0.045184489 0.34771681 9408650
0.78814298 -0.035590708 0.34182763 9145223
0.79215389 -0.034549478 0.34703314 9211271
0.78900003 -0.029297439 0.34167105 9079687
0.79260886 -0.024589499 0.3461408 9013892
0.79299998 -0.014595252 0.34619194 8948100
0.78860009 -0.0052843429 0.34149781 8816515
0.78810012 0.0048673199 0.34202018 8948100
0.78840005 0.01502205 0.34141123 8619904
0.78850007 0.065783426 0.34145454 9211785
0.78783339 0.074952401 0.34208903 9606799
0.78814298 0.085390426 0.3423554 10067093
0.78850007 0.091627687 0.34145454 10263959
