# .PCD v0.7 - Point Cloud Data file format
VERSION 0.7
FIELDS x y z rgb
SIZE 4 4 4 4
TYPE F F F U
COUNT 1 1 1 1
WIDTH 719
HEIGHT 1
VIEWPOINT 0 0 0 1 0 0 0
POINTS 719
DATA ascii
0.7665 -0.38105908 -0.41094998 15855610
0.76866674 -0.3782374 -0.41151151 15461108
0.77424997 -0.37436858 -0.4129509 15133424
0.78780007 -0.65076649 -0.40577239 9603742
0.78280002 -0.6448037 -0.40503103 9603486
0.7748 -0.63549507 -0.40542322 11116469
0.76525003 -0.62408054 -0.40489721 13157076
0.77000004 -0.62885237 -0.40922132 13156821
0.75736356 -0.61353767 -0.40443888 13749980
0.76050007 -0.61842382 -0.4050597 13420246
0.75372231 -0.60458124 -0.4030205 13881566
0.76000017 -0.50394434 -0.4024013 14539751
0.76030564 -0.49545178 -0.40495804 14473959
0.76050001 -0.41477939 -0.40430796 14276833
0.75900006 -0.40420568 -0.40626267 14474212
0.76010019 -0.40492535 -0.40253606 14342370
0.75900012 -0.397257 -0.40616745 14802927
0.76025015 -0.39432544 -0.40332747 15263731
0.76388896 -0.3848156 -0.40489557 15460852
0.77000004 -0.38009578 -0.40020838 15263730
0.76871437 -0.37920395 -0.40622306 15330035
0.77293772 -0.37514704 -0.40472838 15396085
0.78533345 -0.37279737 -0.40449587 14145755
0.78866673 -0.65302163 -0.39606133 9669533
0.79260004 -0.6584425 -0.39525676 9538457
0.77900004 -0.64167351 -0.3921206 9602973
0.78428572 -0.64734143 -0.39477214 9800352
0.77360004 -0.63451082 -0.39574051 12563915
0.76600003 -0.62558562 -0.39454484 13419734
0.75709093 -0.61396044 -0.39478728 13815260
0.7610001 -0.61972064 -0.39463985 13814747
0.75438219 -0.60487711 -0.39453119 14012896
0.75584209 -0.59549558 -0.39568698 14078945
0.75667751 -0.5853439 -0.39522526 14079202
0.75576013 -0.57476217 -0.39457539 14144995
0.75538719 -0.56489193 -0.39455274 14210786
0.75646687 -0.55493128 -0.3949447 14276322
0.75700003 -0.54469109 -0.39522377 14407396
0.75785285 -0.53445035 -0.39504278 14408164
0.75844443 -0.52442241 -0.39509019 14605544
0.75900012 -0.51503569 -0.39537957 14671337
0.75899994 -0.50843602 -0.39487186 14671593
0.76000017 -0.50385308 -0.39530739 14737129
0.76072717 -0.49548328 -0.39490315 14540007
0.76116651 -0.48532167 -0.39472577 14474470
0.76144427 -0.47480455 -0.39486873 14605800
0.76099986 -0.46472892 -0.39463997 14540264
0.76099986 -0.45493042 -0.39463997 14540007
0.76099986 -0.44513223 -0.39463997 14671593
0.76105535 -0.43536538 -0.39466885 14934765
0.76163858 -0.42500135 -0.39497003 15066350
0.76139987 -0.41506487 -0.39484578 14934763
0.76094431 -0.4050189 -0.39461076 14473956
0.76077414 -0.39495933 -0.39437798 15066350
0.76455551 -0.38538879 -0.3952257 15329266
0.77000004 -0.38009581 -0.39660323 15198194
0.76900005 -0.37960216 -0.39158756 15330293
0.77308834 -0.37527743 -0.39488941 15461365
0.78535306 -0.37306985 -0.39477316 14146526
0.7932353 -0.37124261 -0.39502147 11712185
0.78840005 -0.65310776 -0.38577968 9538973
0.79040003 -0.65661484 -0.3849079 9538971
0.77840006 -0.64117932 -0.38453192 9670306
0.7845 -0.64804053 -0.38478991 9670050
0.77208346 -0.63326722 -0.38502228 13157079
0.76420003 -0.62411559 -0.38467455 13354198
0.75663638 -0.61343038 -0.38488925 13881311
0.76020002 -0.61906916 -0.38443744 13815005
0.75469995 -0.60487163 -0.38519004 14078689
0.75652778 -0.59570998 -0.38523743 14210533
0.75700003 -0.58545047 -0.38547686 14144740
0.75660014 -0.57540077 -0.38527259 14210531
0.75597262 -0.56518841 -0.38495329 14276579
0.75655574 -0.55499631 -0.38525087 14210786
0.75700003 -0.54469109 -0.38547689 14342114
0.75762492 -0.53471917 -0.38524058 14474214
0.7582069 -0.5244118 -0.3853268 14540007
0.75896794 -0.51518553 -0.38461632 14671593
0.75900018 -0.50561309 -0.38436857 14802923
0.76000005 -0.50207382 -0.38908032 14671339
0.75900012 -0.49802881 -0.38230711 14802922
0.76015389 -0.49473748 -0.38544077 14540007
0.7608999 -0.48515174 -0.38479176 14474214
0.76136649 -0.47475481 -0.38502786 14408678
0.76128 -0.46489999 -0.38498211 14474471
0.76136655 -0.45514923 -0.38502601 14803178
0.76139992 -0.44536617 -0.38504249 14737384
0.76139992 -0.43556169 -0.38504288 14802920
0.76232344 -0.42517227 -0.38487986 15066092
0.76226449 -0.41485435 -0.38485011 15132142
0.7611599 -0.40424302 -0.384922 14737384
0.76140612 -0.39434484 -0.38471165 14934763
0.76550001 -0.38541821 -0.38497949 15329521
0.77028573 -0.38075182 -0.3833541 15263984
0.76900005 -0.37960216 -0.38888717 15396084
0.77397072 -0.37618572 -0.38510993 15527155
0.78583324 -0.37349379 -0.38482511 14408929
0.7940625 -0.37140456 -0.38506049 11776950
0.78760004 -0.65336859 -0.37524551 9670044
0.79160005 -0.65946496 -0.37437341 9670042
0.778 -0.64176166 -0.37430888 9735843
0.78200001 -0.64597541 -0.37624219 9801378
0.77422225 -0.63673234 -0.37400663 11578303
0.76511121 -0.62565923 -0.37497559 12960213
0.75707144 -0.61449766 -0.37462428 13881311
0.76000005 -0.61890626 -0.37810874 13749470
0.75353336 -0.60482067 -0.37489268 14144482
0.75450003 -0.59514153 -0.37463799 14144482
0.7565335 -0.58508897 -0.37549967 14276325
0.75600028 -0.57494318 -0.37523374 14407910
0.75648504 -0.5653289 -0.3749907 14210787
0.75711101 -0.5554049 -0.37489808 14210785
0.75741661 -0.54499096 -0.37504882 14145249
0.75786096 -0.53466487 -0.37527025 14342628
0.75799996 -0.52500403 -0.37533924 14276837
0.7586453 -0.51582444 -0.37494233 14540007
0.75900012 -0.50526303 -0.37494594 14802922
0.75899994 -0.49620119 -0.37459055 14868714
0.76000017 -0.49271202 -0.3744233 14737129
0.76038897 -0.48482502 -0.37474173 14802921
0.7615276 -0.47485447 -0.3753024 14671335
0.7623226 -0.46536344 -0.37554947 14539749
0.76211393 -0.45546922 -0.37571922 14671591
0.76224977 -0.44497135 -0.37565809 14868970
0.76268595 -0.43463972 -0.37574506 14803177
0.76300031 -0.42480519 -0.3754431 14868970
0.76328135 -0.41480672 -0.37532836 15065836
0.76262486 -0.40468508 -0.37550676 15000299
0.76485425 -0.39489368 -0.37540558 15131885
0.76800001 -0.38706896 -0.37733585 15395056
0.77088463 -0.38386151 -0.37422249 15526642
0.77462077 -0.37636814 -0.37459317 15724277
0.78471428 -0.37344298 -0.37521902 14408926
0.79333335 -0.37117907 -0.37518632 11842485
0.787 -0.65305537 -0.36463997 9669787
0.79139996 -0.6592983 -0.36501259 9670041
0.77780002 -0.64250594 -0.36420625 9932963
0.78400004 -0.64946282 -0.36435401 9670044
0.77230006 -0.63525265 -0.36433917 11577786
0.76310003 -0.62411338 -0.36535898 13157588
0.75650001 -0.61417681 -0.36519021 13881566
0.75236011 -0.60387957 -0.36462238 14210531
0.75293362 -0.59464282 -0.36490008 14276326
0.75444108 -0.58466405 -0.36547583 14342119
0.7552942 -0.57502878 -0.36495245 14407912
0.75642443 -0.56576604 -0.36530223 14408166
0.75805259 -0.55548716 -0.36462328 14276836
0.75857574 -0.54542106 -0.36520976 14211042
0.75852782 -0.53513616 -0.36494446 14211043
0.75858831 -0.52478427 -0.36476466 14277092
0.75888008 -0.51559311 -0.366501 14342886
0.76000011 -0.51357919 -0.36209619 14342628
0.75899994 -0.506033 -0.36807558 14605800
0.7600528 -0.50432467 -0.36357263 14540007
0.75900006 -0.4963789 -0.36961547 14802922
0.76027596 -0.49527931 -0.36501908 14540007
0.76125699 -0.4852519 -0.36460292 14802922
0.76214266 -0.47536606 -0.36502916 14803178
0.76237059 -0.46516877 -0.36610299 14802921
0.76207125 -0.45525187 -0.36556941 14737385
0.76243758 -0.44485712 -0.36560136 14737384
0.76275027 -0.43454897 -0.36519325 15000555
0.76300031 -0.42486763 -0.36531174 15066349
0.76302969 -0.41495425 -0.36506304 15197678
0.76348591 -0.40470976 -0.36541611 15132141
0.76690012 -0.39494345 -0.36515933 15461107
0.76900005 -0.38860336 -0.36278364 15263728
0.77106678 -0.38464957 -0.36514109 15658228
0.77456671 -0.37678397 -0.36492413 15724532
0.78561908 -0.37404862 -0.36488271 14277084
0.78712511 -0.65251333 -0.35520923 9670043
0.79000002 -0.65628254 -0.35327187 9736348
0.77820003 -0.64283633 -0.35527995 9735328
0.78100002 -0.64514929 -0.35107559 9932705
0.77225012 -0.63521177 -0.35437021 11183031
0.76175004 -0.62300843 -0.35490289 13354964
0.75558335 -0.61427969 -0.35542133 13750235
0.75124002 -0.60467076 -0.35465062 14144738
0.75080013 -0.59471554 -0.35507858 14210531
0.7524724 -0.58512688 -0.35493785 14407910
0.75427252 -0.57507199 -0.35495311 14473703
0.75617152 -0.56520873 -0.35508779 14473958
0.75815785 -0.55518919 -0.35486627 14474214
0.75900006 -0.54800576 -0.35579565 14342629
0.7601853 -0.5439834 -0.35463691 14408421
0.76067638 -0.53513259 -0.35508424 14342628
0.76081806 -0.52533621 -0.3554399 14408164
0.7609427 -0.51533586 -0.35554516 14342628
0.76128185 -0.50493068 -0.35509589 14408420
0.76184589 -0.49496999 -0.35508481 14408421
0.76196134 -0.48514292 -0.35520932 14540007
0.76141918 -0.4746466 -0.35492402 14737385
0.7608 -0.46460712 -0.35535401 14934762
0.76094425 -0.45489687 -0.35542086 15000555
0.76106435 -0.44493961 -0.35544819 14802920
0.76174182 -0.43486458 -0.35490277 15066092
0.76244438 -0.42495549 -0.35503134 15197935
0.7620331 -0.41451755 -0.35503736 15197935
0.76317167 -0.40454373 -0.35464856 15197678
0.76578146 -0.39509571 -0.35487846 15461106
0.76845461 -0.38930842 -0.35492131 15526900
0.77200013 -0.38387108 -0.3550241 15724278
0.77538896 -0.37700519 -0.35530964 15790583
0.78495657 -0.37540638 -0.3548457 14277856
0.78800005 -0.65277642 -0.34499866 9670554
0.79083329 -0.65697485 -0.34531245 9605274
0.78233337 -0.64625072 -0.34526214 9867167
0.77381819 -0.63641906 -0.34471515 11972546
0.76350003 -0.62444091 -0.34499088 13157846
0.75571436 -0.61415488 -0.34463498 13816031
0.75163347 -0.60476398 -0.34502733 13947359
0.75081092 -0.59455645 -0.34457946 14210787
0.75290906 -0.58528537 -0.34521469 14276581
0.75552791 -0.57546705 -0.34581429 14407910
0.75600028 -0.56535155 -0.3453182 14671338
0.75770003 -0.55516905 -0.3448146 14671338
0.75900012 -0.54828781 -0.34397835 14474216
0.76055992 -0.54408216 -0.34523404 14605544
0.76161087 -0.53552634 -0.34503445 14671592
0.7618885 -0.52502179 -0.34516078 14605543
0.76257157 -0.51490748 -0.34534118 14540007
0.76296455 -0.50541383 -0.34532735 14408421
0.76281273 -0.49507841 -0.34501982 14474214
0.76219344 -0.48491222 -0.34515321 14540006
0.76182836 -0.4749175 -0.34525838 14540007
0.76116651 -0.46483073 -0.34483132 14540263
0.76116651 -0.45503008 -0.34483188 14671850
0.76083332 -0.44503534 -0.34468174 14868971
0.76091647 -0.43528578 -0.34471962 15132143
0.76183301 -0.425109 -0.34513557 15198192
0.7623331 -0.41468012 -0.34536019 15198192
0.76425719 -0.40486231 -0.34456873 15197935
0.76582873 -0.39519447 -0.34502274 15395314
0.76821429 -0.38833338 -0.34455746 15592693
0.77176017 -0.38356197 -0.34547666 15855864
0.77490479 -0.37776208 -0.34453416 15987702
0.78549999 -0.37595394 -0.34490159 14671842
0.79445004 -0.37346652 -0.34465343 10593446
0.78800005 -0.65277642 -0.33485267 9735577
0.7906 -0.65678102 -0.3350316 9736088
0.78240001 -0.6463058 -0.33522183 9998750
0.77463645 -0.63725662 -0.33502552 11183284
0.76541668 -0.62600911 -0.33510602 13354711
0.7572273 -0.61415243 -0.3351495 13947615
0.76000005 -0.61890626 -0.33096063 14210531
0.75455171 -0.60478598 -0.33528346 14210786
0.75332439 -0.5951674 -0.33496249 14144993
0.75334489 -0.5845381 -0.3352392 14342372
0.75424224 -0.57494295 -0.33492905 14605543
0.75600016 -0.56551594 -0.33505863 14605545
0.75787801 -0.55494857 -0.33457959 14737386
0.75899994 -0.54737401 -0.33443418 14605801
0.76026326 -0.54324472 -0.33547834 14605544
0.76075852 -0.53508222 -0.33497664 14540006
0.76065385 -0.52526629 -0.33467105 14737128
0.76138693 -0.51556128 -0.33524626 14868715
0.76254851 -0.50529051 -0.33570024 14803178
0.76264715 -0.49493071 -0.33458287 14605800
0.76302797 -0.48472208 -0.33495882 14671591
0.76313365 -0.47496468 -0.33500469 14671591
0.76246667 -0.46562579 -0.33471188 14540005
0.76199967 -0.45552832 -0.33450735 14540005
0.7617498 -0.44523692 -0.33417347 14737385
0.76112103 -0.43526831 -0.33447173 14869228
0.76173508 -0.4248434 -0.33465281 15000814
0.76300025 -0.41504321 -0.33494627 15001070
0.76474208 -0.40538999 -0.3349897 15263471
0.76633358 -0.39508277 -0.33502287 15461107
0.76793754 -0.38828969 -0.3353157 15461107
0.77134788 -0.38366297 -0.33488116 15855608
0.77518183 -0.3779473 -0.33476347 15987445
0.78556257 -0.37662429 -0.33496243 14671584
0.79459268 -0.37362346 -0.33485866 12040381
0.78800005 -0.65277642 -0.3247067 9801632
0.7911666 -0.65725178 -0.32508451 9735836
0.78200006 -0.64597541 -0.32498032 9866913
0.77450001 -0.63706195 -0.325488 11511993
0.76450002 -0.6252588 -0.32486457 13420759
0.75738096 -0.61407387 -0.32517689 13947615
0.75570852 -0.60494471 -0.32570252 14145250
0.75403684 -0.59469908 -0.32489869 14145250
0.7535429 -0.58461523 -0.32512236 14211042
0.75523818 -0.57494843 -0.32479933 14408422
0.7573244 -0.5648796 -0.32543334 14671593
0.75819999 -0.55442834 -0.32485202 14737388
0.759 -0.54524183 -0.3251946 14737388
0.75899994 -0.53777909 -0.32483932 14605543
0.76000017 -0.53397417 -0.32478032 14605799
0.76000017 -0.52549964 -0.32473347 14474213
0.76005572 -0.51486194 -0.32475761 14737386
0.76042426 -0.50483489 -0.32515916 14934764
0.76049995 -0.49526095 -0.32386771 14868715
0.76099974 -0.48521516 -0.3242715 15000556
0.7615999 -0.47490138 -0.32452744 15131885
0.76155984 -0.46507087 -0.32451004 14934506
0.76133317 -0.4551295 -0.32441333 14868713
0.76189977 -0.44476616 -0.32465357 14934506
0.76207691 -0.43492067 -0.32493398 15131884
0.7619372 -0.4253906 -0.32500359 15000299
0.7615515 -0.41440928 -0.32462937 15066092
0.76361763 -0.40459642 -0.32480785 15132399
0.76672995 -0.39511693 -0.32491523 15395570
0.76866674 -0.38903424 -0.32573664 15263728
0.77194297 -0.38373432 -0.32516178 15593204
0.77626669 -0.3780981 -0.32532138 15724529
0.78510535 -0.37700248 -0.3247683 14409698
0.79465389 -0.37365243 -0.32501042 12435908
0.78760004 -0.65244508 -0.31532437 9801630
0.7906 -0.65678102 -0.31467551 9736091
0.78180009 -0.64581019 -0.314832 9604254
0.77358335 -0.63630813 -0.31514278 11248822
0.76372725 -0.62470788 -0.3150261 13618137
0.75618756 -0.6141445 -0.31480756 14079199
0.75346428 -0.60482794 -0.31520206 14276578
0.75349993 -0.59509063 -0.31490189 14211042
0.75435883 -0.58469605 -0.31532815 14210530
0.75606662 -0.5748145 -0.31509036 14408167
0.75720018 -0.56504095 -0.31556213 14540266
0.75775748 -0.55547553 -0.31466472 14737645
0.7587502 -0.54594898 -0.31531847 14803182
0.76000005 -0.54062259 -0.31405848 15000558
0.75900006 -0.53931904 -0.3171989 14868718
0.76037937 -0.53456879 -0.3144291 14737385
0.76078111 -0.52548283 -0.31460279 14276834
0.76075 -0.515333 -0.3143672 14342370
0.76025009 -0.50539666 -0.31447846 14605542
0.76000017 -0.49525371 -0.31494808 14802921
0.76003349 -0.48459971 -0.31496203 14869229
0.76091415 -0.47434604 -0.31456354 15066350
0.76099986 -0.46472886 -0.31447175 14868971
0.76105535 -0.45496336 -0.31449437 14869227
0.76202744 -0.44484118 -0.3148967 15066347
0.76213306 -0.43508989 -0.31494066 15197933
0.76158309 -0.42497066 -0.31471431 15001069
0.76151407 -0.41436169 -0.31455594 15132398
0.76288235 -0.40468127 -0.31498641 15197935
0.76630569 -0.39471117 -0.31506971 15592435
0.76850009 -0.38924962 -0.31217375 14868712
0.7722106 -0.38465297 -0.3150582 15395826
0.77700001 -0.37908515 -0.31521037 14869478
0.78545833 -0.37783459 -0.31507263 14475233
0.79531252 -0.37332082 -0.31485593 12567749
0.78714293 -0.65259409 -0.30460802 9670044
0.79000002 -0.65628254 -0.30703676 9670298
0.78000003 -0.64432323 -0.30497622 9604254
0.77312499 -0.6357047 -0.30500075 12038851
0.76236367 -0.62343007 -0.30488989 13421015
0.75547063 -0.61334723 -0.30485091 14013152
0.75273347 -0.60429639 -0.30470952 14145250
0.7530002 -0.59469664 -0.30499604 14276834
0.75318527 -0.58475238 -0.30526766 14013662
0.75322223 -0.57531261 -0.30502242 14079457
0.75379419 -0.56495786 -0.30537301 14408166
0.7561819 -0.55528283 -0.3043555 14605800
0.75810021 -0.54548126 -0.30528805 14803179
0.75895447 -0.53632528 -0.30377379 14934766
0.76000017 -0.53415293 -0.30750787 14868972
0.75900006 -0.52865809 -0.30091128 15000558
0.76040751 -0.52535206 -0.30476686 14737385
0.76086652 -0.51541138 -0.30462044 14079454
0.76055551 -0.50521177 -0.30489126 14013662
0.76000017 -0.49525368 -0.30516249 14342884
0.76000017 -0.48470578 -0.30528969 14606056
0.75900006 -0.47505692 -0.30031899 14606570
0.76004559 -0.47474042 -0.30550453 14737642
0.75900006 -0.46883798 -0.30031902 14672363
0.76039296 -0.46492925 -0.30443126 14737899
0.76096654 -0.45491031 -0.30466014 14869741
0.76103991 -0.44515571 -0.30468953 14737897
0.76109982 -0.43539089 -0.30471376 15000554
0.76099986 -0.42464465 -0.30467328 14868968
0.76176643 -0.41437146 -0.30498055 15198190
0.76264286 -0.40445369 -0.30552316 15132655
0.76617086 -0.39508253 -0.30490541 15263984
0.77000004 -0.39091128 -0.30196756 14868970
0.77332562 -0.38484263 -0.30476236 15526898
0.78133339 -0.38020292 -0.30183855 15198446
0.77700001 -0.37991324 -0.30744117 14671585
0.78539133 -0.37865266 -0.30555987 14408670
0.79500002 -0.37403941 -0.30485973 12830406
0.78736365 -0.65308881 -0.29545453 9735835
0.79000002 -0.65628254 -0.29039213 9736859
0.77900004 -0.64349717 -0.29546699 9604252
0.78000003 -0.64432323 -0.29584625 9735839
0.77325004 -0.63603407 -0.29509389 12235971
0.76316673 -0.62416816 -0.29481778 13552599
0.75652188 -0.61353385 -0.29471803 14079456
0.75426084 -0.60456061 -0.29552537 14342628
0.75372207 -0.59526712 -0.29558256 14211042
0.75330007 -0.58523518 -0.29541737 14079456
0.75235504 -0.57552534 -0.29490525 14145250
0.75182933 -0.5645991 -0.29494786 14342628
0.75494748 -0.55441755 -0.29476175 14540263
0.75713891 -0.54478937 -0.29515204 14606057
0.75825006 -0.53516054 -0.2950297 14803179
0.759 -0.52811956 -0.29515001 14868972
0.76000017 -0.52379465 -0.29419103 14934765
0.7604444 -0.5151245 -0.29465908 14342626
0.76049995 -0.50537241 -0.2946803 13947868
0.76000017 -0.49525377 -0.29448757 14211297
0.759 -0.48234192 -0.29445547 14606312
0.76000017 -0.48696649 -0.29453439 14409189
0.75900012 -0.47505695 -0.29498845 14737897
0.76000005 -0.47212443 -0.29003963 14605798
0.75899994 -0.46601593 -0.29530203 14738154
0.76000017 -0.46355635 -0.29341069 14606568
0.76000017 -0.45522228 -0.29448751 14737640
0.76033336 -0.44563082 -0.29461685 14672102
0.76099986 -0.43533394 -0.29487509 14606310
0.76099986 -0.42464459 -0.29487509 14671847
0.76103318 -0.41486451 -0.29488817 14868970
0.76116645 -0.40513611 -0.29494011 15197935
0.76544124 -0.39638829 -0.29501349 15330034
0.77093756 -0.39138576 -0.29455173 15197936
0.77465796 -0.38424689 -0.29524893 15330289
0.78350008 -0.38033837 -0.29442072 14804455
0.78800011 -0.37898692 -0.29518762 14803426
0.79435724 -0.37530568 -0.29484519 12961220
0.78733343 -0.65222412 -0.28479972 9670555
0.79100001 -0.65711325 -0.28520074 9473686
0.77900004 -0.64349717 -0.28726053 9538458
0.78200006 -0.64597535 -0.28195786 9538974
0.77260005 -0.6354993 -0.28489816 12565194
0.76220006 -0.62337697 -0.28463221 13421014
0.75593752 -0.61394095 -0.28461939 14013921
0.75351995 -0.60480988 -0.28545165 14277094
0.75386477 -0.59521163 -0.28498012 14408422
0.75412101 -0.58512384 -0.28501347 14276835
0.75360608 -0.5750469 -0.2850315 14211299
0.75485718 -0.56510842 -0.28491673 14342885
0.75619519 -0.5552277 -0.28487015 14540263
0.75744438 -0.54500943 -0.2846303 14605801
0.75850016 -0.53511465 -0.28502792 14868973
0.75900006 -0.52925032 -0.28521594 15000559
0.76028007 -0.52480227 -0.28480655 14868972
0.76099986 -0.51550192 -0.28507668 14671592
0.76115131 -0.50499475 -0.28464666 14079711
0.76059997 -0.49475503 -0.28492573 14079711
0.75900006 -0.4812758 -0.28965801 14409189
0.76013809 -0.48482031 -0.28463048 14474467
0.75900012 -0.47721452 -0.28889653 14540519
0.7603848 -0.47421107 -0.28436592 14671846
0.76059258 -0.46487522 -0.28512055 14606054
0.76090306 -0.45478618 -0.28486726 14540004
0.76131237 -0.44497979 -0.284078 14276831
0.76158804 -0.43540767 -0.28461275 14079966
0.76136088 -0.42484593 -0.28431928 14540518
0.76188213 -0.41469666 -0.28430343 14737640
0.76248574 -0.40479019 -0.28471091 15132140
0.76652956 -0.39663696 -0.28503233 15395312
0.77039999 -0.39165464 -0.28571364 15461362
0.77424389 -0.38527444 -0.28521723 15592945
0.78313333 -0.38095316 -0.28481147 14474206
0.78818184 -0.37900582 -0.2846925 15724785
0.79456264 -0.37418765 -0.28485769 12369341
0.78850007 -0.65134472 -0.27414948 9670299
0.79166669 -0.65581387 -0.27524698 9604760
0.778 -0.64084983 -0.27596271 9538460
0.78399998 -0.64640504 -0.2744222 9604251
0.77262503 -0.63461655 -0.27632067 12499145
0.76290917 -0.62387639 -0.27555844 12894672
0.75559998 -0.61391068 -0.27385297 13947615
0.75188899 -0.60461032 -0.27560097 14342885
0.75214714 -0.5950551 -0.27482235 14474471
0.7536 -0.58493704 -0.27524939 14342885
0.75408804 -0.57494217 -0.27469969 14145762
0.75605565 -0.5659849 -0.27467042 14211556
0.75787491 -0.55563176 -0.27470174 14277348
0.75837129 -0.54555029 -0.27445301 14277606
0.75888258 -0.53564692 -0.27472088 14737388
0.76000005 -0.53172678 -0.27135831 14540264
0.76052785 -0.52586293 -0.27510709 15000814
0.76147205 -0.51582086 -0.27544796 14737385
0.76184821 -0.50529516 -0.27517918 14408420
0.76148367 -0.49515697 -0.27530798 14145247
0.76108551 -0.48514366 -0.27543607 14408419
0.76099986 -0.47452724 -0.27527836 14672104
0.76103318 -0.46474907 -0.27529034 14737640
0.76257491 -0.4554227 -0.27499563 14868969
0.76397067 -0.44571117 -0.27477109 14605796
0.76362866 -0.43517849 -0.27456808 14211295
0.76252007 -0.42460167 -0.27493536 14540774
0.76270008 -0.41487867 -0.27500069 14869738
0.76446873 -0.40487853 -0.27530426 15198187
0.7667942 -0.39513838 -0.27452379 15263980
0.77000004 -0.39091125 -0.27763268 15000553
0.77405262 -0.38570958 -0.27508625 15263980
0.78282356 -0.38092455 -0.27492374 14145242
0.78781831 -0.37849513 -0.27449971 15396333
0.79458344 -0.37351215 -0.27512428 12369854
0.78850007 -0.65134472 -0.26492295 9473690
0.78340006 -0.64529788 -0.26412657 9276057
0.77283335 -0.63297552 -0.26508418 12104642
0.76528579 -0.62500226 -0.26517656 13157587
0.75662506 -0.61316997 -0.26450628 13816285
0.7604 -0.61923206 -0.26348922 13552601
0.7531538 -0.60451686 -0.26538539 14276835
0.75092316 -0.59515381 -0.26487008 14408421
0.75159538 -0.58511871 -0.26487938 14474213
0.7549268 -0.57520044 -0.26452145 14211299
0.75694734 -0.5650292 -0.26495075 14080226
0.758389 -0.55510831 -0.26540619 13948896
0.75899988 -0.5453226 -0.26518619 14014946
0.76000005 -0.54418099 -0.26201764 13817053
0.759 -0.53813446 -0.26655915 14343397
0.76005018 -0.53434145 -0.26416969 14343397
0.76094723 -0.52554303 -0.26447606 14408932
0.76181793 -0.51564986 -0.26511613 14277089
0.76199967 -0.50547624 -0.26493701 14079454
0.76222199 -0.4949165 -0.26501352 13882074
0.76234376 -0.48484588 -0.26483163 14342625
0.76173532 -0.47472358 -0.26505229 14737383
0.7622571 -0.46473017 -0.26489735 14868969
0.76436353 -0.4555558 -0.26535109 15197934
0.76519233 -0.44558671 -0.26501352 14803175
0.76376665 -0.43483204 -0.26495498 14671845
0.76266682 -0.42468327 -0.26516891 14408929
0.76199961 -0.41462696 -0.26501399 14606051
0.76199985 -0.40498582 -0.2647019 14671843
0.76357138 -0.39479125 -0.26459247 15132392
0.76745456 -0.38831079 -0.26332256 15461357
0.77348387 -0.38402516 -0.26545209 14605790
0.78216672 -0.3806065 -0.26706627 14999776
0.77766663 -0.37963131 -0.26097748 11773856
0.78673685 -0.37778673 -0.2649599 15526885
0.79489285 -0.37343174 -0.26507202 12106936
0.78875005 -0.65155125 -0.25577193 9605020
0.7844286 -0.64588434 -0.25397399 9473434
0.77463645 -0.63527864 -0.25440699 11973827
0.7665 -0.62599391 -0.25393793 13290200
0.7567333 -0.61270356 -0.25513425 14014176
0.76100004 -0.61972064 -0.25479096 13553628
0.75484002 -0.60480988 -0.25520036 14343142
0.7531876 -0.59512132 -0.25470701 14408935
0.75332552 -0.58483839 -0.25521135 14408678
0.75684208 -0.57497334 -0.25484195 14211556
0.75854862 -0.56559539 -0.25551564 14080226
0.76000011 -0.56197274 -0.25191447 14080228
0.75899994 -0.55552202 -0.25818267 13751259
0.76040918 -0.55426347 -0.25345963 13948385
0.75900006 -0.54879546 -0.25945187 13882845
0.76037496 -0.54478329 -0.25558141 13619418
0.76072222 -0.53485245 -0.25528955 13553624
0.76307684 -0.5250805 -0.25452045 13816795
0.76444137 -0.51514769 -0.25504327 13948382
0.76390642 -0.50489467 -0.25469685 13751002
0.76408839 -0.49528575 -0.25508443 13816793
0.76382375 -0.48496604 -0.25504953 14079965
0.76335496 -0.47492921 -0.25454006 14474467
0.7629717 -0.46491182 -0.25468546 14671589
0.76321238 -0.45487127 -0.25488287 14606053
0.76425636 -0.44483259 -0.25478226 14540259
0.7647 -0.43476728 -0.25513309 14540257
0.76293129 -0.42495367 -0.2546978 14343391
0.76180756 -0.41508156 -0.25519913 14343391
0.76099986 -0.40489456 -0.25466812 14408672
0.76154828 -0.39449692 -0.25480205 15131622
0.76599997 -0.38778371 -0.25466946 15000291
0.77225929 -0.38294703 -0.25507796 13418936
0.77666676 -0.37780848 -0.25409824 11836558
0.78511119 -0.37560055 -0.25540683 11641752
0.79430002 -0.37255853 -0.25478086 11841963
0.78730774 -0.64511341 -0.2453049 9671322
0.77525002 -0.63313943 -0.24549189 11052720
0.78266668 -0.63705701 -0.24249691 9802650
0.76600003 -0.62289298 -0.24479933 11842492
0.77228576 -0.62632835 -0.24255297 9341845
0.75786668 -0.61302948 -0.24676101 14080481
0.76288241 -0.61526227 -0.24207379 10987695
0.75725937 -0.60491991 -0.24631241 14409190
0.76249999 -0.60457289 -0.24100868 10461608
0.75703704 -0.5952251 -0.246371 14475240
0.76293749 -0.5948385 -0.24114759 11185076
0.75680023 -0.58499789 -0.24652924 14343397
0.762842 -0.58456039 -0.24130483 12040642
0.75810528 -0.5758875 -0.24765551 14343654
0.7626071 -0.57454252 -0.24263391 13094099
0.75900006 -0.56834066 -0.24879086 14409191
0.76273167 -0.5649873 -0.24451593 14014688
0.7644546 -0.55541492 -0.24548329 14278117
0.77057141 -0.55303866 -0.24072887 10593709
0.76484871 -0.54488027 -0.24635755 14277861
0.77066666 -0.54460043 -0.24088733 11777725
0.76494277 -0.53466594 -0.2461243 14080481
0.77136368 -0.53475022 -0.24118692 13094095
0.76695997 -0.52517343 -0.24694416 13948894
0.77135301 -0.52522254 -0.24200299 13752282
0.76761907 -0.51532048 -0.24724977 13948893
0.7711876 -0.51518095 -0.24195169 13883868
0.76766676 -0.50519055 -0.24713688 13817306
0.77100015 -0.50512838 -0.2418931 14015198
0.76734793 -0.49469101 -0.24644719 13751770
0.77084613 -0.49531105 -0.24142908 13883613
0.76688468 -0.48517051 -0.24619325 13883356
0.77063638 -0.48537481 -0.24112391 13949405
0.76635504 -0.47505996 -0.24506232 14014685
0.76435494 -0.46452662 -0.24419197 14277344
0.76452965 -0.4548786 -0.24412276 14145757
0.76556754 -0.44503856 -0.24493155 14277599
0.76691192 -0.43512464 -0.24509665 14343648
0.76485199 -0.4249067 -0.24466905 14277855
0.76180631 -0.41534537 -0.24504918 14277855
0.76074988 -0.40491566 -0.24491177 14277343
0.76283723 -0.39445078 -0.24460161 14737635
0.77125007 -0.39064223 -0.24107012 11841969
0.76680005 -0.38874498 -0.24757597 14671069
0.7730279 -0.38465264 -0.24499172 12761521
0.77636355 -0.37670794 -0.24489789 11573641
0.78560871 -0.37403983 -0.24487591 11113861
0.79358828 -0.37085995 -0.24482946 9998983
0.78755558 -0.6352005 -0.23848332 9474196
0.77571434 -0.62417978 -0.23896232 9539479
0.78564698 -0.62517655 -0.23739557 9671832
0.76900005 -0.61453384 -0.23946702 8026500
0.77364296 -0.61461705 -0.23870943 9013393
0.78550011 -0.61472458 -0.23701441 9803421
0.77305555 -0.60449547 -0.23881406 8618892
0.78529406 -0.60532391 -0.23599052 9737885
0.76900005 -0.59293097 -0.23946702 8355723
0.77481246 -0.59513974 -0.23787145 9540765
0.78582358 -0.59491104 -0.234744 9409690
0.76900005 -0.58572996 -0.23946702 8422033
0.77422738 -0.58476043 -0.23762627 9869988
0.7855882 -0.58553487 -0.23402384 10528172
0.79144448 -0.58398682 -0.2308089 6118499
0.76900005 -0.57042789 -0.23946702 8751509
0.77388453 -0.57522941 -0.23728713 10396076
0.78570598 -0.5746994 -0.23352034 11580602
0.7731483 -0.56492037 -0.23733228 10264744
0.7853334 -0.56476504 -0.23351735 12700366
0.79222226 -0.56498688 -0.2310352 8159366
0.77359998 -0.55500132 -0.23662037 10987954
0.78542095 -0.55453247 -0.23276605 13225683
0.79000002 -0.5582642 -0.2312112 11186102
0.77459091 -0.54514754 -0.2367536 10987183
0.7850951 -0.54507267 -0.23265482 13686234
0.77560014 -0.53508425 -0.23679678 10856110
0.78515786 -0.53558379 -0.23239863 13882842
0.77584016 -0.52500719 -0.23614186 11054003
0.78506666 -0.52536869 -0.23160034 14014940
0.77527595 -0.51481146 -0.23590754 10791344
0.78364283 -0.51537377 -0.2310497 13949147
0.7756452 -0.50500655 -0.23520261 11317175
0.78300005 -0.50592262 -0.23046979 14015453
0.77496982 -0.4949187 -0.23510611 11120309
0.78059995 -0.49497357 -0.23028746 14081246
0.77456683 -0.48510104 -0.23484714 11120052
0.78000003 -0.48911375 -0.23011047 13883613
0.76900005 -0.47231466 -0.23946702 14278368
0.77331436 -0.47524562 -0.23474993 11580089
0.76811111 -0.46527591 -0.2383901 14081247
0.77348286 -0.46491897 -0.23405005 11448246
0.76840001 -0.45665368 -0.23928018 14081246
0.77350014 -0.45500571 -0.23477358 11514550
0.76900005 -0.4480114 -0.23946702 14014681
0.77335149 -0.44486836 -0.23518601 11711927
0.76900005 -0.4309091 -0.23946702 14409441
0.77327794 -0.43521345 -0.23505799 11580086
0.76814282 -0.42387876 -0.23842891 14080219
0.77346432 -0.42538914 -0.23393109 11185070
0.76575011 -0.41407248 -0.23789018 13225166
0.77292007 -0.41540664 -0.23329996 11382192
0.7651906 -0.40484288 -0.23750687 11974844
0.7731666 -0.40488604 -0.23276623 12434882
0.76630002 -0.3974584 -0.23880252 11777721
0.77337843 -0.39477462 -0.23460911 12698053
0.77609104 -0.38552067 -0.23588999 12433328
0.78350008 -0.38298428 -0.23225954 9801094
0.77733344 -0.37855849 -0.23872411 10719362
0.78653121 -0.37622285 -0.2352528 9996410
0.79072726 -0.37114209 -0.23479019 9471614
0.79426944 -0.53516883 -0.22701462 7436156
0.78900003 -0.52431041 -0.22907145 11581112
0.79457146 -0.52490568 -0.22580975 6645870
0.78840005 -0.5146848 -0.22889726 12831179
0.79426926 -0.51507574 -0.22515567 7238778
0.78761542 -0.50424182 -0.22838296 12831178
0.79410011 -0.50492311 -0.22403935 6515053
0.78633332 -0.49492332 -0.22829334 13423315
0.79417402 -0.49516511 -0.22328806 7040884
0.77900004 -0.48392755 -0.22981545 14080992
0.78615791 -0.4850277 -0.22746526 13291474
0.7937144 -0.48549819 -0.22229229 6448748
0.77820009 -0.4752335 -0.22957945 13751257
0.78577274 -0.47516918 -0.2271238 13686233
0.79350001 -0.47528332 -0.22201222 6053734
0.77866673 -0.46549019 -0.22971712 13684694
0.78563631 -0.46513766 -0.22725187 13949917
0.79349995 -0.46506599 -0.22201127 6317418
0.77900004 -0.45474911 -0.22981547 11776697
0.78565198 -0.45466784 -0.22697216 13949915
0.79206669 -0.45551544 -0.2221701 7107189
0.77880007 -0.44460577 -0.22975644 10855850
0.78574997 -0.44496572 -0.22681682 13949402
0.79235303 -0.44503087 -0.22185726 8422790
0.77866673 -0.43450251 -0.2294132 11250607
0.78596002 -0.43485054 -0.22604552 13949402
0.79166675 -0.43485892 -0.22160763 10067615
0.77788889 -0.42465836 -0.22867714 12434881
0.78569561 -0.424624 -0.22490428 13949145
0.79057139 -0.42620882 -0.2208024 10198944
0.7772308 -0.41459697 -0.22803225 12698053
0.78495449 -0.41503617 -0.22371197 13554387
0.79000002 -0.41493535 -0.22011478 9145999
0.77672219 -0.40493089 -0.2267158 13948117
0.78505272 -0.40454569 -0.22288899 12830662
0.77750009 -0.39573956 -0.22800694 12764102
0.78540009 -0.39467874 -0.22470894 10988462
0.79299998 -0.3920595 -0.22094701 7566454
0.77900004 -0.38818577 -0.22981545 12368827
0.78705555 -0.3863585 -0.22788864 11513518
0.79369235 -0.38463873 -0.22363618 7171697
0.78900003 -0.3783924 -0.22907145 5656911
0.79612499 -0.4249061 -0.2179727 6449001
0.79572225 -0.4145211 -0.21735668 7304310
0.78900003 -0.40425128 -0.21983616 6579816
0.79490483 -0.40461135 -0.21668828 7765118
0.78900003 -0.39778656 -0.21983616 6447717
0.7954666 -0.39638308 -0.21828231 8817036
