# .PCD v0.7 - Point Cloud Data file format
VERSION 0.7
FIELDS x y z rgb
SIZE 4 4 4 4
TYPE F F F U
COUNT 1 1 1 1
WIDTH 1109
HEIGHT 1
VIEWPOINT 0 0 0 1 0 0 0
POINTS 1109
DATA ascii
0.7925601 -0.045385636 0.093842596 14408401
0.78723079 -0.034336243 0.097920217 15790569
0.79276472 -0.035332192 0.093190707 13816521
0.78575003 -0.025152989 0.097336084 15462629
0.79216659 -0.024779029 0.092684545 12961984
0.78647071 -0.015120503 0.097649649 15264480
0.79253334 -0.014585181 0.092727207 12501175
0.78818184 -0.0056144763 0.098427206 15395809
0.79347372 -0.0051193116 0.09361697 12500918
0.78850007 0.0048718974 0.099642605 15330017
0.79336667 0.0049008634 0.094677538 12961211
0.78900003 0.013185014 0.099705793 15330018
0.79385191 0.015330697 0.095147945 12567224
0.79443747 0.024783885 0.09596467 12698298
0.79364294 -0.19483282 0.10493717 11118244
0.78786957 -0.18386883 0.10485537 12038575
0.79000002 -0.18838333 0.10815448 10789025
0.78404546 -0.17486845 0.10508568 15196895
0.78105569 -0.16522376 0.10510043 16447474
0.7827059 -0.15484436 0.10510206 16250096
0.78393763 -0.14507009 0.10571065 16250095
0.78509086 -0.13508114 0.10522213 16184557
0.78620005 -0.12489991 0.10487254 16316142
0.78586668 -0.11472945 0.10482724 16250349
0.78607994 -0.10463694 0.10485504 16250349
0.78716666 -0.094647549 0.1050015 16184300
0.78680009 -0.084473506 0.10495305 16052713
0.78721732 -0.074982673 0.10524861 15987175
0.78766668 -0.06520471 0.10506663 15855589
0.77850008 -0.051689163 0.1093138 13749698
0.78551859 -0.054983955 0.10518343 15657953
0.77606255 -0.04460223 0.10681093 14209480
0.78420001 -0.045887452 0.10264476 15460318
0.76775008 -0.033228159 0.10892684 14472396
0.77451855 -0.03507274 0.10465118 14143945
0.78200006 -0.036360689 0.10101755 15592418
0.76663643 -0.024877179 0.10829897 15460317
0.77412504 -0.0251213 0.10310298 14934744
0.76812506 -0.016607691 0.10898008 15592419
0.77393544 -0.01500474 0.1043395 15395295
0.78133339 -0.012549159 0.10056608 15067100
0.77514285 -0.0053642383 0.10589986 15000281
0.78333336 -0.0048377174 0.10163661 15526624
0.77658826 0.0045321719 0.10733242 15592676
0.78410518 0.0050865873 0.10294647 15526625
0.77850008 0.01331427 0.10870591 14605783
0.7844584 0.015327427 0.10455504 15197918
0.78581828 0.024729388 0.10587288 15132381
0.79000002 0.02892166 0.10168156 14738137
0.78788233 0.034975126 0.10650651 15132124
0.79115385 0.03587414 0.10154339 14935516
0.78857136 0.044297341 0.10716698 15131868
0.79112506 0.044935908 0.10205562 14935262
0.78850007 0.054709245 0.10794854 15328992
0.79079181 0.05486849 0.10270708 14935263
0.78850007 0.065323025 0.10748696 15263713
0.79088891 0.064749666 0.10241127 14145489
0.78833324 0.074998222 0.10700279 15132385
0.79088229 0.074968256 0.10190254 14145231
0.78858334 0.084713705 0.10749828 15395556
0.79205269 0.085550807 0.1024301 14145233
0.78900003 0.0938401 0.10863326 15724525
0.79337507 0.095135324 0.10381135 14803422
0.78805262 -0.18267755 0.11473258 12828862
0.79062498 -0.18783884 0.1151816 10657953
0.78372729 -0.1751319 0.11505106 14670808
0.7790001 -0.16159685 0.11439907 15921131
0.78083336 -0.16731015 0.11542948 15789289
0.77900016 -0.15567002 0.11485498 15986924
0.78000003 -0.15130484 0.11500241 16250095
0.7790001 -0.1478283 0.11576679 16315888
0.78049999 -0.14345221 0.1146194 16052972
0.78354549 -0.13431188 0.11502438 15789287
0.78599989 -0.12486814 0.114967 15855080
0.78530544 -0.11464797 0.11486545 15789287
0.78566658 -0.1045816 0.11491904 15855078
0.78719467 -0.094650418 0.11514255 15921127
0.78763354 -0.084562436 0.11520752 15986663
0.78733343 -0.075315528 0.11516299 15789025
0.78516668 -0.065003432 0.11484364 14998997
0.77638102 -0.05306609 0.11515874 12959158
0.78157145 -0.058035176 0.11392246 13354172
0.76771438 -0.041858546 0.11627012 14473166
0.77243483 -0.045824289 0.11412029 14341067
0.75900006 -0.031737134 0.11901352 15196376
0.76296973 -0.034939069 0.11481313 14604495
0.77100003 -0.039458606 0.1100656 14275274
0.759 -0.024807487 0.11830278 15460319
0.76118189 -0.02510475 0.11352077 15328732
0.75900006 -0.018410889 0.11901352 15591906
0.76229417 -0.014709153 0.11479927 15591906
0.76582617 -0.005906878 0.11625753 15526627
0.77127272 -0.0038531236 0.11174431 15197406
0.77358341 0.0047828541 0.11495854 15329247
0.77714837 0.014607633 0.11498465 14342352
0.77899998 0.020833561 0.11511549 13355458
0.78108335 0.026311951 0.11485478 14079180
0.78316665 0.035088655 0.11454552 14802390
0.78400016 0.045221396 0.11466519 15197148
0.78513324 0.055394817 0.11483206 15197406
0.78503138 0.064919569 0.11504827 15460323
0.78541172 0.074991137 0.1146612 15197409
0.78630012 0.084929474 0.11500897 15198181
0.78750014 0.095199637 0.11518472 15592940
0.78866673 0.10282717 0.11627943 12237497
0.79076469 0.10697378 0.11408395 12040115
0.78806251 -0.1825036 0.12506914 13092552
0.79066664 -0.1876176 0.12490365 10264224
0.78375 -0.17496993 0.12473011 15000030
0.78138876 -0.16529505 0.12527004 15789289
0.78133327 -0.15522173 0.12526175 15526117
0.78141659 -0.1451762 0.12527464 16052203
0.78267735 -0.1350947 0.12508838 16052202
0.7847144 -0.12525138 0.1250769 15920872
0.78603333 -0.11475227 0.12509267 15723492
0.78659993 -0.1047068 0.12518364 15855077
0.78740013 -0.094674535 0.12530956 16117734
0.78800005 -0.084601969 0.12540554 15986147
0.78752005 -0.075334042 0.12532876 15788254
0.78516662 -0.065002248 0.12495532 14472138
0.77682364 -0.052917842 0.12437516 12893107
0.78130007 -0.05717935 0.12598689 13419450
0.76641184 -0.042710394 0.12439463 14670032
0.77209097 -0.047403239 0.12517385 13551037
0.7584666 -0.033254128 0.12591204 15065302
0.76064289 -0.037276119 0.12435799 14867410
0.75716668 -0.025457878 0.12492537 15460061
0.75799996 -0.015184686 0.12541467 15461090
0.76000005 -0.011021922 0.12154255 15723748
0.75900006 -0.0086383093 0.12789769 15330019
0.7615 -0.0047547407 0.12475006 15263968
0.76700002 0.0010656738 0.12516195 15264224
0.77263641 0.0062567908 0.12485086 15197918
0.77747625 0.014122481 0.12433692 14933976
0.78100008 0.017753428 0.12742649 14605011
0.78136104 0.024945699 0.1252647 13289407
0.77816671 0.035470236 0.12558484 13487043
0.78000003 0.032511886 0.1216977 13552323
0.77755558 0.044849038 0.1246507 14210767
0.77804559 0.054646429 0.12613708 14539477
0.78037506 0.055745151 0.12122305 15065821
0.77779168 0.064891644 0.12650985 14802650
0.78108341 0.065166317 0.1215609 15263200
0.77824998 0.073356524 0.12818009 15065821
0.78195453 0.07589063 0.12410719 15197407
0.78481483 0.084567353 0.12530346 15460836
0.78723347 0.095167287 0.1252836 15461351
0.78900003 0.10266498 0.1243333 12435130
0.79135001 0.10733696 0.12538326 11908784
0.78833342 -0.18198879 0.13422531 14080218
0.79115385 -0.18709287 0.13559549 10132637
0.78446436 -0.17447488 0.13520603 15263203
0.78203827 -0.1647267 0.13530076 16183791
0.78199983 -0.15535417 0.13543475 15460323
0.78213316 -0.14530967 0.13545837 15789030
0.78278571 -0.13482736 0.13557264 15920615
0.78426486 -0.12523706 0.13469534 16117994
0.78663903 -0.11483958 0.13531813 16183786
0.78743345 -0.10481857 0.13545291 16117992
0.78643757 -0.095137067 0.1350493 15854561
0.78488237 -0.084915444 0.13522542 15788768
0.78516662 -0.075106785 0.13506018 15722718
0.78555542 -0.06503132 0.13513076 13946049
0.77736372 -0.051532149 0.1351272 13024948
0.7826876 -0.056663498 0.13521084 13419706
0.76442862 -0.042194042 0.1353295 14275787
0.77260005 -0.04713944 0.13453059 13683393
0.7555384 -0.034591593 0.13540368 14868181
0.76075006 -0.03893403 0.13264401 14670801
0.74900001 -0.027812144 0.13848655 15328989
0.75230306 -0.025052713 0.13428925 15460318
0.75672722 -0.015048184 0.13508287 15526626
0.75900006 -0.0083421702 0.13441275 15197662
0.76085716 -0.0039076251 0.13499546 14868955
0.76527274 0.0010640501 0.13481638 14869213
0.77282608 0.006705231 0.13494618 15263712
0.77728575 0.012601485 0.13539799 15460577
0.78091669 0.017164273 0.13478945 14605012
0.77900004 0.029430782 0.13673881 13487043
0.78125924 0.024433266 0.13510251 13816008
0.77768004 0.034840163 0.13468692 13421250
0.77700025 0.044816472 0.13456875 13552582
0.77646691 0.054782629 0.13538386 14013133
0.77533317 0.064685509 0.13518573 14342098
0.77596653 0.074731931 0.13529508 14539477
0.77841681 0.082408018 0.1361801 14868442
0.78223521 0.086322702 0.13374944 15263200
0.78576487 0.094992772 0.13489358 15526887
0.78890002 0.10275467 0.13478246 12105910
0.79140007 0.10771421 0.13520972 11974577
0.78853327 -0.18212721 0.14542681 14474462
0.79120004 -0.18718934 0.14480647 10197917
0.78495842 -0.17447583 0.14528814 15723496
0.78246158 -0.16481526 0.1445336 16447476
0.7833336 -0.15470114 0.14483596 15920617
0.78392011 -0.14472429 0.14494595 15854824
0.7847001 -0.1347632 0.14508858 16052202
0.78583997 -0.12484214 0.14529866 16314859
0.78599995 -0.11490685 0.14519902 15986149
0.78435737 -0.10441101 0.14554289 15788770
0.77880007 -0.092365898 0.14873652 15985892
0.78232008 -0.095421463 0.14478959 16183527
0.77878582 -0.085695699 0.14777005 15854306
0.78118175 -0.084035844 0.14352106 15854306
0.78352004 -0.074946448 0.14487001 15064790
0.78479993 -0.064970449 0.14510503 13814206
0.76800001 -0.050092481 0.14829105 13551551
0.77552384 -0.053786516 0.1458938 13419707
0.78177786 -0.056889195 0.14291793 13419961
0.75699997 -0.042015933 0.14664087 14276045
0.76317644 -0.045367256 0.14425571 14209994
0.77175003 -0.048079163 0.14223994 13551552
0.7480588 -0.033237964 0.14552218 14736598
0.75292856 -0.037152372 0.14361455 14539217
0.74808329 -0.026901104 0.14444517 15328735
0.75108337 -0.021734186 0.1450263 15592421
0.75718206 -0.014573592 0.1448331 15066075
0.75900006 -0.0086383093 0.14211234 14539477
0.76080769 -0.0048206942 0.14526002 14539478
0.7665 0.0017895097 0.14415638 14671065
0.77247381 0.0068204715 0.14549021 14736856
0.77725929 0.014745533 0.14512599 14934233
0.78050005 0.017611466 0.14065643 14670804
0.77900004 0.026695302 0.1435775 13947595
0.78006268 0.024677027 0.14531377 14144717
0.77876937 0.035872824 0.14216818 13684168
0.78049999 0.034169339 0.14716665 13749961
0.77770591 0.045068495 0.14443834 13815754
0.78050005 0.041363433 0.14979225 13881547
0.77547991 0.054712359 0.14519733 13947340
0.77406675 0.064580046 0.14493312 14078926
0.77447999 0.074588396 0.14501037 14144719
0.77731049 0.083835728 0.14478683 14473941
0.78071439 0.089547344 0.14460889 14803166
0.78448159 0.095759138 0.14504449 15197926
0.78874999 0.10273531 0.14491378 11908787
0.79131252 0.10758615 0.14480555 11908784
0.78833324 -0.18245021 0.15498662 14277335
0.79039997 -0.187554 0.15539245 10197658
0.78529626 -0.17419274 0.1547986 15789803
0.78313363 -0.16474538 0.15488127 16579319
0.78490901 -0.15526104 0.15481529 16315633
0.78579992 -0.14507192 0.15448998 16315374
0.78548473 -0.13464998 0.15492782 16249323
0.78376681 -0.1245152 0.15500072 15656928
0.77862501 -0.11389963 0.15786241 15986406
0.78245455 -0.11539741 0.15332742 15591904
0.778579 -0.1045993 0.15584993 15986406
0.78141665 -0.10661045 0.15164413 15986406
0.77796441 -0.095038556 0.15496375 15985892
0.7782858 -0.085986659 0.15440051 15788512
0.78111112 -0.081220396 0.15641184 15722720
0.78366667 -0.074960418 0.15498573 14603981
0.77757156 -0.062159333 0.15676895 13748670
0.78316683 -0.066515855 0.15427372 13748413
0.7650001 -0.052503634 0.15527922 13551808
0.77345002 -0.057331841 0.15441141 13551293
0.74880004 -0.040426083 0.15597865 14078667
0.75459999 -0.044491109 0.15485229 14144459
0.76071435 -0.049363106 0.15362439 13749700
0.74716127 -0.034910932 0.15490289 14341840
0.74766666 -0.027260877 0.15465859 15197407
0.75169235 -0.022359582 0.15536302 15329251
0.75755173 -0.015772427 0.15474468 14605526
0.76000005 -0.010784699 0.15617713 14671575
0.76315993 -0.0051064254 0.15504217 14802904
0.76780003 0.00060875353 0.15310818 14671062
0.77337044 0.0058218716 0.15553163 15065818
0.77775013 0.014092612 0.15418014 15131355
0.7802 0.017786946 0.15740618 14933976
0.78116673 0.02494172 0.15540777 14210510
0.78192294 0.035032704 0.15534599 13947595
0.77820003 0.048346177 0.15408789 13947339
0.78109998 0.043313809 0.15575901 13881546
0.77558619 0.054844327 0.15504831 14013132
0.7744444 0.064611882 0.15497722 14078925
0.77524126 0.074535891 0.15498033 14210511
0.77733344 0.084874891 0.15464377 14605527
0.78414816 0.0956503 0.1549093 15066339
0.78870004 0.10272886 0.155058 11842738
0.79205877 0.10791352 0.15506382 11908784
0.78826314 -0.18262859 0.16536471 14079702
0.79000002 -0.18745863 0.16456129 10131863
0.78550011 -0.17463891 0.16487002 15592425
0.78312021 -0.1647426 0.16496147 16316147
0.7845456 -0.1546884 0.16475843 16513010
0.78583336 -0.14507756 0.16461045 15920100
0.77900004 -0.13105069 0.16956456 15919586
0.78410351 -0.1357113 0.16478366 15591134
0.77780968 -0.12452266 0.16592199 15985635
0.78111118 -0.12795284 0.16270842 15854563
0.77641708 -0.11516675 0.16445619 15854050
0.77748495 -0.10481581 0.16493376 15788514
0.77860892 -0.09603519 0.16337816 15788513
0.78062505 -0.093175113 0.16763432 15722720
0.77900004 -0.08819484 0.16044629 15722719
0.78189284 -0.084597945 0.16496667 15590877
0.78251868 -0.074651904 0.16524039 14011587
0.77637488 -0.064426258 0.16550584 13748671
0.78116673 -0.068629466 0.16302562 13617085
0.75866669 -0.051852047 0.16809845 13881288
0.76389474 -0.054442927 0.16533355 13486015
0.7725001 -0.058344521 0.1638083 13485500
0.74783343 -0.04294233 0.16657199 14144460
0.75473678 -0.047186643 0.16474415 14143945
0.76000005 -0.049570683 0.16009133 14012874
0.74600017 -0.03556123 0.1649989 14144460
0.74686962 -0.026970474 0.165382 15262941
0.75192314 -0.021960814 0.1643462 15131614
0.75752944 -0.017381387 0.16499364 14671063
0.76075 -0.011996519 0.16514759 14868699
0.76547611 -0.0059745843 0.16440058 14802906
0.77083331 -0.0021557084 0.16748689 14802649
0.77446669 0.0047898637 0.1649532 15131613
0.77853858 0.012309868 0.16455786 15066076
0.78118753 0.016713325 0.16546842 14802648
0.78219992 0.024974441 0.16476768 14210766
0.78219992 0.035045296 0.16476788 14210510
0.77883339 0.048264608 0.16618571 14144718
0.78091663 0.043364748 0.16480155 13947596
0.77646166 0.054641273 0.16516717 14210511
0.77553326 0.064702071 0.16517943 14078925
0.77642322 0.074915186 0.1651585 14210768
0.77800012 0.083544254 0.164304 14474197
0.78055561 0.088775314 0.16624987 14671834
0.7846297 0.095980294 0.16487119 14671579
0.78858346 0.10271379 0.16518955 11842735
0.79160005 0.10774145 0.1648943 11842991
0.78809994 -0.18331973 0.17523491 13487049
0.79000002 -0.18838333 0.17473303 10460057
0.78457159 -0.17403837 0.17503993 15789290
0.78353363 -0.16482872 0.1751373 16381427
0.78327304 -0.15510723 0.17482822 15065308
0.77900004 -0.14016895 0.17868282 15525343
0.78178126 -0.14495997 0.17485622 15130071
0.77850008 -0.13370161 0.17617621 16117221
0.78133345 -0.13677919 0.17250925 16117220
0.77665401 -0.1250634 0.17471789 15985636
0.77633369 -0.11540043 0.17493215 15788000
0.77839136 -0.10575242 0.1746622 15722207
0.78057146 -0.10077245 0.17617352 15722207
0.78214806 -0.094755039 0.17533731 15656670
0.78316706 -0.084999368 0.17505492 15261913
0.77787501 -0.071223699 0.17614549 13748671
0.78233337 -0.076146714 0.17473683 14011587
0.76612502 -0.061404891 0.1763977 13419964
0.77382624 -0.065914348 0.17434302 13683135
0.7562381 -0.053207949 0.17522749 13815495
0.76200008 -0.057811059 0.17396623 13223357
0.74636006 -0.044560738 0.17552683 14144461
0.75100005 -0.04863251 0.17261007 14078667
0.74422234 -0.035476431 0.17505924 14144461
0.7457577 -0.025517648 0.17534013 14933721
0.75075006 -0.020847049 0.17307971 14604757
0.75616676 -0.01745303 0.17491573 15065564
0.7612353 -0.012330474 0.17523696 15065308
0.76700008 -0.0073459968 0.17482607 14999771
0.77176929 -0.0030834391 0.17563407 15197149
0.77593946 0.0045515075 0.17484406 15263199
0.77900004 0.011194251 0.17321187 15131612
0.7812174 0.015521679 0.17553426 14868440
0.78247237 0.024984039 0.17490011 14342095
0.7823 0.035048731 0.1748623 14211022
0.77866673 0.047646131 0.17496061 14079694
0.78066671 0.042285852 0.17541 14211023
0.77704018 0.05482205 0.17459556 14013646
0.77606088 0.064993918 0.17487095 14013645
0.77620709 0.074628703 0.17515945 14276562
0.77833337 0.081791721 0.17488553 14802649
0.78115791 0.087551571 0.17523085 14474199
0.78496313 0.095612593 0.17494541 14408664
0.78858346 0.10317556 0.1758045 11711663
0.79050004 0.10782143 0.17437996 11777455
0.79153341 0.11514122 0.17506942 11777198
0.7907356 0.12493523 0.17489372 11777198
0.78809094 -0.18314977 0.18496136 13815756
0.79020005 -0.18843102 0.1849525 10262421
0.78488886 -0.17450911 0.18513744 15460328
0.78408003 -0.16494387 0.18535554 16117998
0.78443342 -0.15492035 0.18544053 15262689
0.78236008 -0.14443956 0.18495119 13946570
0.77858335 -0.13379176 0.18473858 15920100
0.78050011 -0.13830735 0.18633552 14538961
0.77668989 -0.12533388 0.18467303 16249064
0.77675778 -0.11496649 0.18494558 16314600
0.7790001 -0.10810306 0.18445773 16116965
0.78154999 -0.10320941 0.18512367 15788257
0.78424001 -0.095213167 0.18539488 15656926
0.78313357 -0.084999479 0.18513016 14801359
0.77532148 -0.073782556 0.18574202 13748414
0.78100002 -0.077634566 0.18243164 13880001
0.75825 -0.060551215 0.18812273 13485758
0.7639091 -0.063893899 0.18521632 13486013
0.77162504 -0.067265309 0.18263508 13682878
0.74842864 -0.051069003 0.18643698 14144460
0.7548334 -0.055203479 0.18476795 13749702
0.76000005 -0.058466557 0.1814414 13486530
0.74527591 -0.045124851 0.18490265 14210254
0.74255556 -0.035398874 0.18509814 14341072
0.74297291 -0.024856193 0.18503451 14934234
0.74766666 -0.018037787 0.1864689 15263454
0.75545007 -0.015135665 0.1846859 15263198
0.76144451 -0.011042262 0.18416029 15131613
0.76672727 -0.0079081748 0.18532805 15394528
0.77258825 -0.0034711368 0.18508458 15460320
0.77700007 0.0030749529 0.18468061 15394784
0.78100008 0.0080658095 0.18579072 15263197
0.78219986 0.014903273 0.18491167 14934232
0.78263348 0.024989251 0.18501358 14408145
0.78272009 0.03506729 0.1850335 14210766
0.778889 0.04806551 0.18250701 14276815
0.78095651 0.044127811 0.18572859 14276559
0.77813798 0.055025097 0.18470557 14144973
0.78000003 0.051380493 0.18986815 14276559
0.77669722 0.064549968 0.18493196 14079436
0.77615398 0.074888453 0.18508817 14277072
0.77813059 0.083018951 0.18466081 14408919
0.78109097 0.088689446 0.18514544 14474456
0.78482145 0.09599559 0.18493807 14474456
0.788625 0.1036427 0.18458249 11646126
0.79009998 0.10827496 0.18548346 11777455
0.79116005 0.11508863 0.18517746 11842991
0.79176009 0.12444372 0.18531868 11711405
0.78852946 -0.18282141 0.19498482 14802394
0.79059994 -0.1876017 0.1952244 10525850
0.78583992 -0.17451641 0.19497061 15394788
0.78562963 -0.16486098 0.19512317 16052205
0.78642845 -0.15498483 0.19491895 15657445
0.77900004 -0.14016895 0.198743 14078413
0.7833215 -0.14461899 0.19493118 14275792
0.77715391 -0.13389121 0.19547114 14341072
0.78000003 -0.13852289 0.19260715 13814983
0.77603364 -0.12510164 0.19526091 16051943
0.77645195 -0.1153164 0.19463317 16380650
0.77866673 -0.10705348 0.19574122 16117479
0.78163165 -0.10260043 0.19401918 15920100
0.78313333 -0.095079549 0.19520828 15788256
0.77850008 -0.08335495 0.19702004 14077382
0.78186375 -0.086523384 0.19381334 14603981
0.7741071 -0.076062344 0.19509783 13682879
0.75800002 -0.061608512 0.19389203 13288636
0.76304352 -0.066707887 0.19490275 13485758
0.74731809 -0.052881166 0.19535036 14144973
0.75378579 -0.058243662 0.1947064 13683908
0.74462074 -0.04514372 0.19483927 14342352
0.74186105 -0.035366651 0.19534557 14342097
0.73900002 -0.025710808 0.19848552 14473428
0.74078113 -0.02479402 0.19457306 14671063
0.74578261 -0.016682053 0.19520003 15197408
0.75456256 -0.011675315 0.19426927 15131614
0.75833338 -0.0086307218 0.19702017 15131615
0.76366675 -0.0063023339 0.1951852 15658212
0.77255559 -0.0023602499 0.19408257 15526369
0.77677274 0.0028175795 0.19569264 15394784
0.78130776 0.0081325863 0.19412407 15262941
0.78283352 0.014915135 0.19513865 14934233
0.78297257 0.024998307 0.19517386 14473938
0.78280032 0.035071135 0.19513097 14276560
0.78223526 0.044902585 0.19526167 14276303
0.77900004 0.057190835 0.19367732 14144973
0.78112495 0.053853855 0.19642957 14144973
0.77681267 0.065033577 0.19488819 14210766
0.77648163 0.074579351 0.19486904 14605525
0.77869236 0.082004182 0.19459869 14079441
0.78129417 0.087509565 0.19502495 14211285
0.78525013 0.09532728 0.19534782 14540253
0.78900003 0.10245975 0.19359815 11645614
0.79142112 0.10654695 0.1951846 11777199
0.78866667 -0.18252732 0.20490178 14868444
0.79072726 -0.18771611 0.20493191 11184296
0.78648275 -0.17453204 0.20509526 15657703
0.78574991 -0.16495083 0.2048317 16117997
0.7849412 -0.15475196 0.20506568 15986410
0.77900004 -0.14062487 0.20239031 14604244
0.78204536 -0.14512976 0.20509511 15460066
0.77765232 -0.13430747 0.20465463 13815239
0.78050005 -0.13678569 0.20917451 14341327
0.77624023 -0.12513565 0.20530821 15065306
0.77648598 -0.11504616 0.20459208 16380650
0.77745175 -0.10513256 0.20456919 16051685
0.77850002 -0.095426254 0.20499283 15788000
0.78000003 -0.091047041 0.20995408 14340554
0.77837032 -0.085189752 0.20445471 14011588
0.78000003 -0.08739505 0.20995408 13880001
0.77455187 -0.075161539 0.20523717 13683135
0.75825 -0.061882664 0.20543048 13552579
0.764 -0.06615857 0.20475058 13354943
0.74588895 -0.053504441 0.20542678 14276559
0.75300002 -0.058908932 0.20483837 13750215
0.74346673 -0.045013946 0.20481728 14408144
0.73885715 -0.031883448 0.20752767 14342095
0.74103433 -0.036132526 0.20490806 14407887
0.73860013 -0.025350967 0.2053218 14407891
0.74033338 -0.02229015 0.20303154 14671063
0.74470007 -0.015441493 0.20515504 15197407
0.75228566 -0.01057383 0.20450579 15131614
0.75790906 -0.0078182425 0.20529775 14933978
0.76407146 -0.0042196666 0.20464404 15855335
0.77000004 -0.0015531663 0.2054598 15789798
0.77552944 0.0049044644 0.20479624 15263454
0.77900004 0.011558982 0.20713182 15066075
0.78117394 0.015361459 0.20486152 14802903
0.78203219 0.025114546 0.20518443 14473938
0.77899998 0.036204346 0.20890339 14605524
0.7812174 0.034603626 0.20455413 14408145
0.77900004 0.044020008 0.20907706 14473938
0.78159267 0.045386955 0.20448478 14408145
0.77900004 0.058609232 0.20968492 14013387
0.78110349 0.054982632 0.2055205 14144973
0.77802938 0.064694256 0.20513934 14144973
0.77812004 0.074793339 0.20478587 14342352
0.78000003 0.078161739 0.20934542 13947339
0.77900004 0.080493063 0.20147848 14013135
0.78144014 0.084772684 0.20543812 14078930
0.7857098 0.095138319 0.20490268 14539995
0.7924763 0.1051245 0.20518321 11645868
0.78860003 -0.18214263 0.21448404 14868188
0.79091668 -0.18721467 0.21520685 12697793
0.78596151 -0.1746857 0.21502553 15723496
0.78326702 -0.16477385 0.21541606 15920875
0.78311467 -0.15479043 0.21524408 15986411
0.78344023 -0.14463624 0.21455011 15657188
0.77900004 -0.13105069 0.21150859 14078413
0.78212506 -0.13539247 0.21541071 14802390
0.77745473 -0.12491953 0.2143168 14012619
0.78066665 -0.12889485 0.21866189 13881033
0.77605921 -0.11489965 0.21498469 15985894
0.77662092 -0.10532156 0.21524988 16051686
0.77863169 -0.097410135 0.21505462 15854050
0.78100014 -0.092326619 0.21570891 14537932
0.77900004 -0.081812054 0.21150859 13683135
0.78148001 -0.085659608 0.21598817 13814721
0.77506244 -0.075113341 0.21497214 13617343
0.74650007 -0.061360914 0.21841139 14210510
0.7552858 -0.063411139 0.21479011 13683652
0.76364291 -0.067816064 0.21486899 13288637
0.74436116 -0.054654192 0.21516973 14408145
0.75000006 -0.059453022 0.21065776 14473423
0.73877776 -0.042614069 0.21769017 14408145
0.74154162 -0.045692232 0.21399343 14408145
0.73728579 -0.035023671 0.21497382 14210253
0.74000001 -0.039604425 0.21131368 14539218
0.73605561 -0.024746032 0.21449202 14209998
0.7385 -0.018345542 0.21607041 14868440
0.74430764 -0.013959428 0.21508957 15131614
0.75000006 -0.010291643 0.21153565 15328993
0.75658327 -0.0077231675 0.21516001 15065820
0.76353842 -0.0040111672 0.21555978 15263199
0.77000004 -0.0015531663 0.21492337 15986921
0.77583879 0.0045360522 0.21480896 15460320
0.78000003 0.009382627 0.21908407 15328734
0.77900004 0.011194251 0.21150859 15131355
0.78138471 0.015240032 0.21553431 14802903
0.78168559 0.024825066 0.21511386 14408145
0.77830011 0.035414781 0.21423367 14473938
0.78020006 0.032763373 0.21840985 14408145
0.77723354 0.044830751 0.21466687 14539730
0.77820832 0.05475517 0.21508734 14408144
0.78000003 0.058684465 0.21178009 14079180
0.77899992 0.064992025 0.2151559 14276558
0.77900004 0.072286628 0.21401611 14473937
0.78076476 0.07648319 0.21618211 14276558
0.78187478 0.085080646 0.21492073 14013135
0.78506267 0.09531346 0.21533352 14408664
0.78900003 0.10184405 0.21607077 11777198
0.79211766 0.10584944 0.2145225 11711405
0.78854555 -0.18182792 0.22551213 14736601
0.79094118 -0.18686658 0.22466208 13026758
0.78551722 -0.17431866 0.22507152 15920875
0.78300017 -0.16471793 0.22542576 16184302
0.78312933 -0.15451322 0.22528535 16118509
0.78453344 -0.14483668 0.22494863 16118764
0.78414297 -0.13558918 0.22549312 15723748
0.77900004 -0.12193244 0.22214656 13814471
0.78181821 -0.12587015 0.22566876 14078668
0.77741688 -0.11440685 0.22480507 15327709
0.78000003 -0.11843696 0.22821404 13485506
0.77623105 -0.1050036 0.22508414 15920099
0.77826101 -0.097179048 0.22564602 15327961
0.78016669 -0.092588156 0.22384863 14472395
0.77807701 -0.083117373 0.22610813 13682879
0.78086674 -0.087248698 0.22407931 13814720
0.75900006 -0.070827454 0.22917716 13222588
0.76420003 -0.072029755 0.2251939 13222843
0.77385724 -0.077135146 0.22460034 13551550
0.74576467 -0.062508732 0.22517805 14276303
0.7545715 -0.067136765 0.22467723 13683652
0.76050007 -0.069187082 0.22161794 13091772
0.73900002 -0.051660988 0.22746325 14736853
0.74180001 -0.055217259 0.22438715 14539475
0.73875016 -0.044654697 0.22500873 14670804
0.74016666 -0.04914324 0.22406717 14605524
0.73665714 -0.034994442 0.22489604 13881288
0.73522228 -0.024718923 0.22458042 13683909
0.73733342 -0.017365776 0.22574134 14341584
0.74372733 -0.012574995 0.22464147 15066077
0.74766666 -0.0079252385 0.22721237 15263711
0.75511771 -0.0059892586 0.22446609 15132124
0.76360011 -0.002253331 0.22465642 14671059
0.76500005 0.00024779799 0.22919793 15724003
0.77577782 0.0045639644 0.22495916 15460576
0.78020006 0.0090198349 0.22388878 15131611
0.77900004 0.012106078 0.2297451 15000282
0.78167993 0.014893834 0.22504519 14802903
0.78270018 0.024989506 0.22533938 14342352
0.77900004 0.038245108 0.22366627 14539731
0.78142095 0.033949606 0.22516449 14408145
0.77819425 0.044884164 0.22495556 14474195
0.77826661 0.054910965 0.22497603 14539732
0.77899998 0.064350367 0.22400399 14539732
0.78025001 0.068293259 0.22783068 13947340
0.77900004 0.071374804 0.22153868 14802903
0.78152168 0.075584881 0.22524028 14473683
0.78252 0.084521882 0.22528774 14342355
0.78500009 0.094932668 0.22522958 14408662
0.78900003 0.10237179 0.22609769 11777199
0.79145455 0.10704838 0.22474232 11645612
0.78824997 -0.18280044 0.23542473 14342357
0.79037499 -0.18777923 0.23425573 11645104
0.78503859 -0.17448004 0.23498844 15657959
0.78384012 -0.16489361 0.23484443 16052717
0.78430009 -0.1548931 0.23498192 15921130
0.78483993 -0.14489412 0.23514272 15724264
0.78489989 -0.13479979 0.23516051 15461092
0.78353852 -0.1243395 0.23496413 14538964
0.77786672 -0.11265174 0.23487432 14406606
0.78058338 -0.11761254 0.23478097 13616835
0.77613831 -0.1052565 0.23510376 15656928
0.77849996 -0.095425695 0.23506533 14472652
0.78000003 -0.091047041 0.23004003 14077893
0.77700013 -0.084907778 0.23535115 13682877
0.78000003 -0.088612378 0.2306487 13814721
0.75814289 -0.071001299 0.23576213 13683139
0.76400006 -0.074398689 0.23497497 13419451
0.77250004 -0.078599006 0.23415586 13616829
0.7460435 -0.063623659 0.23505978 14473425
0.75400001 -0.06859573 0.23472156 14078154
0.73900002 -0.051660988 0.23005827 14539731
0.74171418 -0.055078417 0.23524526 14868183
0.7390002 -0.044484641 0.23396677 14605011
0.74000001 -0.04891583 0.23556662 14999769
0.73748589 -0.035083536 0.23520881 13947081
0.73583341 -0.024739278 0.23510101 13354946
0.73650002 -0.014899409 0.23568925 14078669
0.74157143 -0.011166902 0.23259313 14934489
0.73750007 -0.0083936136 0.23908648 14737623
0.74492306 -0.0055891005 0.23571968 15263453
0.75454545 -0.0028033813 0.23264457 15066074
0.75677776 0.0012314836 0.2375568 15065559
0.76388896 0.0033308188 0.23472176 15394781
0.77350003 0.0072948048 0.23385292 15328733
0.77720839 0.014053028 0.23573327 14933976
0.78042859 0.017479008 0.23199275 14671317
0.77900004 0.023047997 0.23840746 14342352
0.78109378 0.025167078 0.23441671 14342352
0.77892327 0.036020182 0.2367356 14342352
0.78088236 0.034124997 0.23298693 14342352
0.77879989 0.044921156 0.23515503 14473938
0.77900016 0.053398795 0.23430429 14473938
0.78018188 0.057038151 0.23673552 14342352
0.78142428 0.065113932 0.23489676 14408146
0.7832002 0.07542669 0.23465222 14079184
0.78292024 0.08456406 0.23456722 14276563
0.78562516 0.095208362 0.23503162 13948110
0.78870004 0.10272887 0.23445153 11777198
0.79079998 0.10763177 0.23507603 11645612
0.79378575 0.11527336 0.23470221 11579819
0.79310352 -0.19470024 0.24504074 10196888
0.78812504 -0.18401796 0.24535121 13947601
0.79000002 -0.18838333 0.24223627 10065302
0.78460002 -0.17424059 0.2451714 15789545
0.78423345 -0.16497633 0.24505553 16184044
0.7842859 -0.15502208 0.24493991 16183788
0.78348398 -0.14482175 0.24496703 15986410
0.78325015 -0.13508889 0.24451725 15789031
0.78300005 -0.1251708 0.24503136 15394016
0.77829415 -0.1126059 0.24475698 13683139
0.78110009 -0.11769076 0.24499348 14274764
0.77626932 -0.10500935 0.24508525 14736084
0.77705562 -0.095251292 0.24463116 14209479
0.76700008 -0.081450164 0.24775161 13485756
0.77457142 -0.085366145 0.24462333 13617085
0.74725008 -0.071918078 0.24836934 14473167
0.75521064 -0.073639877 0.24524112 13881031
0.76300007 -0.077096343 0.24359813 13222585
0.7713334 -0.079201184 0.24192733 13616571
0.74547058 -0.064949274 0.2453645 14802133
0.75000006 -0.069109723 0.2422615 14407632
0.74259371 -0.05474104 0.24475802 14999511
0.73899996 -0.042626485 0.24236059 14473425
0.74061114 -0.045609459 0.24577969 15065304
0.73777425 -0.035253271 0.24477713 14144459
0.74000001 -0.039604425 0.24942547 14605011
0.73584384 -0.024525087 0.24490395 13288638
0.73424983 -0.014373494 0.24490863 13617349
0.73619241 -0.0055259299 0.24588458 15131868
0.74280006 -0.0025402883 0.2428892 14934488
0.73900002 0.00023937608 0.24908841 15263454
0.74549997 0.0007654014 0.24533896 15065817
0.75566673 0.0029988522 0.2436955 15131352
0.76363641 0.0065883235 0.24438949 15262937
0.7705 0.0092683509 0.24437411 15131352
0.77612001 0.015228483 0.24502784 14802389
0.77899981 0.024871651 0.24524617 14276302
0.77796656 0.03485357 0.24491888 14407888
0.77775002 0.044861194 0.24485053 14408145
0.77893764 0.053134158 0.24590994 14408145
0.78007698 0.057004724 0.24439096 14473938
0.7818439 0.065460637 0.24488141 14079438
0.78290009 0.075397 0.24463825 14013904
0.78229994 0.084496967 0.24445178 14474456
0.7858752 0.094779752 0.24499543 14079441
0.78900003 0.1025367 0.24308406 11776941
0.79110533 0.10679699 0.24530429 11645355
0.79273087 -0.19460765 0.255135 9999765
0.78768003 -0.18421903 0.25450638 13750477
0.78296161 -0.17486452 0.25544393 15526630
0.7790001 -0.1640588 0.25819409 16052716
0.78144014 -0.16541398 0.25380471 16052972
0.77893347 -0.15474527 0.25707772 16184302
0.78140002 -0.15523575 0.25240311 16184302
0.7788462 -0.14441884 0.25557649 16052717
0.7803334 -0.14629626 0.25104466 16052717
0.77890915 -0.13716845 0.2557438 15789288
0.7807501 -0.13390252 0.25420421 15920617
0.78258067 -0.12538736 0.25479504 15723238
0.77866673 -0.11155089 0.25364849 13552069
0.7812857 -0.1159341 0.255503 15131357
0.77712023 -0.10526657 0.25466302 13683138
0.77565634 -0.094856039 0.25452146 13814464
0.75900006 -0.081488453 0.25938332 13354172
0.76383334 -0.082904167 0.25477207 13354171
0.77192318 -0.087186977 0.25448316 13617086
0.74628574 -0.0734699 0.25578398 14670803
0.75533336 -0.078151152 0.25399932 13617859
0.76000005 -0.079816639 0.25082919 12827828
0.74413884 -0.065086558 0.25517526 15131096
0.74288899 -0.054542232 0.25474778 15130840
0.74232143 -0.045129318 0.25486341 15131097
0.73900008 -0.032738984 0.25525156 14604753
0.74077785 -0.037142467 0.25517964 14802132
0.73713529 -0.024764314 0.25521994 13946821
0.73347217 -0.014360547 0.25495031 13354942
0.73263347 -0.0049079312 0.25465629 14012875
0.73491669 0.0010997431 0.25515902 14670805
0.74407697 0.003862035 0.25320768 14670803
0.75462496 0.0075352457 0.25545618 14933975
0.76475006 0.0091991844 0.2532841 15131353
0.77100003 0.0092743654 0.25084975 15065560
0.76750004 0.011028996 0.25599781 14999768
0.7752223 0.014909436 0.2545065 14868181
0.77893329 0.024869835 0.25525427 14276302
0.77728009 0.034821495 0.25471297 14342352
0.77624267 0.044855557 0.25486809 14408145
0.77829421 0.05352059 0.25472325 14473682
0.78055561 0.058117338 0.25578755 14539475
0.78138232 0.065191284 0.25487503 14013388
0.77892315 0.076837987 0.25581181 14013904
0.78064704 0.073783003 0.25377214 13750731
0.778579 0.083232179 0.25571308 14540252
0.78093755 0.087093458 0.25351191 14737376
0.78675002 0.095771484 0.25478873 13882066
0.79213041 0.1054772 0.25482151 11645356
0.78788894 -0.18450066 0.26464355 14605786
0.79000002 -0.18838333 0.26627851 12171448
0.77800012 -0.17253043 0.26575235 15789547
0.78219998 -0.17761441 0.2641364 15328998
0.77782375 -0.16480649 0.26468772 16184302
0.77840608 -0.15498149 0.26532954 16184302
0.77842432 -0.14503498 0.26485911 16184302
0.77847379 -0.1368116 0.26670861 15920874
0.78071433 -0.13316557 0.26432288 15920617
0.782543 -0.12510328 0.2648102 15789031
0.78199995 -0.11522111 0.26520142 15196635
0.77900004 -0.10278407 0.26074719 13419965
0.78192317 -0.10528188 0.2659528 13880516
0.77638894 -0.093154997 0.26400879 13551550
0.78125 -0.096909434 0.2672168 13485758
0.75680006 -0.08160761 0.266781 15327965
0.76375008 -0.08490596 0.26569271 13683139
0.77214289 -0.08806479 0.26439014 13419965
0.74518514 -0.074388973 0.26564407 15328476
0.75066668 -0.078836434 0.26414841 15130840
0.73857147 -0.062993668 0.26919776 15262940
0.74273527 -0.065168686 0.26486737 15394525
0.73713338 -0.054294303 0.26812831 15460319
0.74163991 -0.054902066 0.26324049 15460317
0.73581833 -0.045176335 0.26648644 15591905
0.74125004 -0.045311812 0.2615591 15526111
0.7345714 -0.034812171 0.26506716 15065561
0.74066669 -0.039061874 0.26063111 15197146
0.72900003 -0.02109639 0.26961023 14341839
0.73251164 -0.024968682 0.26503807 14407888
0.72858334 -0.013693641 0.26817617 14276304
0.73127598 -0.014699304 0.26354319 14671317
0.72884619 -0.0052755699 0.26824051 14539477
0.73034775 -0.0048932075 0.26304555 14408146
0.73114294 0.0012170486 0.2645303 14605269
0.76100004 0.0091540758 0.26719284 14868183
0.76700002 0.011021811 0.26750392 14933976
0.77529413 0.016270718 0.2655879 14736597
0.77775007 0.024833074 0.26487854 14144717
0.7772668 0.034823067 0.26471594 14342352
0.77703047 0.044736564 0.2650502 14407889
0.77862513 0.05197379 0.26358485 14539731
0.78158826 0.05654557 0.26559687 14539220
0.78293777 0.065319791 0.2653878 13881804
0.77870607 0.076923333 0.26515287 14211282
0.78100008 0.072720475 0.2652404 13882317
0.77784377 0.084359244 0.26491338 14737627
0.78000003 0.089726366 0.26412526 15066081
0.78600001 0.095876709 0.26458621 13684686
0.79299998 0.10493015 0.2652553 11579819
0.78723526 -0.18415016 0.27510265 14539479
0.79000002 -0.18838333 0.27460086 12959935
0.77684218 -0.17299654 0.27466908 15592681
0.78187501 -0.17843957 0.2749787 14868959
0.77560019 -0.16497684 0.27504092 16184304
0.77602786 -0.15507612 0.27519125 16118511
0.77516681 -0.14492401 0.27488548 16118510
0.77583337 -0.13505538 0.27512157 15986411
0.77818757 -0.12658545 0.27664143 15789031
0.78080952 -0.12360778 0.27345034 15789031
0.77900004 -0.11828512 0.27898374 15328480
0.78178567 -0.11504632 0.27507779 14801877
0.78313351 -0.10516176 0.27496263 14143431
0.77566677 -0.092844941 0.27536795 13485502
0.78184617 -0.097317681 0.27451065 13683136
0.74733335 -0.080235876 0.27813771 13814982
0.75583333 -0.08218319 0.27422163 13880520
0.76358342 -0.086452462 0.2752431 12893369
0.7705 -0.089487493 0.27594021 13222332
0.73536849 -0.072520509 0.27639952 14867925
0.74374998 -0.076024778 0.27419037 14802133
0.72900003 -0.062054843 0.27984983 15131353
0.73343259 -0.065007411 0.2746737 15262683
0.74000001 -0.069054425 0.27021369 15262941
0.72871435 -0.054598961 0.27949634 15460318
0.73223704 -0.05565517 0.27450019 15394526
0.72542858 -0.043801993 0.27725658 15197403
0.73128575 -0.045905035 0.27281794 15395040
0.71900004 -0.030906154 0.2793774 14144460
0.72430962 -0.034524929 0.27577409 14736853
0.73077774 -0.036069874 0.27102777 14934233
0.71900004 -0.025014982 0.2793774 14276046
0.72402436 -0.024447285 0.27441311 14276302
0.71900004 -0.015757425 0.27937743 14605524
0.72280568 -0.015134912 0.27421832 14407632
0.71900004 -0.0090246582 0.2793774 15066075
0.72506976 -0.0057206322 0.27509233 14934233
0.72850007 0.00066262542 0.27837795 14736598
0.73055553 0.0013772367 0.27417567 14868185
0.74300003 0.0071981777 0.27652732 14539731
0.76200002 0.0091661047 0.27646321 14802390
0.77539307 0.014969728 0.27529442 14671061
0.77641702 0.024789851 0.2753309 14210510
0.77680027 0.034803092 0.27546698 14013387
0.77807415 0.04437511 0.27480644 14210769
0.78000003 0.049554493 0.27751586 14013646
0.78188461 0.055027328 0.27473754 14342355
0.782767 0.065305211 0.27483472 13750476
0.77900004 0.077757582 0.27168912 14408663
0.78099996 0.074603714 0.27573821 14079698
0.77900004 0.083228543 0.27168912 14671834
0.7816112 0.085237592 0.27554905 14737628
0.78666669 0.094444998 0.27488834 13882318
0.79000002 0.09827432 0.27922437 11382440
0.79351741 -0.19518541 0.28488219 10197398
0.78704 -0.18517655 0.28554642 13749452
0.79000002 -0.18838333 0.28107378 13420485
0.77721751 -0.17370899 0.28530627 15329510
0.78157145 -0.17879391 0.28408504 14473433
0.77499986 -0.16484927 0.2848084 15987439
0.77429414 -0.15473069 0.28524128 15921389
0.77351636 -0.14478964 0.28525439 15920875
0.7743144 -0.13492218 0.28533247 15789290
0.77681279 -0.12459868 0.28444904 15591910
0.77841681 -0.1156896 0.28674594 14407889
0.78050005 -0.11339609 0.2822606 14341582
0.7783891 -0.10482991 0.28726706 13749443
0.78104752 -0.10527519 0.2820662 14012358
0.75900006 -0.090372615 0.28958946 13485760
0.76475 -0.091506727 0.28819922 13551295
0.77521425 -0.09574341 0.28526956 13814209
0.73700005 -0.080851793 0.2872301 12696758
0.74507141 -0.083232664 0.2855137 12565171
0.75484622 -0.086072057 0.28500631 13091002
0.76450008 -0.088940077 0.28392431 13419709
0.77000004 -0.089879774 0.28116831 14143175
0.72725004 -0.071909048 0.28768617 14406860
0.73281485 -0.075821355 0.28461394 14012103
0.74200004 -0.079663277 0.2813631 13552066
0.71900004 -0.062325735 0.28891549 15130583
0.72371805 -0.065060653 0.28476083 14867411
0.73049998 -0.067883879 0.2809957 14933204
0.71882349 -0.054210566 0.28782132 15327962
0.72296649 -0.055053409 0.28271526 15394268
0.71796781 -0.043902352 0.28580415 15130841
0.72160017 -0.046561807 0.28122994 15262940
0.71606821 -0.034970686 0.2856926 14604498
0.70900005 -0.023007289 0.28877002 14342352
0.71490693 -0.025689267 0.28512889 14210253
0.70900005 -0.018027941 0.28877002 14671317
0.71477789 -0.015497305 0.28486097 14736853
0.71753341 -0.006931873 0.28563386 15000028
0.72088897 -0.0027658546 0.28273588 14736599
0.72675002 0.00066205859 0.28408802 14473682
0.73333335 0.0036757158 0.28608805 13947338
0.74200004 0.0066110385 0.28367367 14736597
0.75750005 0.0091119735 0.28103662 14737110
0.77525002 0.015793283 0.28603211 14539731
0.7759335 0.024773343 0.28515112 14276303
0.77568007 0.034753181 0.28505704 14013902
0.77755183 0.043816194 0.28499231 14145489
0.7808333 0.049303103 0.28451547 14408404
0.78268981 0.05534979 0.28504348 14079696
0.77900004 0.069551148 0.28901383 13750733
0.78202862 0.065111831 0.28451324 13487304
0.77900004 0.072590567 0.28870991 14013905
0.78117394 0.075789951 0.28461194 14211028
0.78414291 0.084503375 0.28508788 14737629
0.78794742 0.092972241 0.28481001 14540249
0.79049999 0.097642988 0.28564695 11382184
0.78900003 -0.19183901 0.29641801 9408399
0.79164994 -0.19535927 0.29491192 9605778
0.77900004 -0.18028931 0.29904392 12895173
0.78540736 -0.18539016 0.29489335 13223620
0.7760334 -0.17415471 0.29517782 15000547
0.7749998 -0.16484928 0.29478699 15790316
0.77413344 -0.15500024 0.2953029 15790060
0.77311546 -0.14474835 0.29483572 15789803
0.7740646 -0.13460413 0.29516158 15657447
0.77560019 -0.12503022 0.29501516 15262688
0.77622253 -0.11513788 0.29525 14012874
0.77503222 -0.10486721 0.29500008 13552066
0.75757152 -0.091469668 0.29487115 13354687
0.76380002 -0.094880953 0.29463288 13420224
0.77240002 -0.098297998 0.29325187 13551809
0.73441672 -0.081429891 0.29481375 12367536
0.74441671 -0.085589558 0.29447737 12959931
0.75075006 -0.089390308 0.29434797 13223614
0.71885717 -0.071408994 0.297833 13749702
0.72437042 -0.074825428 0.29552853 13486273
0.73100001 -0.077413611 0.2928102 13420223
0.71684623 -0.064228281 0.29531318 14670546
0.72049999 -0.068921462 0.29092324 14275533
0.70814288 -0.052582983 0.29884046 14670803
0.71480489 -0.05531472 0.29483429 15065561
0.70733339 -0.045032725 0.29673576 14670803
0.71343488 -0.045954954 0.29231313 14999512
0.70694268 -0.03523422 0.2954936 14604496
0.71075004 -0.036585499 0.29114577 14933206
0.70700008 -0.025324173 0.29469278 14210253
0.71000004 -0.029688226 0.29083943 13288127
0.70764112 -0.015782982 0.29518047 14868441
0.71033335 -0.011964273 0.29153001 15066075
0.70900005 -0.0097290324 0.29872873 14934235
0.71466666 -0.0064016036 0.29512739 14868440
0.72049999 -0.0014533199 0.29429549 14342351
0.72660005 0.00023535949 0.29559657 13618371
0.73366672 0.0025295052 0.29422975 13750214
0.745 0.0058265203 0.29505682 14605010
0.75666672 0.0085151354 0.2981374 14670804
0.77449995 0.016457744 0.29493523 14473681
0.77519441 0.02474972 0.29486001 14144974
0.77529985 0.034736823 0.29490194 14013644
0.77756536 0.043625947 0.29461518 14211025
0.7807501 0.049145646 0.29605934 14803162
0.78227997 0.055193815 0.2948083 14211026
0.7790001 0.068639323 0.2953966 13618634
0.78129166 0.063657202 0.29496917 13618890
0.77854556 0.074564926 0.29563758 14013650
0.78079998 0.078120321 0.29205686 14145492
0.77900004 0.080493063 0.29904392 14539996
0.78346437 0.08475934 0.29505515 14671582
0.78806663 0.09250059 0.29514465 14211030
0.79049999 0.097411811 0.29513097 11250599
0.78900003 -0.19183901 0.30380628 9605778
0.79252642 -0.19582547 0.30540621 9539985
0.77900004 -0.18028931 0.30360305 13092293
0.78543478 -0.18610202 0.30502889 12303035
0.77570838 -0.1739307 0.30489591 15460839
0.77550006 -0.16474387 0.30510575 15856109
0.77548146 -0.15486613 0.30455565 15855852
0.7753461 -0.14474672 0.30504826 15789802
0.77487999 -0.13500114 0.303996 15723495
0.77604997 -0.12510359 0.30427268 15196894
0.77624989 -0.11514191 0.304351 13815753
0.77495241 -0.10488721 0.30440402 13420737
0.75900006 -0.092149451 0.30202729 13683909
0.76540005 -0.096155658 0.30206209 13486529
0.77200001 -0.099149555 0.3053962 13617858
0.71866673 -0.081084035 0.30672675 11841707
0.72400004 -0.081120543 0.30249354 12038830
0.73300004 -0.083844908 0.30369294 11973037
0.74580002 -0.085309051 0.30375415 9932940
0.75349998 -0.088836342 0.30160147 12367537
0.71709669 -0.07401491 0.30522543 12960187
0.72144455 -0.07783328 0.30171713 12565172
0.71400005 -0.065151826 0.30417952 14144460
0.70820004 -0.054151982 0.30137551 14539216
0.71306664 -0.056299306 0.30534407 14933975
0.70661908 -0.04427921 0.30347732 14144715
0.71233338 -0.048129231 0.3073599 14210251
0.70503438 -0.035228286 0.30354533 13749958
0.70596427 -0.025151473 0.30382413 13815495
0.70669228 -0.015739623 0.30386442 13749705
0.70833331 -0.0094432542 0.30369833 13947597
0.71356004 -0.0046389308 0.30405104 13749961
0.71833342 0.00023268176 0.30602369 14605267
0.72300005 0.0010798861 0.30377823 14473423
0.73100001 0.0019480687 0.30286428 15131353
0.74528581 0.0049799671 0.30330107 14210251
0.75660002 0.0076853009 0.30425885 14210508
0.76100004 0.0091540758 0.30549717 14012872
0.7657001 0.011901846 0.30469221 14210508
0.77243745 0.016752919 0.30511141 14276045
0.77478117 0.024512246 0.30501923 14012874
0.77656007 0.03479467 0.3053804 13947595
0.77842867 0.042035978 0.3037723 14144975
0.78123534 0.047160171 0.30614275 14013647
0.78246677 0.055206355 0.30495587 13816270
0.77833337 0.067147709 0.30503473 14276823
0.78115392 0.061864845 0.3049351 14540251
0.77713358 0.074842572 0.30469415 14540252
0.77854544 0.081275024 0.30566263 14671838
0.78221053 0.086128578 0.30470783 14934754
0.78766668 0.09298142 0.30526701 13355722
0.79000002 0.09774591 0.30432343 11316392
0.79182619 -0.19502932 0.31524819 9869203
0.78752172 -0.18547139 0.31514117 10394780
0.79000002 -0.18838333 0.31991127 10723485
0.78412503 -0.17504862 0.31547195 13750224
0.78540009 -0.16534017 0.31645954 13421772
0.78505564 -0.15483658 0.31566864 14145495
0.78600007 -0.14476165 0.31657067 13224393
0.78600007 -0.13461801 0.31572253 13816528
0.78595245 -0.12512243 0.31538799 13421255
0.78595644 -0.11494131 0.31564021 12237238
0.77900004 -0.10187224 0.31180951 13682885
0.7847501 -0.10549398 0.31549469 11644074
0.77583337 -0.093589962 0.31598875 9341318
0.78200006 -0.097689033 0.31758583 8683645
0.71900004 -0.080560312 0.31304124 11776425
0.72300005 -0.081008494 0.31986043 11118241
0.74300003 -0.084988765 0.3130542 8946561
0.75000006 -0.085789472 0.31249207 9012352
0.77000004 -0.089879774 0.31361482 9011584
0.71826667 -0.074986272 0.3123869 12565686
0.72140002 -0.074750081 0.31712738 11117985
0.71844441 -0.065360002 0.31167853 13881802
0.72327274 -0.064877301 0.31659812 11512486
0.71875006 -0.054453366 0.31124979 13881288
0.72416669 -0.056276824 0.31529698 12893881
0.73100001 -0.05537995 0.3199771 13156798
0.71700001 -0.048444536 0.31049195 12894393
0.72800004 -0.049187757 0.31695971 12236463
0.75800002 0.0073434971 0.31138903 14407630
0.76350003 0.0091841482 0.31186169 14078408
0.76760006 0.011390014 0.31299877 14012615
0.77220011 0.015528433 0.31532463 13552064
0.77499998 0.024959654 0.31501141 13223871
0.77744454 0.033823591 0.31411913 13618375
0.78120005 0.037561852 0.31744513 13618377
0.78408706 0.045030426 0.31496647 12631996
0.78652394 0.055228226 0.31587651 11974324
0.77900004 0.068639323 0.31180951 14539479
0.78334999 0.064709224 0.3152034 12500413
0.77822226 0.07454221 0.3123087 14277593
0.78233337 0.075188421 0.31757155 13619923
0.77900004 0.081404895 0.31180951 14737885
0.78277785 0.084855743 0.31515676 14277339
0.7876296 0.094500534 0.31485423 11513773
0.79166687 0.1048334 0.31519297 11053475
0.78900003 -0.18260367 0.32135338 10461601
0.79145002 -0.18530008 0.32615188 10527133
0.78900003 -0.17521544 0.32135338 9738138
0.79288244 -0.17487499 0.32654077 10527134
0.78900003 -0.16505659 0.32135341 9803161
0.79260004 -0.16488209 0.32653248 10526877
0.78900003 -0.15674481 0.32135338 9803159
0.79263633 -0.15476695 0.32587436 10066329
0.79304767 -0.14481713 0.32565945 9013897
0.79368192 -0.13487008 0.32622135 8882053
0.79323816 -0.12486755 0.32582587 8816259
0.78900003 -0.11149175 0.32135338 9144970
0.79205269 -0.11528993 0.32552803 8882052
0.78900003 -0.10456526 0.32135338 8552319
0.7915625 -0.1054843 0.32587391 9013637
0.78638464 -0.095760867 0.3245396 8881537
0.79100001 -0.099738024 0.32679966 8882050
0.72619998 -0.074563101 0.32127613 9736076
0.73312497 -0.073554635 0.32648796 9538696
0.72900003 -0.067174643 0.32166159 10328469
0.73315388 -0.06484966 0.32501709 11447205
0.74100006 -0.06047428 0.32955849 12236976
0.73444444 -0.056118984 0.32320654 11973037
0.74320006 -0.053690232 0.32810038 11644072
0.73300004 -0.048667602 0.32085258 13486276
0.76200002 0.0073822495 0.32284346 14933974
0.77300006 0.0092984242 0.32750395 14802390
0.77410525 0.015608689 0.32454014 14538705
0.77660865 0.023968512 0.32460713 13486786
0.78066665 0.028885083 0.32831594 13355714
0.77833337 0.031835575 0.32126096 13355459
0.78376478 0.035659842 0.32515803 12960702
0.78799999 0.043475796 0.32358241 9605263
0.79100001 0.046319261 0.32726112 9277322
0.78900003 0.055403601 0.32161728 9474192
