# .PCD v0.7 - Point Cloud Data file format
VERSION 0.7
FIELDS x y z rgb
SIZE 4 4 4 4
TYPE F F F U
COUNT 1 1 1 1
WIDTH 603
HEIGHT 1
VIEWPOINT 0 0 0 1 0 0 0
POINTS 603
DATA ascii
0.46900001 -0.06023464 -2.117604e-05 12500148
0.46528125 -0.054215625 -0.0018584878 13289410
0.46448976 -0.045070026 -0.0021525885 14671832
0.46771428 -0.038482655 -0.00095919718 13750988
0.47000003 -0.036156949 -2.1221191e-05 13685195
0.47800002 -0.070342578 0.0089304708 12565941
0.46853331 -0.060979392 0.0045110555 12697271
0.47211546 -0.064765215 0.0073803514 12631478
0.45900005 -0.051548019 0.0088142771 14078667
0.4636212 -0.055294104 0.005139166 13091773
0.45879996 -0.046422288 0.0080125351 15328993
0.46223211 -0.044090908 0.0040347772 14671320
0.46755558 -0.038155586 0.0054496746 13487816
0.47270265 -0.034052312 0.0068027875 13422023
0.48000002 -0.029060423 0.0089678364 13422025
0.47888893 -0.070473395 0.014553555 12434611
0.48279414 -0.074411795 0.016205654 12368819
0.46615389 -0.06171779 0.016423883 12565684
0.47409305 -0.066471197 0.014791085 12434355
0.45693883 -0.053494599 0.015453544 13157823
0.46204549 -0.057869591 0.013495005 12565685
0.45494106 -0.045154318 0.015069468 15000541
0.46000001 -0.040771991 0.011824781 14408663
0.45822227 -0.038945273 0.017736452 14277077
0.46537501 -0.037121847 0.014922217 13422023
0.4731333 -0.032698557 0.014469123 13356230
0.47686365 -0.028919172 0.015905267 13224644
0.48184842 -0.025369814 0.014957852 13224643
0.49100003 -0.020530872 0.019518308 14079696
0.49200001 -0.019420905 0.019558059 13750731
0.50366664 -0.091020286 0.029062068 12303539
0.49430004 -0.082642049 0.025964621 12303538
0.50122219 -0.087842226 0.028139034 12369332
0.47790909 -0.070634812 0.025097333 12237489
0.48448944 -0.075313404 0.024204722 12171952
0.49000001 -0.0789911 0.027508248 12237745
0.45900002 -0.060024846 0.027379721 12369075
0.46407145 -0.062636293 0.024772933 12368818
0.47330433 -0.067824058 0.025024164 12303281
0.44866672 -0.051088106 0.028221525 13618632
0.45465714 -0.054996159 0.024589458 12829370
0.46000001 -0.059078749 0.020439727 12434353
0.44828007 -0.045126248 0.026926465 14869212
0.45135561 -0.044534203 0.021955589 14869213
0.44900003 -0.039096262 0.028710261 14737628
0.45392689 -0.03711541 0.024959192 14013905
0.46000001 -0.032157045 0.02851624 13224388
0.48633337 -0.0233697 0.021231754 13356230
0.49100003 -0.021105006 0.021529827 13685195
0.49375001 -0.018331766 0.023965532 13290438
0.52587503 -0.10447726 0.038909141 12632503
0.53000003 -0.10901341 0.039679736 12764088
0.50447065 -0.091677479 0.034645081 12369075
0.51380002 -0.096304111 0.039187916 12369075
0.52000004 -0.099652573 0.038931061 12435125
0.49635485 -0.083583921 0.035435632 12171953
0.5010435 -0.087963484 0.034503222 12303282
0.47733334 -0.071548812 0.033505727 12040367
0.48441941 -0.075610667 0.034440778 11974574
0.49000001 -0.0789911 0.034161422 12040367
0.45692864 -0.061589483 0.036340229 12237233
0.46531248 -0.064804479 0.032997146 12236976
0.47330004 -0.069209881 0.033657454 11974574
0.44664159 -0.053382702 0.035601959 13026236
0.45238096 -0.057649635 0.033862911 12434612
0.4439497 -0.045016617 0.03483415 14869211
0.44581816 -0.037638824 0.035430286 14737627
0.45618188 -0.033241536 0.035318557 13422025
0.46086666 -0.031137796 0.033928789 13027267
0.45900002 -0.02940082 0.039736785 13092803
0.46000001 -0.02892644 0.038746487 13093060
0.509 -0.01651722 0.032149628 12961726
0.51070005 -0.012028353 0.035066932 13158852
0.5138182 -0.0083584879 0.037157487 13224645
0.52425003 -0.0041241972 0.038635314 13027266
0.52900004 -0.11004613 0.045796864 12631990
0.53000009 -0.11168577 0.045024458 12698039
0.51900005 -0.10067592 0.049183596 12565941
0.52537507 -0.10515022 0.044866186 12500660
0.50619996 -0.091558054 0.044895656 12237489
0.51453334 -0.096644811 0.045586899 12368818
0.52000004 -0.099652566 0.04136572 12303539
0.48800004 -0.080953524 0.047959473 11908781
0.49500003 -0.084017977 0.04414656 12106160
0.50181818 -0.088587575 0.045795962 12237745
0.47749999 -0.07138782 0.043575805 12040367
0.48270002 -0.075535491 0.04701294 12040366
0.44900003 -0.06081935 0.046228878 12237746
0.45500001 -0.061941434 0.04137066 12105905
0.46566668 -0.065805383 0.041402902 11908781
0.47500005 -0.069344334 0.043727111 12040367
0.43876931 -0.051058453 0.047071204 13486276
0.4431971 -0.054980509 0.04457216 12697272
0.45000002 -0.058847889 0.040537819 12302772
0.43684146 -0.044932202 0.046127815 14803162
0.44009522 -0.044894952 0.040749293 14868955
0.4376744 -0.037503321 0.046797443 14803678
0.44233331 -0.035153698 0.044161949 14211284
0.45375004 -0.031716034 0.04299923 13355975
0.44900003 -0.029285839 0.049382232 12434873
0.45593747 -0.029003255 0.045330636 12829631
0.51100004 -0.010600819 0.043640427 13027267
0.51386672 -0.0076065087 0.046577413 13158853
0.52388889 -0.0022800479 0.046036657 13092803
0.52775002 0.00089295715 0.046509758 13027010
0.53185719 0.004090474 0.047824387 13027010
0.54000002 0.0077598146 0.049277458 13421768
0.80680007 0.22275636 0.042649228 5392708
0.52820003 -0.11111622 0.053391159 12829113
0.51810008 -0.10086559 0.056254208 12434868
0.52374005 -0.10601496 0.054827344 12631991
0.50700003 -0.091491558 0.05496788 12106160
0.51294291 -0.096008345 0.054530591 12237746
0.48725003 -0.080971912 0.055438764 11974318
0.49477771 -0.084831335 0.055875953 12105903
0.50285715 -0.089304134 0.055469122 12237489
0.47828576 -0.072545052 0.056921665 11908524
0.48225003 -0.076618761 0.055911124 11974318
0.44825 -0.061506096 0.054025088 12171440
0.47500002 -0.068789117 0.05224178 11908781
0.43618605 -0.052510008 0.05530379 12894652
0.44245839 -0.057175815 0.053404886 12368562
0.42900002 -0.04254365 0.059234139 15263200
0.4321121 -0.044920217 0.055009328 14671575
0.43433326 -0.035657734 0.055308234 14672090
0.44172728 -0.031347014 0.052903235 13750989
0.44490483 -0.027997319 0.054354083 12961216
0.51796556 -0.0061866324 0.054922726 13027267
0.52160001 -0.0025146308 0.055814564 13027523
0.5261429 0.0010529915 0.053292263 13092803
0.53490913 0.0042789872 0.054048039 13027523
0.54441673 0.0083570341 0.054039281 13027780
0.54850006 0.010450057 0.05518873 13027780
0.55194736 0.014056341 0.057238352 12764612
0.79159379 0.15499297 0.0552136 11908784
0.52500004 -0.11044305 0.060198985 12631734
0.51779312 -0.10207373 0.065140471 12631734
0.52170593 -0.1068074 0.064420812 12829114
0.50609094 -0.091279857 0.064491563 12171440
0.51279998 -0.096088246 0.065280125 12368818
0.48709095 -0.081218123 0.06352409 11908781
0.49468422 -0.084932692 0.06525325 12040111
0.50210011 -0.088818282 0.066037342 12040112
0.47771427 -0.071739599 0.061487339 11908781
0.48230305 -0.076729186 0.064202562 11908781
0.44748279 -0.062352315 0.064887755 12039597
0.45028573 -0.065662153 0.066088684 11973804
0.428 -0.050960716 0.067775384 12894653
0.43461531 -0.053970002 0.064836703 12565943
0.44217652 -0.058191497 0.0633021 12171440
0.42627347 -0.044548083 0.065223679 14605783
0.43011114 -0.048192039 0.061289236 13815755
0.42687884 -0.036863863 0.065747522 14935007
0.43037045 -0.03318195 0.064124718 14408664
0.43222225 -0.028639946 0.068112954 13487565
0.48231578 -0.013748921 0.068199538 12764095
0.48200002 -0.0093221851 0.069034524 13027267
0.52347827 -0.0032344793 0.064452581 13027267
0.52725005 0.00078940025 0.067245059 13092803
0.53360003 0.0029268167 0.064300761 13027523
0.54460865 0.0075521423 0.063720293 13027524
0.5473333 0.011425883 0.065604553 13158854
0.55353338 0.015781015 0.06476143 13159369
0.56100005 0.019662889 0.064325742 12961991
0.56376922 0.023026269 0.06717778 11909045
0.79333347 0.057830799 0.062179852 10856096
0.79350013 0.06569615 0.064553596 10921889
0.51813638 -0.10150194 0.074740089 12632247
0.5217222 -0.10609253 0.07366246 12829370
0.50723529 -0.091899805 0.075063869 12237746
0.51406449 -0.096735246 0.075096287 12303540
0.49646673 -0.084845454 0.075356953 11974574
0.5027222 -0.088562645 0.075100958 12040367
0.48525003 -0.078512534 0.07420104 11842988
0.43900001 -0.060492504 0.07911361 12105390
0.44487104 -0.062784128 0.073908575 11908268
0.4257046 -0.052320961 0.075168423 12697017
0.43321428 -0.056298275 0.072638951 12236978
0.41863641 -0.04280803 0.078918092 14868186
0.4220103 -0.045050777 0.074502014 14407891
0.41871431 -0.03823198 0.079098471 15197664
0.42316672 -0.034933489 0.074861012 14803166
0.43012503 -0.030446071 0.072101496 13882323
0.42645457 -0.029357838 0.077572934 13882066
0.43325493 -0.025806911 0.074636377 12829634
0.48310795 -0.012497917 0.074011423 12632511
0.48288232 -0.0080229649 0.074257441 12961220
0.52550006 -0.0010599855 0.070713647 12961474
0.52733332 0.00078962231 0.0715774 13158853
0.53534287 0.0060187951 0.07509803 13158596
0.542 0.0090573868 0.072294258 13224389
0.54588467 0.012371187 0.073945761 13487561
0.55278575 0.01774455 0.074383803 13619148
0.55650002 0.021966945 0.075681061 13093060
0.56 0.023778856 0.075355493 12105910
0.78875005 0.058881018 0.071514681 10856096
0.78885716 0.063967995 0.075680092 10921889
0.79038465 0.06672544 0.072979406 11053475
0.79346669 0.074561954 0.075192004 11053475
0.51665628 -0.10226272 0.084446602 12763834
0.50520003 -0.091792941 0.08560133 12368819
0.51320696 -0.097153507 0.085065581 12500661
0.49422497 -0.084050432 0.085644968 12039854
0.50140011 -0.088811025 0.083546326 12237233
0.48700002 -0.078507483 0.080923393 11973804
0.49000001 -0.0789911 0.08428964 12039854
0.4456251 -0.065712437 0.083703458 11973804
0.41839999 -0.050993711 0.088720679 12499636
0.42220002 -0.053359102 0.085354693 12434100
0.43200001 -0.05801329 0.084931359 12039597
0.4155497 -0.044814333 0.085199706 14276305
0.42033336 -0.048736498 0.080997407 13288897
0.41572803 -0.035850603 0.085745551 14935006
0.42088893 -0.0319396 0.082636021 14539995
0.41766667 -0.028708393 0.088956602 14079702
0.42212135 -0.028190937 0.084509008 13684687
0.43275005 -0.023917295 0.080519088 12632256
0.52750003 0.0020249535 0.089503735 12895428
0.53370005 0.0064589186 0.085086025 13092806
0.53866673 0.010262712 0.086354561 13290185
0.5447917 0.013147756 0.085633256 13553356
0.55366677 0.017811419 0.084869042 13816527
0.55829418 0.021938816 0.086001955 13092803
0.56060869 0.025631817 0.085165858 11382442
0.78900003 0.064902782 0.081235155 10921889
0.79000002 0.066834442 0.081338115 10921889
0.5126667 -0.1013821 0.093918651 12632249
0.50651991 -0.092851505 0.096163467 12368820
0.51096666 -0.097563967 0.094592772 12631735
0.49507695 -0.084362991 0.092698887 11974061
0.50169998 -0.088747248 0.096754566 12040111
0.41485006 -0.051290769 0.093740679 12631480
0.40854844 -0.043061633 0.097596936 14342099
0.41155696 -0.045593087 0.093871102 13947084
0.40829179 -0.035948198 0.097593062 15000287
0.41157973 -0.034311306 0.093214817 14934495
0.40900001 -0.029549286 0.099080332 14540253
0.41400003 -0.027966382 0.095287532 13948116
0.42100003 -0.024502845 0.093610011 13092809
0.52642858 0.0035168382 0.093630992 12895428
0.53365004 0.0073010251 0.093237028 13224136
0.53845459 0.010832219 0.095318325 13421772
0.54464114 0.014993802 0.095404066 13816528
0.55161536 0.018655615 0.093345873 13750734
0.55476481 0.023256008 0.094656959 12040114
0.51133341 -0.10078531 0.10132583 12631993
0.50605887 -0.093573816 0.10454492 12369078
0.51000005 -0.098532118 0.10424592 12632250
0.49755561 -0.08603511 0.10208936 11842734
0.50214285 -0.088840842 0.10595287 12039856
0.40873331 -0.051027432 0.10682842 12499894
0.41064706 -0.053023919 0.10640744 12368308
0.40547442 -0.044708826 0.10500258 13947597
0.41000003 -0.049777698 0.10076232 12959932
0.4043597 -0.03498213 0.10487746 14803421
0.40768015 -0.02777227 0.10608381 14408410
0.41225004 -0.023683107 0.10582208 13355979
0.41792312 -0.017773954 0.10865498 12237755
0.52600002 0.0050958833 0.10464317 12763842
0.53392863 0.0079447953 0.10559092 12960964
0.53846163 0.01151989 0.10663588 13553358
0.54368752 0.016198868 0.104633 13684942
0.54605556 0.021909069 0.10593162 12105907
0.55000001 0.022066673 0.10040484 13816526
0.79214287 0.077612855 0.1046044 11053475
0.50650001 -0.094105557 0.11517844 12565942
0.48600003 -0.080621742 0.11602701 11907757
0.49650002 -0.084692299 0.11824171 11841964
0.50383997 -0.088253468 0.11546602 12170929
0.40597218 -0.051849831 0.11480945 12368308
0.41233334 -0.05521591 0.11179309 12170929
0.39790332 -0.04233015 0.11752788 14276305
0.40166664 -0.045733579 0.1142671 13618375
0.39765388 -0.035471685 0.11716566 14803163
0.40056595 -0.034208782 0.11225979 14803419
0.39837503 -0.028897241 0.11900464 14737628
0.40277192 -0.026295077 0.11488558 14408408
0.41272727 -0.020945262 0.11231828 12632256
0.40300003 -0.019681497 0.11885402 12369086
0.41741177 -0.01791046 0.11177894 12105912
0.52900004 0.0057441466 0.11328958 12895426
0.53233331 0.0077559664 0.11410937 12895425
0.53765219 0.011886776 0.11566111 13487564
0.54276931 0.016763968 0.11488274 13421772
0.54516673 0.021554375 0.11345448 11184809
0.79180008 0.079220884 0.11266413 11119268
0.7927084 0.085777283 0.11486567 11250854
0.79338467 0.17462978 0.11490224 11776941
0.7931999 0.18501905 0.11509255 11842734
0.50466663 -0.09290994 0.12100811 12565941
0.49800003 -0.086109884 0.12005769 12105136
0.50150001 -0.088770486 0.1209003 12170928
0.39720002 -0.050641 0.12867205 12433588
0.4040435 -0.053027947 0.12403003 12236722
0.39520901 -0.044330407 0.12557794 13684425
0.40088889 -0.048829027 0.12271304 12697017
0.39332151 -0.034860414 0.12519121 14671578
0.39602935 -0.026134508 0.1254383 14474202
0.40030009 -0.022313673 0.12189863 13421514
0.40083334 -0.019575682 0.12243509 12434363
0.53770971 0.014793604 0.12443074 13421772
0.54066664 0.017685555 0.12063985 12961221
0.78562498 0.077731058 0.12663555 11053218
0.78822231 0.083497502 0.12769529 11184804
0.79106253 0.087180428 0.12403853 11316390
0.79286093 0.13482419 0.12525013 11711147
0.7925666 0.14497854 0.12520415 11645611
0.79158348 0.15499125 0.12504676 11579818
0.79239976 0.16535462 0.12517779 11776940
0.39497373 -0.05206747 0.13609371 12368307
0.38853127 -0.042226307 0.13723847 14145489
0.39197907 -0.045942664 0.13402821 13355203
0.38752002 -0.035103079 0.13571028 14474455
0.38999999 -0.034282248 0.13088334 14606041
0.38834783 -0.027482236 0.13733758 14671578
0.39197773 -0.024308106 0.13404261 14342615
0.39470002 -0.018535446 0.1377525 13093065
0.78412497 0.0784996 0.13396741 11053475
0.78744447 0.083928637 0.1341247 11119268
0.79016668 0.088737845 0.13561656 11316902
0.79276919 0.12445708 0.13522941 11514024
0.79332149 0.15499793 0.13534442 11579817
0.38853848 -0.0526288 0.14866194 12105649
0.39349017 -0.052981339 0.14369519 12302515
0.38532785 -0.044294417 0.14558184 13487303
0.391 -0.048387434 0.14159688 12894652
0.38324782 -0.034923162 0.14522804 13092547
0.38506836 -0.025296522 0.1451429 13948113
0.39136365 -0.020694671 0.14174034 13684944
0.38854548 -0.019388657 0.14824444 13684944
0.39408895 -0.017314337 0.14624678 13093063
0.40456757 -0.013244328 0.14703624 12698561
0.41282356 -0.011577703 0.14482661 12500668
0.40818751 -0.0075720702 0.14899059 12237498
0.41307142 -0.0087083904 0.14599349 12369083
0.38450003 -0.060183592 0.15885465 11776428
0.3862561 -0.053270902 0.15515117 12237235
0.37794346 -0.042448774 0.15613393 3423032
0.38198724 -0.046520088 0.15396973 10790049
0.37679172 -0.035124816 0.15517966 2633774
0.38000008 -0.035015594 0.15032302 2895925
0.37761191 -0.027080424 0.1562051 4672330
0.38154662 -0.02298834 0.15372778 12632510
0.38590002 -0.017031305 0.15587659 13553357
0.39222506 -0.01336652 0.1545132 12764355
0.40460005 -0.010949448 0.1522776 12698049
0.3917143 -0.0093044098 0.15914711 12106683
0.40719536 -0.0059667709 0.15492535 12106169
0.79341656 0.1850636 0.15505306 11711147
0.79130006 0.19476277 0.15464185 11711147
0.38503453 -0.054694027 0.16471076 12500407
0.37660006 -0.044000935 0.16457163 6054239
0.38081825 -0.048950553 0.16239615 13026495
0.37292174 -0.034954723 0.16490711 2436138
0.37530553 -0.024927311 0.16445109 7237742
0.38000003 -0.020337408 0.16010848 14672092
0.37834382 -0.016982168 0.16593906 14079700
0.38247886 -0.014484355 0.16266495 13422029
0.38450003 -0.0093273139 0.16603923 11711925
0.39100003 -0.009025557 0.16062358 11843511
0.78420007 0.076447599 0.16794014 10855839
0.79000002 0.079780273 0.16086249 10987682
0.78875005 0.082193173 0.16683918 11053218
0.79160011 0.086616099 0.16415133 11119011
0.79243314 0.18483752 0.1650684 11645355
0.7918399 0.19489641 0.16494572 11645611
0.38186666 -0.060781952 0.17482027 12039343
0.37777418 -0.053485833 0.17576998 13552838
0.38201952 -0.057446714 0.17286824 12565686
0.36875004 -0.040453322 0.1782437 2502187
0.37373802 -0.045096859 0.1749019 7303276
0.36846465 -0.034497581 0.17621796 2172966
0.37036848 -0.035550889 0.17164068 2436138
0.36855558 -0.028064741 0.17698288 2501162
0.37256688 -0.024007332 0.17445494 6579297
0.37529573 -0.014850449 0.17483419 13487305
0.37628001 -0.0085782753 0.1766869 12698048
0.77900004 0.071374804 0.17138821 10856096
0.78500003 0.0763717 0.17301457 10724510
0.78871435 0.082288429 0.17405321 10921889
0.79095238 0.086667642 0.17551655 11053475
0.79311109 0.17498933 0.17490412 11579817
0.79199988 0.18448529 0.17475404 11645355
0.79275995 0.19512424 0.17441715 11579561
0.3782084 -0.061043415 0.18635549 12631737
0.38037506 -0.061820127 0.18252736 12236722
0.37591094 -0.054968521 0.18503156 13486789
0.38000003 -0.059479233 0.18056898 12170929
0.36744446 -0.041745797 0.18609799 2699565
0.37291312 -0.046772033 0.18484385 9473673
0.36589056 -0.034967408 0.18452458 1778464
0.36668235 -0.026953133 0.18536711 2764590
0.37140009 -0.022250425 0.18417183 8026485
0.372632 -0.015081853 0.1849637 12434615
0.37576723 -0.0073693143 0.18566704 13224390
0.38122728 -0.0040125605 0.18456036 12566459
0.78899986 0.075800464 0.1846707 10724510
0.79000002 0.079780273 0.18675415 10856096
0.79104006 0.085443728 0.18514763 10987681
0.37714288 -0.061176386 0.19144514 11907758
0.37507692 -0.05607998 0.19173749 13421509
0.35846666 -0.041059427 0.1981402 2699049
0.3624751 -0.041717689 0.19316159 2633514
0.37225002 -0.048031233 0.19082767 10855585
0.35839978 -0.034703277 0.1979914 2238754
0.36175761 -0.035028707 0.19306284 2107169
0.35842851 -0.026644746 0.19857688 2893086
0.36213568 -0.025857924 0.1935975 3750454
0.37075001 -0.021143958 0.19049414 7697777
0.37409464 -0.013913134 0.19452779 10197656
0.37419993 -0.0078504812 0.19393459 11776688
0.78899992 0.076637067 0.19412333 10790046
0.79000002 0.079317927 0.19415176 10855839
0.79103714 0.085237794 0.19481857 11053218
0.35800001 -0.040710717 0.20100437 1712924
0.35799989 -0.034664538 0.20154311 1515032
0.35799992 -0.026831675 0.20138195 2040089
0.377 -0.012675058 0.20032495 8288880
0.78853339 0.076432928 0.20572773 10724510
0.79000002 0.079317927 0.20293643 10856096
0.78900003 0.08214204 0.20806682 10856096
0.79196012 0.086137235 0.2047184 10987682
0.7879231 0.07786952 0.21336497 10790303
0.78900003 0.082347266 0.21381323 10856096
0.79131252 0.087093458 0.21508275 11053473
0.79317635 0.10494672 0.21470121 11185058
0.79148012 0.11513463 0.21489672 11251108
0.79200006 0.078125827 0.22616744 10724508
0.79235995 0.085213795 0.22463594 10921887
0.79320025 0.11538558 0.22464949 11185058
0.79285717 0.078475907 0.23435663 10724510
0.79291183 0.08498764 0.23455407 10921888
0.79326671 0.094966896 0.23487574 10987938
0.79308325 0.10515538 0.23482344 11119267
0.78300005 0.069908284 0.24742197 10527131
0.78647822 0.075906381 0.24547438 10592924
0.79000002 0.079780273 0.24038687 10790303
0.78868175 0.084935315 0.24602742 10856096
0.79000002 0.086022004 0.24108039 10856096
0.78900003 0.090761669 0.24747084 10921889
0.79003721 0.094991095 0.2447134 11053475
0.79184377 0.104764 0.24500322 11053475
0.78250003 0.068948299 0.2518436 10461338
0.78652632 0.076526619 0.25377089 10592924
0.78869236 0.083625607 0.25348189 10724510
0.79041672 0.087070346 0.25670531 10856096
0.79158336 0.094611824 0.25554189 10987681
0.79360873 0.1045422 0.25481462 10987682
0.79350001 0.1748707 0.25538006 11316390
0.79344118 0.18480086 0.25557867 11382183
0.78887504 0.076204002 0.26312962 10658460
0.79000002 0.078624398 0.26674086 10658717
0.78900003 0.081526354 0.2604003 10724253
0.79100007 0.08543846 0.26513422 10855839
0.79179311 0.17526035 0.26490179 11250854
0.79188466 0.18542555 0.26520345 11316390
0.79000002 0.079780273 0.27460086 10658460
0.79192311 0.085823432 0.27498424 10855839
0.79242855 0.087579332 0.28445563 10855839
0.79331237 0.164905 0.31480953 10987684
0.79333335 0.1748345 0.31475934 11053477
0.79189998 0.1652507 0.32531369 10922403
0.79304004 0.17477061 0.32485503 10988197
0.79287487 0.18517369 0.32513514 11053476
0.79330283 0.19531371 0.32495922 11053475
0.79343492 0.21313441 0.32412761 5722701
0.79316121 0.15526751 0.33526671 10921890
0.79277271 0.16534783 0.33537611 10987682
0.79316652 0.17479768 0.33511963 10922402
0.7928822 0.18472493 0.3352727 10922658
0.79215378 0.19504462 0.33540487 10922145
0.79269981 0.20438746 0.33492184 11119013
0.79361904 0.21267569 0.33473486 5327944
0.79374087 0.15427771 0.34517002 10921889
0.79343992 0.17485671 0.34545094 10988193
0.79299992 0.18497138 0.34525967 10988193
0.79255986 0.19507279 0.34506917 10987937
0.79288012 0.20443399 0.34520835 10987683
0.79354554 0.21136047 0.34499043 5854803
0.79353136 0.12454563 0.35529512 10790303
0.79300004 0.17476103 0.35454175 10922146
0.79299992 0.18497138 0.35454172 10987683
0.79344016 0.19529113 0.35473979 10987683
0.78900003 0.1092323 0.3629123 10658974
0.79000002 0.10937075 0.36059815 10461338
0.78895634 0.11476707 0.36598375 10593694
0.79000002 0.11491895 0.36112651 10724510
0.78899992 0.12314685 0.36703739 10659487
0.79019046 0.12639828 0.36367938 10725024
0.79273325 0.13573422 0.36499679 10725281
0.79293323 0.17474602 0.36472118 10791075
0.79277754 0.18491988 0.36464915 10856612
0.79373336 0.19536425 0.36508858 10856355
0.78900003 0.11569703 0.37214762 10593694
0.79022223 0.11659598 0.37693846 10593695
0.78900003 0.12169997 0.37168583 10593694
0.79057151 0.12522565 0.37548968 10659487
0.79220003 0.13556643 0.37488171 10725024
0.79332131 0.14531668 0.3745158 10659231
0.79334486 0.15485546 0.37512404 10725024
0.79291999 0.17474303 0.37492496 10856098
0.79276645 0.18491739 0.37485296 10921891
0.79307997 0.19520181 0.37500015 10725282
0.79200006 0.11817644 0.38338929 10593694
0.7922498 0.12471901 0.38514 10593695
0.79324239 0.13463683 0.38486907 10725024
0.79347998 0.14514515 0.38447821 10725024
0.79283315 0.15523535 0.38509104 10724769
0.79236662 0.16534594 0.38486397 10790305
0.79183871 0.17468446 0.38475639 10856098
0.79225701 0.18493108 0.38467813 10856098
0.79259992 0.19508414 0.38497743 10790561
0.78900003 0.11846761 0.3980065 10527902
0.78900003 0.12031468 0.3980065 10462109
0.79155564 0.12544131 0.39507204 10658975
0.79324245 0.13514404 0.3949962 10659232
0.79246658 0.1551628 0.39511654 10593696
0.79163337 0.16519292 0.39562798 10725025
0.79083359 0.17520863 0.39522898 10856098
0.79100019 0.18543074 0.3953118 10790305
0.79184616 0.19475585 0.39502156 10790305
0.79381484 0.2047455 0.39503026 10987426
0.79100001 0.10858215 0.40827528 10396830
0.78892857 0.11542294 0.40377507 10527645
0.79000002 0.11553543 0.40806615 10527902
0.78900003 0.1208424 0.40420738 10593438
0.7905001 0.12626466 0.40540811 10658974
0.79206663 0.13506058 0.40462026 10593439
0.79278558 0.14482076 0.40515095 10593438
0.79199994 0.15507179 0.40508178 10659230
0.79128015 0.16512026 0.40564117 10659487
0.79140747 0.17482173 0.40550083 10725024
0.79135722 0.18491776 0.40587807 10790304
0.79134494 0.19490285 0.40490541 10724512
0.79258609 0.20442267 0.40483654 10921633
0.79300004 0.098647512 0.41951677 10527903
0.79277778 0.10549285 0.41603211 10462109
0.79219991 0.1152387 0.41538718 10527901
0.79161537 0.12463326 0.41493687 10593694
0.79162073 0.13477358 0.41520891 10593437
0.79251838 0.14517762 0.41513926 10658717
0.79279995 0.15522899 0.4156999 10724510
0.79275995 0.16542919 0.41567901 10790303
0.79239988 0.1746275 0.41548964 10790303
0.79143339 0.18460581 0.41498327 10724510
0.79171991 0.19486699 0.41513386 10790046
0.79242849 0.20458175 0.41523924 10789789
0.79300004 0.21003315 0.41394749 9340293
0.79350007 0.094994515 0.42767635 10396317
0.79315376 0.10580793 0.42488348 10527903
0.79287994 0.11533716 0.42502099 10527645
0.78860009 0.12800689 0.42734203 10462108
0.79096442 0.12438209 0.42405906 10462108
0.7869311 0.13536902 0.42652756 10593437
0.79045451 0.13517208 0.42119753 10527901
0.78735703 0.14475194 0.4267303 10658718
0.7910769 0.14513357 0.42191684 10658717
0.78875005 0.15212844 0.42834666 10527131
0.79153335 0.15566239 0.42454439 10724511
0.79352003 0.16558863 0.42536509 10658718
0.79368001 0.17490931 0.42545199 10790304
0.79263318 0.18488549 0.4248912 10724254
0.79207987 0.19495492 0.42459321 10724511
0.79193741 0.20534769 0.42486304 10197654
0.79159993 0.21244183 0.42581695 3680808
0.78800005 0.079578303 0.43808591 10067352
0.78872216 0.084575832 0.43602514 10330011
0.79016668 0.088737845 0.43404877 10396317
0.79188466 0.0947318 0.43539551 10396316
0.79305696 0.10528526 0.43546003 10462109
0.79219991 0.11523721 0.43485609 10462109
0.78839129 0.12631889 0.43497354 10527645
0.79011112 0.12130608 0.43463492 10462108
0.78547996 0.13492571 0.43437073 10593181
0.78530443 0.14549135 0.43447071 10592925
0.78834784 0.15464008 0.43543044 10724510
0.79016668 0.15872179 0.43312407 10724510
0.792 0.16527243 0.43474472 10724510
0.7935667 0.17488679 0.43560588 10724510
0.79291654 0.1849505 0.43524915 10658718
0.79163343 0.19484466 0.43454534 10592926
0.79193932 0.2047518 0.43485478 10394777
0.79216671 0.21197556 0.43391287 4404530
0.78800005 0.079578303 0.44085303 10067352
0.78835297 0.085260347 0.44354749 10264474
0.79000002 0.0890273 0.44197193 10396060
0.78900003 0.090761669 0.4451066 10527133
0.7905001 0.094790854 0.44402397 10461597
0.79199994 0.10501313 0.44494399 10593182
0.79167998 0.1151624 0.44476485 10592926
0.78900003 0.1279338 0.44325951 10592926
0.79027778 0.12338652 0.44479948 10593182
0.78838891 0.13508838 0.44353259 10592925
0.79000002 0.13433769 0.44752014 10658717
0.78808331 0.14508167 0.44366851 10592925
0.78859997 0.15533115 0.44395843 10658719
0.78900003 0.16095006 0.4451066 10790305
0.79062515 0.16513965 0.44409552 10658719
0.79240006 0.17462976 0.44516918 10592925
0.7918666 0.18470578 0.44486877 10592925
0.79144007 0.19479798 0.44463003 10592926
0.79221731 0.20402119 0.44474494 10724000
0.79300004 0.21003313 0.44365034 7234406
