# .PCD v0.7 - Point Cloud Data file format
VERSION 0.7
FIELDS x y z rgb
SIZE 4 4 4 4
TYPE F F F U
COUNT 1 1 1 1
WIDTH 551
HEIGHT 1
VIEWPOINT 0 0 0 1 0 0 0
POINTS 551
DATA ascii
0.47100005 -0.060859825 -0.00075712631 12762807
0.46587506 -0.054033358 -0.002609615 13420737
0.47000003 -0.059262797 -0.0016716388 12697014
0.46513644 -0.045296293 -0.0031249083 14803418
0.46833336 -0.038951878 -0.001299732 13750987
0.47000003 -0.037257228 -2.1221191e-05 13882574
0.47900003 -0.070489742 0.0089491541 12435125
0.46879998 -0.060757689 0.0060139773 12697527
0.47227779 -0.064319961 0.0060679228 12631734
0.45888889 -0.05153583 0.0088119414 13882058
0.46410605 -0.055302668 0.0050766109 13157565
0.45876193 -0.046901401 0.0082123112 15197662
0.4625614 -0.044143204 0.0041931118 14736856
0.46783331 -0.038605183 0.0058176355 13553609
0.47280851 -0.034572858 0.0061774678 13488072
0.47900003 -0.028999882 0.0089491541 13816008
0.48000002 -0.027936734 0.0089678364 12829113
0.47900003 -0.070489742 0.014555892 12434612
0.48281407 -0.074082844 0.015755679 12500148
0.46690002 -0.061879653 0.016206268 12500405
0.47402391 -0.066515982 0.014717367 12500148
0.45725587 -0.052954722 0.015186878 13289665
0.4625484 -0.057908099 0.014437545 12565941
0.4550966 -0.045172472 0.015157792 15066077
0.46000001 -0.040771991 0.011824781 14210512
0.45830002 -0.038796492 0.017787898 14211027
0.465875 -0.036513828 0.01524606 13421767
0.47256422 -0.032689668 0.014240265 13422023
0.47652635 -0.028171098 0.015090001 13290437
0.48280001 -0.024097027 0.015964856 13356228
0.49000001 -0.020489058 0.019478554 14211793
0.50333333 -0.090567015 0.028258331 12565939
0.49478573 -0.083081409 0.02604498 12434355
0.50083333 -0.088163994 0.028507764 12500146
0.47766671 -0.07057368 0.025134427 12368562
0.48470458 -0.075387813 0.024246221 12368562
0.49019998 -0.079023346 0.026371907 12302769
0.45900002 -0.060024846 0.02576793 12565428
0.46463159 -0.062486015 0.02367579 12499891
0.47312003 -0.067501605 0.024917878 12368562
0.44874999 -0.051418688 0.028080925 13618374
0.45458829 -0.055182654 0.024730032 12894394
0.46033335 -0.058762606 0.020813495 12500148
0.44805995 -0.045104876 0.026912712 15131869
0.45191112 -0.044589944 0.021981262 15065819
0.44883338 -0.039081495 0.028699344 14803421
0.45481825 -0.037013039 0.024728121 14144977
0.46170002 -0.03227495 0.027211983 13224387
0.47000003 -0.030655555 0.020884071 13290691
0.47100002 -0.029618159 0.020928504 13487813
0.48733336 -0.023417754 0.022416392 13356484
0.49066666 -0.020899301 0.022567889 13882828
0.4939 -0.018217709 0.023568606 13685192
0.50600004 -0.014640694 0.026631983 13487556
0.5110001 -0.011796299 0.029285302 13290180
0.51200002 -0.0094229635 0.029941913 13421766
0.52488887 -0.10442068 0.038752403 12500148
0.50543755 -0.091686562 0.034735151 12434354
0.51384622 -0.096814007 0.036810018 12500147
0.49545002 -0.083066091 0.034944013 12302769
0.50203848 -0.087940693 0.035054334 12434354
0.47763643 -0.072018653 0.033525217 12171183
0.4838379 -0.076290928 0.034965992 12171183
0.45744446 -0.061369617 0.036978353 12368562
0.46600002 -0.064872548 0.035028212 12236976
0.47312504 -0.068520799 0.032925542 12105646
0.44678181 -0.053487785 0.035553429 13026238
0.45205885 -0.057689115 0.033594958 12499893
0.44362628 -0.044985406 0.034807924 14934748
0.44508892 -0.037480146 0.035467241 14737370
0.45600003 -0.033150464 0.034783326 13487559
0.46186665 -0.031276532 0.032559562 13158851
0.45866668 -0.029558167 0.039349753 12961472
0.46400005 -0.028633688 0.030393558 13158851
0.50837505 -0.01679337 0.034939565 13619144
0.51055562 -0.012848211 0.035168234 13224643
0.51299995 -0.0077902568 0.035516437 13092801
0.52350003 -0.00289248 0.038578577 13355717
0.53000003 -0.0010690625 0.039679736 13355975
0.52900004 -0.11097491 0.045487262 12829111
0.53000003 -0.11220388 0.04552893 12763318
0.51840001 -0.10055953 0.047304954 12500404
0.52508694 -0.10563517 0.045056511 12565940
0.50683337 -0.091791399 0.045659736 12303026
0.51429033 -0.096816964 0.045180559 12434355
0.48585722 -0.080924451 0.047582328 12171694
0.49504548 -0.08397276 0.043223057 12302769
0.50187504 -0.088544309 0.04499073 12434354
0.47748277 -0.071888216 0.045769963 12171438
0.48117235 -0.07640674 0.045618113 12171439
0.45533338 -0.061443131 0.044866122 12171439
0.46425 -0.064652801 0.045074362 12105389
0.47400001 -0.068566211 0.045233823 12171438
0.43871433 -0.050990067 0.046783157 13421251
0.44443861 -0.055156101 0.044805795 12631991
0.4506 -0.059137046 0.042594142 12303025
0.4368138 -0.044900812 0.04587939 14803417
0.44011769 -0.044949159 0.040647473 14868955
0.43756253 -0.038140416 0.046935134 15066846
0.44363639 -0.03487128 0.044188973 14277077
0.45200002 -0.031330332 0.042834267 13224649
0.44900003 -0.028935468 0.049031857 12698043
0.45419997 -0.028915053 0.045060001 12829888
0.51075006 -0.011193178 0.043619368 12961473
0.51219046 -0.00782499 0.044741716 13158852
0.52680004 -0.0018009649 0.046103634 13093059
0.53000003 -0.0010690625 0.044642694 13093060
0.53185189 0.0025754618 0.047105711 13093059
0.52819997 -0.11111622 0.053393029 12829625
0.53000003 -0.11273562 0.051466763 12894904
0.51828575 -0.1008845 0.057003465 12303539
0.52397925 -0.10596662 0.054992989 12566710
0.50780004 -0.091609038 0.052281506 12237745
0.51308328 -0.095564723 0.055165425 12237745
0.48292857 -0.081728213 0.055607136 11974574
0.49300003 -0.085245326 0.053067349 12237746
0.50400001 -0.089507096 0.054251406 12237746
0.47634375 -0.073168442 0.055106614 11908524
0.48072222 -0.078434356 0.055119801 11974317
0.44900003 -0.06081935 0.05779117 12105390
0.45370001 -0.062097199 0.052869432 12040111
0.46599999 -0.066760808 0.05453014 11974317
0.47233331 -0.069263905 0.053669665 12039853
0.43568754 -0.051975202 0.0549854 13026236
0.44485191 -0.057372376 0.053083912 12368562
0.42899999 -0.042041503 0.059234135 15264224
0.43202081 -0.045001823 0.05485129 14671832
0.43422896 -0.035893474 0.055191603 14672091
0.44162503 -0.031646363 0.053156145 13750733
0.4451395 -0.028036386 0.054403778 12895424
0.51900005 -0.011374276 0.055866037 12961474
0.52025002 -0.011097046 0.058132663 12895681
0.51756251 -0.0069490466 0.05298914 13093059
0.52170974 -0.0047081797 0.056861065 13093059
0.52900004 0.00017135312 0.053227257 13158852
0.53377271 0.0033647709 0.05330684 13158852
0.54390913 0.0085131861 0.05450286 13158853
0.54788893 0.011151903 0.055699036 13158853
0.55150002 0.014107029 0.057797406 13027014
0.52500004 -0.11044305 0.060198985 12764090
0.51811999 -0.10186506 0.064794995 12565941
0.5215264 -0.10624598 0.066030867 12829113
0.50833338 -0.090673864 0.068600871 12040367
0.51433337 -0.095457107 0.064874344 12303282
0.48400003 -0.080852985 0.064013183 12039854
0.49300003 -0.08327385 0.068393655 12039854
0.50425005 -0.08837045 0.068441473 12040367
0.46900001 -0.07121402 0.064757131 12236976
0.47616661 -0.073484823 0.06221278 12039854
0.48176473 -0.078063287 0.064075463 12039597
0.44763163 -0.061519139 0.066493653 12039854
0.45337504 -0.066126555 0.065611362 11974317
0.46200001 -0.067988016 0.062709056 12039597
0.47300002 -0.069606781 0.060880229 12105390
0.42763636 -0.051373038 0.067596532 12894393
0.43359262 -0.053477097 0.064594083 12631734
0.44290483 -0.058168508 0.064212516 12302769
0.42620775 -0.044832479 0.065033212 14671318
0.43000001 -0.048430987 0.060630508 14079183
0.42694369 -0.036838919 0.065658078 15000799
0.43011543 -0.03277836 0.064422861 14277079
0.43200004 -0.028174859 0.068206578 13093065
0.44400004 -0.028959716 0.06026585 13421768
0.52100003 -0.010808271 0.060959995 12961474
0.52286673 -0.004552233 0.063468002 13027267
0.52783334 0.00058338448 0.0677303 13158852
0.53477788 0.0025431153 0.065069415 13158853
0.5453214 0.0071121561 0.063850477 13158598
0.54849994 0.0107071 0.065588109 13158598
0.55354357 0.015259938 0.065187976 13290185
0.56040001 0.019860119 0.064257644 13290185
0.5642001 0.02281634 0.066805124 12105911
0.51756001 -0.10156053 0.074995853 12829113
0.52175003 -0.10619923 0.072344922 12894906
0.50641668 -0.092408396 0.075650148 12303026
0.51414812 -0.097065732 0.074199975 12434612
0.49487236 -0.084569618 0.075743355 12040110
0.50150007 -0.088672556 0.071786135 12171952
0.48820001 -0.077786528 0.075407431 11908524
0.49020004 -0.078793921 0.075487398 11908525
0.44866669 -0.063459091 0.071052261 11842733
0.42547625 -0.052300487 0.074864157 12762808
0.432625 -0.056709435 0.072646245 12236722
0.41850007 -0.043033689 0.078541562 14802649
0.42210886 -0.045172125 0.074257582 14407891
0.4184286 -0.038765825 0.07890451 15197920
0.42336544 -0.034922495 0.074912027 14803422
0.43000004 -0.03039539 0.071619637 13685199
0.4269 -0.029543018 0.077125236 13882323
0.43240908 -0.026264917 0.074452512 12961476
0.52500004 -0.0014686552 0.070440941 12895680
0.52742857 0.0014075706 0.071237445 13093058
0.53506666 0.0057748281 0.076006733 13158595
0.54325002 0.0086030485 0.072938561 13158852
0.54656255 0.011455481 0.073622294 13224646
0.55300003 0.017162543 0.074357867 13619405
0.55607694 0.021710647 0.076282173 13290438
0.56350005 0.023933327 0.070546888 12105910
0.51632142 -0.10209987 0.084844686 12829370
0.50457895 -0.091852725 0.085213684 12368819
0.51333332 -0.097520284 0.085012302 12566198
0.4948085 -0.084855646 0.084803157 12105646
0.48833337 -0.077960812 0.082288928 11973804
0.49000001 -0.0789911 0.080848344 12105390
0.43800002 -0.06035471 0.086110957 11973550
0.44427279 -0.064155556 0.087055378 11973550
0.41820002 -0.050969433 0.088678546 12631480
0.42282224 -0.053629201 0.085917719 12434101
0.43200001 -0.058113955 0.08513175 12105136
0.41567251 -0.044910837 0.085060686 14276305
0.41563997 -0.03595008 0.085769922 15000545
0.42096558 -0.031975709 0.082828172 14605788
0.41825002 -0.028993221 0.089080855 14276826
0.42248791 -0.027820332 0.085055575 13750480
0.43099999 -0.024277207 0.081100091 12697794
0.52716666 0.0030529425 0.088622749 12895682
0.53364867 0.0067301779 0.084955417 13158853
0.53900003 0.010269062 0.085778654 13356232
0.54536003 0.013153194 0.085663378 13619148
0.55423337 0.017830022 0.08495634 13816783
0.55876929 0.021815063 0.085402839 13158598
0.5605455 0.025652168 0.085866734 11382442
0.51466668 -0.1019019 0.094640404 12763065
0.5072 -0.092293739 0.096388496 12303284
0.51174355 -0.097152218 0.095014848 12631735
0.49650002 -0.084688202 0.091219932 11974575
0.50457144 -0.089271471 0.097342826 12237492
0.41433331 -0.050708022 0.094382644 12894653
0.40847227 -0.043058425 0.097277515 14342613
0.41175345 -0.045676559 0.093699887 13947341
0.40832019 -0.036151595 0.097384587 14935007
0.41170582 -0.034048673 0.093211144 14934751
0.41472921 -0.028034501 0.095314749 14079446
0.42076471 -0.024603998 0.094021775 12961479
0.52536368 0.002968756 0.093333319 12895426
0.53405267 0.0076808813 0.093682028 13290184
0.53842866 0.010618692 0.097213551 13487564
0.54451352 0.014481964 0.095301174 13816529
0.55188233 0.01864733 0.09390457 13816273
0.55512822 0.023309493 0.095167764 12039860
0.56 0.02574531 0.091087133 10526623
0.79100001 0.078172319 0.095114425 11119011
0.51316667 -0.1011464 0.10228985 12829114
0.50609088 -0.092629962 0.10407531 12434613
0.51100004 -0.097530745 0.10325368 12697529
0.49899998 -0.086282797 0.10277625 11908525
0.50254548 -0.088715665 0.10372356 12040112
0.40854546 -0.051470723 0.1070976 12499895
0.41081256 -0.053122602 0.10534833 12433845
0.42566669 -0.057327088 0.10262037 12105136
0.43033338 -0.058962729 0.10374463 11973550
0.40562513 -0.044848718 0.10500035 13881805
0.41000003 -0.049777698 0.10076232 12630967
0.40461755 -0.035006188 0.10481735 14869214
0.40786052 -0.027977627 0.1062709 14408922
0.41340005 -0.023900861 0.10488231 13356236
0.42050004 -0.020536151 0.10383442 12763840
0.41766667 -0.018930351 0.10851268 11907764
0.42014292 -0.016021948 0.10873502 12829380
0.52600002 0.0050958833 0.10341179 12895681
0.53493339 0.0081087016 0.10466415 12961475
0.53841174 0.0115932 0.10577703 13553612
0.54421282 0.016448898 0.10473692 13619407
0.54775 0.021656703 0.10688312 12566717
0.55172223 0.023861879 0.10329945 11513770
0.78900003 0.075061634 0.10801758 11053475
0.79042858 0.079294816 0.10543586 11250597
0.7923333 0.085582696 0.10476224 11382439
0.50579256 -0.093805559 0.11487124 12631480
0.49700007 -0.085939571 0.11774585 11908527
0.50370586 -0.088830918 0.11504311 12236979
0.40558621 -0.051763341 0.11427027 12499893
0.39777419 -0.042497166 0.11763979 14276048
0.40174729 -0.045619808 0.11409729 13683912
0.39740849 -0.035406217 0.11742354 14868699
0.40100011 -0.034408685 0.11251055 15000029
0.39827272 -0.028773624 0.11889935 14803421
0.40341762 -0.026128221 0.11487056 14408407
0.41199997 -0.021427989 0.1124128 12895427
0.41763642 -0.018350461 0.11179327 12368057
0.4204616 -0.015308942 0.11211669 12303035
0.53880006 0.012367799 0.11610281 13553611
0.54240626 0.016490612 0.11448888 13487818
0.54623079 0.022114255 0.11269823 11119269
0.78900003 0.077832229 0.11355876 10856096
0.79000002 0.078670636 0.1124081 11119268
0.7909584 0.085588448 0.1146128 11316647
0.50342858 -0.092607796 0.12086075 12565687
0.49850002 -0.087947421 0.12017822 12040113
0.39740002 -0.050666682 0.12910888 12434101
0.40385717 -0.052778956 0.12428822 12302514
0.39497989 -0.043921288 0.12542787 13881547
0.40090913 -0.048632909 0.12296993 12762553
0.3932111 -0.034882687 0.12512024 14737370
0.39589772 -0.026204346 0.12543906 14474458
0.40050003 -0.022781812 0.12233376 13684945
0.53820008 0.014622471 0.12327992 13487562
0.54000002 0.017873012 0.12006984 12829635
0.78900003 0.078755759 0.12833527 10987427
0.79000002 0.079780273 0.12757321 10921634
0.7915653 0.086144574 0.12605107 11316390
0.39475 -0.052035674 0.1354115 12434101
0.38863638 -0.042222135 0.13697527 14276305
0.39169556 -0.045926198 0.13401508 13420740
0.3874546 -0.035160504 0.13576634 14605527
0.39019996 -0.033715717 0.13101853 14606041
0.3882927 -0.027830089 0.13732758 14737371
0.39211449 -0.02430821 0.1342459 14342871
0.39554545 -0.018642796 0.13820606 13224392
0.78900003 0.079679288 0.13387646 10987683
0.78900003 0.082054086 0.13506386 11053476
0.79100007 0.08667282 0.13503961 11250854
0.38876921 -0.051821079 0.14861062 12434357
0.39263266 -0.05256664 0.14383033 12302771
0.38570774 -0.044378079 0.14563382 13552839
0.391 -0.04844838 0.1417973 12960445
0.37899998 -0.032261703 0.14992744 2829616
0.38328725 -0.034945767 0.14519951 13027267
0.37900001 -0.029156348 0.14992744 2894642
0.38509783 -0.025358891 0.14519991 14013649
0.39116672 -0.021009957 0.14176668 14013905
0.38860002 -0.019523928 0.14817452 13750736
0.39432722 -0.017137023 0.14632836 13158855
0.40492854 -0.012960019 0.14558664 12763841
0.41000003 -0.010905094 0.14299427 12829635
0.40823692 -0.0066082934 0.14803657 12106166
0.41000003 -0.0094653666 0.1439541 12369084
0.38694739 -0.052846845 0.15526514 12434101
0.39000002 -0.055566486 0.1506269 11974320
0.37768862 -0.042480044 0.15605627 3554618
0.38224 -0.046782807 0.15398169 11250343
0.37613979 -0.035101734 0.15494771 2633773
0.38000003 -0.037684351 0.15032302 2765877
0.37723663 -0.026907558 0.15586102 5001037
0.38188404 -0.022740517 0.15370396 13289926
0.38601142 -0.017067906 0.156077 13553357
0.39269385 -0.013599717 0.15451343 12961219
0.40333334 -0.011040301 0.15277299 12764096
0.39333335 -0.0096931625 0.15958661 12500670
0.40735093 -0.0055059986 0.15519904 12171703
0.40761539 0.00057214568 0.1558871 11711663
0.39200002 -0.060898684 0.16791756 11908527
0.38570583 -0.054820992 0.16401131 12434615
0.39000002 -0.059218481 0.16614784 11842734
0.37700003 -0.044153679 0.16206755 6645861
0.38076472 -0.049008157 0.16210742 13223361
0.37322217 -0.034943961 0.16329519 2501931
0.37613213 -0.024667028 0.16220474 8158074
0.38000003 -0.020337408 0.16010848 14671839
0.37879997 -0.018499162 0.16314973 14276824
0.38264614 -0.014682888 0.16235803 13553358
0.39000002 -0.010829636 0.16066986 12763842
0.384 -0.0093145994 0.16628857 12105912
0.39337504 -0.0087324539 0.16055968 12237498
0.4073 -0.00377312 0.16064522 11843510
0.77500004 0.074033685 0.16748279 10856350
0.78675008 0.078993812 0.16710673 10922144
0.79000002 0.079780273 0.16086249 10856350
0.78900003 0.081526354 0.16804713 11053729
0.79174995 0.085675031 0.16477014 11053729
0.37900001 -0.060209952 0.17343944 12038832
0.38142857 -0.060720176 0.17688115 12104881
0.39050001 -0.061122738 0.17047402 11710891
0.37788174 -0.054405868 0.1758983 13486533
0.38284618 -0.059093483 0.17340373 12104624
0.36883333 -0.040606435 0.17814028 2633260
0.37365487 -0.044897813 0.17524733 7105385
0.36820763 -0.034539141 0.17636146 2107430
0.37043878 -0.035558179 0.17167324 2436139
0.36843756 -0.027884785 0.17674486 2632233
0.37262189 -0.023999818 0.17457309 6513762
0.37494224 -0.014799987 0.17552623 13487305
0.37587503 -0.00867589 0.17673801 12698048
0.78680003 0.078353569 0.17384593 10856350
0.79100001 0.079881258 0.17958356 10921886
0.78900003 0.081526354 0.17174126 11119522
0.79161543 0.085434899 0.17466392 11053729
0.37839144 -0.060921919 0.18669631 12894140
0.38038895 -0.061964612 0.18302833 12368051
0.37628251 -0.05476211 0.18493383 13552325
0.38000003 -0.059479233 0.18056898 12565174
0.36724132 -0.041861072 0.18597353 2830897
0.37314823 -0.047003329 0.18468441 9670796
0.36601388 -0.034964785 0.18485069 1712672
0.36711225 -0.026984977 0.18545805 2764588
0.37134486 -0.022179447 0.18409517 8289142
0.37273565 -0.01500787 0.18498184 12500152
0.37546882 -0.007550919 0.18532424 13224390
0.38121057 -0.0041016866 0.18546681 12369337
0.78877783 0.074322969 0.18687543 10790046
0.79042858 0.077709615 0.18394694 10855839
0.79292864 0.085847802 0.18499099 11053217
0.79253834 0.12442233 0.18528622 11447976
0.37762499 -0.061317995 0.19126287 12302261
0.37523407 -0.056253295 0.19211513 13157825
0.359 -0.041304681 0.19880445 2699562
0.36186659 -0.041637335 0.19411191 2567979
0.37283334 -0.048613768 0.19083701 11644331
0.35854551 -0.0344126 0.19860619 2239011
0.36179718 -0.035123516 0.19365506 1976099
0.35855556 -0.026650883 0.19869949 3023901
0.36247879 -0.025981182 0.19373864 3553331
0.37080002 -0.021233719 0.19077997 7894894
0.37417141 -0.014431639 0.19414809 10263447
0.37390617 -0.0080026546 0.19329289 12171957
0.78878564 0.077151932 0.19358933 10790046
0.79000002 0.079780273 0.19137767 10987425
0.78900003 0.081895769 0.19723073 10987682
0.7914167 0.086024813 0.19473056 11053218
0.35830769 -0.040985726 0.20084423 1976610
0.35799989 -0.034664538 0.20154311 1449752
0.35799992 -0.026831675 0.20138194 1908759
0.77850008 0.074973956 0.20863852 10790303
0.78321427 0.077525184 0.20570602 10724510
0.78776461 0.083461963 0.20553227 10921632
0.79079998 0.088192508 0.20397322 11053218
0.77750003 0.075789474 0.21110131 10724764
0.78266668 0.0790397 0.21250413 10856095
0.78740007 0.084437281 0.21391226 10921632
0.79016668 0.088737845 0.2151577 10921632
0.79225004 0.086313024 0.22493951 10987679
0.79291171 0.084987573 0.23455372 10922143
0.78400004 0.069997564 0.24957329 10527131
0.7869091 0.076456845 0.24538837 10658716
0.78864288 0.083204411 0.24577594 10856095
0.79018754 0.087083288 0.24402729 10922143
0.7921924 0.094697677 0.24497612 11053729
0.7871905 0.076165505 0.2538375 10658717
0.78875005 0.082193173 0.25408658 10856096
0.79082352 0.086834438 0.25577596 10921888
0.78900003 0.077832222 0.26378655 10658460
0.79000002 0.079780273 0.26535383 10724510
0.78900003 0.081526354 0.26963562 10790303
0.79074097 0.085342176 0.26508763 10856095
0.78866673 0.079030722 0.27321348 10724510
0.78900003 0.081895769 0.27591559 10724253
0.79054552 0.086398393 0.27504167 10855839
0.79100001 0.08667282 0.28482482 10790303
0.79273325 0.14500825 0.3052431 10987682
0.79136127 0.15494715 0.30471411 10987682
0.79153335 0.16517399 0.30478084 11053475
0.79199994 0.17454115 0.30496114 11119268
0.79288 0.14503568 0.31550935 10987682
0.79210001 0.15509214 0.31520063 10987682
0.7924 0.1653537 0.31531951 11053476
0.79215997 0.17457545 0.31522319 11119269
0.79228115 0.18492037 0.31492108 11053476
0.7925666 0.18486823 0.32466349 11053475
0.7924642 0.14476013 0.33515358 10921889
0.79274982 0.15522054 0.33494279 10921889
0.79190648 0.10511555 0.34471998 10855839
0.79179317 0.1150528 0.34549835 10856096
0.79283327 0.15523598 0.34518734 10921889
0.79000002 0.10782957 0.35443345 10790303
0.79088473 0.11519233 0.35523367 10724510
0.79282337 0.15501606 0.35511708 10856096
0.79025 0.10894301 0.36210048 10790303
0.79127997 0.11525442 0.36496064 10724511
0.79277414 0.15531452 0.36509812 10856096
0.79164284 0.11701152 0.37405697 10658717
0.79269224 0.12473401 0.37460211 10790304
0.79218179 0.11759694 0.38300562 10658974
0.78700006 0.11724613 0.39884001 10593694
0.78850007 0.12485608 0.39821428 10790816
0.79106671 0.12680231 0.39429301 10659231
0.79249996 0.13507378 0.39466494 10659487
0.79000002 0.10937075 0.40683323 10592924
0.78829408 0.11521296 0.40487018 10658974
0.78853565 0.12485994 0.4042339 10593694
0.79000002 0.12971419 0.40868264 10462110
0.7906298 0.13557762 0.40489477 10659231
0.79270363 0.14479949 0.40492561 10724510
0.79251999 0.19506229 0.40442082 10790046
0.78900003 0.098149918 0.41740066 10658719
0.79003471 0.10535783 0.41546088 10592926
0.78900003 0.11662055 0.41001239 10592926
0.79104555 0.11482 0.41528642 10658719
0.78900003 0.1240088 0.41001242 10658976
0.79161114 0.12524232 0.41497546 10658976
0.79224998 0.13505186 0.41561148 10658976
0.78500003 0.082950734 0.42998615 10461340
0.79000002 0.0890273 0.42902607 10527133
0.79133338 0.093808867 0.4288235 10527133
0.79071438 0.1063854 0.42562434 10658718
0.79280001 0.11532944 0.42498016 10592926
0.77800006 0.078568421 0.43525687 10330011
0.78099996 0.078871384 0.43145025 10263961
0.77900004 0.080493063 0.43855339 10264731
0.78562081 0.085243449 0.43526393 10395547
0.78900003 0.091131076 0.43734893 10461340
0.79027277 0.095113508 0.43447217 10527132
0.79141951 0.10508639 0.4351761 10592926
0.77900004 0.080493063 0.44128886 10067352
0.78472728 0.086268298 0.44269389 10395547
0.78887504 0.091670826 0.44411251 10527133
0.79026669 0.096458092 0.44397098 10527133
0.79173321 0.1049787 0.44479531 10592926
0.7921291 0.15494622 0.44483626 10658719
0.79199988 0.16527024 0.44494474 10658719
0.79167855 0.17506459 0.44496217 10658719
3.8460002 -0.01676132 1.6744877 12698043
3.8460002 -0.0077577629 1.6744877 13026240
3.8460002 0.0012457921 1.6744877 13420996
3.8460002 -0.025764873 1.6834911 12500918
3.8460002 -0.01676132 1.6834911 12697273
3.8460002 -0.0077577629 1.6834911 13026238
3.8460002 0.0012457921 1.6834911 14013133
3.8460002 0.010249347 1.6834911 13881547
3.8570001 -0.043897178 1.6973355 11973550
3.8570001 -0.034867872 1.6973355 12697527
3.8460002 -0.025764873 1.6924948 12829113
3.8460002 -0.01676132 1.6924948 12894652
3.8460002 -0.0077577629 1.6924948 13092031
3.8460002 0.0012457921 1.6924948 13881547
3.8340001 0.019192832 1.6961893 14144206
3.8460002 0.014751125 1.6924948 13815754
3.8340001 0.028168295 1.6961893 14144206
3.8570001 -0.043897178 1.7063648 12104623
3.8570001 -0.034867872 1.7063648 12829113
3.8460002 -0.025764873 1.7014983 13158078
3.8460002 -0.01676132 1.7014983 12697273
3.8460002 -0.0077577629 1.7014983 13355203
3.8460002 0.0012457921 1.7014983 13947340
3.8340001 0.010217368 1.7051649 14276559
3.8460002 0.010249347 1.7014983 13881547
3.8340001 0.028168295 1.7051649 14144206
3.8570001 -0.043897178 1.715394 12565174
3.8460002 -0.034768429 1.7105019 12697527
3.8460002 -0.025764873 1.7150036 12697528
3.8460002 -0.01676132 1.7150036 12960445
3.8460002 -0.0077577629 1.7150036 13355203
3.8460002 0.0012457921 1.7150036 14210767
3.8340001 0.014705099 1.7141403 13749961
3.8460002 0.019252904 1.7105019 14078667
3.8340001 0.028168295 1.7141403 13552069
3.8570001 -0.034867872 1.7244233 12828859
3.8460002 -0.025764873 1.7285089 13157824
3.8460002 -0.01676132 1.7285089 13486789
3.8460002 -0.0077577629 1.7285089 13749961
3.8460002 0.0012457921 1.7285089 13947340
3.8340001 0.014705099 1.7231158 13947340
3.8570001 -0.034867872 1.7334527 13420996
3.8460002 -0.025764873 1.7375125 13355203
3.8460002 -0.01676132 1.7375125 13486789
3.8460002 -0.0077577629 1.7375125 14013133
3.8460002 0.0012457921 1.7375125 13881547
3.8340001 0.014705099 1.7320912 14013133
3.8460002 -0.01676132 1.7465161 13552584
3.8460002 -0.0077577629 1.7465161 13552582
3.8460002 0.0012457921 1.7465161 14342098
3.8340001 0.010217368 1.7410667 14407891
