# .PCD v0.7 - Point Cloud Data file format
VERSION 0.7
FIELDS x y z rgb
SIZE 4 4 4 4
TYPE F F F U
COUNT 1 1 1 1
WIDTH 729
HEIGHT 1
VIEWPOINT 0 0 0 1 0 0 0
POINTS 729
DATA ascii
0.42371431 -0.132356 -0.041255157 13486532
0.42229411 -0.12457399 -0.041831654 13025981
0.42304555 -0.11530782 -0.04242675 13814983
0.42116678 -0.10515101 -0.0420871 14012874
0.42100009 -0.094557077 -0.042477299 14275017
0.42091665 -0.085098386 -0.042883232 14012619
0.42081359 -0.075234607 -0.042831521 13750216
0.41900003 -0.061169684 -0.040235266 13356227
0.42078334 -0.065600999 -0.043067627 13619144
0.41900012 -0.054736223 -0.040639166 13816266
0.42034048 -0.055200327 -0.043652069 13684165
0.41900012 -0.04731467 -0.040970936 14669771
0.42047837 -0.043900393 -0.043351892 13946309
0.42288345 -0.034999393 -0.043085072 14604755
0.42576081 -0.025640052 -0.04272728 12960700
0.42803708 -0.016485527 -0.041178245 12697789
0.43000001 -0.01093373 -0.041291561 14210766
0.43071431 -0.0069149742 -0.040351842 12894392
0.42230311 -0.14246336 -0.033516273 15525858
0.41900009 -0.13186359 -0.030706653 16316145
0.42177278 -0.13528059 -0.035358466 15855594
0.41900012 -0.1253286 -0.030515574 12761522
0.42081743 -0.1248712 -0.035508264 13157310
0.41900012 -0.11274797 -0.030998588 14933463
0.42081186 -0.1153321 -0.035556767 14999255
0.4189792 -0.1051411 -0.032304928 14209228
0.42040396 -0.10505659 -0.037305452 14078668
0.41830885 -0.094941333 -0.033258561 14209485
0.4202188 -0.095409743 -0.038200982 13946567
0.41749397 -0.084996015 -0.034241159 14275278
0.42000005 -0.085315369 -0.039258681 14209740
0.41731989 -0.075070322 -0.034618352 14144974
0.42000002 -0.076555699 -0.039348066 13157308
0.41694111 -0.064907774 -0.03453169 14538186
0.42000002 -0.067706659 -0.039348066 13944251
0.41654995 -0.054961618 -0.034641936 14144716
0.41705096 -0.04533178 -0.034574609 14275788
0.4201667 -0.040847715 -0.038708195 13619145
0.41780382 -0.035840198 -0.032278515 14209738
0.42096379 -0.034264043 -0.037093241 13947851
0.41900003 -0.028963914 -0.030753365 12236978
0.4225671 -0.024955647 -0.035273954 13881802
0.42551103 -0.01529624 -0.034890756 13355205
0.42786369 -0.0069613974 -0.033212833 13749961
0.43080389 -0.003773076 -0.036447443 12828860
0.43264025 0.0044240719 -0.03447251 12631996
0.43609998 0.014661923 -0.033768952 12762295
0.43900007 0.023568643 -0.033591565 12697271
0.44000003 0.028091157 -0.033050075 13092285
0.44378263 0.034784351 -0.032516375 13289408
0.44868973 0.044263598 -0.032183357 13093056
0.44999999 0.048815526 -0.030991986 13158848
0.45033336 0.050749317 -0.031646702 13224641
0.42035186 -0.14277041 -0.02525945 16184557
0.41836768 -0.13398927 -0.024684235 16381682
0.42000005 -0.13872594 -0.027171168 15592678
0.4185797 -0.12480004 -0.025006456 13091773
0.41878983 -0.11505954 -0.025020301 14408148
0.41888985 -0.10528295 -0.025024185 13946825
0.41783965 -0.095238835 -0.024962073 13814982
0.41683996 -0.085251458 -0.024903325 13946311
0.41554025 -0.075259291 -0.024827719 13881032
0.41417515 -0.065159403 -0.024848673 13947594
0.41312158 -0.054858737 -0.024590988 14078410
0.41328573 -0.044794198 -0.024667889 14144716
0.41487864 -0.034960277 -0.024888938 14210509
0.4172619 -0.025524963 -0.024095152 13355715
0.42031583 -0.022442354 -0.028295523 12961215
0.41870007 -0.018487407 -0.021583427 12960185
0.42162234 -0.01477397 -0.025576968 13223616
0.42492616 -0.0054581063 -0.025155047 12763579
0.42780003 0.0026341495 -0.02347824 12500152
0.43061548 0.0066359895 -0.025921542 12105653
0.43376574 0.014700837 -0.02492639 12303550
0.43814072 0.02406878 -0.024798671 12632257
0.44005886 0.028260643 -0.02710779 13223622
0.44372228 0.034908496 -0.024965482 12960447
0.44845155 0.044224139 -0.024964141 13355716
0.45021048 0.048960745 -0.026147814 12961216
0.45304757 0.055128835 -0.024768222 13487301
0.45771426 0.064942919 -0.023478257 13619145
0.46142864 0.074845329 -0.021971473 14210504
0.46411112 0.082120813 -0.021267772 13420993
0.42087829 -0.1422974 -0.015397896 16380910
0.4188 -0.13273126 -0.018293366 16118510
0.42045337 -0.13585477 -0.014243916 15789287
0.41898122 -0.1251158 -0.017507426 13092543
0.42000005 -0.12500584 -0.012675408 13421507
0.41896626 -0.1150009 -0.017207783 14144204
0.42000002 -0.11554907 -0.012393242 14013389
0.41900021 -0.10457749 -0.01642389 13420739
0.42000005 -0.10719432 -0.012578903 13553094
0.41794971 -0.095265426 -0.015184221 13486272
0.41648009 -0.085179739 -0.015131926 13091771
0.41353989 -0.074900262 -0.015027852 13354430
0.40900001 -0.060667261 -0.011029445 15133922
0.41174993 -0.065094098 -0.015123519 13552578
0.40859535 -0.054140359 -0.012226524 13618114
0.41105086 -0.05563065 -0.016885595 13881286
0.40850034 -0.045189291 -0.012656852 14275015
0.41086265 -0.044751752 -0.017409338 14341066
0.40875006 -0.036786333 -0.011501539 13552320
0.41132042 -0.034530036 -0.015886441 13619141
0.41346356 -0.025024418 -0.01502962 13421507
0.41705003 -0.015481144 -0.01442373 13354943
0.42035297 -0.012366254 -0.018484928 14012620
0.41870007 -0.0086855646 -0.011781584 14143947
0.42208242 -0.0049935249 -0.01590284 13223104
0.4261086 0.0044620885 -0.014941446 12566720
0.42999998 0.0091990242 -0.018138895 12763844
0.42874998 0.010678143 -0.011437088 13421776
0.43164113 0.015151286 -0.014948617 11974843
0.43671885 0.025009351 -0.014717486 12105655
0.44211715 0.035122856 -0.015161322 12959931
0.44774449 0.045224633 -0.01521914 12763584
0.45225924 0.055210683 -0.014843978 13026238
0.45730874 0.065461181 -0.015010207 13355461
0.45900008 0.07152798 -0.013989578 14340556
0.46148264 0.076039024 -0.015407178 14078412
0.46511412 0.084991157 -0.015181878 14210509
0.46871999 0.092719413 -0.013978314 13882061
0.47000009 0.095976502 -0.013824715 13224389
0.42227781 -0.14163923 -0.0050402242 16184044
0.42118654 -0.13509296 -0.0050630616 15920616
0.42083937 -0.12510775 -0.0048431652 13288894
0.42083204 -0.11477955 -0.005047841 13684168
0.41900006 -0.10128795 -0.0090430751 12236465
0.42037743 -0.10514599 -0.0046781334 13552324
0.41811284 -0.095137119 -0.0049593551 13157562
0.41540006 -0.084963776 -0.0048834374 13158077
0.41211295 -0.074803323 -0.0049726432 12960699
0.40847331 -0.063446432 -0.0039738449 13552834
0.41051352 -0.067606598 -0.0064360895 12961212
0.40676123 -0.054763801 -0.0046849879 13158592
0.40624553 -0.045041386 -0.0047822921 13618371
0.40717134 -0.035092648 -0.0049142744 13749699
0.40814298 -0.026045691 -0.0032834113 13223870
0.41099998 -0.023017103 -0.007267395 13158078
0.40900001 -0.019655362 -0.00033762571 13223099
0.41366059 -0.014827563 -0.0049138344 13485757
0.41721952 -0.0062096426 -0.004084873 13092288
0.42060724 -0.0023946485 -0.0073694526 12303033
0.41866669 0.00046257619 -0.00034586561 12959162
0.4233619 0.0046495921 -0.0050185495 12828346
0.42749161 0.012745211 -0.0039072577 12565688
0.43061766 0.017752755 -0.0052702082 12698049
0.43521991 0.025116574 -0.0046098731 12960704
0.43895245 0.031704128 -0.0035433855 13026499
0.44166675 0.036337819 -0.0050108228 12960451
0.44718075 0.045434654 -0.0049782987 12828863
0.44900006 0.050861843 -0.0021225072 13551808
0.45212191 0.055579867 -0.0050409548 13354691
0.4565779 0.065357961 -0.0048325779 13749704
0.45899987 0.072211325 -0.0047001163 13420223
0.46091831 0.076806411 -0.0049767457 14078925
0.46431133 0.084938899 -0.004914057 13684169
0.46741292 0.092996076 -0.0053321612 13224131
0.47000003 0.096976742 -0.0099237273 12500921
0.42429036 -0.14170809 0.0053679785 15131357
0.42286327 -0.13494568 0.0054034442 15723237
0.42143178 -0.12477215 0.005332449 13815753
0.42154026 -0.11483105 0.0054103504 13683651
0.42062891 -0.1048739 0.0053007929 13224128
0.41771254 -0.094959997 0.005262556 12697013
0.41432977 -0.085123084 0.0051486134 12960443
0.40865725 -0.072165534 0.0064037628 12959669
0.41114515 -0.076807693 0.004777615 12434610
0.40682018 -0.065111972 0.0052139699 12960186
0.40401977 -0.055203043 0.0051792399 13093315
0.40289089 -0.045143463 0.005162796 13093316
0.4035179 -0.034817804 0.0051711593 13618113
0.40551999 -0.025020963 0.0051958836 13289406
0.40805909 -0.01668077 0.0062725097 13157820
0.41114634 -0.012659288 0.0036172082 13092542
0.41421998 -0.0051893485 0.0053080493 12894648
0.41739127 0.0020064886 0.0058616893 12502210
0.42121577 0.0069835964 0.0047353138 11975350
0.42559558 0.014509861 0.0055307653 12499893
0.43000001 0.019013742 0.0017422008 11776175
0.42880002 0.020416325 0.0078099398 11184293
0.43304762 0.025280036 0.0048775235 12829119
0.43821058 0.032620616 0.0054585659 12369336
0.4413256 0.037412014 0.0048336568 13224132
0.44541979 0.044990722 0.0051918337 12895167
0.44878581 0.051738646 0.0055699204 13420738
0.45184302 0.05685623 0.0051221717 13355973
0.45559278 0.065215886 0.0053112269 13880775
0.45887789 0.072987989 0.0056121135 13487820
0.46038717 0.077471673 0.005020028 13487050
0.46376565 0.084840298 0.0054062051 13486532
0.46651608 0.092172675 0.0050849216 13289666
0.42600003 -0.14095013 0.015204899 16117481
0.42492366 -0.13504432 0.015489274 15789029
0.42291868 -0.12501629 0.015249164 13947082
0.4218604 -0.11492027 0.015289153 13026236
0.41876003 -0.10174013 0.016135802 13749186
0.42064616 -0.10639913 0.01487291 13354945
0.41677779 -0.095043473 0.015058354 12499120
0.41295612 -0.084998764 0.015009711 12499635
0.4075855 -0.073680781 0.015593337 12631218
0.41070834 -0.078628749 0.013360568 12302510
0.40424752 -0.064739406 0.015075472 13289151
0.39900002 -0.050621688 0.01928602 13225928
0.40104651 -0.054953437 0.014920531 12697527
0.39851111 -0.044299956 0.017830605 13093057
0.40024647 -0.045256853 0.013008477 13421764
0.39829797 -0.035400264 0.017993953 13092545
0.40040907 -0.034850251 0.012932576 13224899
0.39884618 -0.028025148 0.018871304 14012360
0.40152371 -0.024928393 0.014566608 13551807
0.40516636 -0.014996711 0.015180731 13026749
0.40812775 -0.0074076201 0.016302552 12829113
0.41171697 -0.0034271937 0.014017269 12303544
0.4162727 0.0045756306 0.015431996 12435389
0.42045459 0.0090848412 0.012060457 12369595
0.42302302 0.015026032 0.015433693 12237493
0.42765623 0.021195618 0.015588112 13224129
0.43205723 0.026388017 0.01435695 12697788
0.43725446 0.033200767 0.015128217 12434874
0.44068566 0.037991256 0.014451674 12763584
0.44480011 0.044928953 0.015077246 12895425
0.44873172 0.052260805 0.01568586 13355461
0.45117021 0.057116412 0.014674449 13355460
0.45498779 0.065128855 0.014889427 13158340
0.45871145 0.073605515 0.015157456 13618631
0.46005002 0.078068987 0.014679653 13750215
0.46317306 0.084733441 0.015158764 13552582
0.46542314 0.091632999 0.015065676 13158078
0.42744446 -0.14095393 0.024999678 15328482
0.42557579 -0.13525212 0.025299739 15657184
0.42331642 -0.12513563 0.025331654 14998997
0.42153043 -0.11483006 0.025143046 12828342
0.41814283 -0.10266898 0.025390528 13355458
0.42043912 -0.10750878 0.02453864 13683650
0.41543958 -0.095172182 0.025038753 12499121
0.40862077 -0.081606954 0.026896555 11973288
0.41151902 -0.086098783 0.024380757 12170927
0.40588444 -0.074992038 0.024890184 12434354
0.39879999 -0.061208539 0.028549671 12105905
0.40172926 -0.065462805 0.024917992 12565942
0.39751077 -0.054322641 0.025780825 12501436
0.400125 -0.057868231 0.022072069 12435382
0.39608684 -0.045066833 0.025132898 12500920
0.39585125 -0.035084505 0.02499708 12699071
0.39726159 -0.025446596 0.025521379 12829628
0.40007147 -0.021545226 0.021924296 13027009
0.39878577 -0.018341627 0.028588563 12698043
0.40174305 -0.01451668 0.024822515 13092288
0.40632704 -0.0051089097 0.02497172 13090746
0.41 -0.0011469498 0.020457592 11446691
0.40859997 0.00089802226 0.027465105 13092028
0.41294178 0.0052375328 0.02491053 12829114
0.41776666 0.012198821 0.026221296 12369851
0.42176563 0.016495723 0.024725955 12434357
0.42666665 0.022672156 0.025226792 12894393
0.43134096 0.027659608 0.024326842 13157825
0.43651938 0.034272168 0.025286235 13027008
0.44007698 0.038895044 0.023595601 12764607
0.44360715 0.044697296 0.025085855 13092029
0.44837493 0.053305533 0.025413835 12633021
0.45051855 0.058231704 0.024392318 13553352
0.45396656 0.064982533 0.024952216 13355460
0.45840615 0.074097365 0.02509605 13881805
0.45999998 0.079059511 0.024029285 13881288
0.46285081 0.084834345 0.024558399 13487045
0.46527281 0.091149695 0.023148684 12763067
0.42800003 -0.14038566 0.035299618 14604757
0.42581293 -0.13455983 0.035276674 15327965
0.42260021 -0.12452312 0.035100058 14736083
0.41900006 -0.11103141 0.038072176 14933974
0.42080951 -0.11538241 0.034717303 12038313
0.41715047 -0.10463489 0.035092458 13157565
0.42000005 -0.10937093 0.031567223 14143430
0.41330689 -0.095019653 0.03509596 12301999
0.40746072 -0.08383856 0.035420954 11972775
0.41052634 -0.088638179 0.033919703 12433844
0.40312731 -0.074905612 0.03489358 12039854
0.3977015 -0.062878847 0.035761278 12565684
0.4002749 -0.067807071 0.034018334 12302515
0.39506668 -0.055085972 0.035040163 12368821
0.39307722 -0.044798598 0.034879237 13093056
0.3924709 -0.034785736 0.0348894 12961987
0.39389259 -0.024763292 0.035014194 12829889
0.39685392 -0.015785299 0.03563375 12895422
0.40013048 -0.011477157 0.032440349 12960187
0.39900002 -0.0085887071 0.038590055 12500921
0.40265387 -0.00483539 0.034615491 12631741
0.40749273 0.0026708108 0.035642527 12567232
0.41161221 0.0078449771 0.034413438 12630964
0.41577926 0.013909104 0.035321712 12369590
0.42088902 0.018821474 0.03395316 12434357
0.42554653 0.024811218 0.03537501 12697789
0.43012506 0.028711157 0.031320956 13158854
0.42900002 0.030267864 0.039148204 10196110
0.43328735 0.034677159 0.034928843 12697789
0.43855006 0.041106239 0.036937959 13224128
0.44253635 0.045658611 0.034300249 13158853
0.44720683 0.054449175 0.0351751 12960959
0.45000002 0.059139419 0.031583425 11908012
0.44900003 0.060059115 0.039922178 13946311
0.45295066 0.064837866 0.03497031 13618376
0.45793104 0.075233527 0.03497193 13552581
0.46000001 0.079837255 0.031208411 14079180
0.46198601 0.084725782 0.034736112 13158336
0.46416667 0.090521455 0.032214861 12435126
0.42647704 -0.13457042 0.045305356 14735828
0.42234451 -0.12444956 0.044967189 14604754
0.41832504 -0.1119227 0.045688268 13420481
0.42038894 -0.11670429 0.044303291 11512224
0.41576609 -0.10509421 0.045009572 12960444
0.40899998 -0.091146924 0.047855351 12566974
0.41171589 -0.095379502 0.044578176 12368305
0.40612 -0.084980667 0.045033801 12236203
0.41000003 -0.089130208 0.040293816 12106160
0.39864287 -0.071663372 0.047842603 12367535
0.40092412 -0.075348429 0.044542037 12302511
0.39635563 -0.065080576 0.045217659 12104877
0.40000001 -0.068852432 0.040559586 12303286
0.38900003 -0.050870731 0.049157862 14540501
0.39211103 -0.055025622 0.044885945 12368306
0.38873139 -0.044167791 0.046962816 12697787
0.39053702 -0.045774277 0.042358074 12106676
0.38825265 -0.035321701 0.046332382 12435384
0.390091 -0.034574769 0.041076608 12304568
0.38865584 -0.026616743 0.047352731 12368562
0.39120558 -0.023807241 0.043110445 13092287
0.38900003 -0.019453101 0.049157862 10726313
0.39323142 -0.014683476 0.045059297 12895165
0.39711764 -0.0068260841 0.045693278 13157821
0.40054333 -0.0026001886 0.043846894 12499638
0.40551415 0.004396426 0.045356233 12435388
0.41084617 0.0091598658 0.042447153 12631223
0.40900001 0.010664723 0.049770303 10919320
0.41466013 0.015189789 0.045052491 12367539
0.42000002 0.019800596 0.040784977 13552582
0.41833338 0.021028051 0.047966521 11314846
0.42348817 0.025287952 0.044779606 12565943
0.4282105 0.030740494 0.045931153 12895422
0.43264201 0.036011852 0.044793248 12632509
0.43781993 0.043213688 0.045402575 12895167
0.44115373 0.047916584 0.044439547 12631482
0.44572505 0.054778732 0.045131579 13355459
0.449 0.060818255 0.045878511 13223871
0.45247152 0.065780677 0.044678528 13487043
0.45697567 0.074990913 0.044974387 13421251
0.45900002 0.080738224 0.047795739 13026491
0.46196717 0.084865585 0.044547938 13092288
0.42634133 -0.13435197 0.055043161 14604241
0.422088 -0.12442677 0.054848198 14933976
0.4179332 -0.11287151 0.054885108 12697014
0.42029423 -0.11776098 0.055311326 11314846
0.41453201 -0.10457785 0.055034563 13092029
0.40865803 -0.092212506 0.055617739 12039344
0.41098246 -0.096874394 0.054415457 12367021
0.40476519 -0.085199013 0.054982614 12103589
0.39760345 -0.0726851 0.055410333 12038056
0.40041175 -0.07767348 0.054605573 11644841
0.39374113 -0.064899094 0.055001665 11907498
0.38866153 -0.053165182 0.055985808 12565942
0.39078009 -0.057289265 0.053569749 11973547
0.38665101 -0.045246381 0.054973599 12566713
0.38514039 -0.035039004 0.054974519 12894394
0.38602415 -0.02508612 0.054967023 12958898
0.38822371 -0.017091572 0.055955887 12763322
0.39101931 -0.013073578 0.053511836 13158336
0.39423579 -0.0054733651 0.054994896 12564916
0.40000001 -0.00080683961 0.050547928 10918804
0.39772731 0.0012726316 0.057368062 12762040
0.40316668 0.0056300364 0.054550111 12500409
0.40784207 0.012118922 0.056209024 12303030
0.41275007 0.016620638 0.054383174 12697274
0.41697222 0.022128215 0.055890024 12040116
0.4222903 0.026978379 0.05454221 12830401
0.42707321 0.032622412 0.055598851 12764096
0.43146154 0.037283115 0.054403834 12895169
0.43673962 0.044296298 0.055480812 12566461
0.44022226 0.048808716 0.053282764 12960962
0.44398883 0.055242438 0.055060383 13224129
0.44852951 0.062437091 0.055876236 13092796
0.45176744 0.066827841 0.054554485 13618631
0.45637214 0.074882932 0.054886442 13158338
0.45900002 0.080738224 0.056033779 14210512
0.46189365 0.084404767 0.054733068 12763321
0.42579401 -0.13353853 0.065387905 14341069
0.42229688 -0.12450012 0.0648591 15130841
0.41793749 -0.11339272 0.065181725 11578278
0.42010719 -0.11837319 0.064924724 11249825
0.41391227 -0.10500343 0.064996265 12893879
0.40765354 -0.094032608 0.06503953 11973554
0.41050002 -0.098805793 0.064629942 12367278
0.40273148 -0.085123725 0.065110169 12038570
0.39649397 -0.074022777 0.065221302 11973290
0.40009531 -0.07881511 0.063627422 11908525
0.38893747 -0.061504245 0.067302801 12303025
0.39179367 -0.065767229 0.0645997 11973547
0.38720697 -0.055130217 0.064959727 12236718
0.39000002 -0.059218481 0.06024019 13356227
0.38372287 -0.044734471 0.065088876 12171957
0.38190913 -0.0347462 0.064796567 12499375
0.38225761 -0.024929371 0.064852878 12762032
0.38535869 -0.015208109 0.065006383 13025209
0.38827085 -0.0078448141 0.066787012 12106167
0.3918395 -0.0039328067 0.064020529 12303547
0.3964268 0.0031921754 0.065382548 12500925
0.40107691 0.0081967646 0.064016297 11908534
0.40593192 0.013845783 0.065405153 12237494
0.4111667 0.018503156 0.063828692 12304574
0.41544876 0.02363551 0.065352112 12631993
0.42104766 0.028675292 0.063577645 12763836
0.42593151 0.034335621 0.065348044 12828862
0.43011105 0.038793169 0.06363818 13092029
0.43438461 0.044887193 0.064942107 12960958
0.43883342 0.051051624 0.066355333 13289406
0.4428311 0.056015633 0.064719141 13026239
0.44793877 0.063216664 0.065293096 13158338
0.45093936 0.068189599 0.064950541 13684679
0.45544448 0.075107418 0.064816348 13355200
0.45846155 0.081552103 0.064784616 12434612
0.46033335 0.084206484 0.060327541 12435125
0.42586443 -0.13340648 0.07490433 14275791
0.42167461 -0.12500718 0.075174406 15196379
0.41750625 -0.11453362 0.07513956 11249055
0.42000005 -0.11943956 0.073647469 13157822
0.40900001 -0.10040253 0.078973331 12829631
0.41320652 -0.10539912 0.074841179 13025724
0.40639144 -0.094755694 0.075125076 11908016
0.41000003 -0.099688202 0.071967795 13027266
0.39825001 -0.081526101 0.076233268 11512226
0.40152496 -0.086119197 0.07467293 12170155
0.39452195 -0.075045317 0.07509467 11973035
0.38815385 -0.063036911 0.075776532 11776425
0.39086011 -0.067531332 0.074077688 11908012
0.38427848 -0.054987386 0.074894272 12171184
0.37836003 -0.042359337 0.078105129 12105652
0.38125971 -0.04562157 0.074292131 12303029
0.37668541 -0.034863975 0.076919295 8420987
0.38049057 -0.03522126 0.072114334 12301742
0.37695867 -0.025385387 0.077002712 8749950
0.38042301 -0.024109777 0.07213559 12894135
0.37846667 -0.018187132 0.078540601 12764356
0.38189653 -0.014644361 0.074535608 13026238
0.3862251 -0.00564287 0.075389244 12631481
0.39072725 -0.0014525591 0.071826927 11711414
0.38900003 0.00035366847 0.078526512 11709866
0.39456397 0.0046978332 0.07509172 12105910
0.40000004 0.009226094 0.071683981 12172732
0.39833334 0.010697943 0.078777559 11710891
0.40344125 0.014867614 0.075031072 12500151
0.41000003 0.019329155 0.070528068 13816265
0.40824997 0.020760315 0.077154003 11908014
0.41430098 0.025457717 0.074687794 12698045
0.42000002 0.029632874 0.070773423 14145495
0.41833338 0.030984858 0.077101663 13025728
0.42355424 0.035319258 0.074663296 12697531
0.42836362 0.040524933 0.077103369 13093575
0.4328537 0.045205746 0.074703671 12698817
0.43770206 0.052337717 0.075650014 12763065
0.44188634 0.057230774 0.074318528 13091775
0.44698477 0.063887767 0.075032711 13158081
0.4506667 0.069024414 0.074432716 13223873
0.45429495 0.075211942 0.075077586 12960703
0.45699996 0.080881275 0.073712066 11973807
0.42595235 -0.13334297 0.085071951 14538192
0.4188334 -0.12071061 0.08601857 15393499
0.42148611 -0.12540014 0.084918894 14867412
0.41681439 -0.11500201 0.084980689 11643042
0.40840742 -0.10146147 0.086098947 11907757
0.41243061 -0.10622498 0.084527381 12894138
0.4045499 -0.094925143 0.084945776 12105395
0.39676601 -0.082859181 0.085272096 11972519
0.40054539 -0.087800749 0.084840998 11710892
0.38843334 -0.072045498 0.087093763 11907756
0.39209521 -0.076120198 0.084415302 11973035
0.3859272 -0.065012887 0.084920883 12301999
0.39000002 -0.069261447 0.080326125 11316642
0.37900001 -0.050450243 0.089594714 14274249
0.38176671 -0.055054639 0.085037619 12170415
0.37701923 -0.044094108 0.085380584 10394518
0.3804231 -0.04858508 0.082565576 11578280
0.37168938 -0.034690585 0.084817372 3028014
0.37190264 -0.024685366 0.084791854 3356470
0.37708509 -0.015889697 0.085616551 11974839
0.38061756 -0.012219525 0.082637601 12631481
0.37900004 -0.0093411906 0.089298964 10987688
0.38312584 -0.0051263217 0.084933408 12237238
0.3873333 0.0025188394 0.086161457 12368824
0.3922222 0.0067633507 0.083708324 12105910
0.39647457 0.01230878 0.085757844 12171442
0.40156597 0.017056432 0.084994115 12698043
0.40723747 0.022709483 0.085455209 12501176
0.41240007 0.027284991 0.084335893 12961472
0.41664585 0.032041233 0.085584663 12829116
0.42262071 0.037158526 0.084739543 12566455
0.42715386 0.042191211 0.085231774 12631991
0.43198213 0.047133572 0.084743679 12566199
0.43717304 0.053227741 0.08476492 12828859
0.44137928 0.057972979 0.085062668 13158080
0.44647887 0.064015612 0.085141592 13092030
0.45047063 0.069313087 0.084219955 12500920
0.45367157 0.074813098 0.084988602 12632508
0.45540005 0.080104984 0.083132863 12302770
0.42520311 -0.13388853 0.095179111 14669776
0.41818914 -0.12218602 0.095442764 15064534
0.42120761 -0.12697461 0.094416797 14669520
0.41490737 -0.11512905 0.094983257 12037799
0.40695468 -0.1033848 0.095592596 12170156
0.41103333 -0.10818342 0.094149664 13091257
0.39786667 -0.091523238 0.097903386 11775913
0.40231463 -0.095466927 0.094518982 12367278
0.38900003 -0.080011725 0.099243939 10656146
0.39461163 -0.084799066 0.095229685 11709866
0.40014288 -0.089530043 0.091648169 11250084
0.38669899 -0.074017033 0.095332123 12104621
0.3908571 -0.078608073 0.093092553 11315879
0.37900001 -0.060209952 0.099354416 12829111
0.38242525 -0.065046385 0.095062859 12367279
0.37818611 -0.053668886 0.096430555 12630450
0.38067299 -0.057118025 0.092781886 11774883
0.37563282 -0.044942293 0.094808765 10460312
0.36803338 -0.033310596 0.095681287 2765101
0.37085462 -0.037246093 0.09366753 2764589
0.36803159 -0.026297675 0.095976368 2895919
0.37068012 -0.022873314 0.093199186 3092272
0.37573612 -0.015257657 0.094973475 11119784
0.37825009 -0.0062756655 0.096398212 11907758
0.38086537 -0.0031669314 0.092845559 12170929
0.37900001 0.00012276527 0.099354416 11447206
0.38430589 0.0045288643 0.095083706 12105394
0.39025 0.0090339836 0.091111779 12763839
0.38815001 0.010985008 0.09747944 12303027
0.39449015 0.01526894 0.094797134 12500410
0.40044445 0.019191582 0.091537826 13421255
0.39800003 0.021416156 0.09809877 12960958
0.40495071 0.025188589 0.095145591 12632249
0.41072729 0.028978854 0.092810273 11842991
0.40900001 0.030771727 0.099559069 13355979
0.41516444 0.033788085 0.095262133 12631993
0.42135724 0.038537633 0.093932971 13223360
0.42614824 0.043356176 0.095433712 12763064
0.43115386 0.048176274 0.094440445 12697528
0.43601462 0.05406826 0.095351577 13224132
0.44037503 0.058647908 0.093920626 13158338
0.44588649 0.064839706 0.095129393 13289925
0.45000002 0.069673993 0.091103807 14736081
0.44900003 0.070570283 0.097733617 13025724
0.45196733 0.074284241 0.09429612 12763064
0.42358819 -0.13411549 0.10488281 14801103
0.41632441 -0.12384494 0.10541872 15130581
0.42060003 -0.12870343 0.1036132 14012102
0.40822724 -0.11198604 0.10770968 12037797
0.41227162 -0.11587829 0.10430606 11380125
0.40437043 -0.10483459 0.10499182 12828598
0.39630485 -0.093841858 0.10552646 11775656
0.40062499 -0.098152213 0.10283279 11644839
0.38763267 -0.082437225 0.10646489 12170159
0.39207932 -0.086840294 0.10398678 11579051
0.38337901 -0.074870065 0.10497092 12368306
0.37819237 -0.063840546 0.10628042 12302514
0.3807708 -0.067122556 0.10288089 12302260
0.37619987 -0.055078041 0.10510468 12828858
0.3737281 -0.045403969 0.10493397 10591897
0.36617604 -0.034554332 0.10533307 2633259
0.37033328 -0.039471336 0.10300562 2566437
0.36585838 -0.025345674 0.10507421 2764072
0.37 -0.020668389 0.10089287 3288623
0.36850002 -0.019721933 0.10565867 8814198
0.37373611 -0.014604599 0.10449459 11250085
0.375568 -0.0051487219 0.10504065 12302773
0.37802541 0.0029590237 0.10608564 12829376
0.38137311 0.0072557428 0.10388946 12697790
0.38532138 0.014179116 0.10558143 12829632
0.3923462 0.017968528 0.1019301 12303543
0.38857144 0.020528171 0.10887993 13683917
0.39542681 0.023685941 0.10546892 12895168
0.40213516 0.027688976 0.10278904 12501439
0.40492594 0.031345084 0.10550069 12698818
0.41395396 0.036474425 0.10421911 12369336
0.42000002 0.039465148 0.10027025 10198161
0.41754165 0.041434903 0.10693074 12566202
0.42364478 0.045480348 0.10428793 12894395
0.42999998 0.049128991 0.1009799 13420997
0.42750007 0.050804544 0.10818987 13684680
0.4346076 0.055776112 0.1049744 13158338
0.44000003 0.059885304 0.10092483 12237498
0.43850002 0.061118536 0.1076621 14012873
0.44421741 0.065550759 0.10459983 13027011
0.44888234 0.071170099 0.10599039 12500668
0.45122448 0.074846275 0.10449165 12303028
0.41741464 -0.13250014 0.11616599 14143433
0.42075011 -0.13468392 0.11234998 15261654
0.40900001 -0.12082869 0.11854903 11841964
0.412956 -0.12500738 0.11454707 14933203
0.40750021 -0.11472179 0.115374 11314848
0.41046154 -0.11842736 0.11218359 11314076
0.39808699 -0.10153311 0.11529661 11776173
0.40218839 -0.10620225 0.11431371 12565172
0.39455426 -0.095060036 0.11430321 12104882
0.38667318 -0.08359699 0.113704 11841709
0.39094737 -0.088360146 0.11491723 12368052
0.37880003 -0.071292706 0.11337166 12828348
0.38204876 -0.075731337 0.11484693 11775917
0.3776547 -0.064983606 0.11455667 12368051
0.38000003 -0.068375096 0.11918747 9143426
0.37556523 -0.055186629 0.11461905 12039086
0.36871427 -0.040449407 0.11490427 3684663
0.37364501 -0.045820471 0.11495429 9802638
0.36391696 -0.034831364 0.11541856 2435365
0.36367524 -0.025034895 0.11523948 2501156
0.36758336 -0.018882195 0.11611459 8816514
0.37319064 -0.013884891 0.11492753 9934222
0.37411594 -0.0051334156 0.11471563 11185063
0.37665132 0.004889328 0.11464221 11974582
0.38000003 0.0099085448 0.11473954 12237242
0.37899998 0.010991528 0.11421578 12565950
0.38259271 0.015518809 0.11494777 12829635
0.38745949 0.021823576 0.11500419 13158597
0.39431247 0.026879588 0.11373312 13158341
0.39807698 0.031168865 0.11567909 13355721
0.40442863 0.035326947 0.11514363 13027011
0.4121905 0.038732 0.11264545 13158595
0.40849999 0.040935092 0.11888186 13289412
0.41521952 0.044239182 0.11565419 13224389
0.42153853 0.048076369 0.11243771 12764868
0.41850001 0.050101079 0.11901602 13948369
0.42515561 0.052738983 0.11573151 12895937
0.43184438 0.057272684 0.1144821 13354945
0.43606123 0.062749915 0.11585047 13353917
0.44291431 0.067927718 0.11447265 13880516
0.44701791 0.073119178 0.11513724 12697785
0.4506667 0.07645978 0.11157571 11908781
0.41685709 -0.13258497 0.12133723 13288897
0.40871429 -0.12124605 0.12122219 12302508
0.41191673 -0.12595339 0.12108032 13881546
0.40805885 -0.11503531 0.12177993 10986144
0.41328129 -0.11399508 0.12706144 10064527
0.40614814 -0.10297276 0.12440443 10591126
0.41222733 -0.10641876 0.12819947 10855583
0.39820004 -0.092998102 0.12135398 11841196
0.40362966 -0.095413856 0.12595899 10459026
0.39668298 -0.085218869 0.12571445 9868691
0.4004167 -0.088609904 0.12793474 9868429
0.38533339 -0.07387802 0.12304197 9867404
0.39225 -0.078270845 0.12676334 10001820
0.37866667 -0.061043985 0.12133062 11119014
0.38191307 -0.065783277 0.12411837 10789278
0.37757593 -0.05471224 0.12273975 10132119
0.37470216 -0.045703117 0.12269612 9343117
0.35900009 -0.033745855 0.12548733 2567721
0.3606365 -0.034818232 0.12270477 2501670
0.359 -0.027533714 0.12571144 2502184
0.36116683 -0.02430168 0.12315821 2699309
0.36250001 -0.019400816 0.12344939 10199711
0.3751893 -0.012290992 0.12318922 9211530
0.37610978 -0.0053619766 0.12348934 10395289
0.37798318 0.0032147628 0.12329543 10527905
0.38106668 0.0081843408 0.12544194 11119272
0.38551283 0.014551548 0.12473687 10789536
0.39070004 0.018694572 0.12794052 10789536
0.38875002 0.021513171 0.12170427 11118501
0.39425421 0.024810644 0.12510905 11184292
0.39877778 0.031039974 0.12290001 12237238
0.40201506 0.036143988 0.12355072 13355720
0.40629414 0.042208232 0.12351216 13487307
0.41434616 0.047148965 0.1232791 13487561
0.41846675 0.050489437 0.12380723 14144978
0.4239054 0.055573914 0.12518582 13750221
0.43039998 0.059384961 0.12129165 13224389
0.42842859 0.060890198 0.12835906 14012882
0.43399999 0.065080322 0.12491411 13552837
0.44000003 0.069155738 0.12049574 14013385
0.4389376 0.071686171 0.12746164 13223873
0.44112492 0.073205478 0.12462778 12369077
0.4172222 -0.11387154 0.13162261 9605002
0.40900001 -0.10040253 0.13067704 9408137
0.4134483 -0.10590968 0.13201395 9869461
0.40650004 -0.095585778 0.13184692 9801606
0.39766675 -0.083100162 0.13118316 9737360
0.40050003 -0.088120796 0.13112603 10066321
0.39600003 -0.079597443 0.13069521 9081489
0.3678 -0.035266757 0.13654293 1186582
0.37078571 -0.033947647 0.13895877 1054738
0.36646879 -0.024045434 0.13703725 1513239
0.37050003 -0.028177042 0.13919309 791055
0.38825002 0.0158059 0.13063645 10327951
0.391 0.018434973 0.13102747 11117982
0.39428574 0.022019912 0.1307876 11315880
0.41700003 0.047969095 0.13079257 12698051
0.42366669 0.0472272 0.13454297 9737364
0.4316667 0.046118587 0.13893086 8552312
0.42405653 0.055982955 0.13302712 13487049
0.43100002 0.052102014 0.13821062 7697782
0.42752942 0.062016692 0.13279808 14078928
0.43244007 0.066576153 0.13438176 13881552
0.4374688 0.072409809 0.1354845 13815756
0.44000003 0.075336024 0.13491641 11908271
0.36225 -0.040869787 0.14753665 5459274
0.36488816 -0.035403751 0.14666797 922896
0.37085193 -0.033785094 0.14252301 922895
0.36492732 -0.024718976 0.14685412 1184781
0.37093478 -0.027328894 0.14358239 725516
0.36100003 -0.018897984 0.14914519 6366501
0.43633333 0.048266686 0.14310156 10460821
0.43754169 0.05310199 0.14300115 10263960
0.44000003 0.052417457 0.14650445 11842989
0.43770003 0.066644482 0.14210251 8027518
0.43785715 0.071747884 0.14114195 10263967
0.3612273 -0.040896561 0.15473819 1777947
0.35892311 -0.031166941 0.15859604 856848
0.36111104 -0.035176482 0.15476404 1383446
0.35900009 -0.027388548 0.15848039 1053712
0.36074036 -0.024480024 0.15443774 1448213
0.36100003 -0.018995496 0.15346824 3876900
0.34688893 -0.041348495 0.16843957 2830891
0.35481814 -0.041073363 0.16669895 791311
0.3623077 -0.041444715 0.16282576 1909278
0.34739062 -0.034930136 0.16829772 2239010
0.35540745 -0.03445283 0.16496059 1383703
0.36071429 -0.037221394 0.1617831 1580311
0.3482115 -0.024858039 0.16897307 2172964
0.35482329 -0.025603345 0.16499527 1383449
0.35999998 -0.023721639 0.16083173 1251350
0.34900001 -0.018814472 0.16815321 1842973
0.35213336 -0.019012056 0.16633278 1712160
0.33700001 -0.040520377 0.17985924 3092524
0.34290704 -0.041668691 0.17286728 2764586
0.33700001 -0.038548067 0.17985924 2764585
0.34313971 -0.034984551 0.17276308 2436134
0.34363532 -0.025286378 0.17284404 2238756
0.34540004 -0.019452473 0.17203423 2106660
