# .PCD v0.7 - Point Cloud Data file format
VERSION 0.7
FIELDS x y z rgb
SIZE 4 4 4 4
TYPE F F F U
COUNT 1 1 1 1
WIDTH 746
HEIGHT 1
VIEWPOINT 0 0 0 1 0 0 0
POINTS 746
DATA ascii
0.78900003 -0.14104477 0.13849412 12499889
0.79330003 -0.14515716 0.13453558 10986396
0.78825015 -0.13399152 0.13789992 12434096
0.79166663 -0.13534534 0.13278116 13025458
0.78811759 -0.12520455 0.13790324 12367273
0.79099995 -0.1249213 0.13291819 13353650
0.78799999 -0.11503988 0.13831703 12368046
0.79190493 -0.11494654 0.13264348 12630444
0.78885716 -0.10579894 0.13794132 12565939
0.79233336 -0.10500693 0.13304538 12696751
0.78900003 -0.094868183 0.13757059 12698294
0.79122227 -0.095136799 0.13332547 13025972
0.78846157 -0.084793247 0.13726257 12303024
0.79053843 -0.084874503 0.1329264 13025719
0.78836364 -0.075078167 0.13771035 12434357
0.79138082 -0.074376874 0.13282174 12499121
0.78818172 -0.064911611 0.13767757 12236720
0.7919333 -0.065126084 0.13196084 12630963
0.78831244 -0.055800036 0.13744904 12302512
0.79160005 -0.055091653 0.13227612 12236974
0.78888893 -0.045914024 0.13785894 12631218
0.79244447 -0.044883948 0.13311537 11842216
0.78900003 -0.037609227 0.13849412 13091512
0.79321438 -0.034826227 0.1342511 12302509
0.79350019 -0.024819626 0.13463064 12171180
0.78900003 0.029808585 0.13849412 10526358
0.79339409 0.024907276 0.13469751 11053215
0.78900003 0.034426242 0.13849412 10395542
0.79349995 0.035284426 0.13370438 10856093
0.79296666 0.04480854 0.13454141 10921886
0.79258358 0.054993048 0.13447793 11119009
0.79286653 0.065220304 0.13452712 11119265
0.78900003 0.077462815 0.13812472 11184804
0.79148144 0.074575216 0.1341909 11119267
0.78900003 0.083003998 0.1377553 11382182
0.79119045 0.086164393 0.13420115 11513768
0.79353565 0.1245207 0.13497587 11974831
0.79325008 -0.15527403 0.14481057 10920606
0.78761542 -0.14491373 0.14519823 11972523
0.79000002 -0.1490835 0.1419061 10788506
0.77900004 -0.13323908 0.14913964 12762807
0.7840969 -0.13557981 0.14413755 12696756
0.77887511 -0.125559 0.14902447 12894394
0.78269237 -0.12462446 0.14463918 12960185
0.78290635 -0.1148672 0.14543471 12564912
0.78458828 -0.10508478 0.14457166 12696753
0.78553134 -0.095024839 0.14408435 12433838
0.78493959 -0.084885456 0.14456859 12500405
0.78482771 -0.075202599 0.1443443 12369077
0.78389996 -0.064893804 0.14493518 12433069
0.7846297 -0.054645061 0.14466082 12631476
0.78580546 -0.044814866 0.14436546 12171182
0.7863335 -0.034720257 0.1444611 12236719
0.78749996 -0.024794083 0.14467849 12171182
0.79000002 -0.023786359 0.14051905 12235691
0.78754842 -0.014672817 0.14483654 11974060
0.78713334 -0.0052735019 0.14461073 11908012
0.78669459 0.004858762 0.14452857 11645097
0.78656673 0.014985486 0.14450413 11645096
0.78625023 0.025102697 0.14444536 11052702
0.78593343 0.035212614 0.14438653 11579048
0.78645432 0.044943508 0.14473502 11052702
0.78706449 0.054816823 0.14462639 11644326
0.79000002 0.058512129 0.14051905 11118239
0.78606689 0.065332815 0.14582035 11447460
0.79000002 0.064060338 0.14051905 10987166
0.77840006 0.074961975 0.14938922 11053217
0.78600007 0.074904785 0.14426747 11382181
0.77779996 0.085468277 0.14854462 11248796
0.78551853 0.084709786 0.14379852 11710374
0.77749997 0.094292104 0.14891255 12959928
0.78573912 0.094783805 0.14567162 12500148
0.79175001 0.095483519 0.14152473 11843245
0.77900004 0.10055325 0.14950438 14736595
0.7863571 0.10466262 0.14775613 13617861
0.79359114 0.1049675 0.14292385 11842988
0.78866673 0.11164812 0.14889762 12039597
0.7929998 0.1153551 0.14489776 11908781
0.7934401 0.12470731 0.14484726 11909038
0.78604549 -0.14403571 0.15503737 11249313
0.79000002 -0.14954583 0.15531428 10262162
0.77873695 -0.13359767 0.15473178 12893880
0.7808333 -0.13836654 0.15595107 12499378
0.77855176 -0.12475254 0.15476146 12893624
0.78000003 -0.12026295 0.15882626 13354174
0.77900004 -0.1178292 0.15315169 13025722
0.78019041 -0.11420376 0.15556075 13025207
0.78168559 -0.10483629 0.15472525 12893876
0.78199983 -0.0949421 0.15465625 12631733
0.78113884 -0.084780551 0.15448581 12105905
0.78086668 -0.074695848 0.15443076 12303283
0.78105557 -0.064657256 0.15446907 12302511
0.78166664 -0.054642987 0.15458885 12105647
0.78171879 -0.04515405 0.15436967 12040111
0.7810002 -0.035130061 0.15467171 12237748
0.78246665 -0.025389668 0.15474513 12171441
0.78383374 -0.015343524 0.15501559 11776426
0.78280002 -0.0052451747 0.15481187 11644841
0.77900004 0.007546945 0.15862264 11512997
0.78148508 0.0045769271 0.15413535 11710889
0.7790001 0.01529747 0.15725489 11578791
0.78138894 0.014581827 0.15239945 12039595
0.77900004 0.021406708 0.15752843 11644585
0.7810002 0.02549444 0.15389575 11315873
0.77900004 0.036421452 0.15801476 10724254
0.7810418 0.034612801 0.15347426 11184546
0.7788462 0.045693781 0.15732877 11119011
0.78134787 0.04462963 0.15265661 11381923
0.77759111 0.055275168 0.15634698 11250081
0.78100014 0.054770611 0.15105043 11183518
0.77641678 0.064774886 0.15536608 11052703
0.78200006 0.062496293 0.15008013 10460565
0.7747649 0.075252488 0.15524939 11842220
0.77396882 0.085067905 0.15465011 10590095
0.773543 0.095192209 0.1549219 12630704
0.77528 0.10472206 0.15575665 14407629
0.78257149 0.10755707 0.1520188 14802389
0.77900004 0.11149517 0.15862264 11974574
0.78652638 0.11402972 0.15520948 11908269
0.79100007 0.11815145 0.15273131 11777454
0.78900003 -0.1512036 0.16989419 10196626
0.79395658 -0.15531242 0.1650573 10130833
0.78651857 -0.1452786 0.16526707 11117983
0.79000002 -0.14954583 0.16086249 9802122
0.77900004 -0.13196251 0.16044629 13156538
0.78160864 -0.13538919 0.16496311 11973805
0.77900004 -0.12740338 0.16044629 13222588
0.78122222 -0.12471866 0.1649704 12104880
0.78215998 -0.11510264 0.1647615 12763062
0.78250021 -0.10507807 0.16483231 12959923
0.78231996 -0.094980985 0.16479418 12500402
0.78226662 -0.084902629 0.16478303 11909041
0.78203988 -0.074808344 0.16473566 11842987
0.78229994 -0.064759865 0.16479006 12236202
0.78239995 -0.054694939 0.16481119 12301228
0.78234488 -0.04477559 0.16492622 11842478
0.78203839 -0.034741845 0.16459471 11645357
0.78248 -0.025391459 0.16482808 11513516
0.78323364 -0.015331936 0.16498636 11446691
0.78215998 -0.0052406378 0.16476038 11183003
0.77900004 0.0080028586 0.1609022 11447459
0.78092313 0.0043308288 0.16499308 11052698
0.77894133 0.015162121 0.16268677 11710633
0.78063643 0.014872307 0.16809368 10329750
0.77900004 0.020312516 0.16226995 10724253
0.78039426 0.025331045 0.16555117 10790046
0.77900016 0.036603816 0.16372888 10855840
0.78006667 0.033244953 0.16650994 10592923
0.77830547 0.044889674 0.1648595 10724509
0.77688909 0.054609567 0.16506489 11447202
0.77580011 0.064723305 0.16523668 11250341
0.77393353 0.075438343 0.16483888 11513512
0.77261543 0.085397229 0.16476578 9999499
0.77138871 0.095055051 0.16519764 13420221
0.77235711 0.10492997 0.1650804 14210508
0.77755558 0.11189631 0.16560882 11513769
0.78550005 0.11656693 0.16362257 11842734
0.78866673 0.12026384 0.16520515 11711147
0.79372728 0.12585495 0.16482791 11842733
0.78863639 -0.15247723 0.17619367 10131089
0.7918334 -0.15710442 0.17431365 10130833
0.78576934 -0.1449291 0.17492805 11446949
0.78266674 -0.13533381 0.17494397 12696243
0.78258342 -0.12523977 0.17492431 12630708
0.78326702 -0.11526485 0.17507824 12171954
0.7835145 -0.10508368 0.17500308 12171951
0.78330034 -0.095099762 0.1750863 12368300
0.78313929 -0.084997363 0.17504941 12170669
0.78331053 -0.075055614 0.17493036 11579563
0.78403342 -0.064903513 0.17433359 11711146
0.78432 -0.054828696 0.17439692 11974057
0.78440011 -0.04473513 0.1744149 12434351
0.78365415 -0.034461651 0.17445993 12434095
0.78442311 -0.025594441 0.17463061 12171442
0.78489989 -0.015364718 0.17452411 11908014
0.78358638 -0.0051239841 0.17499234 11579048
0.7828058 0.004834678 0.17497565 11315615
0.78251863 0.014704489 0.17542034 10789785
0.78193307 0.02496499 0.17569496 10987421
0.78144002 0.035009935 0.17558508 11249568
0.77900016 0.047667317 0.17433408 10461077
0.78035301 0.042913552 0.17587698 10920859
0.77832001 0.054912351 0.17488357 10526358
0.7767002 0.064798281 0.17451943 10986140
0.77514702 0.075289048 0.17486514 11316133
0.77370977 0.084911495 0.17513435 10197137
0.77233338 0.095171265 0.17534786 13288891
0.77384001 0.10532669 0.17496523 13158333
0.77775002 0.11177217 0.17247976 11711402
0.78583342 0.11646209 0.17550011 11777452
0.78866673 0.12026385 0.17351575 11777195
0.79260868 0.12498374 0.175028 11777452
0.78853339 -0.15271479 0.18468411 9933708
0.79181826 -0.15798019 0.18566743 10131088
0.78582758 -0.14520589 0.18500639 11579045
0.78304011 -0.13539825 0.18510923 12435125
0.78250009 -0.12522648 0.18498133 13156279
0.78393567 -0.11429601 0.18514235 12894135
0.78487992 -0.10447869 0.18554416 12698039
0.78416008 -0.095205411 0.18537378 12499889
0.78310031 -0.08499302 0.18512259 12958898
0.78400016 -0.074852571 0.18512326 12565170
0.78513879 -0.064994991 0.18468601 12171441
0.78499991 -0.0548767 0.18465328 11909039
0.78497213 -0.044767931 0.18464659 12040109
0.78434503 -0.034760054 0.1846557 12039595
0.78406924 -0.025316322 0.184591 11775910
0.78474998 -0.015360004 0.18459368 11972520
0.78492296 -0.0053999373 0.1853423 11184292
0.78443336 0.0048438143 0.18543983 11249313
0.78348023 0.014926067 0.18521416 11381151
0.7827 0.024988804 0.18502927 11315616
0.78204 0.0350371 0.18487301 11315874
0.77900004 0.048579138 0.18369786 11578787
0.78041393 0.044791296 0.18511784 11249310
0.77887511 0.055104587 0.18412472 10921114
0.78000003 0.054423813 0.18895514 12105645
0.77802867 0.065039963 0.18470739 10657175
0.78000003 0.06051046 0.18986815 12040367
0.7767601 0.074804783 0.18544453 11776167
0.77523333 0.084638864 0.18507972 10459280
0.77425003 0.095084764 0.18465056 13683907
0.77617651 0.10361191 0.18476918 14538703
0.78149998 0.10773748 0.18703195 14802133
0.7866112 0.11320268 0.18482868 11842988
0.7908572 0.11821806 0.18590064 11843245
0.78870004 -0.15206964 0.19475582 9933197
0.79147065 -0.15691119 0.19516633 10065295
0.78668004 -0.145237 0.19517906 12038570
0.78418529 -0.13518846 0.19476417 12369073
0.7831431 -0.12500316 0.194104 12564911
0.78375882 -0.11483065 0.19464202 12629934
0.78458071 -0.10532616 0.19536585 12828341
0.78411114 -0.09499649 0.19494669 11974060
0.78224993 -0.084901549 0.1949937 12630451
0.78310037 -0.074909329 0.19520536 12826544
0.78428137 -0.064695232 0.19492477 12828084
0.78453851 -0.054984983 0.1948563 12303797
0.78386128 -0.044705406 0.19539291 12370103
0.78303361 -0.034575325 0.19518907 12303541
0.78303361 -0.025409544 0.19518907 12104878
0.78443342 -0.015352621 0.19462045 12103850
0.78519994 -0.0052594114 0.19481087 11446694
0.78549993 0.0048515736 0.19488613 11250088
0.7850399 0.014955792 0.19477175 11052706
0.78400028 0.025029805 0.19451396 10658200
0.78285205 0.035276599 0.1946359 10592409
0.78160596 0.044832263 0.19525132 10592410
0.7814799 0.05513718 0.19571877 11250079
0.77900004 0.068639323 0.19144839 12105138
0.78117859 0.06491112 0.19590423 11250340
0.77830017 0.075681813 0.19437459 11315359
0.7802 0.072215155 0.19758835 12368562
0.77638739 0.084911607 0.19461791 11315360
0.77600026 0.094576828 0.19455522 13749958
0.77766675 0.10139351 0.19375202 14736854
0.78287506 0.10621187 0.19549367 14078668
0.78808337 0.11233523 0.1947576 11842732
0.79142869 0.11711413 0.19529547 11843245
0.78900003 -0.1512036 0.20498839 9736074
0.79152185 -0.1562822 0.20515956 9933710
0.78792596 -0.14526135 0.20511892 12499120
0.7854166 -0.13488996 0.20497687 12630446
0.78423351 -0.12458798 0.20466763 12763317
0.78346449 -0.11542688 0.20479378 12828339
0.78312153 -0.10491075 0.20479366 12763060
0.7831074 -0.095272914 0.20470075 12434868
0.78300029 -0.084981434 0.20526274 12237493
0.78360021 -0.074957184 0.20542072 12236979
0.78358859 -0.065083787 0.20476872 12433070
0.7833451 -0.054634336 0.20459302 12302512
0.78300029 -0.044655297 0.20526262 12303796
0.78288007 -0.034568679 0.20523171 11777966
0.78304017 -0.025409352 0.20527354 11645613
0.78463894 -0.015357375 0.20477386 11710120
0.78543335 -0.0052603972 0.20498057 11840421
0.78588867 0.0048537548 0.20509933 11578019
0.78529984 0.01496073 0.20494528 11250594
0.78488886 0.025059082 0.20483941 11119264
0.78396451 0.034926426 0.20492673 11578273
0.78286684 0.045154072 0.20522875 10986912
0.78240007 0.055201344 0.2051053 10658456
0.78193325 0.065235265 0.20498255 11052703
0.7790001 0.07775759 0.20457871 10131346
0.78050005 0.073947415 0.20531756 11447205
0.7770859 0.084710225 0.20475125 11578789
0.77732009 0.094443396 0.20457363 14078922
0.78066665 0.098940827 0.20647921 14473679
0.78519988 0.10503681 0.20510513 14144459
0.78885716 0.11158699 0.20416035 11710635
0.79231584 0.11652886 0.2053607 11711405
0.78900003 -0.16043893 0.2197649 9999760
0.78819036 -0.15377374 0.21602283 9933452
0.79077786 -0.15751027 0.21306011 9933967
0.7862857 -0.14536014 0.21473201 12433585
0.78482145 -0.13511541 0.21472922 12565426
0.78309715 -0.12511653 0.21534067 12499635
0.78307712 -0.1153785 0.21466058 12236979
0.78336698 -0.1051935 0.21452895 12302768
0.78356016 -0.095132008 0.21458267 12763318
0.78317177 -0.084869012 0.21526033 12500152
0.78389305 -0.074920036 0.21526137 11842482
0.78313923 -0.064831384 0.21538137 12236718
0.78226662 -0.054685935 0.21514139 12697266
0.78283364 -0.044645004 0.21529776 12566196
0.78300029 -0.034573689 0.21534413 12369076
0.78296691 -0.025407534 0.21533407 11777714
0.7834447 -0.015334742 0.21546443 11711150
0.78457135 -0.005451926 0.21544634 11643558
0.78489995 0.0048475559 0.21494751 11314075
0.78475988 0.014951207 0.21490878 11116952
0.78499991 0.025063215 0.21497536 10526359
0.78523999 0.035181399 0.21504182 11184545
0.78423351 0.045232009 0.21476704 11512483
0.7828216 0.055427272 0.21496876 11052447
0.78227776 0.065265223 0.2151469 11381154
0.77900004 0.078669414 0.21424407 10920351
0.78095645 0.074334078 0.2153783 12236721
0.77733344 0.084866717 0.21469614 11776169
0.77768749 0.093330637 0.21456704 14144968
0.7815001 0.098315582 0.21566355 14078919
0.78725922 0.10551576 0.21518506 13882056
0.79146165 0.11527806 0.2146762 11777196
0.78900003 -0.16113158 0.22576785 9868176
0.79114294 -0.16590384 0.22468238 10986912
0.78670377 -0.15424611 0.225059 9933710
0.78370029 -0.14468427 0.22470999 12697013
0.78384876 -0.1350356 0.22500281 12631996
0.78427589 -0.12478256 0.22522485 12566456
0.78482354 -0.11457586 0.22530329 12631483
0.78480649 -0.10464621 0.22488002 12303032
0.78470004 -0.095270507 0.2249977 11908782
0.78393573 -0.085231431 0.22551773 12434099
0.78362983 -0.075029053 0.22519843 11578537
0.78243351 -0.064773247 0.22526251 11644841
0.78199983 -0.054666985 0.22513789 12040108
0.78300029 -0.044655297 0.22542575 12368301
0.78244001 -0.034550279 0.22526416 12499890
0.78199983 -0.025376163 0.22513783 12302516
0.78213322 -0.015309351 0.22517602 12368567
0.78311133 -0.0050420649 0.22504969 11908786
0.78400022 0.0048438436 0.2247951 11842222
0.78499991 0.014955874 0.22508277 11578277
0.78505546 0.025065118 0.22509901 10921372
0.78573328 0.035204425 0.22529273 10987679
0.78549981 0.045305375 0.22522555 11183776
0.78448147 0.055143781 0.22544611 10789791
0.78343368 0.065360762 0.22555162 11184547
0.78187996 0.075298443 0.22510447 11841959
0.77873343 0.085569568 0.2222534 12565683
0.78060001 0.084678687 0.22668467 11446946
0.77900004 0.092042871 0.22123474 13223098
0.78281826 0.095968321 0.22579269 13618628
0.78763157 0.10429058 0.22472224 14013388
0.79016668 0.10908559 0.22625649 11777195
0.79188448 0.11505337 0.22449215 11711659
0.79340005 0.12470111 0.22470957 11711660
0.78900003 -0.16043893 0.23177081 9801870
0.79154551 -0.16483441 0.23538278 10460567
0.78773075 -0.15465124 0.23508647 10130833
0.78443998 -0.14482337 0.23502274 12630963
0.78346443 -0.13487999 0.23453207 12631990
0.78411114 -0.12497512 0.23512547 12566452
0.78450006 -0.11485682 0.23484175 12893621
0.78477776 -0.10487224 0.23532674 12565684
0.78476 -0.095277421 0.23511715 12500661
0.7839002 -0.085080855 0.23485941 12827571
0.78263354 -0.074865617 0.23539571 12828087
0.78199977 -0.064735688 0.23520663 12040627
0.78203332 -0.054669078 0.23521541 12106418
0.78255582 -0.044629235 0.2353718 12368301
0.78253341 -0.034554102 0.23536663 12498602
0.78199977 -0.025376162 0.23520662 12367791
0.78199977 -0.015307441 0.23520657 11841966
0.78267866 -0.0054386617 0.23508251 11776946
0.7840668 0.0048453351 0.2349107 11579567
0.78523988 0.014961004 0.23526174 11316394
0.78549987 0.025078671 0.23533875 11053215
0.7850399 0.035172354 0.23520179 11579301
0.78499991 0.045277897 0.23518997 11250596
0.78499991 0.055385251 0.23519 11184803
0.78420007 0.065424368 0.23495112 11250339
0.78288019 0.07539513 0.23455577 10723738
0.78171873 0.085062742 0.23472293 11907500
0.78549999 0.095316164 0.23541154 13947594
0.78866673 0.10282692 0.23341745 14473938
0.79143751 0.1073717 0.23584673 12500150
0.79337043 -0.16504957 0.24512774 10395286
0.7877273 -0.15406412 0.24472341 10394517
0.79000002 -0.15879287 0.24593508 9539209
0.7839669 -0.14473605 0.24497265 12695986
0.78250015 -0.13530372 0.24451497 12368818
0.7824446 -0.12521873 0.24449757 12566455
0.78280032 -0.11519708 0.2446088 12893105
0.7830559 -0.10515174 0.24468817 12894133
0.78296685 -0.095060073 0.24466045 12435380
0.78244466 -0.084922098 0.24449736 12696241
0.78159994 -0.074767463 0.24514942 12564144
0.77899998 -0.06409657 0.24902372 12237489
0.78053862 -0.064895265 0.24425386 12369332
0.77900016 -0.054578837 0.24810317 12434869
0.78047061 -0.055097532 0.24361226 12698809
0.77873337 -0.045323778 0.24789609 12564145
0.78075004 -0.045097589 0.24294032 12499375
0.77883351 -0.035300765 0.24792817 12498348
0.78100002 -0.03513027 0.24323946 12563625
0.7790001 -0.025610382 0.24864477 12630191
0.78084201 -0.025146499 0.24385186 12235693
0.77900016 -0.01559942 0.24854273 12433585
0.78095651 -0.015088539 0.24399221 12104111
0.77900004 -0.0079541057 0.24980529 13289408
0.78144449 -0.0050302926 0.24469171 12039345
0.78269452 0.0048355521 0.24457413 11974322
0.78356671 0.014929343 0.24484554 11644845
0.78433335 0.025042646 0.24508619 11316134
0.78493321 0.035167888 0.24527626 11513506
0.78477776 0.045264237 0.24522686 11184548
0.78410017 0.055321675 0.24501386 11052958
0.7842502 0.064857431 0.24483258 11841958
0.78423542 0.074876182 0.245276 11447463
0.78246158 0.084372088 0.24520847 12170410
0.7861765 0.094938315 0.24506743 14407627
0.79195464 0.10484172 0.24519511 14079181
0.78900003 -0.16043893 0.25855324 9802381
0.7927143 -0.16517639 0.25512716 10197651
0.78753853 -0.15425965 0.25495371 10460567
0.79000002 -0.15879287 0.25148329 9736588
0.7835601 -0.14466138 0.2549369 12499375
0.78199977 -0.13521673 0.25534403 12367790
0.78147221 -0.12506369 0.25517005 12500405
0.78173321 -0.11503997 0.25525564 12893364
0.78172207 -0.10497293 0.25525171 13222327
0.78186661 -0.094926052 0.255299 12960696
0.77900004 -0.08363571 0.25892356 13551294
0.78096777 -0.085145786 0.25432688 12762293
0.77884227 -0.074598692 0.2566635 13089972
0.78030777 -0.07534574 0.25191033 12827059
0.77844012 -0.065352909 0.25509083 12630963
0.78000003 -0.069135115 0.25012597 11644326
0.77748489 -0.055014767 0.25527322 12500663
0.77656692 -0.045197677 0.25538591 12498606
0.77666694 -0.035202552 0.25541857 12037541
0.77736676 -0.025225732 0.25564721 11774627
0.77724999 -0.015214758 0.25560835 11710117
0.77756679 -0.0052086343 0.25571227 11908267
0.78000003 -0.0033993311 0.25012597 12171183
0.77826095 0.0042930976 0.25637856 11909041
0.78057152 0.0053435527 0.2516138 12105904
0.77890927 0.014508679 0.25773284 11975094
0.7812106 0.015076376 0.25311109 11974319
0.77900004 0.021224342 0.25892356 11251623
0.78179407 0.025176886 0.2550042 11843244
0.78263354 0.035065308 0.25554797 11973547
0.78286117 0.045153979 0.25562316 12105390
0.78256685 0.055213492 0.25552741 11580074
0.78309697 0.064950943 0.25525734 11842475
0.78346443 0.075449698 0.25516456 10854038
0.7817353 0.085081108 0.2554712 13420475
0.78522581 0.095552139 0.2549406 14604493
0.78885716 0.10235334 0.25560388 14868440
0.79160005 0.10709251 0.25486284 12303028
0.79228121 -0.17513297 0.26484376 11250853
0.78900003 -0.16043893 0.26132381 9670795
0.79113048 -0.16490023 0.26504996 9868431
0.78804165 -0.15440427 0.26454246 10657688
0.79000002 -0.15817641 0.26812792 9539208
0.78357154 -0.14446858 0.26469919 12697012
0.77900004 -0.13449536 0.26905498 12828598
0.78109521 -0.1351479 0.26440749 12564912
0.77900016 -0.12452394 0.26784983 12368307
0.78047067 -0.12506492 0.26295832 12762806
0.7790001 -0.11455854 0.26653531 12762291
0.7801429 -0.11506684 0.26165149 12761777
0.77877784 -0.10515191 0.26587108 12827827
0.78000003 -0.10443766 0.26138628 11972775
0.77807146 -0.09505029 0.26609358 12631220
0.78039998 -0.094747595 0.26121584 12236975
0.77765524 -0.085187107 0.26500154 12433585
0.78000003 -0.089221045 0.26108193 11644839
0.77661145 -0.075199321 0.26448992 12564910
0.77620012 -0.06516394 0.26435035 12763061
0.77593958 -0.055400677 0.2646749 12698555
0.77476662 -0.04509338 0.26567605 12697270
0.77463889 -0.035111066 0.26563209 12366504
0.77473342 -0.025140047 0.26566401 11905954
0.77455544 -0.01516198 0.26560381 11776680
0.77469993 -0.005189118 0.26565263 11909295
0.77551293 0.0047213468 0.26488289 11974832
0.77640003 0.014792722 0.2644175 11843247
0.7774002 0.024691844 0.26488745 11580587
0.78000003 0.029468562 0.26108193 10987679
0.77840906 0.034627751 0.26651168 11908524
0.78037506 0.035648968 0.2618922 11381666
0.77900004 0.04110216 0.26840657 11645095
0.78122222 0.045501895 0.2648088 11711143
0.78199983 0.055173587 0.26541269 11580332
0.78232342 0.065485813 0.26487502 12434871
0.77883339 0.077436812 0.26859197 11051416
0.78200012 0.074723244 0.26438487 11117721
0.77826685 0.085093722 0.26584333 13815237
0.78000003 0.084552713 0.26169062 13157306
0.77866673 0.09200374 0.26914212 14473423
0.78250009 0.095775187 0.26466373 15196633
0.78805554 0.10356855 0.26469934 13092029
0.79045451 0.10842491 0.26508567 11579818
0.787875 -0.1527189 0.27512944 11841705
0.79081821 -0.15811668 0.27530652 9539207
0.77900004 -0.14138472 0.27503249 12564915
0.78280956 -0.14574592 0.27414936 12499634
0.77821428 -0.13514705 0.27525252 12697014
0.77885711 -0.12496997 0.27509007 12368820
0.77833337 -0.114946 0.27530211 12434354
0.77675879 -0.10509168 0.2752949 12762804
0.77588898 -0.095109329 0.2751433 12697271
0.77510005 -0.085032292 0.27486283 12499891
0.77441669 -0.074986093 0.27462137 12236717
0.7743333 -0.065007396 0.27459183 12236978
0.77419448 -0.055028398 0.27454215 12434617
0.77344012 -0.045015763 0.27518058 12959415
0.77310002 -0.035042293 0.27505937 12761264
0.77259278 -0.024870513 0.27528045 12169640
0.77233368 -0.01511822 0.27568942 11447972
0.77292007 -0.0051771468 0.27499586 11449770
0.77346897 0.0050044898 0.27485076 11778992
0.77393341 0.014745417 0.27444908 11647151
0.77488899 0.024741884 0.27478796 11712687
0.77626693 0.034780446 0.27527669 11974062
0.77857912 0.043038122 0.27566656 12170925
0.7802667 0.047867015 0.27371326 11842218
0.7810334 0.055105228 0.27513906 11645610
0.77842122 0.065948747 0.27695271 12171183
0.78100002 0.064346664 0.27258837 11908270
0.77665514 0.074920282 0.27556938 10526101
0.78033334 0.072105624 0.27093604 11908010
0.77555555 0.084676176 0.27502397 13749960
0.77700007 0.093540907 0.27566591 15197404
0.78170002 0.098158091 0.27409443 15525856
0.78731585 0.10395806 0.27517009 12171440
0.79074997 0.10901222 0.27439919 11448487
0.78692001 -0.15383089 0.28550106 10986396
0.7906 -0.15854359 0.28350702 9605000
0.7790001 -0.14126313 0.28609598 12170670
0.78141171 -0.14620028 0.284688 11907497
0.77824998 -0.13491024 0.28486508 12368047
0.77796662 -0.12541331 0.28498781 12039855
0.77725017 -0.11529171 0.28472412 12105391
0.77611554 -0.10526908 0.28500813 12368301
0.77490306 -0.094842643 0.28494823 12500662
0.77400011 -0.084910847 0.2853469 12303028
0.77344465 -0.07489264 0.28514111 11973546
0.77280027 -0.064878754 0.28490341 12303029
0.77258343 -0.054913625 0.28482315 12500153
0.77179998 -0.044920638 0.28453332 13025720
0.77105558 -0.034949526 0.28425875 12499891
0.77064294 -0.025201421 0.28442898 12039596
0.76900005 -0.01415285 0.2898044 12436922
0.77026683 -0.015078077 0.28487101 11646125
0.76900005 -0.0087521207 0.2898044 12502461
0.77080005 -0.0051632253 0.28416416 11581104
0.77144438 0.0047655138 0.28440157 11383726
0.7718668 0.01470659 0.28455722 11449007
0.77313906 0.024686305 0.28502735 11514800
0.77474993 0.034518864 0.28529754 11974318
0.77719456 0.044830579 0.28470242 12236462
0.77788883 0.055084769 0.28546214 12040625
0.78000003 0.053206485 0.28116786 12961469
0.77589494 0.064825714 0.2848464 12566454
0.77394462 0.075439706 0.28532475 10789529
0.77340019 0.085346289 0.285124 14407889
0.77470005 0.094500646 0.28523844 15263454
0.78000003 0.098856337 0.28116786 15329763
0.78633332 0.1042675 0.28482726 11579819
0.79100001 0.10950918 0.28513306 11382440
0.78866673 -0.16119207 0.29577932 9539209
0.79259092 -0.16614939 0.29455775 9474185
0.78508019 -0.15486705 0.29483247 10526103
0.77900004 -0.14016895 0.2917493 12697523
0.78138459 -0.1454543 0.29496497 12105132
0.7788825 -0.13382001 0.29427969 12565168
0.78042859 -0.13651113 0.29802683 12039339
0.77768004 -0.12536892 0.2948969 12170926
0.77636695 -0.11516031 0.29439792 11710892
0.77620012 -0.10514025 0.29433581 12236460
0.77525812 -0.094943874 0.29444718 12171441
0.77455992 -0.084973022 0.29552808 12039602
0.77336681 -0.074885562 0.29507166 11645356
0.77203995 -0.064815424 0.29456523 12040117
0.77105546 -0.054805908 0.29509127 12171186
0.76900005 -0.042956736 0.29700536 13683905
0.7701382 -0.044885769 0.29464656 12762547
0.76900005 -0.031255156 0.29700539 12236980
0.77000028 -0.035622008 0.2941469 12697271
0.76900005 -0.024594262 0.29601526 11908528
0.77000004 -0.025707792 0.29126281 12632248
0.76890028 -0.015050898 0.29516622 11186603
0.77000004 -0.015252803 0.29018125 12436410
0.76900023 -0.0053016557 0.29535511 11252396
0.77000004 -0.0037162672 0.29054177 12239290
0.76900005 0.00024909366 0.294305 11843250
0.77000028 0.0050209626 0.29468772 11646385
0.76900005 0.018251523 0.29700536 12303542
0.77000028 0.014545774 0.29459441 11580336
0.76900005 0.021251926 0.29640529 11448233
0.77084863 0.024914235 0.2948187 11776942
0.77316672 0.034642652 0.29517254 12170926
0.77483338 0.044692222 0.29472086 12170669
0.77467746 0.054831311 0.29480743 11777196
0.77381253 0.064444803 0.29461634 12236977
0.77282357 0.075543739 0.29550081 10658457
0.77255183 0.085128367 0.29550707 14276560
0.77384621 0.094596304 0.29504403 15328990
0.77900004 0.10055325 0.29630846 11645357
0.7863571 0.10492881 0.29450521 11382184
0.79166669 0.10960149 0.29556498 11447975
0.78855562 -0.16116947 0.3041482 9868688
0.79168749 -0.16631664 0.30541956 9934737
0.78549999 -0.15436733 0.30537328 10263702
0.78319222 -0.14480165 0.30418295 10790043
0.78318191 -0.13533787 0.30515367 11118494
0.77885717 -0.12347319 0.30159396 11908523
0.78239995 -0.12576124 0.30584642 11184288
0.7779091 -0.11497335 0.30127516 11908527
0.7827273 -0.11468384 0.30697259 10460826
0.77800012 -0.10599118 0.3007853 12170156
0.78318757 -0.10459597 0.30615571 10787733
0.778 -0.095234767 0.30126292 12302515
0.78375006 -0.095610827 0.30683407 10986141
0.77780002 -0.085329592 0.30222493 11776941
0.78336358 -0.085439213 0.3072226 11579562
0.77631247 -0.074376099 0.30335313 11645098
0.78140002 -0.075845897 0.30838028 9670537
0.77495652 -0.064823367 0.30443823 11184553
0.77425009 -0.055033129 0.30538076 11250340
0.77350008 -0.045019355 0.30508566 12236718
0.77258331 -0.035020009 0.30472451 12302770
0.76900005 -0.023514112 0.30096588 11251112
0.77166677 -0.025522467 0.30514383 12171954
0.76875001 -0.015047784 0.3014082 11120811
0.77205896 -0.014846588 0.30712044 11712176
0.76900005 -0.0074019386 0.30105591 10791849
0.77172226 -0.0049704947 0.3053875 11383728
0.77212518 0.0047698314 0.30454254 11580848
0.77205008 0.014708911 0.30451322 11185577
0.77162504 0.024637597 0.30434453 11382442
0.77313638 0.034887284 0.30452836 11578024
0.77393341 0.044640299 0.30434772 11644328
0.77368981 0.055335246 0.30412644 11513769
0.77303243 0.065223016 0.30498505 12631481
0.77224994 0.0750494 0.3051537 10460566
0.77234638 0.085369222 0.30532235 14078667
0.77378571 0.094254553 0.30487078 14999770
0.77833337 0.10046721 0.30516455 11381415
0.78594452 0.10544094 0.30487692 11250597
0.79000002 0.10937075 0.30419132 11382183
0.78900003 -0.16043893 0.31119454 10921888
0.79254174 -0.16533838 0.31537405 10856096
0.78833336 -0.15427588 0.31382409 10724766
0.79014289 -0.15538697 0.31838354 10856096
0.78786367 -0.14494835 0.3146055 10658717
0.79000002 -0.14492233 0.31991127 10724510
0.78794122 -0.1350501 0.31343678 10263958
0.79000002 -0.13475062 0.31806183 10592924
0.7875334 -0.12511235 0.313384 9869201
0.79000002 -0.1255036 0.31806183 10527131
0.78766662 -0.11499056 0.31343687 9868173
0.79016668 -0.11535522 0.31812894 10592667
0.78840005 -0.1049467 0.31280422 10657174
0.79139996 -0.10534511 0.31770036 10131859
0.78840005 -0.094426632 0.31261954 10592413
0.79171437 -0.095458746 0.31743005 9671564
0.78800005 -0.08426784 0.31289747 10262418
0.79133338 -0.085372649 0.31777644 9211012
0.78675002 -0.075030096 0.31480026 9474189
0.79000002 -0.07618615 0.31929478 9539724
0.78530002 -0.065377705 0.31580776 9606545
0.78460002 -0.054849043 0.31589335 10262675
0.78470582 -0.045021106 0.31604412 10197653
0.77820003 -0.034364559 0.31148928 11382438
0.78472733 -0.035150092 0.31661063 11710632
0.77687502 -0.02452803 0.3116425 11249823
0.78366667 -0.026044374 0.31704143 12630705
0.77680004 -0.015385677 0.31311309 11249052
0.78300005 -0.015095841 0.31822458 10525074
0.77662504 -0.0045197234 0.31199631 9933969
0.78283334 -0.0058541414 0.3173154 11643555
0.77616668 0.0047945506 0.31067538 9145227
0.78308338 0.0048373691 0.31619635 10328980
0.77711117 0.015209788 0.31186366 9408651
0.78383332 0.014322246 0.31710932 10855065
0.77608341 0.024778036 0.31155169 9341832
0.78233337 0.024976514 0.31680667 11249057
0.77690011 0.034808822 0.31187978 9604233
0.78285724 0.035862137 0.3175438 10854815
0.7770834 0.044820011 0.31195313 9540751
0.78325009 0.045175701 0.31809649 10397089
0.77639997 0.054777544 0.31167847 10463136
0.78270006 0.055221576 0.31787303 9935508
0.77633339 0.06495019 0.31365231 11184036
0.78175002 0.06338872 0.3184005 10854300
0.77561128 0.075301543 0.31439087 9145738
0.78066665 0.073354281 0.31978682 10001305
0.77564716 0.08495383 0.31420854 12237236
0.78025001 0.083362967 0.31961614 11382183
0.77633333 0.094353631 0.31276241 14276304
0.78183341 0.09573517 0.31782421 13289925
0.78681827 0.10525102 0.31493908 10987683
0.79000002 0.10906252 0.31528774 11053475
0.79336363 -0.15575431 0.32490766 10987425
0.79303843 -0.13505341 0.3250019 10724510
0.79293108 -0.12488131 0.32468656 10592924
0.79280007 -0.11481164 0.32475924 10527131
0.78900003 -0.063468114 0.32135338 9803408
0.79287511 -0.06493891 0.32641566 10132371
0.78900003 -0.056079857 0.32135338 9539979
0.79331255 -0.055226035 0.32659534 10000785
0.79299998 -0.045225594 0.32577199 9671564
0.78900003 -0.034838628 0.32135338 8881020
0.78800011 -0.024187323 0.32163844 9144192
0.79260004 -0.025349939 0.32690474 9277322
0.78766674 -0.015416414 0.32234761 8947585
0.79150009 -0.014566943 0.32700562 9277322
0.78777784 -0.004866451 0.3218812 8947071
0.79260004 -0.0053071594 0.32746023 9343114
0.7881667 0.0048690583 0.32101396 8946813
0.7931335 0.0044659055 0.32638264 9145478
0.78828573 0.015808729 0.32159019 8683898
0.79315382 0.01468155 0.32704762 9014148
0.78733343 0.025136152 0.32159731 8552315
0.79150003 0.025268404 0.32700527 8816770
0.78772736 0.035294667 0.32268101 8552829
0.79090905 0.035266966 0.32802328 9277064
0.78809094 0.045035545 0.32366765 8093819
0.79030001 0.044658784 0.32835859 9474956
0.78809094 0.055099592 0.32383555 8618877
0.79075003 0.054866236 0.32854608 9277577
0.78653336 0.065309949 0.32378924 9079172
0.79049999 0.064408533 0.32905838 9409420
0.78641176 0.075084001 0.32571727 9014406
0.79000002 0.070533261 0.32915828 9475213
0.78631246 0.085160345 0.32555592 10723996
0.78721046 0.094922684 0.32421622 11053219
0.79049999 0.095561832 0.32936662 10856096
0.78833342 0.10298899 0.3223128 10987684
0.79138899 0.10606542 0.32603294 11053476
0.79192019 0.075300761 0.33485562 9935509
0.79192019 0.084868297 0.33544904 10461596
