# .PCD v0.7 - Point Cloud Data file format
VERSION 0.7
FIELDS x y z rgb
SIZE 4 4 4 4
TYPE F F F U
COUNT 1 1 1 1
WIDTH 602
HEIGHT 1
VIEWPOINT 0 0 0 1 0 0 0
POINTS 602
DATA ascii
0.81 0.20695086 -0.15268266 13158850
0.80766678 0.21328801 -0.15654758 10326154
0.81064302 0.21497877 -0.15198973 9011834
0.81266665 0.22094946 -0.15223329 5853514
0.80670834 0.20445867 -0.14529815 13224645
0.81000006 0.20884709 -0.14983831 12895933
0.80800003 0.21116872 -0.14284796 13026497
0.8109501 0.21554926 -0.14507814 8091506
0.81407148 0.22323878 -0.14432958 6183507
0.80731249 0.21418035 -0.13363208 7630703
0.81000006 0.21785414 -0.13703881 6249558
0.81241673 0.22246908 -0.13586625 6183507
0.80556256 0.21371612 -0.12497577 6906720
0.80645466 0.21394235 -0.10627416 6380634
0.81300002 0.2191368 -0.10471532 5919052
0.80760002 0.21200947 -0.094565362 6117204
0.82362503 0.2227264 -0.095239371 6446422
0.82166672 0.22211583 -0.087236904 6051921
0.41783336 -0.0327584 -0.071791068 14406861
0.42025006 -0.037249342 -0.071099304 13288379
0.41714993 -0.02476641 -0.071796842 15525854
0.41822228 -0.017594747 -0.071708798 15592162
0.42057899 -0.013231718 -0.072411396 15197406
0.42100003 -0.0097193159 -0.071472734 12565691
0.80584002 0.18513528 -0.075494155 12895422
0.42107147 -0.04091252 -0.063317798 13354944
0.41725716 -0.033513606 -0.064838447 14341070
0.42036363 -0.038154062 -0.065773383 13222587
0.41492796 -0.024819735 -0.064814053 15394526
0.41710001 -0.016418302 -0.064660959 15789286
0.42055187 -0.011778912 -0.066355042 15197406
0.42144838 -0.0087416749 -0.06421636 14145490
0.80593324 0.18515845 -0.065128393 12895678
0.80599999 0.21064252 -0.065115519 6313553
0.81600004 0.21803518 -0.063075781 6249300
0.82000005 0.21910398 -0.061465334 6446679
0.82500005 0.22334167 -0.061834857 6183507
0.41900006 -0.040472984 -0.054752391 12960185
0.42057148 -0.041215848 -0.057827082 13025979
0.41597822 -0.035049357 -0.05485072 14012618
0.42000002 -0.039193057 -0.05950423 13090748
0.41239274 -0.024967371 -0.054886196 15262685
0.41572917 -0.015101515 -0.054764185 15395301
0.42000002 -0.010679457 -0.059995845 14737626
0.41900003 -0.0096731428 -0.053477235 14606299
0.42075005 -0.0084807053 -0.054628659 14013908
0.80576003 0.1945495 -0.054739136 12829629
0.80592012 0.20402505 -0.054748978 13092545
0.81385714 0.2125672 -0.055561345 9932941
0.82044452 0.21836954 -0.055309519 6248274
0.82582361 0.22475831 -0.053941842 6445909
0.41900003 -0.040080629 -0.040725708 12104877
0.42384002 -0.043150291 -0.044846635 12368049
0.40900001 -0.030506762 -0.040711209 14538448
0.41403565 -0.034703106 -0.045093432 14144203
0.40854743 -0.024842706 -0.042354695 15263198
0.41081631 -0.025501266 -0.047222964 15131612
0.40900001 -0.019783026 -0.041381445 15789544
0.41434449 -0.014885861 -0.04525831 15197923
0.42083347 -0.0079078134 -0.045034241 13619150
0.81370002 0.21551923 -0.046519756 6841701
0.82000005 0.21910398 -0.04994753 6116944
0.41762504 -0.041416038 -0.034605641 12434098
0.42176926 -0.043389395 -0.037771922 12433842
0.40843758 -0.031630848 -0.03423205 14209998
0.4132258 -0.03644871 -0.035799377 13552066
0.40765035 -0.025156476 -0.034853257 15263197
0.40858337 -0.019236259 -0.034533344 15658727
0.41322222 -0.01435225 -0.034993149 14737630
0.41825008 -0.0090187211 -0.03375167 13619408
0.42071441 -0.0067219851 -0.035862409 12895942
0.41245458 -0.04068397 -0.024159413 12368304
0.40773034 -0.032930642 -0.024928657 13881288
0.4110488 -0.037843194 -0.025131688 12894648
0.40524974 -0.025009252 -0.025164437 15197662
0.40756613 -0.017741255 -0.02434171 15330019
0.41273686 -0.013131911 -0.02585485 14145748
0.41750002 -0.0085894028 -0.027316624 12961478
0.42000002 -0.0067465468 -0.02951579 12500664
0.4143438 -0.041852973 -0.015019149 12105388
0.42311114 -0.046530619 -0.012235317 11579044
0.40565282 -0.033499856 -0.015306462 13552579
0.41114998 -0.038801339 -0.015370843 12499889
0.40299994 -0.024914842 -0.015076048 15066589
0.40597677 -0.016359197 -0.014583 14737885
0.41150004 -0.010463325 -0.014473195 12961732
0.41300002 -0.040716987 -0.0075221956 11842730
0.42240006 -0.045551889 -0.009710419 11711144
0.40372297 -0.034209263 -0.0046011796 13355199
0.41133335 -0.03934725 -0.0080467034 11842216
0.40072775 -0.025198311 -0.0047122804 15066589
0.40496847 -0.01603264 -0.0046933228 14672091
0.41000003 -0.010425185 -0.0057774163 13224646
0.40680003 -0.041389931 0.0061682407 11775911
0.39866668 -0.031187965 0.0079659112 13881801
0.40270451 -0.03548044 0.004831078 12960442
0.39843059 -0.025927501 0.0057290327 14935259
0.39999989 -0.022918131 0.003546329 15263969
0.40456852 -0.015093132 0.0055950503 14474455
0.40887499 -0.0092000253 0.0062022093 12041143
0.40239996 -0.040753655 0.015614212 11973804
0.3974314 -0.032547604 0.014811531 13618628
0.40056518 -0.037238497 0.014209197 12697013
0.39652717 -0.024931878 0.014367028 15000796
0.39835009 -0.018614445 0.016066797 15066849
0.40331942 -0.014305404 0.013820426 14277077
0.40775001 -0.0091740536 0.011908491 12238268
0.39725 -0.041022908 0.039040782 11907755
0.39400968 -0.034654994 0.0357126 13158335
0.39244527 -0.024675464 0.035351407 14869469
0.39632308 -0.016751552 0.035921801 14606555
0.40125 -0.012273618 0.034384411 13422283
0.40433335 -0.0084925573 0.037739761 12171959
0.39693186 -0.042300675 0.04559331 11776426
0.38900003 -0.030836301 0.048702531 14145232
0.39268374 -0.034958798 0.044880074 13289409
0.38899997 -0.027461518 0.048407912 14671320
0.39123568 -0.024216963 0.044322375 14934749
0.39603877 -0.015341735 0.045382779 14408663
0.40046155 -0.010831109 0.042599972 13224648
0.40443483 -0.0056452039 0.045447413 12764096
0.39352384 -0.041746922 0.054918397 11973805
0.38859659 -0.032736272 0.05591948 13816266
0.39129314 -0.0370862 0.054073282 12960700
0.38849217 -0.025609033 0.055112571 14803419
0.39025003 -0.020885399 0.0511427 15132384
0.38900003 -0.019604877 0.058112647 15132386
0.39335284 -0.015473911 0.054164298 14408920
0.39900002 -0.0092114182 0.055091888 11777200
0.40207693 -0.0067780134 0.052001156 12435129
0.38860005 -0.041539095 0.064207815 12499636
0.39057139 -0.041606814 0.061502643 12105647
0.38693297 -0.035046056 0.065095216 13750216
0.39000002 -0.038828213 0.060544524 12697527
0.38695937 -0.025167702 0.06511122 14737627
0.38881582 -0.018820709 0.065421283 15066850
0.39103082 -0.014670982 0.064978845 14211286
0.78721428 0.084634975 0.064203992 10987937
0.79228574 0.088226072 0.066737749 11119267
0.38775009 -0.042142797 0.077025831 12236720
0.38457343 -0.034894586 0.075111344 11382184
0.38436335 -0.025066769 0.075108759 11908273
0.38758105 -0.017305294 0.075152054 14803421
0.39199999 -0.012872292 0.074733019 13684685
0.39900002 -0.0092114182 0.078443542 12040889
0.40000001 -0.0080639953 0.078874245 12238268
0.38530913 -0.042307422 0.084844165 11316903
0.37858337 -0.033014342 0.087673277 2502187
0.38139358 -0.035433635 0.083763689 2699310
0.37854001 -0.026337532 0.087481812 2698797
0.38099998 -0.024104401 0.083524011 3026988
0.38600966 -0.016041584 0.085675292 14079698
0.39274999 -0.012024354 0.082725666 12829378
0.38800004 -0.0090396171 0.088417634 12566463
0.39559096 -0.0087502776 0.08373525 12435133
0.40000001 -0.00736169 0.081215262 12238268
0.78875005 -0.15392628 0.099674195 15066848
0.78800005 -0.1454778 0.099579424 15395813
0.78866673 -0.13544478 0.099663667 15790055
0.78900003 -0.12442119 0.099705793 15526111
0.78900003 -0.11610941 0.099705793 15526625
0.46900001 -0.070116073 0.099342167 11841703
0.46851355 -0.06491702 0.095251776 11710117
0.47035012 -0.067785971 0.092524827 11775910
0.38900003 -0.051174283 0.093476452 11578533
0.39092314 -0.05098122 0.096851155 11644326
0.46700001 -0.059977777 0.092358992 11512738
0.3855119 -0.044116121 0.095018514 10856096
0.39044449 -0.048521183 0.097886607 11644582
0.37635246 -0.034446515 0.095247515 2501929
0.38020006 -0.039128225 0.093703851 2568236
0.37619323 -0.025154989 0.095136642 2567982
0.3802 -0.020526029 0.091123819 3553076
0.37800002 -0.019345464 0.098207362 13096145
0.38538179 -0.014900797 0.094640777 13750991
0.3884286 -0.0092265476 0.095898427 12435133
0.78900003 -0.17152131 0.10801758 10592926
0.79308337 -0.17504156 0.10423908 11052963
0.78717387 -0.16407533 0.10604016 13092549
0.79075003 -0.1677365 0.10223898 10723743
0.77900004 -0.15202269 0.10938401 16184049
0.78453583 -0.15507065 0.10523295 15790317
0.77770001 -0.14539756 0.10829034 16250096
0.78376198 -0.14495657 0.103756 16053229
0.77800006 -0.13674957 0.1084336 16184302
0.78450006 -0.1346584 0.10421497 16053229
0.78448474 -0.1251265 0.10580292 15987178
0.77875006 -0.11232262 0.10889299 15921384
0.7846207 -0.11520808 0.10471554 15987433
0.77850002 -0.10818554 0.10840198 15921130
0.7852 -0.10856366 0.10436459 16185069
0.47077283 -0.075192638 0.10637908 11907496
0.39468184 -0.05199492 0.10552878 11776168
0.37800002 -0.04097699 0.10813693 11579565
0.38465679 -0.04412948 0.10506285 11973806
0.39166668 -0.048622694 0.10378013 11644582
0.36899999 -0.03227431 0.10925854 2304808
0.37237009 -0.034834508 0.10475449 2501675
0.36899999 -0.026816441 0.10945488 2041379
0.37189993 -0.024674196 0.10470883 2567211
0.37691668 -0.018662045 0.10501567 13751247
0.38406995 -0.013873404 0.10481054 14277076
0.38724002 -0.0089749442 0.10411372 12763584
0.78862506 -0.17213242 0.11373612 10526364
0.79208344 -0.17636602 0.11539359 10395033
0.78535718 -0.16541597 0.11520208 12565949
0.77900004 -0.15111086 0.11211949 15987438
0.78147823 -0.1555706 0.11545976 15724524
0.77872235 -0.14417048 0.11380204 15921130
0.78000009 -0.14673987 0.11737619 15855851
0.77844453 -0.13723297 0.11214124 16184301
0.78122216 -0.13436939 0.11619978 15789799
0.78256685 -0.12523818 0.11538294 15592420
0.77900004 -0.11190233 0.11120766 15855591
0.78147072 -0.11629374 0.11500675 15592419
0.77850008 -0.10818613 0.11113629 15724005
0.46552008 -0.075181544 0.11609578 11907497
0.47005895 -0.075841591 0.11073244 11906983
0.45900005 -0.069081582 0.11771675 11184031
0.46100003 -0.069999285 0.11437537 11183773
0.39261538 -0.052868068 0.11564636 11841705
0.37623996 -0.041207302 0.11405483 9407625
0.38549998 -0.046500191 0.11517766 11907755
0.39000002 -0.049175512 0.11045504 11710119
0.36710298 -0.033647586 0.11527916 2238503
0.37146154 -0.038210515 0.11339293 2567210
0.36733347 -0.025195016 0.11525232 2369572
0.37 -0.020668389 0.1108539 3025954
0.36900005 -0.019748693 0.11832882 13092281
0.37330002 -0.01839466 0.11677431 13947592
0.38334289 -0.013254346 0.11477164 14276820
0.3858462 -0.0086963326 0.11657509 13487307
0.78800005 0.08624804 0.1174565 14869470
0.79100001 0.085294053 0.11263441 13027776
0.78831577 0.095054381 0.11787853 15001313
0.79114288 0.094977699 0.11280703 13027779
0.78858334 0.10502068 0.11857481 15395558
0.78850007 0.11100897 0.11902389 15329252
0.78900003 -0.17152131 0.12002348 10459798
0.79268187 -0.17511049 0.12522174 10394005
0.78703994 -0.16557264 0.12525302 12565690
0.77900004 -0.15202269 0.12853236 15395048
0.78156 -0.15556264 0.12452689 15329511
0.77900016 -0.14511885 0.12544952 15592680
0.78006667 -0.14437808 0.12426518 15658729
0.78164285 -0.13534835 0.12498268 15724264
0.7846334 -0.12556612 0.12487023 15461349
0.78549999 -0.11866031 0.12439784 15329506
0.46353337 -0.076082401 0.12327365 11841961
0.45900002 -0.06933742 0.1206845 11447460
0.39385942 -0.054224018 0.12470179 11776425
0.40033332 -0.059225272 0.12493843 11579047
0.37662071 -0.042568162 0.12557408 11644326
0.38426924 -0.046682425 0.12333381 11908011
0.36358127 -0.034330454 0.12482637 2436393
0.37100002 -0.039831638 0.12366017 2631203
0.36392838 -0.025030851 0.12493137 2501931
0.36703998 -0.019024082 0.12614726 13291465
0.37544736 -0.016382748 0.12524663 14145488
0.3816393 -0.012571375 0.12437101 14276563
0.38463637 -0.0082835471 0.12476943 13619148
0.39200002 -0.004919088 0.12249246 12632509
0.78509998 0.085718788 0.12494317 14540250
0.78549993 0.094956972 0.12500586 14803421
0.78560007 0.10508337 0.1250212 15197922
0.78738463 0.11432879 0.12502161 14539992
0.79033333 0.11805135 0.12084278 12566718
0.78900003 0.12031468 0.12833527 11908784
0.80533338 0.13460869 0.12467167 11645612
0.80686206 0.14492151 0.1247613 11711405
0.8047933 0.15487942 0.12509003 11645612
0.79242861 -0.17518689 0.13511966 10262422
0.78632152 -0.16522531 0.13493237 13223366
0.7786364 -0.15220086 0.13518332 15592166
0.7816 -0.15735041 0.13475443 15263206
0.77853334 -0.1473746 0.13483354 15526372
0.78066671 -0.14229545 0.13520397 15395043
0.7823571 -0.13488434 0.13497244 15526629
0.78380018 -0.12530179 0.13490404 15724264
0.38666669 -0.050869148 0.13425162 11447208
0.39486668 -0.054478057 0.13155036 11710890
0.36828572 -0.040402386 0.13632861 5592402
0.37630004 -0.04298421 0.13327833 11381413
0.38139999 -0.047057904 0.13348278 11710123
0.36555701 -0.035101321 0.13425338 1449240
0.37066668 -0.033334382 0.13959274 988945
0.36387753 -0.024098413 0.13425028 1909278
0.37 -0.029330157 0.13943774 923408
0.36499998 -0.018677512 0.13477905 10855331
0.37684616 -0.01480021 0.1355723 13816270
0.38108876 -0.011889728 0.13483104 14145491
0.38377556 -0.0079393471 0.13487026 13421514
0.78325009 0.087005697 0.13519165 14277078
0.78322881 0.094811641 0.13459718 14539994
0.78316689 0.10475861 0.13471793 14868960
0.78575879 0.11418039 0.13500606 14540249
0.78900003 0.1208424 0.13506386 11777198
0.7924763 -0.17493248 0.14493489 10065813
0.78670377 -0.1657079 0.14504811 13487051
0.77891678 -0.15215851 0.14417037 15789546
0.78118753 -0.15679517 0.14535162 15394788
0.77876937 -0.14769989 0.14357045 15460325
0.78066665 -0.14351316 0.14564665 15394532
0.78199983 -0.13521673 0.14458808 14868444
0.78159082 -0.12707885 0.14517635 15065822
0.3634167 -0.040783767 0.14655785 5987159
0.37 -0.04059045 0.14203626 7961976
0.3627131 -0.035310976 0.14642933 1120275
0.37101668 -0.034416314 0.14258535 1186067
0.36311564 -0.024517227 0.14564262 1579282
0.37081245 -0.028581649 0.14256485 857615
0.36400002 -0.019481096 0.14228937 9665389
0.37900001 -0.013185922 0.14061135 13092808
0.38050002 -0.011233027 0.1404995 13750734
0.38128573 -0.0090572983 0.14101307 12303031
0.77900004 0.08778768 0.14904846 14079698
0.78133327 0.087237008 0.14425844 14277077
0.77900004 0.093866527 0.14950438 14539992
0.78118521 0.095484175 0.14484116 14342614
0.7816785 0.10436422 0.14511487 14737374
0.78576934 0.1144526 0.14507252 13750735
0.78900003 0.12031468 0.14218824 11711660
0.78900003 -0.17152131 0.15881181 9736077
0.79250008 -0.1753222 0.15487586 10065556
0.78618515 -0.16519047 0.15497172 14473686
0.78129625 -0.15542036 0.1550256 15592167
0.78184372 -0.14502506 0.1551991 15854826
0.78250015 -0.13549942 0.15469234 15328738
0.78200006 -0.12926704 0.15374324 14934236
0.35900003 -0.04106456 0.15504229 2436389
0.36026469 -0.041234083 0.15454455 1712153
0.35866001 -0.03335239 0.15763141 1580310
0.36043283 -0.035483249 0.15361379 1449495
0.35859466 -0.026882743 0.15778147 1382936
0.36062399 -0.024372531 0.15386342 1645336
0.36100003 -0.018995496 0.15372826 3746858
0.77844453 0.088129029 0.15364879 14013905
0.78000003 0.086074382 0.15152228 14277077
0.77758646 0.094784185 0.15544276 14211029
0.77830768 0.10228664 0.15581721 14671322
0.78107154 0.10656884 0.15368901 14671835
0.78588897 0.11412419 0.15491435 13685197
0.78900003 -0.17152131 0.16527653 9736077
0.79118752 -0.17593487 0.16503984 9999762
0.78632158 -0.16561957 0.16504373 14802395
0.78157145 -0.15507431 0.16522281 15394788
0.77900004 -0.14746356 0.16956456 15526374
0.78187513 -0.14548811 0.16521162 15657960
0.78280002 -0.13865307 0.16415709 15657960
0.34265715 -0.041369237 0.16709091 1712410
0.35573682 -0.040864538 0.16429126 725517
0.36000001 -0.040757563 0.16053075 1514775
0.34307554 -0.03496832 0.16686939 1580825
0.35554257 -0.0349929 0.16318195 1317910
0.36000001 -0.039072029 0.16010937 1251860
0.3445715 -0.025106728 0.16647375 1580571
0.35593748 -0.027260393 0.16242954 1515034
0.34385714 -0.019208705 0.16694388 1580059
0.77700001 0.089381263 0.16003436 13816526
0.77611119 0.095840231 0.16409034 14211286
0.77760023 0.10328759 0.16489194 14540506
0.78000003 0.10798631 0.16430426 14737885
0.78603572 0.11454762 0.16498271 13224389
0.78900003 -0.17152131 0.17543538 11117733
0.79142112 -0.17604816 0.17441361 9933970
0.78600013 -0.16521369 0.17497939 14802395
0.77900004 -0.1520227 0.17594734 15263202
0.78131574 -0.15666449 0.17459235 15000030
0.7781601 -0.14541085 0.17491765 15328995
0.78066665 -0.1410775 0.17114468 15657960
0.77800006 -0.13938113 0.17480926 15394788
0.78000003 -0.13852289 0.17160822 15657960
0.33700004 -0.040978182 0.17600764 1515034
0.33999994 -0.041610714 0.17117937 1580569
0.33747643 -0.035900716 0.17450824 1580826
0.34000003 -0.035278853 0.17077631 1580569
0.33809093 -0.025433674 0.17353196 1646364
0.34020373 -0.024637874 0.17109668 1777694
0.33857146 -0.019138848 0.17345047 1908511
0.34016666 -0.019201066 0.17126249 1908509
0.77724999 0.098507799 0.17555296 14277077
0.77822232 0.10328823 0.17405231 14540250
0.78071439 0.10651939 0.1775099 14671836
0.78592312 0.11419226 0.1749637 13158852
0.78900003 -0.17152131 0.1819001 13289930
0.79250008 -0.17537855 0.18528229 9802900
0.78634489 -0.16555345 0.18512771 15000288
0.78164011 -0.15528527 0.18477874 15329252
0.77812511 -0.14490892 0.18258154 15197409
0.78042859 -0.14799485 0.18658035 15657960
0.33256254 -0.041252654 0.18312907 1843999
0.33182248 -0.035160862 0.18413281 1843999
0.33176702 -0.025558958 0.18417214 1974560
0.77899998 0.098208562 0.18649849 14342872
0.77880007 0.10052744 0.18483689 14474201
0.78138095 0.10521869 0.18480404 14671582
0.78714806 0.11444046 0.18498813 13158598
0.78900003 -0.17152131 0.19575307 14605533
0.78596169 -0.16520506 0.19521028 14868704
0.7820645 -0.15519026 0.19491677 15526374
0.78180009 -0.1476284 0.19067246 15855339
0.77866673 0.098080248 0.19197436 14145491
0.77900004 0.10055325 0.19418387 14342613
0.78195834 0.1052096 0.19461524 14474713
0.78749996 0.11432939 0.19468807 13027012
0.79000002 0.11861777 0.19785058 11711405
0.78900003 -0.17152131 0.20498841 14868445
0.79200011 -0.17599346 0.20511109 9998994
0.78600007 -0.16535337 0.20512894 14802652
0.78163648 -0.15678209 0.20324382 15197409
0.77900004 0.10237691 0.20694944 14671578
0.78214282 0.10684675 0.20451248 14803421
0.78731817 0.11344314 0.20505294 13027267
0.79039997 0.11867782 0.20535353 11579819
0.78900003 -0.17152131 0.21514724 14934494
0.79100001 -0.17566113 0.21476673 10329242
0.78728014 -0.16591595 0.21523212 14868188
0.78433341 -0.15887898 0.21173306 14867935
0.77733332 0.10215787 0.21287501 14408663
0.78208345 0.10690368 0.21509296 14803421
0.78781253 0.11287367 0.21540014 12632252
0.79049999 0.11776813 0.21463096 11514026
0.78900003 -0.17152131 0.22530608 14737374
0.79116672 -0.17569855 0.22499895 11118504
0.78785717 -0.16644323 0.22489144 14670809
0.78500003 0.10867853 0.22048844 14803168
0.78866673 0.11226382 0.22305715 13290184
0.79100001 0.11637276 0.22533381 11382441
0.7884286 -0.17271592 0.23555709 14013394
0.79099995 -0.1776666 0.23498046 9999764
0.78638893 -0.16696769 0.23519309 14473686
0.78804547 -0.17425092 0.2448217 13289925
0.79000002 -0.17913629 0.24501038 9736590
0.78483999 -0.16554838 0.24535683 14342357
0.78500003 -0.15962555 0.24989162 14868444
0.78781819 -0.17386515 0.25497973 13815756
0.79000002 -0.17913631 0.25518212 9407626
0.78457701 -0.16519271 0.25505397 15197408
0.78504539 -0.15595895 0.25633761 15724008
0.78550005 -0.14777398 0.25924516 15000799
0.78747368 -0.17371458 0.26484376 14079442
0.79049999 -0.17855614 0.26529059 9342348
0.78300005 -0.1647204 0.26483434 15066593
0.78372234 -0.15477651 0.26507837 15855851
0.78545833 -0.14516044 0.26490083 15526886
0.78681827 -0.13738827 0.26721638 15263201
0.78600001 0.10513689 0.26861036 15132643
0.78723806 -0.17377469 0.27482507 13553102
0.79083329 -0.17932527 0.27488953 9276815
0.78271997 -0.16466133 0.27481899 15329511
0.7832002 -0.15467326 0.27498829 15921388
0.78549987 -0.14501485 0.27487591 15855337
0.78700012 -0.1351587 0.27447894 15394786
0.78639996 -0.12520956 0.2765696 15197920
0.78300005 -0.11589896 0.27758065 15263714
0.77900004 -0.10825502 0.27898374 15395556
0.77733338 0.096700639 0.27595893 14671835
0.77900004 0.10055325 0.27472854 14935264
0.78500003 0.10542888 0.27494672 14079698
0.78900003 0.11107937 0.27610034 11119013
0.78754169 -0.17428027 0.28519183 13553102
0.79000002 -0.17913631 0.28477257 9210765
0.78310013 -0.16474113 0.28503409 15066339
0.78365731 -0.1548939 0.28510618 15789803
0.78588003 -0.1450852 0.28512716 15921131
0.78661126 -0.13509351 0.28447017 15329251
0.78539276 -0.12470806 0.28514495 15263458
0.78244829 -0.11527441 0.28495497 15461093
0.77900004 -0.10795108 0.28141525 15329763
0.78068423 -0.10555337 0.28641751 15526886
0.78300005 -0.098729298 0.28958136 15723753
0.77390015 0.087937728 0.28694087 14211285
0.77539998 0.094864719 0.28524438 14606045
0.77900004 0.10055325 0.28673428 14606302
0.78504008 0.10560452 0.28459975 13553354
0.78900003 0.11107936 0.28533563 11185061
0.78900003 -0.18121839 0.29780331 9408395
0.785963 -0.17468242 0.29483092 13487307
0.7820369 -0.16492234 0.29492071 14605789
0.78351629 -0.15458737 0.29509711 15526887
0.78493333 -0.14491023 0.29488724 15724010
0.78519434 -0.13485081 0.29498586 15263459
0.78385735 -0.1247267 0.29481119 14934237
0.77900004 -0.1109905 0.29904392 15197409
0.78155553 -0.11494816 0.29494044 15131616
0.78105712 -0.10501193 0.29513088 15526373
0.78352952 -0.096096717 0.29625151 15460580
0.7743333 0.079406105 0.29725328 12960194
0.77400005 0.086016245 0.29557139 14079700
0.77532148 0.094636485 0.29490852 14474461
0.77900004 0.10055325 0.29448479 14211547
0.78495836 0.10531175 0.29512507 13158855
0.78900003 0.11138722 0.29518667 11184804
0.7908572 0.1159272 0.29486775 11053475
0.78784209 -0.18262847 0.30563989 9210763
0.7911818 -0.18765575 0.30371711 9342858
0.78404349 -0.17499596 0.30488729 13619150
0.78219438 -0.16546379 0.30484736 15329509
0.78233343 -0.15492028 0.30464983 15724010
0.77900004 -0.14655173 0.30998585 15724523
0.7821213 -0.14489093 0.3050667 15658217
0.7822668 -0.13526286 0.30487356 15526631
0.77900004 -0.12284425 0.30998585 15329508
0.78166664 -0.12509616 0.30463946 15263202
0.77900016 -0.11386997 0.30691442 15000287
0.78053856 -0.11641126 0.30286565 15000030
0.77899998 -0.10572997 0.30605793 15000543
0.78070009 -0.10191055 0.30335039 15131871
0.78203446 -0.095071003 0.30487794 15197664
0.77400011 0.079976432 0.3052783 13223880
0.77380019 0.085390195 0.30519834 14145239
0.77557141 0.094604529 0.30518341 14408412
0.78588456 0.10520051 0.30515167 12697537
0.78900003 0.11107937 0.30103567 11053475
0.78785717 -0.18339555 0.31509194 9144967
0.79000002 -0.18838333 0.31528774 9276552
0.78425002 -0.17489788 0.31482998 13027013
0.77900004 -0.16022913 0.31545681 15527144
0.78121418 -0.16525877 0.3143284 14869214
0.77900016 -0.15418831 0.31488693 15592937
0.78025007 -0.15531023 0.31383383 15724524
0.77900016 -0.14496803 0.31411305 15593194
0.78030777 -0.14462024 0.31570688 15593194
0.77900016 -0.13448346 0.31438404 15527144
0.78033334 -0.13492815 0.31493315 15592937
0.77900016 -0.12476921 0.31393707 15461095
0.7802 -0.12479946 0.3160654 15527144
0.7790001 -0.11438915 0.31495941 15329765
0.78000003 -0.11661097 0.31951374 15527144
0.77865517 -0.10471886 0.31525388 14869214
0.78000003 -0.10017701 0.31038377 14935007
0.77880007 -0.097834513 0.31501061 15066593
0.78037506 -0.09542843 0.31121802 15132386
0.7725333 0.078136995 0.31669483 13092805
0.77268958 0.085143343 0.31545743 14211289
0.77516669 0.094317488 0.31465805 14408412
0.78000003 0.098856337 0.31860071 14606048
0.78630006 0.10426285 0.3151902 13355466
0.79020005 0.10939844 0.31444353 10789282
0.78880006 -0.18218845 0.32201076 9473675
0.79135299 -0.18532896 0.32623619 9737104
0.78764999 -0.1747328 0.3244012 10065815
0.79033333 -0.17859542 0.32868072 9934739
0.7851429 -0.16490707 0.32451403 13026758
0.78521067 -0.15521501 0.32484534 13882325
0.78499997 -0.14481711 0.32480976 15000805
0.78455555 -0.13524854 0.3249546 15593197
0.78370589 -0.12504363 0.32438022 15724781
0.78366661 -0.11506313 0.3257392 15000801
0.77900004 -0.10460772 0.32092774 14935007
0.78399992 -0.10500757 0.32655379 14737628
0.77900004 -0.09822493 0.32092774 15263972
0.7840001 -0.098855384 0.32666305 15001056
0.77131999 0.076089174 0.32498661 13618637
0.77256006 0.085254669 0.32514846 14539996
0.77576476 0.093408927 0.32418945 14474205
0.78183341 0.098479249 0.32606149 13224138
0.78712499 0.10367807 0.32462111 10724257
0.79100007 0.10868697 0.3252542 10724511
0.78900003 -0.17152131 0.3305887 10263704
0.79192001 -0.17542069 0.33574441 10329497
0.78872734 -0.1645807 0.331314 10066330
0.79088247 -0.16517736 0.33660677 10329498
0.78888893 -0.15528587 0.33136305 9803160
0.79158825 -0.15485956 0.33712569 10329755
0.78872734 -0.14510895 0.33148196 9605524
0.79158825 -0.14494069 0.33712584 10263961
0.78845459 -0.13499011 0.33119974 9276815
0.79145449 -0.13533519 0.3365033 10066840
0.78850007 -0.1252653 0.33130273 9606038
0.79135716 -0.12452696 0.33687136 10132378
0.78858346 -0.11512554 0.33318377 9605778
0.78850007 -0.10496048 0.33314866 9737106
0.79157144 -0.10616493 0.33775577 10066328
0.79133338 -0.099162035 0.33650747 9868690
0.77400011 0.0763539 0.33336619 10263709
0.77623081 0.084683307 0.33362645 13618895
0.78300005 0.087323114 0.33907282 10789795
0.77700001 0.091200233 0.33101764 14276824
0.78536844 0.096252896 0.3357465 12237499
0.78840005 0.10250497 0.3329218 10263964
0.78400004 0.078257844 0.34317654 9803153
0.787 0.084852874 0.34433857 10000789
0.79050004 0.088158943 0.34787235 10330009
0.78812504 0.093661316 0.34198451 11447980
0.78700006 0.07947731 0.36751834 9934996
0.78871435 0.085454158 0.36792427 10263959
0.78891677 0.10721978 0.36702919 10461851
0.79073089 0.10334753 0.36399078 10527388
0.7888822 0.11421353 0.36693168 10593181
0.79086667 0.11603387 0.36222589 10527644
0.78900003 0.12169998 0.36891526 10527901
0.78850007 0.087567434 0.37431166 10198937
0.78900003 0.090761669 0.37307113 10264729
0.79033351 0.094770811 0.37524334 10264985
0.78900003 0.10784701 0.37168583 10462108
0.78900003 0.11497871 0.37204504 10462108
0.79072726 0.11485662 0.37641299 10462109
0.78900003 0.12268947 0.37227955 10527387
0.79028583 0.12623642 0.37605852 10527903
0.78900003 0.087067544 0.38276821 10132886
0.79000002 0.087871417 0.38602746 10198679
