# .PCD v0.7 - Point Cloud Data file format
VERSION 0.7
FIELDS x y z rgb
SIZE 4 4 4 4
TYPE F F F U
COUNT 1 1 1 1
WIDTH 603
HEIGHT 1
VIEWPOINT 0 0 0 1 0 0 0
POINTS 603
DATA ascii
0.41784614 -0.032976016 -0.071802594 14406860
0.42033336 -0.037584666 -0.071195297 13222844
0.41672498 -0.024740797 -0.07172361 15460319
0.41817653 -0.017656697 -0.071656235 15723747
0.42063162 -0.013596285 -0.072472394 15328992
0.42100003 -0.0093907928 -0.071308471 12039087
0.42081821 -0.040881727 -0.062352005 13288381
0.41735139 -0.033617046 -0.064833842 14341069
0.42022228 -0.038285058 -0.065930985 12959418
0.41482508 -0.024733515 -0.064767383 15460064
0.41715282 -0.016326135 -0.064717568 15789287
0.4205001 -0.011675817 -0.066114776 15066078
0.42150015 -0.0088132638 -0.064435825 14342613
0.41900003 -0.04032585 -0.05543901 13223101
0.42078948 -0.0414971 -0.055750996 12959673
0.41591308 -0.035022732 -0.054959893 14078154
0.4125427 -0.025001645 -0.054863084 15262943
0.41556525 -0.015272419 -0.054712083 15460836
0.42033339 -0.010687933 -0.058076221 14736858
0.42100015 -0.0084602525 -0.05416166 14079185
0.41900003 -0.040080629 -0.040235266 12235439
0.42412964 -0.043061957 -0.045105681 12433586
0.40900001 -0.03082592 -0.040551629 14407630
0.41380247 -0.034596406 -0.045036688 14209739
0.42000002 -0.039193057 -0.047213886 12959160
0.4087393 -0.025099352 -0.041996617 15263197
0.41069832 -0.024682505 -0.046643533 15197662
0.40900001 -0.01997452 -0.040232472 15855337
0.41420648 -0.015060461 -0.04524944 15198178
0.42092323 -0.0077707744 -0.04542179 13487820
0.41688234 -0.041772496 -0.033262655 12368049
0.42154551 -0.043560687 -0.037611529 12302512
0.40850005 -0.031635731 -0.034237254 14210509
0.41337499 -0.036542937 -0.035691027 13552322
0.40768039 -0.025158176 -0.034855898 15197662
0.40860873 -0.019248016 -0.034248304 15724264
0.41347617 -0.014337595 -0.035311468 14737629
0.41833341 -0.0091350814 -0.033906218 13684943
0.42076471 -0.0076273479 -0.036756318 13093320
0.43400002 -0.051820658 -0.023895638 11381411
0.41230774 -0.040851552 -0.024001805 12368304
0.43285719 -0.048718337 -0.022606689 11315360
0.40782627 -0.033176817 -0.024801681 13881031
0.41086841 -0.038063642 -0.025486115 12959928
0.40526992 -0.025010534 -0.0251661 15197918
0.40751797 -0.017496573 -0.024297217 15198435
0.41276002 -0.013135096 -0.026436932 14079955
0.4174667 -0.0087241232 -0.026604695 13290183
0.42000002 -0.0072381608 -0.026811915 12763838
0.41408005 -0.041670557 -0.015104406 12170670
0.42362505 -0.045979954 -0.015273494 11775913
0.43050003 -0.048739836 -0.019167794 11315361
0.40694931 -0.03440129 -0.015054533 13289406
0.41076469 -0.038897492 -0.015518288 12368048
0.40280908 -0.024858186 -0.015110866 15197661
0.404589 -0.016978804 -0.014955792 15000800
0.41400003 -0.011007972 -0.01746396 13291209
0.42200002 -0.044814363 -0.0098981503 11841964
0.40345126 -0.034190103 -0.0044805678 13420993
0.41000003 -0.039219707 -0.009616686 12302256
0.40064523 -0.02519346 -0.0047114841 15066333
0.40355551 -0.016611058 -0.004732281 14803421
0.40771431 -0.041319005 0.0060438248 11842218
0.41000003 -0.04257907 0.004300666 11579046
0.39900002 -0.031006297 0.0082329027 14013387
0.40310755 -0.035480663 0.0049294522 12960699
0.39862698 -0.025679519 0.0064706411 15000540
0.39999983 -0.024195245 0.0030089298 15066591
0.40319052 -0.016022924 0.0056045298 14737371
0.41077784 -0.010978194 0.003932571 13553354
0.40900001 -0.00944228 0.0095562972 11974579
0.41428572 -0.0094265211 0.0049599707 13027010
0.40245456 -0.040725078 0.015992051 12170670
0.39762744 -0.032398678 0.015529252 13618629
0.40080354 -0.037018616 0.014539314 12763063
0.39649579 -0.024930712 0.014828325 15000797
0.39815158 -0.01774832 0.017040312 14935264
0.40281808 -0.014473003 0.01344646 14342871
0.4086667 -0.0094345845 0.01146112 11908786
0.40075001 -0.040211201 0.022027858 12104875
0.39593607 -0.034035724 0.025229678 13421249
0.40009096 -0.038357165 0.021779366 12499633
0.39429766 -0.024789348 0.024900435 14935004
0.39729571 -0.016844483 0.024896331 14737884
0.40203995 -0.012399461 0.027167056 13421771
0.40814283 -0.008602133 0.028645996 12434876
0.41000003 -0.0075457329 0.029735828 12237498
0.39675003 -0.040970981 0.038992226 12039084
0.39364603 -0.034597721 0.035219569 13289408
0.39229733 -0.024664607 0.034877047 14869467
0.3961857 -0.016826089 0.035474889 14671836
0.40342849 -0.012084757 0.033708632 13421772
0.40811771 -0.0081001977 0.036030561 12566461
0.41037503 -0.0069518699 0.03252425 12171705
0.39650005 -0.041758232 0.045603853 11973290
0.38900003 -0.030836301 0.049157862 13947594
0.39278623 -0.0349763 0.044900551 13289663
0.38899997 -0.026503783 0.047750492 14737624
0.39081103 -0.024053315 0.043722298 14935260
0.39496383 -0.016057188 0.045015994 14540250
0.40087503 -0.010895613 0.043675095 13290186
0.40495911 -0.0057282033 0.044997297 12895426
0.39239392 -0.041321676 0.055121984 12170670
0.38860384 -0.032848384 0.056417581 13882058
0.39104846 -0.036700834 0.053754944 13157821
0.38859031 -0.025687234 0.055164982 14803418
0.39020005 -0.020974141 0.051501404 15198176
0.38900003 -0.019604877 0.05811264 15132641
0.39326727 -0.015543574 0.054407634 14408921
0.40000001 -0.010170911 0.052420739 12303550
0.40245447 -0.0071441382 0.052222922 12369340
0.38900003 -0.040853515 0.06418369 12500148
0.39092305 -0.041619845 0.061437674 12105391
0.38742515 -0.035138223 0.06527894 13750216
0.39000002 -0.038904294 0.06092494 13026492
0.38692713 -0.025166281 0.065106623 14868697
0.3887381 -0.018702772 0.065373383 15066592
0.39081827 -0.01487537 0.065008178 14342874
0.38748276 -0.042165782 0.077177972 12302258
0.38499215 -0.034968056 0.075155675 11513257
0.38445434 -0.025073355 0.075127549 11973810
0.38761109 -0.017349724 0.075015634 14803679
0.39193752 -0.0129409 0.075110987 13553360
0.40157145 -0.0083293589 0.079216965 12171706
0.3839637 -0.042026684 0.084856518 11053733
0.37860724 -0.033178173 0.088266455 2567720
0.38149518 -0.03517893 0.084022865 2764844
0.37857893 -0.026301241 0.088048048 2698795
0.38121042 -0.024373205 0.083866328 2895661
0.38609707 -0.016010549 0.08562424 14013905
0.39294291 -0.011930167 0.082659319 12763844
0.38833332 -0.0085106166 0.088314936 12566463
0.39546666 -0.0086970711 0.08384537 12434878
0.40072727 -0.0072890962 0.081510417 12434621
0.78900003 -0.1512036 0.099705793 15593446
0.78883338 -0.11516134 0.099684738 15329244
0.79242855 -0.11582403 0.097484 14210251
0.78900003 -0.10779762 0.099705793 14803672
0.39000002 -0.050088506 0.097673066 11644585
0.38447565 -0.043862812 0.095204182 10987426
0.37628686 -0.034440454 0.095231012 2501930
0.38030005 -0.039138496 0.093461081 2567468
0.37615976 -0.025146294 0.095058352 2567980
0.38025001 -0.020350788 0.091224588 3881270
0.37849998 -0.019371053 0.097892471 13227731
0.3852613 -0.014874654 0.094747134 13882320
0.38843334 -0.0089364955 0.095797673 12500926
0.78900003 -0.17152131 0.10894111 10724255
0.79388469 -0.1749443 0.10446099 11053218
0.78810531 -0.16443299 0.1060968 13158342
0.7913 -0.16665009 0.10203149 11052964
0.78584379 -0.15490973 0.10585195 15855852
0.7857188 -0.14505495 0.10571827 16053228
0.78596973 -0.13512158 0.10567009 16053228
0.78531253 -0.1251031 0.10589356 15987434
0.77900004 -0.1109905 0.10938401 15921130
0.78431255 -0.11501663 0.10512781 16052970
0.77900004 -0.10795108 0.10877612 15920873
0.78457153 -0.10837077 0.10491141 16118763
0.39376473 -0.051550005 0.10664051 11775913
0.37810001 -0.040859621 0.10761358 11382698
0.38468832 -0.044352788 0.10503793 11973550
0.39110002 -0.048948076 0.10526963 11709864
0.37223333 -0.03444374 0.10523839 2501675
0.37188923 -0.024764542 0.10508261 2501675
0.37680003 -0.018680908 0.1045205 13751504
0.38376352 -0.013874174 0.10489633 14277078
0.38635302 -0.0091845309 0.10457332 12763586
0.78900003 0.079679288 0.10894111 11053218
0.78900003 0.08337342 0.10894111 11053218
0.79155004 0.086516812 0.10511965 11316645
0.78900003 -0.17204903 0.1136907 10329498
0.79176933 -0.17611779 0.11531286 10460826
0.78583336 -0.16531903 0.11494206 12566205
0.77887499 -0.15268233 0.11688756 15855340
0.78141177 -0.15620676 0.11424083 15855085
0.7783159 -0.14503257 0.11609513 15855338
0.78060013 -0.14466015 0.11216648 16118509
0.77892327 -0.135105 0.11722803 15789544
0.78100008 -0.13504454 0.11303896 16052716
0.77900004 -0.12922704 0.11759044 15592165
0.78089303 -0.12464329 0.11493824 15658214
0.77900004 -0.11463781 0.11120766 15854824
0.78119051 -0.11522169 0.1151795 15592164
0.77900004 -0.10825502 0.11120766 15789287
0.78000003 -0.10930698 0.1168284 15526372
0.39207318 -0.052529406 0.11618706 11776169
0.37659094 -0.041355852 0.11370391 10197141
0.38508627 -0.046218779 0.11527878 11907755
0.36716527 -0.033719167 0.11534097 2304294
0.3716296 -0.038160387 0.11333255 2567467
0.36731309 -0.025199641 0.11531525 2435108
0.37 -0.021101478 0.1108539 2894886
0.37347364 -0.018687382 0.11671936 10197392
0.38309884 -0.01341136 0.11515027 14276820
0.38564011 -0.0090456 0.11604613 13619148
0.39366665 -0.0053957254 0.11702298 12237498
0.78833342 0.079611965 0.11253928 13355973
0.78764296 0.085337102 0.11493918 14013904
0.78814822 0.094969854 0.1166118 14803678
0.79014289 0.095385872 0.11147705 11777198
0.78849995 0.10524085 0.11786991 15395558
0.791125 0.10536065 0.1127055 12369337
0.78866673 0.11164812 0.11874139 15000800
0.79296005 0.11579892 0.1143085 13092802
0.78900003 -0.17152131 0.12371761 10130836
0.79242116 -0.17549092 0.12513168 10197142
0.78608 -0.1653727 0.12510042 12631225
0.77784216 -0.15290038 0.12465083 15329510
0.78100014 -0.15798219 0.1252888 15329512
0.77700025 -0.145266 0.1245644 15658217
0.77829409 -0.13575263 0.12455831 15724008
0.78000003 -0.13121891 0.12869737 15789801
0.77900004 -0.12922704 0.12214958 15657958
0.78182751 -0.12489726 0.12499139 15526629
0.78316671 -0.11830679 0.12402844 15460579
0.39353728 -0.053907275 0.12475428 11841962
0.3765882 -0.042354897 0.12550241 11578791
0.38361406 -0.046598837 0.12429191 11973291
0.36355186 -0.034237906 0.12492093 2501928
0.37033334 -0.039182615 0.12164754 2763819
0.36342072 -0.025069756 0.1248778 2567466
0.36700004 -0.019084217 0.12677655 13686224
0.37606385 -0.016445972 0.12527011 14013646
0.38184372 -0.012638522 0.12445522 14211283
0.38547832 -0.0084440261 0.12529194 13750733
0.39532501 -0.0035898928 0.12542544 12632254
0.401375 -0.0019830484 0.12342346 12435132
0.39850003 0.00059611478 0.12685582 12566463
0.40754545 0.0015234278 0.12366013 12435644
0.41100001 0.0039817644 0.12506203 12632509
0.78423828 0.085405886 0.12463105 14605786
0.78526664 0.094929345 0.12496888 14869214
0.78575999 0.10510544 0.12504669 15198180
0.78782606 0.11388363 0.1250553 14869215
0.79049999 0.1183846 0.12333438 12237495
0.78900003 -0.17152131 0.1348 10131610
0.79157901 -0.17647344 0.13523886 10066073
0.78579319 -0.16518439 0.13501236 13486535
0.77766675 -0.15267433 0.13468422 15263973
0.78100002 -0.15789919 0.13526154 15263461
0.77681506 -0.14543259 0.13493994 15329508
0.7785334 -0.13826165 0.13483419 15263714
0.7802 -0.13307855 0.13512298 15526885
0.78200018 -0.12493031 0.13478591 15723751
0.38742858 -0.050925415 0.13408338 11381410
0.39320001 -0.05400119 0.13133068 11644583
0.36833334 -0.040407613 0.13565005 5394509
0.37637505 -0.043020993 0.13275501 11578534
0.38180006 -0.047073312 0.13290726 11842218
0.36542431 -0.03513867 0.13350861 1515034
0.37073678 -0.034413129 0.13925892 1186324
0.36461726 -0.024217751 0.13435708 1777438
0.37040001 -0.028668454 0.13924202 922642
0.3660357 -0.01873056 0.13445239 11513259
0.37653849 -0.014697937 0.13561551 13816271
0.38097495 -0.011759313 0.13460769 14079700
0.38367316 -0.0080081932 0.13532883 13027013
0.39500004 -0.002829226 0.13073459 12435130
0.78416669 0.086227626 0.13519895 14342615
0.78344476 0.094707355 0.13476692 14539736
0.78333348 0.10478098 0.13474607 14934495
0.78624141 0.11425085 0.13508783 14539738
0.78900003 0.12031468 0.13664706 11908528
0.78900003 -0.17198306 0.14495885 9934487
0.79115003 -0.17671415 0.14489119 10066069
0.78584629 -0.16546403 0.14508621 13552841
0.77805561 -0.15275042 0.14477035 15657959
0.78090918 -0.15779771 0.14488441 15394788
0.77770013 -0.14484899 0.14513014 15394787
0.78000003 -0.14034888 0.14969629 15460579
0.77872735 -0.1376331 0.14199419 14868444
0.78036362 -0.13418657 0.14627911 15065823
0.77900004 -0.12740338 0.14585707 15197409
0.78026313 -0.12722543 0.14474846 15000028
0.36222225 -0.040958952 0.14807723 6184794
0.37100002 -0.040700156 0.14155163 9605261
0.36406147 -0.03523317 0.14712024 1120274
0.37136999 -0.034462437 0.14303626 1186067
0.3648054 -0.02489445 0.14612024 1185296
0.37100002 -0.027954619 0.14364477 988433
0.36450002 -0.019507855 0.14120428 5389618
0.37840003 -0.012987131 0.1408312 12632514
0.38083336 -0.011020667 0.14144157 12632258
0.3818 -0.0089929542 0.14147297 12566207
0.78473336 0.086474337 0.14497145 14277077
0.78303355 0.094655432 0.14477877 14277077
0.78174067 0.10449972 0.14494593 14737628
0.78515393 0.11436193 0.14495891 13684942
0.78870004 0.12100776 0.14490406 11777197
0.79225004 0.12614633 0.14555418 11711659
0.78900003 -0.17152131 0.15511768 9801873
0.7915625 -0.17590258 0.15527484 10196883
0.78540754 -0.16502625 0.15481909 14407898
0.7790001 -0.15293454 0.15406351 15657961
0.78092855 -0.15697148 0.15574963 15460327
0.7790001 -0.14746356 0.15315168 15789546
0.78079998 -0.14369044 0.15624806 15789544
0.78211993 -0.13516313 0.15574406 15328994
0.78200006 -0.12880936 0.15191081 14934237
0.359 -0.040749401 0.15567261 1580310
0.3603462 -0.041250959 0.15399851 1909274
0.35865411 -0.034569349 0.15699075 1514517
0.36062679 -0.035092879 0.15258542 1383960
0.3585116 -0.02681832 0.1573575 1382931
0.36067748 -0.024532052 0.15334532 1711383
0.36100003 -0.019320538 0.15421583 3089956
0.78407699 0.087793283 0.15485138 14013905
0.77900004 0.098729603 0.15862264 14342870
0.78239399 0.094716422 0.15436992 14211284
0.78153574 0.10460721 0.15489078 14606299
0.78626931 0.11424073 0.15479404 13619406
0.78900003 0.12031468 0.15234709 11842991
0.79300004 0.12496728 0.15533735 11711404
0.78900003 -0.17152131 0.164353 9736078
0.79233336 -0.1753419 0.16535623 9999248
0.78639287 -0.16563475 0.16505955 14736605
0.78156 -0.15526843 0.16463397 15394790
0.78099996 -0.14520489 0.16526672 15657960
0.78214294 -0.13785601 0.16396873 15592167
0.34286839 -0.041370001 0.16691644 1646874
0.3556667 -0.040866263 0.16422874 725261
0.36000001 -0.040617105 0.16039029 1382674
0.34301329 -0.034893304 0.16670768 1515287
0.35544834 -0.034954563 0.16306034 1317651
0.34437343 -0.025113352 0.16617167 1580568
0.35585719 -0.027265757 0.16232671 1449751
0.34418756 -0.019023409 0.1662083 1448728
0.78100002 0.088926643 0.1617718 13882319
0.77845013 0.096290424 0.16443117 14277077
0.78000003 0.092161022 0.16126092 13948112
0.77880013 0.10198621 0.16538849 14540249
0.78120005 0.10669056 0.16504394 14737628
0.78675866 0.11458047 0.16496436 13290182
0.792889 0.12483305 0.1647481 11645612
0.78900003 -0.17152131 0.17543538 11183784
0.79252952 -0.17589302 0.1750184 9999764
0.7861923 -0.16525367 0.17502242 14802399
0.78206664 -0.15536913 0.17480893 15131618
0.77890015 -0.14470986 0.17555979 15394788
0.78000009 -0.1460551 0.17343421 15460581
0.77866673 -0.1388932 0.17313696 15526374
0.33688575 -0.040945381 0.17613454 1515033
0.33999997 -0.041677035 0.17134048 1515032
0.33760229 -0.036110349 0.17446223 1580825
0.34000006 -0.035224181 0.17080036 1580825
0.33843195 -0.025351129 0.17329384 1712156
0.34019232 -0.024593174 0.17108645 1712411
0.33850002 -0.019305198 0.17352712 1448473
0.34 -0.019523205 0.17164369 1974555
0.77750003 0.098084748 0.1724242 14277077
0.77885729 0.10235832 0.17448269 14408664
0.78100014 0.10679591 0.1761504 14671836
0.78624994 0.11392009 0.17482315 13487560
0.79000002 0.11861777 0.17843184 11776941
0.79036146 0.15475111 0.17481127 11448489
0.78900003 -0.17152131 0.1846707 13947861
0.79224998 -0.17605652 0.18508244 9802899
0.78641379 -0.16556692 0.18514399 15065827
0.78315395 -0.15537342 0.18527721 15394788
0.77862501 -0.14351994 0.18201441 15263202
0.78157145 -0.14716627 0.18515548 15460581
0.3325313 -0.041248858 0.18311127 1843483
0.33183625 -0.035193667 0.18411748 1843998
0.33192393 -0.025502933 0.18422003 1909534
0.77820009 0.09789969 0.18797202 14145491
0.77899998 0.1010743 0.18467483 14408408
0.78131586 0.10557178 0.18527898 14671837
0.78704554 0.11357193 0.18513407 13619149
0.79000002 0.11861776 0.18490474 11645613
0.79291308 0.15504779 0.18454117 11448232
0.78900003 -0.17178516 0.19548921 13881811
0.79156262 -0.17578684 0.19488223 9868177
0.78584611 -0.16518015 0.19518158 14999777
0.78291434 -0.15474981 0.19502638 15592167
0.78299999 -0.14760897 0.19364955 15789546
0.77750003 0.097630009 0.19198982 14079700
0.77880007 0.10125689 0.19431663 14211289
0.781762 0.10587972 0.19491509 14606047
0.78733325 0.11374502 0.19507569 13224392
0.79000002 0.11861777 0.19507647 11711148
0.78885716 -0.17201798 0.20574223 13552583
0.79157901 -0.1770587 0.20497556 9933967
0.78553569 -0.16525638 0.20500672 14737119
0.77900004 -0.15111086 0.20239031 15789544
0.7815001 -0.15678099 0.20334594 15328739
0.78100002 -0.14967048 0.20108159 15789544
0.78186673 0.1064161 0.20496562 14671839
0.78682137 0.11426528 0.20501199 12764095
0.78900003 0.12031468 0.20868251 11514026
0.79207408 0.12483946 0.20503072 11513769
0.78874999 -0.17239048 0.21507995 13618376
0.79153341 -0.17763333 0.21491198 9867918
0.78657693 -0.16561578 0.21519579 14802652
0.78250003 -0.15820186 0.21062702 14933984
0.77900004 0.10237691 0.21333222 14343127
0.78240001 0.10636695 0.2138997 15066592
0.78696156 0.11455296 0.21494609 12171699
0.78900003 0.12031468 0.21330018 11448233
0.79161906 0.12512966 0.21511182 11382440
0.78890002 -0.17242308 0.22527775 14342357
0.79147065 -0.17751019 0.22481161 9868176
0.78757149 -0.16638334 0.2248985 14670806
0.78550005 0.1078289 0.22062889 14803419
0.78854555 0.11302993 0.22349884 12763837
0.79049999 0.11684277 0.22639677 11382440
0.7883572 -0.17270039 0.2355362 13947860
0.79092854 -0.17789342 0.23431958 9802385
0.78735304 -0.16736969 0.23556779 14408665
0.78900003 0.1092323 0.23084728 15329512
0.79195243 0.11591119 0.23524259 11579819
0.78806257 -0.173279 0.24498503 14671836
0.79049999 -0.17832495 0.24516547 9670285
0.78488004 -0.16555744 0.24536778 14276822
0.78300005 -0.15921886 0.24925497 14606042
0.79242116 0.11634555 0.2448352 11381927
0.78713053 -0.17376165 0.25497386 13881806
0.7902 -0.17918165 0.25524575 9604747
0.78306693 -0.16473414 0.25532275 15132131
0.78332019 -0.1556883 0.2556636 15526889
0.7845 -0.14758585 0.25891513 15460326
0.79338467 -0.18541051 0.26498923 9605520
0.78674072 -0.17492451 0.26476979 12369081
0.78165382 -0.16457835 0.26508409 15132131
0.78302962 -0.15463914 0.26484546 15724523
0.78578269 -0.14530639 0.26517802 15592166
0.78755563 -0.13781528 0.26770851 15263713
0.78723818 -0.1737746 0.27482617 13487821
0.79000002 -0.17913631 0.27552557 9276815
0.78260005 -0.16463609 0.27477771 15329765
0.78287101 -0.15445955 0.27469319 15856109
0.78606886 -0.14524657 0.27491477 15789802
0.78763354 -0.13526796 0.27469972 15526372
0.78616667 -0.12520415 0.27684557 15328993
0.78291672 -0.11582812 0.27702707 15328994
0.78200006 -0.10958726 0.27822748 15198179
0.77850008 0.095933095 0.27880466 14540506
0.78116673 0.098395146 0.27701521 14671838
0.78771442 0.10668753 0.27551478 13685197
0.79000002 0.10937075 0.27182674 13882323
0.79267871 0.11524965 0.27480039 11250598
0.78782612 -0.17415534 0.28511059 13684688
0.7902 -0.17918165 0.28484371 9407886
0.7828334 -0.16468592 0.28493735 15000289
0.78233337 -0.15450312 0.28475615 15724522
0.78553838 -0.14488019 0.28479025 15855338
0.78677797 -0.13512206 0.28453091 15328993
0.78588456 -0.1249928 0.28491589 15263200
0.78367865 -0.11513268 0.28491858 15592165
0.78224999 -0.10634157 0.285871 15592165
0.78200006 -0.098603211 0.28829616 15394786
0.77414292 0.088276044 0.28578833 14145492
0.77649999 0.094990812 0.28507835 14474460
0.78000003 0.098856337 0.28116786 14803425
0.77900004 0.10055325 0.28992566 14474462
0.7857334 0.10511034 0.28488562 13882066
0.78900003 -0.18075661 0.29918861 9145223
0.79339135 -0.18467541 0.29503486 9408139
0.78639287 -0.17464149 0.29510632 13487050
0.79000002 -0.17913631 0.29032081 9473935
0.78100008 -0.16447671 0.29532763 14736861
0.78187096 -0.15497187 0.29500803 15658214
0.78428131 -0.14513288 0.29487267 15723751
0.78547198 -0.13489741 0.29509097 15394787
0.78473347 -0.12466877 0.2948117 15000029
0.7821613 -0.11516427 0.29511398 15197409
0.78206462 -0.1051649 0.29490465 15526373
0.78465003 -0.095995851 0.29625571 15460581
0.77509081 0.086439259 0.29539937 14145491
0.7759285 0.094515517 0.29481611 14474715
0.77900004 0.10055325 0.29357296 14146267
0.78560871 0.10557188 0.29541871 13158601
0.78862506 -0.18113247 0.30596852 9013640
0.79255003 -0.18649097 0.30480024 9276811
0.78434795 -0.17506588 0.30500412 13619150
0.7812258 -0.16540737 0.30520734 15460839
0.77900004 -0.15749365 0.30998585 15658730
0.78074074 -0.1548993 0.30478722 15658730
0.78219455 -0.14531964 0.30484536 15658472
0.78300005 -0.13539028 0.30515832 15526887
0.78191662 -0.12513699 0.30473799 15263202
0.77900004 -0.11646146 0.30998585 14868444
0.78030777 -0.11497044 0.30481488 14934237
0.78272736 -0.10518839 0.30491713 15131616
0.78584617 -0.09519469 0.30542272 15328738
0.78600001 -0.089907363 0.30909124 15263202
0.77450001 0.079120941 0.30910116 12960194
0.77459991 0.084700592 0.30538392 14013651
0.77617395 0.094030559 0.30498809 14474201
0.78075004 0.098951392 0.30611491 14342871
0.78645003 0.10483493 0.30466381 13092549
0.79033333 0.10941689 0.30709574 10658463
0.78854555 -0.18166 0.31512648 9013383
0.79224998 -0.1871846 0.3149091 9144970
0.78414291 -0.17484011 0.3150053 13223877
0.78113341 -0.16493671 0.31455341 15066080
0.77900016 -0.15439346 0.31411946 15592937
0.78015393 -0.15498775 0.31620568 15658730
0.7790001 -0.14764592 0.31509212 15658730
0.78073907 -0.14413528 0.31441364 15658730
0.78215981 -0.13524422 0.31490612 15592937
0.78084379 -0.1247368 0.31471747 15461094
0.77900016 -0.11484046 0.31626734 15395301
0.78018194 -0.11431308 0.31261411 15197409
0.77900004 -0.1073432 0.31819227 14671835
0.78165644 -0.10421766 0.31452671 15000287
0.78473681 -0.096236765 0.31371224 15197409
0.77207696 0.07838805 0.31654316 13092551
0.77275866 0.085150942 0.31548518 14211289
0.77590001 0.093618371 0.31474462 14342876
0.78216672 0.09882661 0.31582224 14408668
0.78740007 0.10348365 0.31455687 14210516
0.79190922 0.1084573 0.31562924 11184293
0.78900003 -0.18075661 0.32227689 9079435
0.79191679 -0.18544532 0.3254759 9540239
0.78747624 -0.1749671 0.32477346 9868436
0.79000002 -0.17913631 0.32915828 10000789
0.78457898 -0.16524549 0.32429352 13157827
0.78441179 -0.15518427 0.32510486 13355979
0.78478944 -0.14488298 0.32447818 14935010
0.78634793 -0.13524728 0.32500032 15592939
0.78484213 -0.12526524 0.32440305 15790316
0.7838499 -0.11489256 0.32568425 15197923
0.77900004 -0.10369589 0.32092774 14934751
0.78330004 -0.10509092 0.32573026 14737372
0.77900004 -0.09822493 0.32092774 15132386
0.78466672 -0.098939449 0.32694003 15000799
0.77173913 0.076365121 0.32547933 13289931
0.77274996 0.085200869 0.32506329 14605789
0.77600002 0.092762269 0.32402399 14474461
0.78311116 0.09823437 0.32547385 13684945
0.78770006 0.10259931 0.32451311 11447982
0.79150003 0.10772783 0.32514849 10855840
0.79266649 -0.19458666 0.33490595 10527133
0.79199988 -0.18535897 0.33514079 10263961
0.78900003 -0.17244484 0.3305887 10262934
0.79147995 -0.17554323 0.3358551 10263961
0.78858346 -0.16496992 0.33133769 10197913
0.79090905 -0.16503459 0.33593443 10395547
0.78850007 -0.15479957 0.33130276 9934744
0.79209101 -0.15499824 0.33660492 10263961
0.78871435 -0.14534481 0.33073285 9474192
0.792 -0.14470762 0.33555681 10197910
0.79295242 -0.1349871 0.33516797 9802899
0.78871435 -0.12450874 0.33099672 9933720
0.79215389 -0.12556125 0.33590662 9802902
0.78850007 -0.11474383 0.33259478 9868438
0.79136366 -0.11510753 0.33713877 10131866
0.78844446 -0.10495308 0.33302262 9737108
0.79172724 -0.10538964 0.33796751 10000535
0.78900003 -0.099485844 0.33428282 9671314
0.79160005 -0.098702155 0.33761019 9934741
0.77381825 0.076500803 0.33262736 10724261
0.77631253 0.084758855 0.33402148 13224651
0.78150004 0.08898358 0.3375091 12172220
0.77850008 0.092288129 0.33074486 14211288
0.78536844 0.096156657 0.33545387 12435132
0.78875005 0.10227355 0.33186924 10197915
0.79194123 0.10615276 0.33498317 10593182
0.79333335 -0.1850502 0.34561497 10461339
0.78600007 0.0787661 0.34589753 9803409
0.78612506 0.084795967 0.34468681 10066584
0.79000002 0.087177895 0.3495017 10329752
0.78790009 0.093772098 0.34267095 10856101
0.79089999 0.095240422 0.3473084 10527133
0.79200006 0.079054035 0.35502526 10066580
0.79240006 0.078909263 0.36280563 9935764
0.78900003 0.085220478 0.37307113 9935764
0.79066664 0.087868713 0.37385705 10198679
0.79227591 0.094787523 0.37499973 10264729
0.79176009 0.11517443 0.37437877 10462108
0.78899997 0.087067552 0.38642678 10132632
0.79000002 0.088410832 0.38217452 10198424
0.78900003 0.091685206 0.38969472 10133144
0.79107428 0.094912805 0.38475031 10395546
0.78800005 0.087572105 0.39514491 10067350
0.78887486 0.093171567 0.39586553 10198679
0.79018188 0.097120047 0.39347306 10198936
0.79211766 0.10503209 0.39494118 10330522
0.78780007 0.087857492 0.40385586 10329752
0.78878933 0.093362235 0.40416911 10263960
0.79000002 0.097966082 0.40560031 10330266
0.79206675 0.10484 0.40486839 10330523
0.78900003 0.093532264 0.41093594 10330524
0.79013336 0.096811391 0.41504031 10330009
0.7914055 0.10496099 0.41541481 10330010
0.78871435 0.099169508 0.42779949 10264729
0.79000002 0.09827432 0.42347789 10395545
0.78889465 0.10533003 0.42657858 10395545
0.79009092 0.10467554 0.42218113 10395545
0.78899997 0.1132106 0.42549929 10395547
0.79000002 0.11661424 0.42455673 10264731
0.79074091 0.12435265 0.42497209 10330524
0.77900004 0.097817779 0.43672976 10133143
0.78466672 0.097855419 0.4337129 10067865
0.77900004 0.10055325 0.43946519 10329752
0.78542119 0.10520755 0.43514025 10133402
0.7882579 0.11436939 0.43510112 10330267
0.79000002 0.11861777 0.43087548 10396317
0.78900003 0.12154605 0.43833408 10396317
0.79055572 0.12555707 0.4344677 10330524
0.78125006 0.10541803 0.44164902 10395547
0.78588891 0.11463189 0.44273582 10330011
