# .PCD v0.7 - Point Cloud Data file format
VERSION 0.7
FIELDS x y z rgb
SIZE 4 4 4 4
TYPE F F F U
COUNT 1 1 1 1
WIDTH 610
HEIGHT 1
VIEWPOINT 0 0 0 1 0 0 0
POINTS 610
DATA ascii
0.79466665 -0.69470513 -0.3843312 10985899
0.79423803 -0.68476707 -0.38385883 11183020
0.7945264 -0.67521191 -0.3846691 11578033
0.79431581 -0.66524929 -0.3858391 11117741
0.79266667 -0.65530235 -0.38498211 11249585
0.79154551 -0.645015 -0.38462499 11250097
0.79169571 -0.63480353 -0.38449311 11446706
0.79278272 -0.62494385 -0.38518304 11446449
0.79295462 -0.61460501 -0.38531056 11512242
0.79309088 -0.60458368 -0.38520786 11315376
0.79300004 -0.59472817 -0.38524732 11512499
0.79191315 -0.58452284 -0.38548431 11249328
0.79080778 -0.57457054 -0.38510704 11447475
0.79185718 -0.56506687 -0.38528857 11381937
0.79461545 -0.55500883 -0.38510337 11908024
0.7960909 -0.54485911 -0.38488835 11907510
0.79609525 -0.53487986 -0.38484487 11973306
0.79530007 -0.52477133 -0.38450491 11907768
0.79495656 -0.51450831 -0.38437995 11776694
0.79585719 -0.50490868 -0.38473049 11842229
0.79600006 -0.4949933 -0.38475925 12039095
0.79595006 -0.48513848 -0.38481987 11907767
0.79519051 -0.4750571 -0.38458598 12170940
0.79447377 -0.46509984 -0.38434973 12105145
0.79541183 -0.45463175 -0.38559812 12565697
0.79161119 -0.70528936 -0.37540939 10985901
0.78900003 -0.69424021 -0.37191102 11643831
0.79054546 -0.6957683 -0.37606126 11249330
0.78864288 -0.68443096 -0.37284237 11512245
0.79000002 -0.68560886 -0.37704992 11051693
0.78837502 -0.6748879 -0.37296301 12104122
0.79028571 -0.67369801 -0.37797967 11774644
0.7881875 -0.66492522 -0.37275916 11841205
0.79044443 -0.66549259 -0.37834939 11380656
0.78814983 -0.65483743 -0.37338823 11841206
0.79000002 -0.65601838 -0.37889934 11511987
0.78813624 -0.64500576 -0.37399387 11906743
0.79000002 -0.64611089 -0.37916353 11709620
0.78835988 -0.63550419 -0.37402222 11906999
0.79000002 -0.633165 -0.37916353 11709620
0.78854525 -0.62503457 -0.37401935 11907000
0.79000002 -0.62484276 -0.37916353 11709364
0.78845447 -0.61489451 -0.37364063 11907257
0.79000002 -0.61467099 -0.37916353 11512755
0.78872216 -0.60495746 -0.37331954 11973049
0.79000002 -0.60449928 -0.37823883 11907769
0.78868759 -0.5946089 -0.37287992 12104891
0.79000002 -0.59525234 -0.37823883 11907256
0.78899992 -0.58526343 -0.37314242 11973304
0.79000002 -0.58508056 -0.37823883 11841719
0.78895438 -0.57507175 -0.37404454 12104889
0.79000002 -0.57490879 -0.37916353 11710647
0.78871411 -0.56500477 -0.37379953 12170682
0.79000002 -0.56473708 -0.37916353 11513267
0.78899992 -0.55549312 -0.37314242 12236988
0.79036367 -0.55465209 -0.37782469 12105659
0.78900003 -0.54503852 -0.37211627 12236733
0.79074997 -0.54506367 -0.37659347 12105402
0.78900003 -0.53539276 -0.37129533 12368059
0.7909444 -0.53516805 -0.37591514 12301755
0.78900003 -0.52457422 -0.3715592 12235961
0.79064286 -0.52500558 -0.37590352 12235963
0.78900003 -0.51507509 -0.37221888 12368060
0.79045451 -0.51467854 -0.37652245 12499646
0.78900003 -0.50565499 -0.37203416 12302267
0.79076922 -0.50426763 -0.37640113 12236473
0.78900003 -0.49475735 -0.37129533 12433854
0.79100001 -0.49508488 -0.3759414 12368059
0.78900003 -0.48490635 -0.37160316 12236475
0.79085714 -0.48560652 -0.37600586 12104888
0.78892314 -0.47496209 -0.37239584 12236475
0.79044443 -0.47571972 -0.37670439 12236475
0.78853327 -0.46492964 -0.37292245 12828354
0.79025 -0.4640905 -0.37789646 11906996
0.78837502 -0.4552615 -0.37296301 11709620
0.79049999 -0.45498529 -0.3784788 12959943
0.78850001 -0.44605431 -0.372511 14670815
0.79108334 -0.44405183 -0.37721506 14407902
0.78900003 -0.43934548 -0.37129533 15263723
0.79211116 -0.71521419 -0.36534137 10723755
0.78892857 -0.70328003 -0.36427012 10459814
0.79000002 -0.70791179 -0.36560118 10789292
0.78795832 -0.69532305 -0.36542585 11117231
0.7863636 -0.68539405 -0.36478579 11973309
0.78538096 -0.67520809 -0.3649551 12236480
0.78466672 -0.66488445 -0.36479801 12170943
0.78447825 -0.65472817 -0.36445922 12170943
0.78543478 -0.64489359 -0.36506343 12170429
0.78568178 -0.63480353 -0.36497033 12236734
0.78580958 -0.62494421 -0.3653284 12236478
0.78577268 -0.61497557 -0.36534786 12038844
0.78631997 -0.60484755 -0.36510396 12236478
0.78696555 -0.59480667 -0.36481422 12433858
0.78732157 -0.58461004 -0.36478058 12565187
0.7876001 -0.57500601 -0.36510655 12367807
0.7877931 -0.56516224 -0.36532286 12170683
0.7878148 -0.55487514 -0.365206 12302783
0.78799999 -0.54485971 -0.36529225 12302784
0.78834617 -0.53516161 -0.3653107 12631234
0.7884444 -0.5253765 -0.36570314 12631233
0.78825003 -0.51517862 -0.36520988 12434111
0.78811538 -0.50505978 -0.36548764 12433855
0.78813803 -0.49497947 -0.36522871 12631233
0.78855997 -0.48525107 -0.36555153 12302268
0.78821427 -0.47522011 -0.36558867 12302267
0.78708339 -0.4649961 -0.36486757 12630974
0.7865712 -0.45515648 -0.36443266 11577261
0.78760016 -0.44501781 -0.36510569 14867165
0.78900009 -0.43850586 -0.36441085 15262693
0.79322237 -0.43343282 -0.3649196 14014167
0.79173928 -0.71413952 -0.35477468 10723242
0.78892314 -0.70283878 -0.3554891 10130849
0.79000002 -0.70737237 -0.35442778 10657449
0.78778583 -0.69528103 -0.35478395 10394021
0.78500009 -0.68520969 -0.35548538 11446708
0.78292608 -0.67531961 -0.35540423 12038845
0.78280014 -0.66514409 -0.35481733 12104637
0.78300041 -0.65504986 -0.35472405 12170941
0.78363913 -0.64457583 -0.35501269 12039871
0.78406686 -0.63483411 -0.355207 12171200
0.7834003 -0.62512547 -0.35490605 12039868
0.78242308 -0.61497557 -0.35552078 12105404
0.78227574 -0.60483944 -0.35518721 12302526
0.78377432 -0.59493792 -0.35427764 12368321
0.78548276 -0.58525294 -0.35480371 12434370
0.78603321 -0.57478213 -0.35517842 12762565
0.78664297 -0.56490123 -0.35486218 12499650
0.78697169 -0.55533469 -0.35470745 12499649
0.78648138 -0.54507202 -0.35510904 12368577
0.78671426 -0.53509057 -0.3556852 12631749
0.78696281 -0.5252074 -0.35539594 12828872
0.78742874 -0.51483923 -0.35502034 12697542
0.78696674 -0.50453669 -0.35467914 12829126
0.78700018 -0.49516699 -0.3548426 12763332
0.78732377 -0.48541158 -0.35484117 12828867
0.78671992 -0.47491142 -0.3554908 13354697
0.78614283 -0.46483392 -0.35470149 11446957
0.78667641 -0.45527467 -0.35476285 14144469
0.78805554 -0.44527483 -0.3551684 14275799
0.78900003 -0.43934548 -0.35744235 15328742
0.79380488 -0.43561628 -0.3548772 13882065
0.79221749 -0.71481192 -0.34426215 10657705
0.78900003 -0.70162845 -0.34913057 9999263
0.79062986 -0.70527178 -0.34477669 10525605
0.78838092 -0.69492745 -0.3456043 10459303
0.79000002 -0.69820237 -0.3409425 9998239
0.7854445 -0.6855973 -0.34479678 11578294
0.78220689 -0.67531961 -0.34505084 11578294
0.78245461 -0.66583216 -0.34490171 11513270
0.78420532 -0.65504318 -0.34437111 11710133
0.78514701 -0.64457339 -0.34455958 11709880
0.78524989 -0.63458616 -0.34482729 11842233
0.78414303 -0.62447208 -0.34409422 11842489
0.78270984 -0.61488044 -0.34522167 11841719
0.78238243 -0.60481083 -0.34550029 12038842
0.78363359 -0.59504014 -0.34492058 12170684
0.78471881 -0.58461225 -0.3450554 12104378
0.78597206 -0.57473648 -0.34503073 12170427
0.78717244 -0.56528819 -0.34482545 12236735
0.78732157 -0.55512059 -0.34489775 12302012
0.78675878 -0.54479623 -0.3452158 12170429
0.78616649 -0.53531116 -0.34511554 12170941
0.78599977 -0.52507675 -0.34504306 12565955
0.78658068 -0.51456314 -0.34455547 12237502
0.78768003 -0.50499284 -0.34485763 12302780
0.78803343 -0.49507296 -0.34501249 12039866
0.78788 -0.48483354 -0.3449446 12237246
0.7869373 -0.47504175 -0.34545144 13026246
0.78715163 -0.46511742 -0.34540638 11709616
0.7885862 -0.45496505 -0.34512687 14407642
0.78894109 -0.44648281 -0.34627962 13222340
0.79029417 -0.44235063 -0.34382653 14736092
0.79554552 -0.43660212 -0.34536251 14013393
0.79613793 -0.71523839 -0.33505896 10723239
0.79338461 -0.70524371 -0.33542374 10459554
0.78900003 -0.69202369 -0.33601642 11314098
0.79053849 -0.69644886 -0.33415133 10261152
0.787 -0.68488264 -0.33488527 11578294
0.78399998 -0.67450202 -0.33485293 11841465
0.78382879 -0.66483772 -0.33525288 11841467
0.78487086 -0.65492547 -0.33461937 11972277
0.78563321 -0.64437705 -0.33476666 11840436
0.78600001 -0.63455927 -0.33492276 11906744
0.78575999 -0.62516856 -0.33481956 11972536
0.78493094 -0.61519486 -0.33522579 11972790
0.78474283 -0.60520011 -0.33517313 12038839
0.78467745 -0.59509397 -0.33542448 12105145
0.78444123 -0.5848515 -0.33490551 12039865
0.78616673 -0.57487768 -0.33499348 12105402
0.7879445 -0.56511188 -0.33482885 12171451
0.78816676 -0.55512404 -0.33492261 12237242
0.78794295 -0.54495251 -0.33469632 12302268
0.78743339 -0.53463727 -0.3346101 12301755
0.78679311 -0.52506715 -0.33481383 12499647
0.78708351 -0.51474404 -0.33446121 12500163
0.78800005 -0.5051986 -0.33485267 12632260
0.78877759 -0.49554014 -0.33518285 12237244
0.78899997 -0.48637453 -0.33776399 12303040
0.79004759 -0.48458117 -0.3338291 12566210
0.78882354 -0.47455132 -0.33797222 13091784
0.79006666 -0.47557455 -0.33307967 13092041
0.78887987 -0.46483779 -0.33607554 11314859
0.79000002 -0.46727347 -0.33144888 12367803
0.78899974 -0.45616692 -0.33560744 14341592
0.79000002 -0.45169228 -0.33454666 15130850
0.78900003 -0.44784197 -0.33841762 13617355
0.79053593 -0.44423014 -0.3344757 15065314
0.79503578 -0.43724757 -0.33491442 15065054
0.79488897 -0.70500636 -0.32475111 10525091
0.78900003 -0.6905461 -0.32696581 11512756
0.79094446 -0.69554162 -0.32478774 10722471
0.78816676 -0.68451309 -0.32477501 11775928
0.7860769 -0.67482477 -0.32532951 11775927
0.78456521 -0.66494489 -0.32536849 12169915
0.78375876 -0.65476596 -0.32479542 12038327
0.78529406 -0.64453042 -0.32510611 12038581
0.78633326 -0.63482708 -0.32494 12104633
0.78623313 -0.62554514 -0.32489777 12170429
0.78599977 -0.61523885 -0.32480252 12170428
0.78563321 -0.6048367 -0.32464954 12105147
0.78554541 -0.59507197 -0.32436222 12105146
0.78571427 -0.58482158 -0.32470873 12303038
0.78670597 -0.57500154 -0.3253099 12236731
0.78800005 -0.56515211 -0.32470664 12630973
0.78812003 -0.5550909 -0.32475674 12302779
0.78800005 -0.54486006 -0.32470676 12237500
0.78800005 -0.53471422 -0.32470673 12105658
0.78792596 -0.52523649 -0.32508564 12368831
0.78800005 -0.51534468 -0.32470676 12631490
0.78800005 -0.50519866 -0.32470667 12829381
0.78863317 -0.49544895 -0.32496783 12632002
0.78900009 -0.48787281 -0.32427919 12763586
0.79005265 -0.48334664 -0.32603949 12566208
0.79000014 -0.475041 -0.32553086 13157832
0.78900003 -0.46151021 -0.32234818 12104894
0.79000008 -0.46611562 -0.32577202 11578546
0.7889998 -0.45568487 -0.3250477 14670302
0.79000002 -0.45146108 -0.32599315 15131108
0.78900003 -0.44858083 -0.32696581 14341849
0.79053587 -0.44423011 -0.3250238 15197413
0.79562074 -0.43660045 -0.3247613 14605015
0.78900003 -0.6905461 -0.31218931 11380400
0.79115009 -0.69557935 -0.31544584 11050668
0.78819048 -0.68535769 -0.31529582 11775415
0.7858845 -0.67480189 -0.31484863 11973306
0.78377271 -0.66503936 -0.31512478 12038839
0.78300029 -0.65505004 -0.31531432 11906997
0.7845751 -0.64442545 -0.31502998 12038840
0.78652006 -0.63497758 -0.3148903 12038582
0.78700012 -0.62523353 -0.31508267 12104633
0.78656012 -0.61475694 -0.31490532 11907256
0.78625 -0.60471874 -0.31458443 11841720
0.78670382 -0.59501892 -0.31516758 11908025
0.78700012 -0.58470124 -0.31508267 11974073
0.78724009 -0.57474214 -0.31517863 12171193
0.78800005 -0.56515205 -0.31548303 12500413
0.78800005 -0.55500621 -0.31548306 12236986
0.78785723 -0.54509097 -0.31562409 12369086
0.78774077 -0.53494722 -0.31517529 12237502
0.78800005 -0.52549058 -0.31548309 12368831
0.78800005 -0.51534456 -0.31548309 12565695
0.78800005 -0.5051986 -0.31548306 12500159
0.78813338 -0.49513575 -0.31553686 12435135
0.78896409 -0.48549989 -0.31494573 12632001
0.79000002 -0.48151392 -0.31998259 13026758
0.7889998 -0.47536322 -0.31346804 13421260
0.79000002 -0.47545195 -0.31916058 13487053
0.7889998 -0.46499914 -0.31444684 11579059
0.79000002 -0.46764338 -0.31998259 11710900
0.7889998 -0.45714447 -0.31529573 14604767
0.79000002 -0.45231971 -0.31483063 15196386
0.79055911 -0.44505551 -0.31530941 15328739
0.79518431 -0.43533245 -0.31502658 13947598
0.79566675 -0.705697 -0.30489311 10524834
0.78900003 -0.6905461 -0.30480105 11972280
0.79100001 -0.69600159 -0.30495566 11050667
0.78750002 -0.68462592 -0.30514377 11775415
0.78559995 -0.67469817 -0.305327 11775158
0.78386366 -0.66478258 -0.30515122 12236476
0.78300041 -0.65504992 -0.3052327 12104121
0.78447074 -0.64482641 -0.3052119 12104379
0.7863704 -0.63526535 -0.30542237 12104122
0.78700024 -0.62523353 -0.30494964 12235704
0.78700012 -0.61510044 -0.30494961 12039608
0.78700024 -0.60496724 -0.30494964 11973817
0.78700012 -0.59483415 -0.3049497 12237246
0.78708357 -0.58476335 -0.30498233 12039867
0.78730011 -0.57478595 -0.30506614 12236732
0.78800005 -0.56515199 -0.30533704 12565183
0.78753346 -0.55467838 -0.30515748 12170938
0.78703344 -0.54511303 -0.30496272 12171196
0.78719467 -0.535088 -0.30502492 12237244
0.78773344 -0.52531374 -0.30523416 12105401
0.78716683 -0.51479959 -0.30501521 12302524
0.78720707 -0.50456327 -0.30518964 12302522
0.78755563 -0.49477211 -0.30516562 12302263
0.78876907 -0.48552102 -0.30492479 12631230
0.7889998 -0.47603485 -0.30580854 13157575
0.79000002 -0.47411627 -0.30241325 13947090
0.78899992 -0.46578157 -0.30630177 11710129
0.79000002 -0.46363631 -0.30272153 11710644
0.78900003 -0.45904747 -0.30787948 12894404
0.79000014 -0.45454338 -0.30503327 14802656
0.79093963 -0.44479933 -0.30504492 15329255
0.79486489 -0.43521068 -0.30495319 13684941
0.79425007 -0.70467287 -0.29474327 10525093
0.78900009 -0.69138569 -0.29422244 11775669
0.79049999 -0.69617766 -0.29520217 10919850
0.7877273 -0.68482357 -0.29508722 11907254
0.78593332 -0.67498416 -0.29533568 11907511
0.78456676 -0.66462702 -0.29482281 11973304
0.78376698 -0.65477401 -0.29452145 11841205
0.78411132 -0.64496535 -0.29465258 11972537
0.7851944 -0.63482672 -0.29506063 11972794
0.78646666 -0.62480825 -0.29461765 12105659
0.78700006 -0.61510038 -0.29481655 11777208
0.78700012 -0.60496718 -0.29481652 12105660
0.78700006 -0.59483427 -0.29481652 12105661
0.78700012 -0.58470118 -0.29481646 12171197
0.78700006 -0.57456785 -0.29481658 12500161
0.78732008 -0.56558585 -0.29493752 12368059
0.78700012 -0.55522311 -0.29481655 12303037
0.78700006 -0.54508984 -0.29481658 12105403
0.78763348 -0.53538615 -0.29505447 12434364
0.7876001 -0.52522522 -0.29504132 12434619
0.78700012 -0.51484942 -0.29475302 12631743
0.7867409 -0.50473171 -0.29499161 12697281
0.78750014 -0.49473682 -0.29500383 12499646
0.7888332 -0.48541874 -0.29457977 12697024
0.79000002 -0.48058921 -0.29594034 12565438
0.78900003 -0.47998086 -0.29002455 12500163
0.79000026 -0.475041 -0.29501566 13816019
0.78900003 -0.46151021 -0.29094809 11249580
0.79000026 -0.46585777 -0.29543015 11053227
0.78899974 -0.45531365 -0.29395708 14473434
0.79000002 -0.45238578 -0.29917678 14999779
0.78900003 -0.4485808 -0.29002455 13881298
0.79173696 -0.44461751 -0.2948803 15000291
0.79377276 -0.70477831 -0.2848523 10394279
0.78900003 -0.69146961 -0.28448337 11907257
0.79049999 -0.69648588 -0.2850242 10591399
0.78808337 -0.68482465 -0.28492194 11840950
0.78661537 -0.67564082 -0.28503987 11907769
0.78480005 -0.66482472 -0.28480655 11776440
0.78360015 -0.65463591 -0.2843712 11974073
0.78323364 -0.64424258 -0.28423795 11973817
0.78436679 -0.63415712 -0.2846491 11842488
0.78553838 -0.62477809 -0.28521654 11842488
0.78681833 -0.61551553 -0.28475732 11775926
0.78700024 -0.60496724 -0.28468338 11842232
0.78700012 -0.59483427 -0.28468341 12236989
0.78700024 -0.58470118 -0.28468347 12105403
0.78700012 -0.57456791 -0.28468341 12368833
0.78766686 -0.56491166 -0.28492415 12171454
0.78770012 -0.55479527 -0.28493527 12237502
0.78739411 -0.54485977 -0.28457302 12039608
0.78754556 -0.53490746 -0.28513098 12170936
0.78790009 -0.52542424 -0.28500858 12433594
0.78741688 -0.51496351 -0.28483254 12302523
0.78736681 -0.50479251 -0.28481448 12303036
0.78786117 -0.49496481 -0.28499433 12631746
0.78832 -0.48510292 -0.28423923 12631491
0.78876656 -0.47522211 -0.28440014 13355213
0.7889998 -0.4651241 -0.28416216 11511723
0.79000002 -0.46671867 -0.28854272 11973301
0.78896642 -0.45502609 -0.28447151 14605020
0.78900003 -0.4485808 -0.28725398 13881040
0.79332513 -0.44420204 -0.28492621 15131876
0.79393756 -0.70578903 -0.2753444 10591655
0.78900003 -0.69239318 -0.27524805 11644343
0.79035717 -0.69728518 -0.2747961 10394020
0.78725004 -0.68517685 -0.27448511 11907772
0.78574991 -0.67462951 -0.27470693 11645110
0.78489995 -0.66490841 -0.27473596 11776438
0.78469706 -0.65504974 -0.27441275 11710648
0.78461766 -0.64478695 -0.27474222 11776697
0.78494281 -0.63449258 -0.27488092 11973818
0.78536665 -0.62485427 -0.27489892 11973560
0.78625 -0.61566371 -0.27463445 12105145
0.78683352 -0.60483861 -0.27449292 12236474
0.78692007 -0.59477401 -0.27452278 12368315
0.7863704 -0.58474487 -0.27453625 12368572
0.78621429 -0.57458562 -0.27407989 12566722
0.78736675 -0.56469589 -0.27467886 12106430
0.78800005 -0.55500609 -0.27489921 12237503
0.78803343 -0.54488295 -0.27491075 12105916
0.78839993 -0.53498566 -0.27503729 12105917
0.78838456 -0.52553439 -0.27489012 12368316
0.78806901 -0.51523089 -0.27505019 12433852
0.78800005 -0.50519866 -0.27489924 12368829
0.78796673 -0.49503165 -0.27488768 12696768
0.78784007 -0.48480842 -0.27484399 12696513
0.78783339 -0.47465986 -0.27484176 13157063
0.78808004 -0.46466184 -0.2749275 11248295
0.78846657 -0.45473632 -0.27506238 14671071
0.78900003 -0.44796512 -0.27370882 15065315
0.79232275 -0.44376025 -0.27539045 15131618
0.79335296 -0.70561069 -0.26496649 10460070
0.78874999 -0.69309729 -0.26500607 11117997
0.79049999 -0.69833648 -0.26466787 9999263
0.78659093 -0.68559462 -0.26511648 11710132
0.78499991 -0.67494166 -0.26453742 11776439
0.78520674 -0.6644063 -0.26460689 12105145
0.78596151 -0.65497971 -0.26512969 12104376
0.78623313 -0.64486986 -0.26507938 11973561
0.78640002 -0.63488287 -0.26513514 12039612
0.78600001 -0.62535906 -0.26500124 11974077
0.78599989 -0.61523885 -0.26500127 11973818
0.78600001 -0.60511857 -0.26500127 12236472
0.78599989 -0.59499836 -0.26500127 12104630
0.78600001 -0.58487815 -0.2650013 12236729
0.78619987 -0.57490343 -0.26506811 12237501
0.78710729 -0.56483978 -0.26557198 12435136
0.7879355 -0.55519819 -0.26476148 12369601
0.78838885 -0.54512745 -0.264884 12040122
0.78899974 -0.53539276 -0.26508918 12171451
0.78899974 -0.52523398 -0.26508921 12434621
0.78846657 -0.51472807 -0.26491061 12500156
0.78800005 -0.50532585 -0.26491222 12434621
0.78722233 -0.49514461 -0.26500356 12631486
0.78731441 -0.48527417 -0.26465306 12630975
0.78783345 -0.47465977 -0.26469636 13025989
0.78800005 -0.46461475 -0.26475319 11841718
0.78803235 -0.45523107 -0.26491296 15000033
0.78870821 -0.44710609 -0.26429918 15263459
0.79156256 -0.44169575 -0.26571932 15065567
0.79370594 -0.70450455 -0.25502995 10196642
0.78900003 -0.69308579 -0.25562298 12170684
0.79039997 -0.69732279 -0.25482741 10459814
0.78692597 -0.6851849 -0.25473621 11973304
0.78543735 -0.6749019 -0.25492668 11973303
0.78533316 -0.66435504 -0.25466397 11973558
0.78599989 -0.65460253 -0.25520965 12039605
0.78605539 -0.64472479 -0.25489944 12039608
0.7863335 -0.63482797 -0.25499064 11974076
0.78665715 -0.62509179 -0.25496277 11973820
0.78651637 -0.61490077 -0.2551952 11908282
0.78628135 -0.60498965 -0.25474083 12039611
0.78650022 -0.59510547 -0.25525817 12105403
0.78675008 -0.58451504 -0.25512302 12105659
0.78673339 -0.57437354 -0.25511923 12171709
0.78676665 -0.56518877 -0.25513089 12500674
0.78687519 -0.55536395 -0.25459027 12697539
0.78783333 -0.54474407 -0.25455436 12302779
0.78867996 -0.53517497 -0.25482801 12565691
0.78888869 -0.52567333 -0.25510013 12434106
0.78803581 -0.51503861 -0.25442126 12565950
0.78780776 -0.50493401 -0.25475794 12171707
0.78782362 -0.49515831 -0.25520018 12368831
0.78808004 -0.48495567 -0.25463274 12565439
0.78856659 -0.47510192 -0.25478896 13157828
0.78812009 -0.46468595 -0.25464553 11908022
0.78788 -0.455322 -0.25456858 15000035
0.78839993 -0.44639266 -0.2547369 15657964
0.7906 -0.44116107 -0.25544778 14407641
0.79405564 -0.70478499 -0.24458367 10196643
0.78900003 -0.69116181 -0.24507934 11644856
0.79035717 -0.69569933 -0.2446637 11249330
0.78808337 -0.68467093 -0.24494761 12039613
0.78704 -0.67482835 -0.24508423 11842231
0.78609103 -0.66541535 -0.24503972 12039353
0.78499991 -0.65515226 -0.24492374 11973303
0.78513783 -0.64450955 -0.24455711 12170424
0.78588879 -0.63487774 -0.24452226 11973558
0.78619993 -0.62459683 -0.24482322 11907768
0.78700006 -0.61510038 -0.24507219 11776438
0.78700012 -0.60496724 -0.24507216 11908536
0.78700006 -0.59483421 -0.24507223 11974329
0.78680766 -0.58526742 -0.2451546 12039351
0.78599989 -0.57459933 -0.2446339 12170678
0.78592002 -0.5645805 -0.24473625 12237243
0.78600001 -0.55543745 -0.24476081 12565954
0.78649992 -0.54525954 -0.24509028 12499903
0.78775007 -0.5351364 -0.24510893 12434621
0.78800005 -0.52549052 -0.24538365 12303291
0.78793341 -0.51530135 -0.24536316 12763586
0.78748012 -0.50486469 -0.24522287 12566464
0.78800005 -0.49505267 -0.24538356 12566208
0.78812003 -0.48498002 -0.24542148 12631488
0.78859985 -0.47512218 -0.24557181 13486539
0.78807998 -0.46466258 -0.24540921 11841973
0.78784007 -0.45529851 -0.24533457 14671068
0.78836662 -0.44563541 -0.2451282 15197414
0.79000002 -0.44175172 -0.24415702 14802914
0.79375005 -0.70501935 -0.23490819 10262692
0.78900003 -0.69157225 -0.23502313 11841721
0.79027271 -0.69653773 -0.23482341 11380913
0.78780776 -0.68460888 -0.23511013 11644855
0.7865333 -0.67488468 -0.23480166 11776696
0.78596157 -0.66573703 -0.23470026 11644853
0.78460002 -0.6554715 -0.23514134 11908281
0.78440011 -0.6452018 -0.23508133 12039353
0.78539979 -0.6349926 -0.23538117 12105401
0.78612107 -0.62495291 -0.23492822 12039865
0.78660619 -0.61529416 -0.23457199 12039866
0.78705579 -0.60500908 -0.23495647 12105400
0.78700012 -0.59483427 -0.23493916 12302522
0.78650004 -0.58525157 -0.23479009 12433595
0.78590608 -0.57526463 -0.23467007 12302007
0.78499991 -0.56450993 -0.23526096 12302520
0.78531998 -0.5549559 -0.23535751 11974585
0.78590614 -0.54502195 -0.23518795 12500417
0.78644443 -0.53457761 -0.23477387 12303038
0.78716683 -0.52493489 -0.23498985 12566210
0.78700024 -0.51469064 -0.2349391 12434111
0.78673345 -0.50438696 -0.23486073 12368831
0.78690642 -0.49494028 -0.2351432 12500671
0.78741187 -0.48519489 -0.23484702 12697535
0.78743762 -0.47499809 -0.23530227 12894915
0.78646171 -0.46526629 -0.23520532 11052972
0.78619361 -0.45487988 -0.23514527 14868702
0.78818184 -0.44559738 -0.23487259 14803428
0.78900003 -0.69107383 -0.22616895 11513779
0.79100001 -0.69600153 -0.22431323 10986668
0.78776199 -0.68463361 -0.22484709 11579316
0.78655988 -0.67515302 -0.22467914 12039867
0.78600007 -0.66479754 -0.224887 11775924
0.78535485 -0.65473694 -0.22534277 11775923
0.78506052 -0.64466 -0.22508535 11579058
0.78529406 -0.63463801 -0.22545277 11908024
0.78547996 -0.62494516 -0.22437158 11908281
0.78593326 -0.61518645 -0.22450142 11579572
0.78643316 -0.60453004 -0.22464398 11908280
0.78700006 -0.59483421 -0.22480606 12171195
0.78724152 -0.5850392 -0.22474691 12236988
0.78669238 -0.57455641 -0.22485796 12303038
0.78564507 -0.56456143 -0.22548443 11908792
0.78513324 -0.55482525 -0.22519085 12040379
0.78508812 -0.5449006 -0.22490883 12501186
0.78592306 -0.53493154 -0.22449853 12171708
0.78675884 -0.52542394 -0.22473685 12566208
0.78706908 -0.51489455 -0.22469833 12566208
0.78669226 -0.50457317 -0.22485876 12566207
0.78596002 -0.49469119 -0.22450896 12631743
0.78580004 -0.48539248 -0.22446382 12894659
0.78572404 -0.47538871 -0.22456923 12763330
0.78436369 -0.46497563 -0.22530647 10790315
0.78413796 -0.45530862 -0.22557315 15132135
0.78719348 -0.44570497 -0.22486311 14934241
0.79049999 -0.4411054 -0.22210467 15461349
0.78861547 -0.68367743 -0.21788231 11381936
0.79060006 -0.68565351 -0.21361755 11250863
0.78831995 -0.67452288 -0.2158802 11710646
0.79000002 -0.67625612 -0.21123762 10987434
0.78806257 -0.66481936 -0.2149601 11447731
0.78778124 -0.65478486 -0.21511395 11710644
0.78753322 -0.64501554 -0.21481475 11645108
0.78731263 -0.63527328 -0.214525 11842486
0.78700006 -0.62523276 -0.21467006 11579315
0.78730565 -0.61503071 -0.21475348 11448245
0.7877273 -0.60477084 -0.21495314 11580087
0.78814286 -0.59464359 -0.21511564 11645881
0.78820008 -0.58466989 -0.21499923 11711160
0.78840625 -0.57524818 -0.21482418 11843257
0.78815627 -0.56526417 -0.21498656 11645880
0.78729999 -0.5551278 -0.21475203 11777207
0.78615618 -0.54485118 -0.21466932 11974330
0.78644443 -0.53457743 -0.21451955 12171965
0.78790635 -0.52508068 -0.21468785 12303037
0.78829414 -0.51526541 -0.21524166 12237244
0.78780007 -0.50507116 -0.21488991 12171705
0.78680021 -0.49522084 -0.21461627 12302775
0.78585702 -0.48562589 -0.21468773 12433850
0.78472 -0.47554183 -0.21496929 12697794
0.78271443 -0.46496814 -0.2150092 10855592
0.7822777 -0.45483032 -0.21521553 15000547
0.78667647 -0.44611534 -0.21485411 14802911
0.79394734 -0.66493142 -0.20432664 8948109
0.79296684 -0.6555236 -0.20509055 8948108
0.78900003 -0.64463335 -0.20848988 11382449
0.79177284 -0.64528412 -0.20383763 8422024
0.78885704 -0.63435996 -0.20686892 10264484
0.7906 -0.63568127 -0.20226608 7699586
0.78872216 -0.62567842 -0.20642276 9738910
0.79076475 -0.62435764 -0.20181467 7567998
0.78890914 -0.61524874 -0.20789012 10528426
0.79151994 -0.61477667 -0.20311701 8028036
0.78900003 -0.60478961 -0.20848988 11449272
0.79215401 -0.60486114 -0.20373431 8423048
0.78900003 -0.59449875 -0.20875375 11711930
0.79168016 -0.59503359 -0.20389776 8554634
0.78900003 -0.58495563 -0.20844591 11515319
0.79164279 -0.58497006 -0.20375565 8949135
0.78900003 -0.57510465 -0.20875375 12107198
0.79196286 -0.57489288 -0.2040395 9738137
0.78900003 -0.56433004 -0.20844591 11975100
0.79137516 -0.56486964 -0.20366578 9869724
0.78872734 -0.55501527 -0.20767412 11712955
0.79152387 -0.55492818 -0.20288922 9146257
0.78853327 -0.54442894 -0.20702967 11120561
0.79181248 -0.54564142 -0.20231289 8817036
0.78853339 -0.53507626 -0.20678355 10989229
0.79157901 -0.53480071 -0.2022163 8948877
0.78888893 -0.52608281 -0.20810865 12042174
0.79165387 -0.52443212 -0.20353577 9803670
0.78900003 -0.51445937 -0.20875375 12633284
0.79193127 -0.5150044 -0.20440912 10592928
0.78890002 -0.50411379 -0.20761904 12238009
0.79136842 -0.50521266 -0.20303959 10066329
0.78847373 -0.49442723 -0.20628186 11316396
0.79045451 -0.4958376 -0.20139962 10067618
0.78796154 -0.4846707 -0.20535442 10856362
0.79000002 -0.48983622 -0.20162071 10133927
0.78693748 -0.47498453 -0.20521004 11579827
0.78603232 -0.46481702 -0.20517148 9671317
0.78654289 -0.45501867 -0.20536044 13027785
0.79409677 -0.48517385 -0.19629683 9540760
0.78900003 -0.47443968 -0.19951846 10726061
0.79490322 -0.47480083 -0.19457656 9211793
0.78900003 -0.46612793 -0.19951846 9672861
