# .PCD v0.7 - Point Cloud Data file format
VERSION 0.7
FIELDS x y z rgb
SIZE 4 4 4 4
TYPE F F F U
COUNT 1 1 1 1
WIDTH 826
HEIGHT 1
VIEWPOINT 0 0 0 1 0 0 0
POINTS 826
DATA ascii
0.78800005 -0.12426351 0.11987136 12960184
0.78800005 -0.11872934 0.11987136 12302254
0.78850007 -0.06158141 0.11902389 12829884
0.78900003 -0.055156324 0.11817642 11184801
0.79307693 -0.055657145 0.11413752 11974572
0.78850007 -0.048660744 0.11902389 12829111
0.79329044 -0.044730525 0.11431807 11908266
0.78850007 -0.011742893 0.11902389 12565163
0.78861547 -0.0048567955 0.11840207 11973539
0.78862488 0.0044091484 0.11835027 11315868
0.78850007 0.014099605 0.1190239 11513247
0.78850007 -0.15110779 0.12825336 10328466
0.78621739 -0.14451265 0.12615483 11709606
0.77811116 -0.13414007 0.12848599 15328476
0.78553575 -0.13523507 0.12329595 13091770
0.77816677 -0.12453318 0.12839429 14274503
0.78365219 -0.12513281 0.12374939 12499634
0.77900004 -0.11646146 0.1294442 13748673
0.78441185 -0.11445875 0.12433589 12697781
0.77900004 -0.10369589 0.1294442 15066333
0.78451425 -0.10490033 0.12467937 13027260
0.77900004 -0.097313106 0.1294442 15066845
0.78502858 -0.094835863 0.12444697 13290178
0.79000002 -0.090364903 0.1201756 14869469
0.78543323 -0.085303634 0.12645935 13157564
0.79112506 -0.084241316 0.12104055 14934746
0.78580004 -0.074875094 0.12651882 12237487
0.79120004 -0.075501636 0.12109838 13618114
0.78450006 -0.064943679 0.12512636 12895163
0.79000002 -0.06817206 0.1201756 14606292
0.77900004 -0.055369083 0.1294442 14804700
0.78493327 -0.054871723 0.12398709 12828343
0.77899998 -0.04455743 0.12892315 14014158
0.78493536 -0.044792142 0.12384078 12564141
0.77900004 -0.035308901 0.1294442 14211277
0.78492868 -0.035051309 0.1246429 12432812
0.79000002 -0.033033378 0.1201756 14801357
0.77900004 -0.028926115 0.1294442 12829881
0.78496891 -0.024840204 0.12525497 12564914
0.79000002 -0.025635764 0.1201756 14603978
0.78432435 -0.015178945 0.12540317 12105129
0.78386676 -0.0052513853 0.12565549 12039594
0.78377795 0.0048409756 0.12564149 12499375
0.78438711 0.01506366 0.12553079 12630449
0.78511912 0.025066825 0.12493408 12039086
0.78530294 0.035017498 0.12529838 11710889
0.79000002 0.038168684 0.1201756 11446943
0.78571433 0.044465721 0.12641293 11251112
0.79087496 0.045386028 0.12100223 10919569
0.78700012 0.055022288 0.12599605 12106164
0.79099995 0.054881927 0.12125242 10983567
0.78642845 0.065084718 0.12488489 11906730
0.79000002 0.063135646 0.1201756 10259846
0.78654277 0.074959271 0.12411409 11973808
0.78682142 0.084788278 0.12461966 13158593
0.79000002 0.088102594 0.1201756 12763577
0.78723079 0.094882101 0.12584594 13223615
0.79049999 0.095329486 0.12094519 12829114
0.78800005 0.10486295 0.12670588 12435128
0.79119992 0.10570946 0.12196159 12961471
0.78900003 0.11107937 0.12833527 12829630
0.78735 -0.15356281 0.13571353 11183519
0.79124999 -0.15811913 0.13286622 10460056
0.77772731 -0.14292046 0.13618232 12105391
0.78257149 -0.14696276 0.13382776 12762807
0.77625042 -0.13513154 0.13534611 13354943
0.77713817 -0.12483806 0.13459153 12958388
0.77885193 -0.11502042 0.13509159 12497834
0.77856004 -0.10516956 0.13476469 12170411
0.78000003 -0.10748099 0.13326235 12958901
0.77746665 -0.095240213 0.13495056 12302770
0.77795011 -0.085343234 0.13564232 11776428
0.78071433 -0.084339455 0.13129486 15395293
0.77820009 -0.075352155 0.13623294 11513256
0.78070009 -0.075412333 0.13210142 13027263
0.77781826 -0.065052241 0.13520516 11184802
0.78000003 -0.067309119 0.13143636 14936284
0.77706075 -0.054984678 0.13507284 11908783
0.77633363 -0.045183785 0.13536046 11644843
0.77683365 -0.035210036 0.13544706 11579047
0.77761531 -0.025373168 0.13488308 11512995
0.77765644 -0.014996106 0.13502078 11510940
0.77690023 -0.0052047926 0.13545686 11643554
0.77702785 0.0048001623 0.13547918 11973035
0.77809089 0.014245685 0.13558334 12564915
0.78025001 0.017149035 0.13193499 13750218
0.77895021 0.024870347 0.13636516 11183776
0.78030008 0.024912102 0.13221732 13026496
0.77900016 0.034901738 0.13560985 11512481
0.78000003 0.034946542 0.13143636 12894134
0.77900016 0.044121325 0.13653617 10855067
0.7812143 0.046628114 0.13242288 12631991
0.7790001 0.054961927 0.13765062 10527648
0.78149998 0.055138312 0.13260095 11777455
0.77899998 0.062777579 0.13778089 10397602
0.78127587 0.065717295 0.13347647 11383211
0.78153336 0.075266697 0.13443498 12040372
0.78194118 0.085103832 0.13472126 11777457
0.78231251 0.09514305 0.13433971 11514028
0.78476673 0.104977 0.13499169 12698301
0.78858346 0.11240581 0.1351898 11579820
0.79084617 0.1171794 0.13468647 11777452
0.78900003 -0.16043893 0.1468059 10065295
0.79252177 -0.16527413 0.14467873 10394261
0.78618181 -0.15543738 0.14485744 10591125
0.77734804 -0.1445422 0.14483553 12433072
0.78066665 -0.14960662 0.14525263 13222074
0.77600032 -0.13508758 0.14529534 12763066
0.77651751 -0.12505357 0.14463848 12958644
0.77766675 -0.11535095 0.14469618 12892336
0.77770007 -0.10534454 0.14470364 13287351
0.77691454 -0.095155865 0.14468725 12893879
0.77710021 -0.08524999 0.14459209 12762547
0.77813882 -0.075345546 0.14478642 11710375
0.77753341 -0.065277211 0.1446725 11907756
0.77657604 -0.055446379 0.14490721 11382442
0.7760002 -0.045164391 0.14529535 11120043
0.77600032 -0.035172928 0.14529537 10922918
0.77624154 -0.02506377 0.14458737 11645870
0.7763533 -0.015410904 0.14471942 11381411
0.7760002 -0.0051985295 0.14529535 12169639
0.77600032 0.0047929357 0.14529534 12169127
0.77682787 0.01492658 0.14469716 12169385
0.77836108 0.024853176 0.14482626 10920347
0.77900004 0.035339419 0.14447111 10856096
0.7802 0.032763846 0.14754349 11052448
0.77872199 0.044914901 0.14489388 10987423
0.77859992 0.054934092 0.14487121 11381154
0.7790001 0.06328731 0.1442713 11644838
0.78000003 0.068095349 0.14632522 11447201
0.77900004 0.078669414 0.14768073 12632503
0.78003716 0.074716374 0.14483364 11908525
0.77900016 0.084891289 0.147788 13355456
0.78047377 0.085357808 0.14267027 9343376
0.77892315 0.095493563 0.14794655 12829629
0.78052944 0.094946042 0.14291805 10790051
0.77900004 0.10116113 0.1488965 13882062
0.78287506 0.10487672 0.14459567 12303287
0.7881999 0.1139209 0.14492165 11777198
0.79000002 0.11861776 0.14458774 11579819
0.79196447 0.12427989 0.14516973 11711406
0.78871435 -0.16090856 0.15585209 9933710
0.79285723 -0.1662657 0.15481217 10065297
0.78469568 -0.15485728 0.15498587 10394003
0.77747834 -0.14504088 0.15490943 12433586
0.78000003 -0.14947885 0.15243527 15656927
0.77605599 -0.13509758 0.15529764 12960958
0.77606922 -0.12523219 0.15514417 12565685
0.7771669 -0.11527671 0.1546106 12038826
0.77796 -0.10537886 0.15476862 12893875
0.77779996 -0.095342495 0.15473734 12761780
0.77831995 -0.085383266 0.15484042 12235178
0.77899992 -0.075429283 0.15497535 11709350
0.77871996 -0.06537614 0.15492061 11644328
0.77783328 -0.055286981 0.15474549 11447720
0.77716011 -0.045231711 0.15461147 11381411
0.7774002 -0.035236068 0.15465984 12038828
0.77696013 -0.025213456 0.15457182 11711408
0.7772668 -0.015214243 0.15463185 11317677
0.77744001 -0.0052092057 0.1546676 11712691
0.77680027 0.0047978768 0.15453932 11646128
0.77716017 0.01480725 0.15460949 12105647
0.77877778 0.024359198 0.15513395 11578016
0.78000003 0.029468561 0.15334827 10392458
0.77900004 0.035995934 0.1546106 10064518
0.78004992 0.034674767 0.15527529 12301738
0.77900016 0.045843665 0.15402012 11249824
0.78000009 0.042859182 0.15740603 12104363
0.77900016 0.054506019 0.15349361 10525846
0.7802223 0.055859968 0.15785708 13158336
0.77900004 0.060888793 0.15269576 11774887
0.78034627 0.065736987 0.15559554 12038570
0.77900016 0.07583262 0.15538061 11578017
0.78000009 0.07303156 0.15413083 11051417
0.77883327 0.085033879 0.15494172 10920087
0.77888 0.095068015 0.15495102 11578018
0.77900004 0.10055325 0.15497532 12169899
0.78269571 0.10573472 0.15499328 12104878
0.78790009 0.11369381 0.15490189 11777196
0.79000002 0.11861776 0.15531428 11645866
0.79188883 0.12467128 0.15527345 11711405
0.78823531 -0.16202129 0.16484548 9867918
0.79079998 -0.16728511 0.16472746 9999504
0.7832858 -0.15482877 0.16473541 10327956
0.77770382 -0.14499506 0.16442789 12367793
0.78033334 -0.14954273 0.16802879 12631479
0.77623367 -0.13512911 0.16532861 12368049
0.77646166 -0.12502915 0.16516723 12171189
0.77822232 -0.1154327 0.16484299 12171442
0.77876455 -0.10479017 0.16468859 12500408
0.78000003 -0.10109001 0.16978224 12696495
0.77888 -0.094563335 0.16406889 12697014
0.78000003 -0.09469904 0.16978224 13024690
0.77894753 -0.085645296 0.16302693 13484985
0.78007144 -0.084142365 0.16849351 11246482
0.77900016 -0.0763411 0.16170883 13747640
0.78004992 -0.074252442 0.16696286 12102301
0.77900004 -0.065399177 0.16044629 12759720
0.78054851 -0.06446778 0.16607086 12300706
0.77900004 -0.052937549 0.16105418 13879228
0.78062505 -0.054952148 0.16634043 12102557
0.77900016 -0.045078468 0.16213968 13947076
0.7800625 -0.045629378 0.16774161 10918031
0.77900016 -0.034958199 0.16156854 12040369
0.78026092 -0.035564836 0.1672188 11446689
0.77880967 -0.025186008 0.16335966 12172730
0.78000009 -0.025514148 0.16897069 9998222
0.77888 -0.015063583 0.16333944 11514799
0.78000009 -0.015683291 0.16895224 10065043
0.77886653 -0.0052182018 0.16497777 11580079
0.77833325 0.0048063728 0.16486594 11710633
0.77806669 0.014824325 0.16480975 11512742
0.77879399 0.024651531 0.16480148 10986655
0.78000003 0.028555565 0.16795623 13356745
0.7790001 0.033078086 0.16454951 10395033
0.77999997 0.036163874 0.16552159 10790305
0.7790001 0.045180511 0.16193837 9209474
0.78032005 0.044899154 0.16663775 11908268
0.77900004 0.052226447 0.1640936 10064519
0.78017867 0.055241138 0.16532017 11446430
0.77900004 0.066815667 0.1640936 10064010
0.78039408 0.064859204 0.16521859 11775655
0.77900016 0.075751565 0.16372883 10985881
0.78055567 0.073953539 0.16767061 12828598
0.77869433 0.085018009 0.16494073 11511967
0.77888465 0.09457767 0.16477078 11907240
0.78000003 0.09839984 0.16658674 10986139
0.77900004 0.10055325 0.16044629 14407630
0.78299999 0.10467114 0.16549912 13026748
0.78820002 0.1131825 0.16510895 11645611
0.79000002 0.11779581 0.16497226 11645866
0.79167855 0.1250259 0.16510953 11711404
0.79133332 0.13507842 0.16463165 11777198
0.78880006 -0.16076766 0.17391419 9802126
0.79171437 -0.16549522 0.17524508 9802382
0.78565001 -0.15516476 0.17469296 10065298
0.77794123 -0.1440511 0.17447565 12762294
0.78112501 -0.1490097 0.17619833 12828604
0.77632385 -0.13493146 0.17507492 13091005
0.77740008 -0.12440787 0.17467666 11645616
0.77900004 -0.11646146 0.17300922 13159107
0.780375 -0.11381184 0.17648718 11184037
0.7814334 -0.10493365 0.17558543 12104880
0.78127992 -0.094855182 0.17555054 12630963
0.78080004 -0.084742263 0.17544065 12828857
0.77900004 -0.070870131 0.17868282 8223868
0.78033346 -0.074797444 0.17518187 12566201
0.77900016 -0.065399177 0.17629804 11447978
0.77999997 -0.064113639 0.17411897 12764091
0.77900004 -0.059016392 0.17685917 9275781
0.78041673 -0.054402661 0.17527775 12303025
0.7808001 -0.045444317 0.17544071 12696497
0.78076684 -0.035389721 0.1754335 12761520
0.78099996 -0.025343711 0.17548771 12300714
0.78126657 -0.015293401 0.17554636 11644326
0.77900004 -0.002787089 0.17260398 9936284
0.7806316 -0.0059993817 0.17617282 12172985
0.7790001 0.0062206523 0.17254871 9870749
0.78047371 0.0040033669 0.17681018 12240321
0.77900016 0.014560994 0.17307156 10134176
0.78008342 0.015166725 0.17740965 12634310
0.77900004 0.024251608 0.17445195 10856352
0.78000003 0.028007766 0.17818181 12433585
0.77900016 0.034901738 0.17374821 10657691
0.78012508 0.034951851 0.17802787 13091515
0.78050011 0.045018937 0.17537247 10724255
0.78027999 0.055052519 0.17532371 10263706
0.78096777 0.065304793 0.1752997 10856098
0.78080779 0.075054117 0.17523018 11182748
0.77900004 0.085964032 0.17457958 12169638
0.78000003 0.081509389 0.17708622 10853267
0.77867997 0.095042847 0.17496325 12235690
0.77900004 0.10123713 0.17571938 13289663
0.78205001 0.10607588 0.17462066 12238003
0.78747827 0.11391507 0.17557611 11711663
0.79000002 0.11861777 0.17288363 11711405
0.79179317 0.12444861 0.17465062 11711404
0.7925173 0.13492587 0.17449301 11711661
0.78900003 -0.16043893 0.1819001 9671567
0.79250002 -0.16525306 0.18510185 9671310
0.78629643 -0.15430495 0.18478724 10197655
0.77787507 -0.14338236 0.18434244 12432559
0.78142864 -0.14740157 0.18603218 11972781
0.77609408 -0.13533147 0.18494238 12630452
0.77750009 -0.12469319 0.18449429 12368052
0.7787143 -0.11876211 0.18668978 11973809
0.78095651 -0.11436806 0.18493275 12565429
0.78226656 -0.1050452 0.18492486 12697270
0.78184617 -0.094783701 0.18503615 12172213
0.77900004 -0.084547535 0.18871292 10986145
0.78068006 -0.084913552 0.18381904 12961726
0.77900004 -0.077252924 0.18643336 11708835
0.7802223 -0.07470198 0.1852548 13157047
0.77900004 -0.066766918 0.18096238 11314586
0.78061557 -0.064269923 0.1850287 13814977
0.78096008 -0.054593429 0.18461731 13353913
0.78128004 -0.04547235 0.1846932 13222841
0.78166658 -0.035428286 0.18478413 12302512
0.78199983 -0.025376163 0.184863 11776428
0.78183323 -0.015304844 0.18482383 11644070
0.78191984 -0.0052384678 0.18484448 11380386
0.78196645 0.0048295939 0.18485527 10789533
0.78108007 0.014880342 0.18464641 10066840
0.78076684 0.024929186 0.18457288 10856098
0.78060013 0.034972399 0.18453223 10922659
0.78048581 0.044887867 0.18528661 10856610
0.78100008 0.055103034 0.18462662 10659229
0.78100008 0.065158866 0.18462658 11315364
0.78112006 0.075226754 0.18465541 10528161
0.77900004 0.088395566 0.18172224 12762802
0.78061551 0.084734984 0.1855197 11316643
0.77873915 0.09536688 0.18385506 12367789
0.78000009 0.094160922 0.18908559 9539207
0.77900004 0.10123713 0.18346992 12499375
0.78188241 0.10598825 0.18515946 12960957
0.78739125 0.11398252 0.18469428 11579820
0.79000002 0.11861777 0.18675415 11579819
0.79292303 0.1247004 0.18501933 11711405
0.78736854 -0.15351371 0.19476649 10460312
0.79071426 -0.1584077 0.19565098 9736333
0.778 -0.14262083 0.19444053 13289150
0.78172737 -0.14681657 0.19528073 11841705
0.77609706 -0.13495842 0.19454481 12697530
0.77692014 -0.12524368 0.19457431 12763837
0.77815378 -0.11591296 0.19537292 12697531
0.78049999 -0.11242193 0.19151191 11514797
0.77900004 -0.10653268 0.19772987 11973294
0.78096306 -0.10422805 0.1934862 12632762
0.7790001 -0.094577625 0.19783118 12436155
0.78047383 -0.094949506 0.1928671 12040114
0.7790001 -0.084961995 0.1953444 12830916
0.78075004 -0.089306839 0.19279146 13553356
0.77900016 -0.076053165 0.19653547 13554636
0.7801668 -0.074324317 0.19264793 11119015
0.7790001 -0.06539917 0.19783118 14344150
0.78045839 -0.064607836 0.19271922 11579049
0.77900004 -0.057192735 0.19783118 14540499
0.78045839 -0.054102506 0.19363242 11775400
0.78066677 -0.045435447 0.19459796 12433072
0.78138888 -0.03541673 0.19477791 12169386
0.78139997 -0.025356846 0.19478053 11445405
0.78113902 -0.01529101 0.19471674 11774623
0.78173327 -0.0052359225 0.19486494 11315873
0.78258348 0.0048347358 0.19507807 11249824
0.78250003 0.014907769 0.19505773 11185060
0.78233343 0.024978399 0.19501561 11317418
0.78220004 0.035044566 0.1949835 10922662
0.78167737 0.0452336 0.19559042 10527131
0.78173316 0.055154931 0.19486633 10856608
0.78180534 0.065226503 0.19488424 11053990
0.78256673 0.075366065 0.19507423 11316649
0.78123522 0.085078411 0.19501023 11514284
0.77900004 0.093866527 0.19357598 13027006
0.78015786 0.095608786 0.19586633 11842477
0.78337044 0.10458721 0.19476423 11973807
0.78847057 0.11317744 0.19497049 11974321
0.79049999 0.11776791 0.19520052 11711403
0.78764284 -0.15239429 0.20516086 11249057
0.79176927 -0.15786725 0.20513593 9736332
0.77837503 -0.14233458 0.20587233 13091772
0.78273332 -0.14658555 0.20457977 11841448
0.77625751 -0.13526295 0.20453247 12761780
0.77693355 -0.12524627 0.20458142 12170668
0.77777785 -0.11536619 0.20480329 11909040
0.77894139 -0.10733495 0.20570008 12502205
0.78022218 -0.10243732 0.20463604 11646898
0.78034621 -0.094881341 0.20477861 12041141
0.7790001 -0.084547535 0.20202558 10462107
0.78024 -0.084864996 0.20687708 13420994
0.77900004 -0.075429268 0.20056666 9540236
0.78054994 -0.07466571 0.20553526 12960443
0.77900016 -0.06370578 0.20408371 11381926
0.78025001 -0.066417985 0.20602617 13158079
0.7790001 -0.058601931 0.2062034 13355458
0.78008336 -0.053771768 0.20495456 11644582
0.78096777 -0.04509791 0.20525961 11841704
0.78174061 -0.034924392 0.20493333 11116697
0.78195983 -0.025374958 0.2049901 10984084
0.78193313 -0.015306449 0.20498325 11313563
0.78199983 -0.0052387239 0.20500034 10985111
0.78212517 0.0050593093 0.20537443 11576989
0.78172433 0.014955939 0.20568205 11512740
0.7821666 0.024973106 0.20504309 11316905
0.78288019 0.035076048 0.20523065 10856612
0.78256685 0.045137431 0.20514975 10593440
0.78252006 0.055209335 0.20513751 11185062
0.78199977 0.065242305 0.20500042 11382697
0.78219992 0.075330108 0.20505297 11844532
0.77900004 0.089611337 0.20512579 12105650
0.78111112 0.084771924 0.20483528 11974322
0.77900016 0.094410412 0.20680542 12106419
0.7803638 0.096412428 0.20257837 10658461
0.78427589 0.10497674 0.20521376 12171442
0.78850007 0.11193249 0.2048585 12105907
0.79106253 0.11704275 0.20517659 11645611
0.78850007 -0.16156824 0.21839464 9670796
0.78552002 -0.15436549 0.21503694 9933711
0.79033333 -0.1582434 0.21150182 9802381
0.7774092 -0.14443448 0.21570684 12762807
0.78133339 -0.14820999 0.21275 10789018
0.77600044 -0.13521737 0.21510585 12500153
0.77766675 -0.12495753 0.21471955 12565428
0.77878565 -0.11519122 0.21516168 12828342
0.7790001 -0.10764714 0.21576375 13880260
0.7806316 -0.10266198 0.21493252 12367535
0.78089666 -0.094682194 0.21492253 12171186
0.77900004 -0.08363571 0.21880321 14540761
0.78000009 -0.085130826 0.21477473 12236468
0.77900004 -0.077070557 0.21843846 13949394
0.7807408 -0.074616492 0.21421395 12040885
0.77900004 -0.063778147 0.21677691 12238776
0.78029412 -0.066583037 0.21433054 11054759
0.77900016 -0.057192739 0.21629564 12764604
0.78000003 -0.05335331 0.21412781 10328723
0.77899998 -0.046120558 0.21828215 14078664
0.78015 -0.044857547 0.21382919 10920348
0.77900004 -0.039868034 0.2188032 14868181
0.78094286 -0.035265435 0.21464626 11841959
0.77900004 -0.02527881 0.2188032 13223869
0.78088003 -0.025340004 0.21384551 11248539
0.78113896 -0.015289386 0.21483079 11774625
0.78133327 -0.0052353498 0.21488354 11446173
0.77900016 0.0062596607 0.21644315 10590357
0.78052938 0.0029394906 0.21299696 12433326
0.77900016 0.014361648 0.21573177 11380900
0.78028578 0.015909811 0.21316195 11842736
0.77900004 0.020312516 0.2188032 12366248
0.78157133 0.025086148 0.21482013 11710635
0.78199977 0.03503615 0.21506914 11644323
0.78227782 0.045121998 0.2151463 11512223
0.78276676 0.055227917 0.21528126 10592926
0.7826947 0.065300152 0.21526165 10791333
0.78266674 0.075374611 0.21525267 11711147
0.77885723 0.088813342 0.21641837 13159108
0.78117859 0.084177531 0.21445075 11382956
0.77710354 0.094974779 0.21538123 11974579
0.77723086 0.10158508 0.21620275 12040115
0.7828334 0.10634552 0.21448149 11711150
0.78821439 0.11228774 0.21545897 12105907
0.79128569 0.11709268 0.21457992 11579819
0.78800011 -0.16208188 0.22502054 9605517
0.7911666 -0.16736315 0.22499777 9802380
0.78331828 -0.15487084 0.22501777 9605259
0.77732152 -0.14552407 0.22502588 11841959
0.77603263 -0.13494651 0.2250604 13157821
0.77712929 -0.12510021 0.22449695 12762808
0.77881241 -0.11574878 0.22530234 12894392
0.78000003 -0.11174164 0.22517072 10856349
0.77900016 -0.10525902 0.22727017 13881031
0.78004545 -0.10433304 0.22415991 11512999
0.7788825 -0.093598306 0.22702859 13748931
0.78015387 -0.095982231 0.22306053 11249056
0.77855164 -0.085284993 0.22521165 12894650
0.78000003 -0.089221045 0.22091007 12500918
0.77899981 -0.075429283 0.22518595 12303027
0.77899992 -0.065399177 0.22518592 11842221
0.77899981 -0.055369094 0.22518595 12039857
0.77900004 -0.046022858 0.22450213 11776428
0.78000003 -0.042658202 0.22730105 10856872
0.77899998 -0.034937415 0.2246794 11447209
0.78000003 -0.036267225 0.22547506 12303545
0.77899992 -0.025278809 0.22518592 11118496
0.77899987 -0.015647642 0.22569886 10986910
0.78000003 -0.012072803 0.22136657 13027006
0.77900016 -0.0046715303 0.22682726 10788501
0.78020012 -0.0063229641 0.22224493 12303025
0.77899981 0.0048114653 0.22518593 11710373
0.77899992 0.014841557 0.22518593 11775653
0.7790001 0.022799315 0.22725831 11511711
0.78064013 0.025838502 0.2247456 11906724
0.77900004 0.034901742 0.22944117 9932166
0.78125 0.035003137 0.22476757 11907240
0.77900004 0.040372699 0.2297451 10720655
0.78196657 0.045104623 0.22512692 12039599
0.78276014 0.055227682 0.22535574 11184289
0.78283346 0.06531132 0.22537707 11513512
0.7817601 0.075286329 0.22506709 11646128
0.77810341 0.085799865 0.22552225 12039857
0.78042859 0.081684433 0.22311863 10198685
0.77542305 0.094504431 0.2248494 11382184
0.77640909 0.10311413 0.2248489 11777201
0.78220004 0.10829089 0.2251945 12171703
0.78731251 0.11257268 0.2251683 11908529
0.79166669 0.11794253 0.22513939 11579562
0.78823537 -0.16202103 0.23496474 9539724
0.79049999 -0.16722155 0.23498729 9407623
0.78380954 -0.15466966 0.2350948 9605515
0.77717406 -0.14498511 0.23442772 11511712
0.78000003 -0.14947885 0.23825699 11709347
0.77600044 -0.13508759 0.2352185 13090743
0.77728587 -0.12471545 0.23469926 12103846
0.77892596 -0.11503167 0.23519371 11840676
0.77900004 -0.10384785 0.23514009 12300714
0.78000003 -0.10778532 0.23582236 11773341
0.77816015 -0.094477989 0.23496197 11579304
0.77712023 -0.085252553 0.2346487 11514283
0.77889991 -0.075419016 0.2351861 11645096
0.77872002 -0.065376423 0.23513134 11447459
0.77836651 -0.055323489 0.23502423 11579818
0.7790001 -0.045656148 0.23545398 11250855
0.78000003 -0.042201705 0.23140952 12962498
0.77900016 -0.036220729 0.23730028 10394005
0.77999991 -0.034921754 0.23311539 12303798
0.77900004 -0.02459494 0.23225266 13553091
0.77999997 -0.025633497 0.23691435 10262419
0.7790001 -0.014336892 0.23430428 11775402
0.78000009 -0.017779035 0.23802875 9736333
0.77900004 -0.0052186255 0.23521608 10790563
0.77883327 0.0048100068 0.23516546 11448235
0.77879995 0.014837559 0.23515552 11579560
0.77777427 0.024977013 0.23502015 12104874
0.77683347 0.03480513 0.23546804 12366761
0.77814823 0.044243783 0.23563136 13156277
0.7803334 0.046937346 0.2311528 11905441
0.7790001 0.054630354 0.23770286 11775656
0.78105265 0.055299703 0.2329469 11907238
0.7790001 0.064992011 0.23795156 12500662
0.78116661 0.065172292 0.23312515 10591896
0.77887511 0.07523758 0.23677346 12961214
0.78035718 0.074890956 0.23184128 9538695
0.77696991 0.085075326 0.2350976 11447717
0.77576661 0.094687246 0.23514897 12039596
0.77693337 0.10222875 0.23410822 12369076
0.78210008 0.10718028 0.23596902 11908524
0.78762507 0.11273197 0.23505415 12040112
0.79200006 0.1179922 0.23543319 11513769
0.78850013 -0.16205207 0.24467704 9605002
0.79058337 -0.16677673 0.24503785 9539979
0.78480959 -0.15495406 0.24501975 9604744
0.77790928 -0.14427906 0.24457198 12235948
0.78083342 -0.14933424 0.24552037 11248798
0.7761336 -0.13511159 0.24525227 12630959
0.77686691 -0.12523457 0.24457334 12170921
0.77794439 -0.11539301 0.24491151 12038823
0.77869433 -0.10456593 0.24514852 12301741
0.77840006 -0.094506174 0.24505918 12236206
0.77816671 -0.085367173 0.24498603 12169900
0.77897125 -0.075296097 0.245107 12498862
0.77899992 -0.065399177 0.24524613 12696495
0.77891648 -0.055363465 0.24522032 13157049
0.77873325 -0.045323238 0.24516179 12697528
0.77899981 -0.035577085 0.2454607 12105392
0.78000003 -0.030789241 0.241909 14014157
0.77900004 -0.028196657 0.24834636 10262932
0.78031826 -0.024905415 0.24433298 11975091
0.78083348 -0.015286283 0.24491075 10923176
0.7786296 -0.0048121898 0.24502704 10987426
0.78000003 -0.0088773137 0.24647397 9869459
0.77736121 0.0048008556 0.24472928 10790046
0.77756673 0.014813549 0.24479502 11251367
0.77688599 0.024673687 0.24471106 11184805
0.77632022 0.034781948 0.24531215 11842220
0.77668601 0.044928372 0.24464732 11906982
0.77643359 0.054780044 0.24443555 11841190
0.77633351 0.064769529 0.24440318 11447203
0.77623343 0.074755274 0.24437189 11841447
0.77590942 0.084466681 0.24468434 11447458
0.77572 0.094682492 0.24512026 11907241
0.77766675 0.10183898 0.24537112 11842991
0.78271431 0.10692487 0.24471189 12961472
0.78790009 0.11341723 0.2457411 11842991
0.79066664 0.11789564 0.2438786 11513769
0.78900003 -0.16074675 0.2542434 9539465
0.79133344 -0.16585584 0.25525817 9605515
0.78625 -0.1552829 0.25488979 9670537
0.77709532 -0.14407383 0.25534335 12434100
0.78150004 -0.14930983 0.25426775 12236208
0.77530539 -0.13496695 0.25497171 13881028
0.77546692 -0.12500975 0.25502446 13090745
0.77602798 -0.11510789 0.25520855 13354427
0.77686691 -0.10516838 0.25518107 13484726
0.77865511 -0.095289163 0.25528792 12827052
0.77882618 -0.085757129 0.25545642 12367018
0.78000003 -0.080821484 0.25231716 14604236
0.77884012 -0.075304732 0.25580668 12235437
0.78000003 -0.073395766 0.25256062 13816520
0.77876198 -0.064858139 0.25571817 12170418
0.78000003 -0.066578723 0.25304756 13882572
0.77888 -0.054886088 0.25574702 12630452
0.78000003 -0.057266153 0.25286496 13684681
0.77880007 -0.045327164 0.25521043 12564658
0.77873331 -0.035296738 0.25518787 12761521
0.77900016 -0.026673365 0.25559804 12169125
0.78018188 -0.022660315 0.25367135 11906724
0.78063899 -0.015281742 0.25489858 11315873
0.7783044 -0.0048992522 0.25489032 10989224
0.78000003 -0.0088773137 0.25742996 10725795
0.776968 0.004945416 0.25478604 10857128
0.77706683 0.014804799 0.2555497 11382182
0.77700019 0.024594622 0.25526169 11643810
0.77663356 0.034795236 0.25540808 11645097
0.77591693 0.044753551 0.25517267 11316390
0.77523315 0.054695234 0.25494879 11644581
0.77438891 0.064606659 0.2546702 11446430
0.77429414 0.075208426 0.25485224 11709602
0.7743749 0.085113473 0.25443882 11841446
0.77412128 0.094981179 0.25483003 12038057
0.77635008 0.10321249 0.25467882 13157821
0.78114289 0.10788368 0.25440964 12631478
0.78707701 0.11442856 0.25480208 11776940
0.79132146 0.12457515 0.25501209 11448233
0.78900003 -0.16043893 0.2604003 9539209
0.79129189 -0.16476528 0.26501831 9605002
0.78666669 -0.15505899 0.26462671 9736332
0.79000002 -0.15879287 0.26905262 9407623
0.77652389 -0.14431503 0.26467833 11579049
0.78200006 -0.14986214 0.2644974 11710891
0.77486646 -0.13489027 0.26480591 12499375
0.77499986 -0.1249349 0.26485118 11971748
0.774903 -0.11479614 0.26499322 12498349
0.77493542 -0.104851 0.26552862 12433070
0.77608126 -0.095253348 0.26448011 13157306
0.77650017 -0.08518517 0.26445162 13288632
0.7761668 -0.075155765 0.26433823 13814719
0.77613348 -0.065158345 0.26432833 14011587
0.77666688 -0.055202521 0.2645095 14142660
0.77693343 -0.045218788 0.26459971 14142660
0.77655578 -0.035198033 0.2644715 13354430
0.77723348 -0.025219686 0.26470134 12566457
0.77847826 -0.015753072 0.26698908 12171442
0.78000003 -0.014355296 0.26234609 12106418
0.77818525 -0.0048098196 0.26533043 12105390
0.78000003 -0.0088773137 0.26290792 11646124
0.77622247 0.0047919662 0.26466069 12039852
0.77460718 0.014498181 0.26588011 12105647
0.77468437 0.024925755 0.26531124 11842479
0.77420014 0.034686219 0.26548016 12501436
0.77369463 0.044625655 0.26530796 12697530
0.77329421 0.055197418 0.26538375 12631476
0.77284384 0.065042257 0.26478988 12303282
0.77255565 0.075306214 0.26491803 12894132
0.77280021 0.085279979 0.26500258 12237491
0.77316689 0.095276505 0.2651293 12433841
0.77594113 0.10379388 0.26517093 13158339
0.78100002 0.10812475 0.26507473 13618376
0.78676194 0.11340071 0.26439542 11842477
0.79028571 0.11786807 0.26663935 11447976
0.79284012 0.12461476 0.26538262 11382440
0.787 -0.15303445 0.27448037 10657947
0.79100001 -0.15806887 0.27587491 9407624
0.77733332 -0.14305517 0.27429357 13749701
0.78214294 -0.14753611 0.27540383 13158335
0.77525699 -0.13482958 0.2747921 13157818
0.77509981 -0.12495055 0.27486482 13618370
0.7749998 -0.1150859 0.27495933 13881799
0.7740801 -0.10485347 0.27540967 14013899
0.77417153 -0.094767809 0.2746644 13947589
0.77459985 -0.084976286 0.27468646 13815490
0.77486092 -0.075028345 0.27477968 13487040
0.7749998 -0.065063052 0.27482933 13487554
0.77547228 -0.055118233 0.2749956 13684934
0.77543336 -0.045131095 0.27498186 13290431
0.77527761 -0.035140511 0.27492711 12566709
0.77513319 -0.025153337 0.27487561 12237489
0.77544469 -0.015178146 0.27498451 12040112
0.77569991 -0.0051969877 0.27507576 11447716
0.77457142 0.0046529491 0.27480578 11250849
0.77340019 0.01473365 0.27516708 10921886
0.77212483 0.0248763 0.275051 10921119
0.77111441 0.035320837 0.27538294 11512997
0.77074212 0.045182932 0.27497572 11709090
0.77044469 0.055259656 0.27501586 11512227
0.76900005 0.066858083 0.27750275 12500146
0.77020842 0.06470941 0.27418131 11183775
0.77025026 0.075081438 0.27494729 11841707
0.77103341 0.085085273 0.27522674 11710380
0.77185291 0.094903648 0.27525303 12828858
0.77523816 0.10447858 0.27547422 14275531
0.78049999 0.10851202 0.27403769 13618115
0.78682357 0.11348578 0.27506688 11381668
0.79062498 0.11824926 0.27435416 11250597
0.78833342 -0.15199937 0.28509533 9736846
0.79206258 -0.15747216 0.28516793 9276295
0.77880007 -0.1415914 0.28438261 10987171
0.78387499 -0.14632586 0.28531682 11184548
0.77606893 -0.13494587 0.2848264 10790051
0.77499986 -0.1249349 0.28480834 10987433
0.7749331 -0.11494682 0.28478399 11118505
0.77424002 -0.10487468 0.2845301 11316394
0.77420008 -0.094901077 0.28451535 11447203
0.77424014 -0.084936969 0.28453016 11577246
0.77463317 -0.07500603 0.28467467 11840419
0.77495986 -0.065059535 0.28479418 12104361
0.77516651 -0.055096511 0.28487036 11776165
0.77535981 -0.045126952 0.28494197 11250076
0.77546692 -0.035148676 0.28498128 11840417
0.77508008 -0.025152171 0.28483945 11312532
0.77473336 -0.015165355 0.28471273 11246227
0.77508008 -0.0051921778 0.28483903 11049363
0.77483326 0.0047849892 0.28474912 10918804
0.77388018 0.014742983 0.28439865 10260876
0.77309376 0.02468238 0.28501508 10130314
0.77214837 0.034995243 0.28537092 10460052
0.77207142 0.04485425 0.28573734 10197908
0.77162081 0.055187907 0.28525308 10000529
0.76900005 0.065957956 0.28080317 11184031
0.77178276 0.064821176 0.28575191 10394259
0.76900005 0.070458569 0.28080317 12106160
0.7718423 0.075093843 0.28412667 10657947
0.77268744 0.085494936 0.28418943 11908012
0.77328002 0.095397413 0.28461459 12368561
0.77575994 0.1052246 0.28479823 12434356
0.78000003 0.1098123 0.28847185 15065821
0.78619057 0.11551033 0.28436062 11316389
0.78900003 0.12093037 0.2877984 11185061
0.79120827 0.12536107 0.28451115 11382439
0.78870004 -0.15206964 0.29538286 10000532
0.7911765 -0.15707007 0.29510978 9605774
0.7858181 -0.14533137 0.29480743 10724255
0.77816671 -0.13303652 0.29204509 12040375
0.78330773 -0.13586619 0.29689217 10395033
0.77700001 -0.12483755 0.29254121 12304057
0.78125006 -0.12594536 0.29762194 13355972
0.77678263 -0.11502255 0.2935313 12829626
0.78100002 -0.11310378 0.29981166 12962496
0.77700007 -0.10498754 0.29386231 12961470
0.77685708 -0.095010169 0.29328814 12632247
0.78000003 -0.095612034 0.29760182 13948364
0.77690011 -0.085228972 0.29369441 12697783
0.78100002 -0.081107929 0.29981166 8881540
0.77658343 -0.075195365 0.29357451 12961468
0.78000003 -0.074613094 0.29942781 9277070
0.77700007 -0.065230325 0.29373163 12500663
0.78050005 -0.065523341 0.29916266 10394778
0.77700001 -0.055747312 0.29230124 12435639
0.78155559 -0.054228827 0.29738325 9146249
0.778 -0.045280792 0.2922866 12238001
0.78218192 -0.045024265 0.29760274 9672079
0.77800006 -0.035263579 0.29228666 11974057
0.78154558 -0.035007682 0.29719418 9079684
0.778 -0.025246361 0.29228663 11709600
0.78250003 -0.025390983 0.2976408 8947586
0.77800012 -0.01522914 0.29228663 11249309
0.78358334 -0.015338924 0.29805347 8618877
0.77800006 -0.0052119265 0.2922866 10986138
0.78320009 -0.0052469969 0.29790741 8092534
0.77791673 0.0048042862 0.29225519 10787734
0.78275007 0.0048333588 0.2977359 8880511
0.77692312 0.01522157 0.29251277 9736588
0.78171432 0.014109699 0.29773417 8683644
0.77678579 0.024282163 0.29326004 9211012
0.7815001 0.024950882 0.29817414 8882560
0.77690005 0.034807887 0.2936922 9669250
0.78200006 0.035036154 0.29836491 8485748
0.77608329 0.044762138 0.2933833 9868172
0.78133339 0.045063686 0.29811051 8616821
0.77666676 0.054797295 0.29451495 9013893
0.7764616 0.064010575 0.2937375 9210757
0.78179997 0.067606196 0.29792339 8882306
0.77800006 0.071283184 0.29319611 10591384
0.78537506 0.075638399 0.2973578 9276037
0.78650004 0.085564584 0.29578802 9473160
0.79020005 0.085349619 0.29964367 9736332
0.77900004 0.096905947 0.2917493 9408395
0.78513336 0.094357148 0.29625565 10065810
0.77900004 0.10237691 0.2917493 8750977
0.78458333 0.10540721 0.29613963 10592924
0.78721058 0.11432268 0.29453525 11250597
0.79000002 0.11723071 0.29910547 11447976
0.78900003 0.1210535 0.29327804 11184804
0.79051745 0.12609839 0.29568097 11250597
0.78866673 -0.14437029 0.30193463 9209988
0.79138899 -0.14558804 0.30709594 9868944
0.78799999 -0.13477872 0.30373007 10197651
0.79085714 -0.13569109 0.3086215 9934736
0.78645003 -0.12494137 0.30467039 10131603
0.78554553 -0.11501484 0.3048223 10527131
0.784913 -0.10512087 0.30411649 10528417
0.78577274 -0.094897419 0.3045758 10066584
0.78518182 -0.084798791 0.30468172 10000018
0.78534997 -0.075125806 0.30608359 10000531
0.78547996 -0.064986937 0.30536199 9868944
0.78690004 -0.055007994 0.30484387 9802892
0.78679162 -0.044873144 0.30480191 9802893
0.78608346 -0.034862984 0.30529585 9671307
0.78743476 -0.024829049 0.30492967 9342600
0.79000002 -0.020087549 0.30881482 9211271
0.78800005 -0.014928235 0.30406123 9211013
0.79042858 -0.01375362 0.30845398 9277064
0.78783339 -0.0049703484 0.30381942 8882305
0.79062498 -0.0057588541 0.30836561 9408906
0.78789479 0.0051088841 0.30449924 9145478
0.79000002 0.0039547039 0.30881482 9343627
0.78755003 0.015003396 0.30509511 8948613
0.7869131 0.024923829 0.30472928 8948870
0.79000002 0.029846365 0.30881482 9080457
0.78733331 0.035275724 0.30408904 9409163
0.79020005 0.035404474 0.30889302 9212043
0.78711766 0.045127731 0.30389762 9343114
0.79100001 0.044698108 0.30920574 9409422
0.78637493 0.055135209 0.30383563 9277836
0.79099995 0.054882705 0.30920574 9343629
0.78686672 0.064729013 0.30390963 9540493
0.79040003 0.065019347 0.3089712 9474700
0.78842866 0.072766744 0.30266371 9408650
0.79185718 0.075069912 0.30676216 9868944
0.78900003 0.098149925 0.30103567 10263702
0.78820008 0.10543211 0.30073047 10921632
0.79190004 0.10536797 0.30622357 10987425
0.78900003 0.11107937 0.30103567 11119011
0.79183334 0.11534094 0.30598155 11184804
0.78900003 -0.12257414 0.31027099 9145221
0.79204541 -0.12490246 0.31517982 10395543
0.78900003 -0.11500116 0.31119454 10132113
0.79118752 -0.11492561 0.31645849 10527385
0.78900003 -0.10461657 0.31129715 10066578
0.79166669 -0.10538199 0.31688192 10527129
0.78900003 -0.094868183 0.31027099 9342857
0.79158348 -0.095178403 0.31592295 10527130
0.78900003 -0.084709339 0.31119454 10066578
0.79194117 -0.085351884 0.31655669 10461336
0.78900003 -0.075474016 0.31211805 10263956
0.79150009 -0.074787289 0.3168152 10329751
0.78900003 -0.064919367 0.31159034 10132370
0.7915625 -0.064368576 0.31660891 10395800
0.78900003 -0.058850452 0.31027099 10132627
0.79166669 -0.055430811 0.31467688 10329750
0.78900003 -0.042226881 0.31132647 10066580
0.79152173 -0.045988388 0.31577736 10329751
0.78900003 -0.03468471 0.31304157 10000787
0.79044443 -0.034697179 0.31741884 10132628
0.78900003 -0.027912144 0.31073278 9737615
0.79111552 -0.024244752 0.3153072 9803407
0.79233319 0.0048924522 0.31436765 9540750
0.79161906 0.015259 0.31430474 9408907
0.79188448 0.025426593 0.31454599 9408907
