# .PCD v0.7 - Point Cloud Data file format
VERSION 0.7
FIELDS x y z rgb
SIZE 4 4 4 4
TYPE F F F U
COUNT 1 1 1 1
WIDTH 1115
HEIGHT 1
VIEWPOINT 0 0 0 1 0 0 0
POINTS 1115
DATA ascii
0.77625 -0.10423931 0.079922415 16184558
0.78541678 -0.10408905 0.077643998 12500662
0.77560008 -0.095254816 0.079855502 16315627
0.78574997 -0.094933912 0.07698562 12500660
0.77633333 -0.086983442 0.079930998 15066587
0.78527278 -0.084805459 0.078174561 12105903
0.78740007 -0.075320497 0.078303583 12106160
0.78811121 -0.066162258 0.078682974 12368819
0.78900003 -0.1512036 0.088623412 11643552
0.79378259 -0.15519463 0.084793389 11710373
0.778 -0.1408985 0.088297337 10720899
0.78658819 -0.14478421 0.086505592 10853776
0.79120004 -0.14588292 0.08257179 11776166
0.76800001 -0.13189818 0.089860409 9010294
0.77476919 -0.13424665 0.087301381 11116439
0.78508329 -0.13544144 0.084044166 11381668
0.7902 -0.13478565 0.081358701 11908013
0.76490003 -0.12420262 0.088419653 15197404
0.77430779 -0.12509827 0.08557301 15724263
0.78590912 -0.12535106 0.082417727 13158339
0.79000002 -0.1292024 0.081338115 11579562
0.75900006 -0.11347144 0.088807367 16184299
0.76307142 -0.11484347 0.086854771 14868440
0.774077 -0.11474996 0.083459429 14276561
0.78525007 -0.11739878 0.081307314 12368822
0.75900006 -0.10547569 0.088807367 16579314
0.76231259 -0.1048203 0.085397378 15921128
0.77290004 -0.10524036 0.081926011 15592421
0.75900012 -0.094433941 0.088553533 16579314
0.76271439 -0.095063366 0.084898368 16118507
0.7725715 -0.095345214 0.081609793 15855850
0.75900006 -0.086818941 0.088807367 16579314
0.76242113 -0.084576257 0.085914463 16118763
0.77361548 -0.084862165 0.082015239 15461090
0.76238889 -0.075504884 0.087315083 16316144
0.77383345 -0.074930876 0.082989521 15921640
0.78080004 -0.074687287 0.080390885 11711402
0.76466674 -0.065624028 0.08803504 16316399
0.77417648 -0.064887643 0.084074795 15593189
0.78362501 -0.063948885 0.081139416 12040111
0.76766664 -0.057256889 0.089821406 16052970
0.77457905 -0.055673812 0.086712435 15921897
0.7856667 -0.054770548 0.083339877 12500918
0.77540004 -0.045128997 0.088001773 15922157
0.78516674 -0.0447773 0.085432775 13553608
0.79382348 -0.044997081 0.081834376 12171953
0.77650005 -0.03592189 0.088308401 16184558
0.78554553 -0.034019753 0.085890107 12566454
0.79366672 -0.035043754 0.081710018 12040367
0.77800006 -0.026155259 0.089209162 15790572
0.78606671 -0.025262631 0.086939253 11974832
0.7855556 -0.01567669 0.088844925 12961472
0.78900003 -0.006209149 0.088623412 11382438
0.787 -0.15291055 0.095151499 10788500
0.79266673 -0.15793969 0.094136335 10789530
0.76800001 -0.14178547 0.097949803 11310204
0.77458817 -0.14439149 0.095109373 11113855
0.78259999 -0.14814457 0.092662416 11115662
0.75900006 -0.13183205 0.098876089 12167585
0.76360017 -0.13539825 0.095416218 10652537
0.77149999 -0.13746633 0.09072116 11245184
0.75790906 -0.12419727 0.096420288 15920614
0.76066679 -0.12648384 0.092414998 15262169
0.75596786 -0.11495942 0.094780438 16052714
0.75586134 -0.10503867 0.094623856 15855592
0.75671434 -0.094654202 0.094607025 16053227
0.75719368 -0.085010149 0.09493719 16184813
0.75812513 -0.075570263 0.095412947 16250350
0.76000005 -0.072255149 0.091148339 16250350
0.75877786 -0.067056403 0.098057255 15921899
0.76103705 -0.063955218 0.094256893 16448241
0.7633335 -0.055147473 0.095561497 16382449
0.77000004 -0.052025516 0.090094425 15724005
0.76316679 -0.045310892 0.095538326 15921899
0.77140009 -0.044895254 0.090258226 15395555
0.75900006 -0.037067633 0.099468365 15724778
0.76354831 -0.034925185 0.095730461 15856107
0.77222228 -0.034098063 0.090955563 15790314
0.76430774 -0.025005978 0.096713819 15658985
0.77380008 -0.025108662 0.091443382 15592678
0.76400012 -0.015134981 0.097255304 15461348
0.77424997 -0.015154713 0.092400007 15066591
0.78333336 -0.011361614 0.090429366 15198434
0.76438886 -0.0054187039 0.097782701 14935005
0.7736668 -0.0047312756 0.093689673 14737626
0.78375006 -0.0045569208 0.091012068 13816781
0.76576483 0.004465871 0.098663419 14803676
0.77505565 0.0047854772 0.094611719 14737883
0.78576916 0.0052052387 0.09122856 12237748
0.76499999 0.015063888 0.099275701 14803421
0.77360004 0.014739613 0.095944479 14869983
0.78553331 0.014967903 0.091906458 12369335
0.76716667 0.024798756 0.099040367 14869214
0.77480012 0.024192877 0.096456632 14672347
0.78592312 0.025445372 0.093509607 12698814
0.79100007 0.025256731 0.091008037 10987940
0.77446681 0.034700505 0.097863279 14474968
0.78659999 0.035244584 0.094796553 12237750
0.79390907 0.035064265 0.091875292 11250854
0.77392304 0.0442883 0.098494366 14737883
0.78512514 0.045282189 0.095533542 12237750
0.76300001 0.057405446 0.099992566 14803421
0.773 0.055030212 0.098668814 15067105
0.78418195 0.054823145 0.096087843 12237493
0.79364294 0.054795776 0.093120456 11316647
0.76300001 0.063657127 0.099992566 15395558
0.77327269 0.064924926 0.098538972 14277076
0.78528583 0.064074866 0.096082054 11316647
0.79358339 0.065123931 0.093312651 11382440
0.77390921 0.075026207 0.098785609 13356230
0.78512508 0.075266384 0.095533982 11382183
0.79308325 0.074672006 0.092173763 11382183
0.77600002 0.082363501 0.098787762 12369336
0.78672731 0.084640868 0.096401647 11579562
0.79246676 0.085845098 0.092597835 11513769
0.78820002 0.092885651 0.099235281 11579562
0.77900004 -0.15111086 0.1057367 10654079
0.78530777 -0.15446061 0.10475337 10525068
0.79066664 -0.15892686 0.10454109 10460308
0.76540005 -0.14202508 0.10478663 11178110
0.77376932 -0.14703414 0.10474562 10652791
0.75805897 -0.13274865 0.10529382 14867155
0.76050007 -0.13773093 0.10500596 10323835
0.75386661 -0.12506239 0.10496766 14209999
0.74888873 -0.11342074 0.10632449 15132385
0.75061113 -0.11602637 0.10246784 15790058
0.74899989 -0.10519142 0.10547648 15066593
0.75037503 -0.10383626 0.10053363 15658730
0.74900001 -0.099702455 0.10692495 14869214
0.75081253 -0.094999067 0.10443383 15000800
0.75252783 -0.085195914 0.10478186 14671836
0.75466675 -0.074836552 0.10508057 14671836
0.75731438 -0.064589448 0.10532258 14606299
0.75748152 -0.055054937 0.10629293 14408920
0.76000005 -0.054018617 0.10137859 15856109
0.75647211 -0.044914044 0.10532815 14869471
0.75609994 -0.035155408 0.10527562 15001056
0.75650001 -0.025642414 0.10559313 14935009
0.76000005 -0.021993492 0.10137859 15461606
0.75713342 -0.014819671 0.1063092 14737888
0.76000005 -0.014876798 0.10137858 15461350
0.75795823 -0.0052257343 0.10657457 14738145
0.76033336 -0.0044993474 0.10171958 15066593
0.75754172 0.0046786848 0.10725486 14474973
0.76050013 0.0046972008 0.10233486 14804191
0.75795645 0.01513551 0.10743023 14342874
0.7607857 0.016022552 0.10237247 14803424
0.75820005 0.025095189 0.10823721 13684944
0.76147377 0.025391039 0.10260373 14474457
0.75820845 0.034857456 0.10735002 13553356
0.76205564 0.035035413 0.10164874 14211283
0.75742859 0.045712598 0.1066047 13619149
0.76275009 0.044441979 0.10129476 14342869
0.75581479 0.055291269 0.10572743 14013907
0.76277781 0.053619165 0.10075419 14671835
0.75560004 0.064682491 0.10532968 14079701
0.76250005 0.068967573 0.10081664 15132386
0.75520694 0.075228482 0.1061553 13816274
0.76418191 0.074897058 0.1009568 15132642
0.74766666 0.086006738 0.10848316 13882325
0.75479996 0.084115677 0.10527302 13948116
0.76277786 0.08536467 0.10254037 14935005
0.77149999 0.084236264 0.10110651 15461606
0.74849999 0.092236266 0.10860582 14408669
0.75411773 0.094953045 0.10671583 14671838
0.76350003 0.095273919 0.10422628 14013904
0.77300006 0.095386028 0.10310968 15132384
0.78500003 0.095820725 0.101038 11776427
0.75710005 0.1035766 0.1084336 15329768
0.76337504 0.10546023 0.10651726 14277593
0.77400011 0.10484932 0.10439596 13948112
0.78600001 0.10559367 0.10231236 11908785
0.7924 0.10747671 0.10050533 11842991
0.76400006 0.11113682 0.10906631 15197928
0.77333337 0.11128577 0.10677403 14145752
0.78616667 0.11466644 0.10547536 12237495
0.78691673 -0.1532632 0.11448727 10195849
0.79230005 -0.15795895 0.11607613 10065036
0.76800001 -0.14088535 0.11323547 10387832
0.77435714 -0.14438729 0.11520566 9402990
0.78166676 -0.14857781 0.11647015 9537148
0.75857151 -0.13218099 0.11336567 14209484
0.76249999 -0.13580127 0.11497159 11247256
0.77000004 -0.13854954 0.11893576 7958119
0.7541852 -0.1249211 0.11512218 13223105
0.74899995 -0.11372983 0.11218522 15461351
0.75022733 -0.11535421 0.11668046 15395560
0.74900001 -0.10525496 0.11072403 15395558
0.75048006 -0.10488828 0.11620328 15329766
0.75062859 -0.095401086 0.11494138 15329765
0.75102776 -0.08502689 0.11512693 15264229
0.75316679 -0.074688949 0.11545321 15198436
0.75449985 -0.065107159 0.11565649 15132642
0.75493735 -0.055427652 0.11517268 14474713
0.75406235 -0.04499042 0.11504059 14474713
0.75388002 -0.035052739 0.11468211 14737885
0.7537058 -0.025132427 0.1152784 14474459
0.75402761 -0.01475973 0.11558589 14540253
0.75436652 -0.0050539155 0.11563601 14803423
0.75416642 0.004658083 0.1156064 14606044
0.75469422 0.015263195 0.11568549 14474714
0.7553001 0.024998968 0.11577685 13948115
0.75530553 0.034723692 0.11577839 13750737
0.75352788 0.045223564 0.11550718 13750737
0.74856251 0.057523523 0.11639029 13882323
0.75055009 0.053919852 0.11373375 13750737
0.74758607 0.065116122 0.11474652 13882325
0.75000006 0.061694663 0.11057924 13882325
0.74627793 0.074489594 0.11439452 13816275
0.74512148 0.08476226 0.11461501 14145240
0.74631035 0.09446837 0.1145521 14869220
0.75000006 0.098565705 0.11057924 15066599
0.74833339 0.10039075 0.11617278 15527151
0.75316 0.10519116 0.11484883 15329771
0.75760001 0.11020583 0.11524455 14868706
0.76100004 0.11203655 0.11576409 12565950
0.78600001 0.12169725 0.11680589 11776942
0.78900003 -0.15212713 0.12094701 9999501
0.77650005 -0.14199224 0.12312238 9274496
0.78523076 -0.1462442 0.12567055 9801867
0.79050004 -0.14964049 0.12857983 9933711
0.76500005 -0.13362448 0.12458155 12828604
0.77325004 -0.1384566 0.12554958 9999248
0.75650007 -0.1251307 0.12489358 13223104
0.76000005 -0.1296335 0.12717661 13288899
0.75160009 -0.11500757 0.12489276 14540249
0.75189996 -0.10448717 0.12494287 14671580
0.75276017 -0.094916582 0.1250851 14737372
0.75273347 -0.085221186 0.12508062 14803680
0.7530002 -0.074674517 0.12512384 15132387
0.75383997 -0.065050937 0.1252636 15001056
0.75464684 -0.055404514 0.12477463 15066849
0.75455862 -0.044592138 0.12475912 14737885
0.75499982 -0.035104811 0.12457244 14803678
0.75549996 -0.025621112 0.12520902 14737885
0.75509995 -0.01478256 0.1254741 14343386
0.75423998 -0.0050536925 0.1253296 14475230
0.75389987 0.0046567866 0.12527339 14277852
0.75399983 0.01524782 0.12528999 14211801
0.75359994 0.024942035 0.12522258 14079700
0.75306457 0.034761786 0.12530233 14079701
0.74900001 0.047935702 0.12901807 14080217
0.75122583 0.044604048 0.12510966 14079702
0.74824989 0.055910908 0.12559353 13883094
0.75000006 0.051599026 0.12243064 13948116
0.74680001 0.06492696 0.1249686 14014424
0.74550033 0.07441242 0.12475174 13816789
0.74486148 0.084812783 0.12464424 14145497
0.74620008 0.09532392 0.12499215 14935013
0.74850005 0.10187337 0.12525164 15329770
0.75193745 0.105864 0.12527491 15132648
0.75733334 0.11016703 0.12495667 13289931
0.7615 0.11255583 0.12430762 11579569
0.78575003 0.12165854 0.12458861 11776942
0.79268754 0.1263317 0.12464463 11711405
0.78530008 -0.14406307 0.13508508 9605004
0.79079998 -0.14784601 0.13510986 9736590
0.76491666 -0.13316138 0.13515887 13881807
0.77458334 -0.13846944 0.13505699 12237238
0.75695646 -0.12457177 0.13533549 14013394
0.76000005 -0.1296335 0.13518289 13157571
0.75313884 -0.11524118 0.13484669 14868959
0.75361115 -0.10472557 0.13493127 14672092
0.75413334 -0.095088527 0.1350252 14606299
0.75372213 -0.085333318 0.1349501 14869214
0.75383317 -0.074756652 0.13496919 14803424
0.75436658 -0.065096594 0.1350646 14737632
0.75499976 -0.055430382 0.13517731 14803168
0.75474983 -0.044813156 0.13513277 14803425
0.75433314 -0.035073269 0.13505656 14869217
0.75502771 -0.025382748 0.1351805 14342870
0.75477755 -0.014775876 0.13513643 13882322
0.75399983 -0.0050511467 0.13499819 14014166
0.75472212 0.0046632048 0.13512987 13553873
0.75497222 0.01526602 0.13517505 13093064
0.75343335 0.024935864 0.13489695 12763586
0.7509715 0.034396164 0.13458107 12829636
0.74899995 0.045561846 0.1347774 13224908
0.75000006 0.041064441 0.13647676 12895430
0.74880761 0.05573035 0.13440636 13224651
0.75000006 0.053793728 0.13867146 13751509
0.74825001 0.065199181 0.13470049 13092808
0.75000006 0.061694663 0.13867146 13355981
0.74729019 0.074732274 0.13484205 12961221
0.74625009 0.0849692 0.13535887 13421514
0.74613905 0.095439017 0.13533741 14671841
0.74779999 0.1032965 0.13534652 15198185
0.75274998 0.10832747 0.13491966 15198185
0.75800008 0.11144779 0.13542098 14276825
0.76174998 0.11348589 0.13549709 12566207
0.77275008 0.11738607 0.13518818 11645102
0.78660005 0.12289651 0.13623373 11711406
0.79326671 0.12691055 0.1344101 11711405
0.77725005 -0.14167362 0.14643596 10262934
0.78580004 -0.1450747 0.14473893 9605260
0.79083329 -0.14846988 0.14529626 9671051
0.76313335 -0.13338825 0.14574322 14078673
0.77266669 -0.13842773 0.14467019 14210771
0.75737041 -0.12551104 0.14528717 14276567
0.76000005 -0.1296335 0.14052041 13026757
0.75493091 -0.11536098 0.14476509 15131361
0.75593358 -0.10504874 0.14507855 15066080
0.75600034 -0.094592489 0.14521235 14934752
0.75453842 -0.084747232 0.14467512 15000544
0.75403315 -0.074777201 0.14471297 14869214
0.75423986 -0.065086953 0.14475173 14606043
0.75406039 -0.055174593 0.14519763 14671582
0.75429016 -0.044926137 0.14493202 14671583
0.75419998 -0.035067428 0.14474562 14474460
0.75416654 -0.025355756 0.14473854 14342618
0.75393319 -0.014758201 0.14469354 13816530
0.75399989 -0.0050511481 0.14470641 14277081
0.75540006 0.0046681985 0.14497513 14277083
0.75600034 0.015288265 0.14509028 13684945
0.75412005 0.024957936 0.14473046 12961477
0.75277418 0.034747418 0.14464419 12829893
0.74900001 0.047585018 0.14023997 13290958
0.75165725 0.04503772 0.1452665 12895430
0.75088251 0.055355199 0.14478344 13224907
0.74900001 0.067262322 0.14218822 13026759
0.75026095 0.063930012 0.14612789 13619152
0.74833328 0.075045101 0.14402786 12961219
0.75000006 0.071878091 0.14850374 13026757
0.74699986 0.085055098 0.14511211 13158341
0.74650002 0.095485047 0.14501563 14473690
0.74808341 0.10298473 0.14444721 15000291
0.75150007 0.10756139 0.14510639 14606048
0.75749999 0.11196459 0.14449088 14737634
0.76300007 0.1150138 0.1455391 13290444
0.77900004 0.12243708 0.14768073 11711406
0.78700006 0.12570752 0.14517781 11645612
0.79037499 0.12908195 0.14474778 11711405
0.79277778 0.13539897 0.14479277 11645612
0.78900003 -0.1512036 0.15788828 9868175
0.76900005 -0.14016984 0.15838665 14407893
0.77492309 -0.14278716 0.15569799 10591645
0.78520006 -0.14753647 0.15455203 9736335
0.79000002 -0.14954583 0.15161547 9605004
0.75880009 -0.13156055 0.15770635 13288643
0.76283336 -0.13518196 0.1551307 14802651
0.77100003 -0.13872947 0.15248133 15921645
0.75686127 -0.12467173 0.15499954 14867933
0.75600034 -0.11479276 0.1548242 15328998
0.75597245 -0.10505541 0.15481749 15131618
0.75532264 -0.095068604 0.15454024 15132131
0.75419974 -0.085262112 0.15458019 14934752
0.75377774 -0.074751526 0.15436798 14934752
0.75363326 -0.065034553 0.15433832 14540252
0.75312138 -0.055480152 0.15463465 14671838
0.7535429 -0.044611752 0.15444605 14605789
0.75523335 -0.035113867 0.1546673 14408666
0.75541657 -0.025399402 0.15470587 13947859
0.7542221 -0.014764024 0.15446125 13487565
0.75466669 -0.0050545991 0.15455337 13684945
0.75586134 0.0046694269 0.15479635 13750739
0.75619471 0.015292361 0.1548651 13619152
0.75573349 0.025012454 0.15477155 13224650
0.75522864 0.034593325 0.1547952 13027014
0.75393325 0.045249429 0.15528448 13355979
0.75296015 0.054886915 0.15508352 13553358
0.75236678 0.064530008 0.15496293 13421514
0.74883336 0.077960066 0.1518959 13158342
0.75111544 0.074498408 0.15565118 13290185
0.74774271 0.085263304 0.15476003 13553101
0.75000006 0.081008062 0.15974063 13158343
0.74716121 0.094864391 0.15462238 14211031
0.7484616 0.1014641 0.15550417 14606300
0.75173914 0.10706068 0.15536365 14672350
0.75712502 0.11235338 0.1559408 13948115
0.7615 0.11478683 0.15416613 12500671
0.77833337 0.1223323 0.15362929 11777198
0.78750008 0.12654012 0.153901 11711405
0.79066664 0.12951541 0.1560626 11645612
0.79282761 0.13587841 0.15510064 11579819
0.78700006 -0.15182696 0.16443565 9670541
0.79356253 -0.15765458 0.16495298 9670797
0.76550001 -0.14132392 0.16751736 13354179
0.773 -0.14415835 0.16463676 9999249
0.78100002 -0.14875633 0.16542791 9736334
0.75837499 -0.13324124 0.16562951 13881550
0.76133341 -0.13758591 0.16363713 15657703
0.75537497 -0.12497871 0.1650822 15065826
0.75511777 -0.11528106 0.16545476 15526888
0.75472212 -0.1048835 0.16516179 15526632
0.75363332 -0.095027201 0.16492392 15526376
0.7528891 -0.085239559 0.16476175 15263462
0.75238913 -0.074613713 0.16465096 15132133
0.75246698 -0.064933084 0.16466786 14868962
0.75297242 -0.055281661 0.1647803 14803425
0.75322229 -0.044719163 0.16483516 14803168
0.75463313 -0.035085738 0.16514389 14869218
0.75600034 -0.025417356 0.16544305 14539995
0.75588924 -0.014796067 0.16541938 14145493
0.75600034 -0.0050645466 0.16544308 14013909
0.75622249 0.0046718861 0.16549146 13750739
0.75700003 0.015308486 0.16477582 13553360
0.75688004 0.025051063 0.16475029 13290187
0.75642443 0.035015453 0.1651333 13092807
0.75480551 0.045300584 0.16518268 13619151
0.75389987 0.054955672 0.16498409 13684944
0.75374991 0.064649649 0.16495191 13684431
0.75208837 0.074860603 0.16484448 13553101
0.7480967 0.085884981 0.16554831 13947859
0.75000006 0.081008062 0.16413003 14013652
0.74705863 0.095298618 0.16544069 14474204
0.74831247 0.10272441 0.16507381 14671840
0.7501539 0.10763702 0.16490723 14606046
0.75660002 0.11183157 0.16469204 13027267
0.76050007 0.11418837 0.16286775 12171958
0.77900004 0.12243708 0.1640936 11842991
0.78825009 0.12573624 0.16696562 11711405
0.79062498 0.12912329 0.16538502 11514026
0.79112005 0.1354553 0.1647944 11514026
0.787 -0.15319045 0.17578161 9671054
0.79335719 -0.1577467 0.17428358 9605517
0.76458341 -0.14205326 0.17537016 12499386
0.77866673 -0.14922333 0.17313696 9736591
0.75731039 -0.13412996 0.1750491 14275794
0.76000005 -0.13852938 0.17165595 16052203
0.74860001 -0.12208132 0.17801839 15000549
0.75244004 -0.1252467 0.17448977 15592172
0.7481333 -0.11499863 0.17720608 15591914
0.75200003 -0.11468746 0.17298958 15723500
0.74862504 -0.10556683 0.17806819 15657707
0.75212008 -0.10455494 0.17364019 15723755
0.74900001 -0.097072326 0.17881526 15723500
0.75158626 -0.094950154 0.17469603 15724010
0.74900001 -0.083921663 0.17881526 15197926
0.75122863 -0.085076809 0.17482123 15658218
0.75105566 -0.074480206 0.17490852 15395048
0.75240022 -0.064926006 0.17522378 15065570
0.7530002 -0.055283863 0.17536327 15066083
0.75328583 -0.044848677 0.17530353 15000547
0.75492007 -0.035098378 0.17492715 14539997
0.75593364 -0.02541543 0.1751612 14408411
0.75526655 -0.014785316 0.17500502 14145239
0.75451988 -0.0050552869 0.1748324 14211032
0.75540012 0.0046678078 0.17503659 14145240
0.75683337 0.015305962 0.17448372 13750737
0.75686663 0.025050512 0.17449123 13553358
0.75615168 0.034520205 0.17472774 13487565
0.7547096 0.045437142 0.17504777 13684944
0.75379986 0.054948695 0.17554846 13816274
0.75347227 0.064625174 0.17547205 13619152
0.74900001 0.078562155 0.17472394 13290186
0.75107419 0.073697597 0.17481601 13487566
0.74748379 0.084967501 0.17478366 13750480
0.74699986 0.095548324 0.17484032 14605790
0.74833339 0.10316546 0.17471461 14935012
0.75106674 0.10761674 0.17485403 14540254
0.75900006 0.11218631 0.17143008 11974326
0.76000005 0.11233412 0.17521429 11447982
0.78825009 0.12435269 0.17434627 11579819
0.79260004 0.12754396 0.17512621 11579562
0.78672731 -0.15344936 0.18463928 9605004
0.76336378 -0.14190763 0.1853282 14210258
0.77300006 -0.14632778 0.18816422 9275781
0.74900001 -0.13126406 0.18933581 12960447
0.75461549 -0.13456273 0.18443182 14078417
0.74710345 -0.1239989 0.1851152 15263461
0.75020009 -0.12831306 0.18296491 14868447
0.74560636 -0.11480177 0.18466574 15263719
0.74600017 -0.10561558 0.18467727 15592427
0.74694437 -0.095056482 0.1844409 15657964
0.74733335 -0.084608972 0.18453701 15657964
0.74804348 -0.075590894 0.18574178 15658478
0.75000006 -0.073499136 0.18181308 15790317
0.7486667 -0.066649154 0.1880828 15658478
0.7507084 -0.065072499 0.18376167 15592427
0.75188899 -0.055200923 0.18566164 15395049
0.75247228 -0.044675 0.18551308 15197670
0.7537334 -0.035045139 0.18435453 14868961
0.75391656 -0.02534819 0.18439902 14539996
0.75336111 -0.014747526 0.18426411 14408412
0.75353324 -0.0050472412 0.18430656 14342876
0.75422204 0.0046592709 0.18447635 14277082
0.75566691 0.015282237 0.18482816 14145495
0.75513351 0.02499252 0.18469621 13619151
0.75402772 0.034664098 0.18442625 13816273
0.75333333 0.045213088 0.18455042 14013909
0.75236672 0.054843739 0.18578079 14079702
0.75211138 0.064508855 0.1857174 13947859
0.74900001 0.079146624 0.18495226 13421258
0.75036681 0.074020006 0.18528885 13487052
0.74777764 0.085141957 0.184651 13618894
0.74699986 0.095150888 0.18421994 14408667
0.74853331 0.10222875 0.18536264 14671841
0.75092858 0.10697778 0.18466957 14935013
0.75700003 0.11011855 0.18692771 14605790
0.76100004 0.11248193 0.18880619 11776690
0.78800005 0.12200692 0.18628137 11645613
0.77900004 -0.15111086 0.19783118 9670795
0.7858001 -0.15353701 0.19403701 9670795
0.792 -0.15734078 0.19556527 9605259
0.75900006 -0.14071621 0.19364052 15131359
0.76355565 -0.14354944 0.19599326 13947085
0.77099997 -0.14594917 0.1930906 12762553
0.74790919 -0.13202845 0.1962212 12894654
0.75310004 -0.13665915 0.19460127 14407893
0.7456252 -0.12511139 0.19437225 15263205
0.74382347 -0.1153007 0.19524705 15000545
0.74356407 -0.10487007 0.19532323 15132389
0.74415034 -0.09483175 0.19481379 15592941
0.74468756 -0.084853984 0.19412707 15592685
0.74570608 -0.075438425 0.19481574 15658478
0.74674988 -0.065312795 0.19488338 15724271
0.74781823 -0.055141501 0.19555956 15592684
0.75000006 -0.05242997 0.19134437 15658479
0.74827266 -0.044744004 0.19727208 15395305
0.75026673 -0.043782629 0.19246557 15329513
0.74900001 -0.034825832 0.19897959 14803425
0.75096011 -0.034916785 0.19334461 14803169
0.74900001 -0.029565565 0.19985634 14079702
0.75122237 -0.02525562 0.19429 14606303
0.75261128 -0.014731124 0.19465184 14474716
0.75356662 -0.005047698 0.19489959 14606046
0.75436091 0.0046593826 0.19510409 14408667
0.75361103 0.015238915 0.19490983 14145495
0.75263339 0.02490993 0.1946557 14014165
0.75216681 0.034578964 0.19453505 14013909
0.74900001 0.049338445 0.19897962 14408924
0.75111777 0.044821937 0.1942638 14145495
0.74900001 0.055767663 0.19927187 14014164
0.75029629 0.055473283 0.19454154 14342874
0.74877769 0.065586202 0.19736198 14277079
0.75000006 0.06447462 0.1928075 14145238
0.74797058 0.074762657 0.19545877 14079444
0.75000006 0.073107123 0.19134437 13947089
0.74724984 0.085083649 0.19501495 13882065
0.74699986 0.095291175 0.19515656 14539996
0.74836838 0.10342389 0.19590719 15000547
0.75000006 0.10634123 0.19310014 14934755
0.75720006 0.11014764 0.19495481 14606047
0.76200002 0.11262973 0.19618973 13092551
0.77200001 0.11591507 0.19695711 11513518
0.78833342 0.12205851 0.19466336 11579563
0.77585709 -0.15231751 0.2062384 9539723
0.78600007 -0.15615097 0.20512472 9408394
0.79350007 -0.1594964 0.20336644 9474187
0.75650001 -0.1423208 0.20598614 14341843
0.76350009 -0.14649917 0.20551184 11644844
0.77000004 -0.14756246 0.20185463 9144453
0.74690479 -0.13314748 0.20554043 13091521
0.75088894 -0.13804123 0.20387371 14538966
0.7445001 -0.12524834 0.20475473 14803168
0.74324244 -0.11570518 0.2048042 14934752
0.74203336 -0.10485481 0.20494567 14802911
0.74271894 -0.094354913 0.20480803 14802912
0.74400002 -0.085103162 0.20461817 15000548
0.74425006 -0.075548664 0.20468573 15329513
0.74461126 -0.065126337 0.20478421 15526635
0.74541688 -0.054725781 0.20500538 15526892
0.74629027 -0.045011729 0.20510453 15461098
0.74755871 -0.035632014 0.20559511 15132134
0.74880761 -0.025646765 0.20553547 14605789
0.75000006 -0.023362326 0.20109861 14671839
0.74899989 -0.015187502 0.20722072 14408667
0.75052387 -0.014313898 0.20252082 14342874
0.74833339 -0.0045763911 0.20799865 14408667
0.75135005 -0.0050330441 0.20311871 14539996
0.74808687 0.0048106634 0.20760584 14277081
0.75152636 0.0044094604 0.20247276 14277081
0.74799991 0.015126483 0.20746762 14211031
0.75061119 0.015178182 0.20204228 14145495
0.74807137 0.025009615 0.2063603 13882323
0.75000006 0.024604158 0.2007816 13817300
0.74846148 0.034275435 0.20618056 14079959
0.75000006 0.03448033 0.20100109 13948886
0.74870354 0.045229174 0.20542394 13817044
0.75000006 0.043478616 0.20078158 13883094
0.74893337 0.055470172 0.20509806 14211544
0.7479642 0.065215223 0.20539413 14277080
0.74699986 0.074563444 0.20544326 14013908
0.74647218 0.084995165 0.20529659 14342616
0.74641669 0.095474593 0.20528096 14671581
0.74774998 0.104398 0.20564817 14803168
0.75600004 0.10997308 0.2088034 14408410
0.75700003 0.11011855 0.20376313 14606046
0.76175004 0.11259279 0.20415035 11974326
0.78620005 0.12172822 0.20572874 11382697
0.78866673 -0.16129468 0.21505712 9539465
0.76900005 -0.15097131 0.21689454 9539209
0.77337503 -0.15318976 0.21405381 9539209
0.78383332 -0.15847258 0.21465664 9539209
0.75464714 -0.14275485 0.21497232 14209999
0.76166672 -0.14774853 0.21482463 9341574
0.74635732 -0.13417549 0.21506098 13486791
0.75000006 -0.13846238 0.21065776 15065308
0.74336666 -0.12505785 0.21488367 14671579
0.74211115 -0.11529075 0.21452175 14803425
0.74222225 -0.10488096 0.21455595 14671581
0.74341655 -0.09460704 0.2149017 14605531
0.74406677 -0.085110702 0.21508817 14276824
0.74388885 -0.07551302 0.21503666 14408411
0.74313897 -0.064997472 0.21481895 14737120
0.74399996 -0.054622248 0.21506777 15197927
0.74500012 -0.045103345 0.21535677 15263719
0.74658066 -0.035444416 0.21477079 15066340
0.74755538 -0.025132077 0.21434478 14606044
0.74802762 -0.014643583 0.21447966 14079701
0.74686193 -0.0050650048 0.21465781 14211288
0.74597239 0.0046071131 0.21563607 14277081
0.74591678 0.015085165 0.21561988 14079702
0.74654841 0.025443181 0.21509893 13948116
0.74714279 0.035411291 0.21453944 14145752
0.7475276 0.044866946 0.2143365 14014423
0.74747205 0.055361714 0.21432038 13882323
0.7468518 0.064737312 0.21462844 14013651
0.74614298 0.074502058 0.21556102 13947601
0.74516702 0.084846102 0.21540457 14342360
0.74508363 0.095304161 0.21538092 14737634
0.74719995 0.10432135 0.2151188 14869219
0.75700003 0.11011855 0.21439604 14145237
0.76100004 0.11248193 0.21552894 11316396
0.78650004 0.12246732 0.21538702 11382699
0.79242855 0.12693436 0.2139595 11382441
0.78840005 -0.16216257 0.2251343 9407880
0.77415395 -0.15407903 0.22552356 9342087
0.78350002 -0.15932053 0.22465241 9408136
0.75516677 -0.14295831 0.22536016 14079185
0.76280004 -0.14796837 0.22496641 11250084
0.74617863 -0.13445462 0.22474395 13552330
0.74346679 -0.12507434 0.2253584 14737118
0.74286109 -0.11540553 0.22517569 14803165
0.74377769 -0.10510051 0.22545215 14606043
0.7439999 -0.094682604 0.22551881 14606043
0.74474078 -0.085380547 0.22525872 14277079
0.74440634 -0.075348437 0.22509789 14211286
0.74380559 -0.06505695 0.22546084 14145492
0.74386096 -0.054612283 0.22547728 14408411
0.74480003 -0.045091152 0.22488949 14868961
0.74594468 -0.035556048 0.22436158 14342618
0.74683326 -0.025108311 0.22462887 14408667
0.74661106 -0.014615756 0.22456105 13816273
0.74525827 -0.0049376083 0.2246879 14013909
0.7446391 0.0045988783 0.22571111 14013910
0.74481839 0.014825091 0.22536972 14079703
0.74551457 0.025673836 0.22435625 14013909
0.74643344 0.03519053 0.22450747 14211288
0.74652779 0.044806082 0.2245357 14211288
0.74602801 0.055254474 0.22438598 14145494
0.7456001 0.064823106 0.22425683 14145492
0.74503249 0.074338861 0.22479059 14013906
0.7441715 0.084857486 0.22544563 14211029
0.74487126 0.095137455 0.22507989 14672095
0.74724996 0.10323456 0.22431743 14935270
0.75280005 0.10739411 0.22554322 14671842
0.75833338 0.1103125 0.22365081 12829635
0.76000005 0.11055495 0.2294791 11382189
0.78750002 0.1219295 0.2248795 11382440
0.79088897 0.12615848 0.22491921 11316648
0.79311103 0.13373584 0.22503538 11316647
0.78811121 -0.16271885 0.23550646 9342343
0.79285711 -0.16732444 0.23449241 9342600
0.76660001 -0.15050012 0.23541141 9934484
0.77450007 -0.15477251 0.23476075 9276552
0.78233337 -0.15908329 0.2353041 9276551
0.75425005 -0.1428937 0.23502359 13816529
0.7610001 -0.14761923 0.23423289 12829377
0.74671441 -0.13411382 0.23483242 13487048
0.75000006 -0.13846238 0.23874997 13750480
0.74440002 -0.12523118 0.2352252 14671323
0.74400002 -0.11558321 0.23509827 15066339
0.74400002 -0.1051329 0.2350982 14803422
0.74400002 -0.094682604 0.23509818 14671835
0.74425 -0.084944308 0.23461623 14671065
0.74479443 -0.075810172 0.23473407 14474456
0.74460006 -0.06512589 0.2352892 14408663
0.74466687 -0.054671731 0.23531011 14079955
0.74513358 -0.045111883 0.23458485 14342873
0.74591696 -0.035555083 0.23483109 13882322
0.74633336 -0.02509235 0.23496097 13619149
0.74541694 -0.014592926 0.23467308 13290184
0.74432147 -0.0051740929 0.23463903 13553101
0.74400002 0.0045952895 0.23509821 13553358
0.74409097 0.015285257 0.23465128 13684944
0.7445004 0.025513614 0.23438327 13948116
0.74520028 0.035132699 0.23460364 14079702
0.74541694 0.044739589 0.2346718 14145495
0.74508357 0.055184912 0.23456801 14013909
0.74500018 0.064771488 0.23454227 14211541
0.74497247 0.074361004 0.23453328 14277078
0.74406457 0.084580794 0.23494968 14408665
0.74485743 0.095400177 0.23462075 14868961
0.74678576 0.10288936 0.23560293 14474459
0.75381827 0.1070925 0.23418756 13290184
0.75900006 0.11040948 0.23894973 11184036
0.76300007 0.11238685 0.23594509 11184807
0.77362508 0.1175195 0.2349468 11382441
0.77800006 0.1204586 0.23855676 11382442
0.78633332 0.12328652 0.23589207 11316647
0.79033333 0.12730227 0.2341662 11316647
0.79254836 0.13546243 0.23469494 11250854
0.78763634 -0.163013 0.24469556 9407880
0.79310006 -0.16777246 0.24504466 9342600
0.76660001 -0.15050012 0.24583125 12499896
0.77358335 -0.15474179 0.24474739 9275782
0.78000003 -0.15860882 0.24464798 9407623
0.75537503 -0.14299504 0.24488159 14079189
0.76116675 -0.14765154 0.24497972 13355206
0.7470476 -0.1334229 0.24505556 13553100
0.75050002 -0.13855469 0.24506019 13553357
0.74490011 -0.1253151 0.24497452 14539738
0.7439999 -0.11558321 0.24467762 15000800
0.7439999 -0.10513289 0.24467772 14934750
0.7439999 -0.094682612 0.24467768 14869214
0.74463338 -0.085174747 0.24488632 14868959
0.7450003 -0.075625226 0.24500653 14868959
0.7450003 -0.065160871 0.24500662 14803424
0.74505585 -0.054700274 0.2450251 15000547
0.74633342 -0.045378011 0.24496029 14803167
0.74709988 -0.035612088 0.24482319 14342871
0.74651617 -0.024959169 0.24480082 13487050
0.74547255 -0.014594017 0.24516243 12961220
0.74476695 -0.0049900734 0.24493067 13289929
0.7439999 0.0045952895 0.24467765 13421771
0.74347222 0.01503359 0.24450342 13290186
0.74349999 0.025479607 0.24451187 13553358
0.74403328 0.035077073 0.24468853 13882323
0.7443611 0.044676688 0.24479491 13816530
0.74438906 0.055133633 0.24480398 13816530
0.74432349 0.065327466 0.24498765 13948116
0.74415624 0.074823394 0.24451053 14145495
0.7439999 0.084714286 0.24467771 14408410
0.74416667 0.095186703 0.24473207 14868962
0.74518752 0.10295003 0.24462996 14211033
0.75500005 0.10806014 0.24034163 11381932
0.76600003 0.11412109 0.24114996 11381929
0.77349997 0.11765066 0.24442197 11250855
0.77666664 0.12025215 0.24451314 11316648
0.78466678 0.12608886 0.24472833 11316392
0.7884444 0.13335629 0.24534732 11185063
0.79008335 0.13774292 0.24380283 11250856
0.7926333 0.14499582 0.24470852 11250855
0.78740007 -0.16195688 0.25434461 9407624
0.76900005 -0.15097131 0.25289941 11183525
0.77392316 -0.15403284 0.25555903 9999506
0.78260005 -0.15913752 0.25462812 9407368
0.75572217 -0.14306194 0.25501591 14013137
0.76240003 -0.14789078 0.2551904 13618122
0.7472499 -0.13387537 0.2548573 13618634
0.75020003 -0.13849929 0.25461879 13881295
0.74531281 -0.12456707 0.25508723 14868445
0.74399996 -0.11503892 0.2553457 15263715
0.74397212 -0.10512907 0.25511825 15329509
0.74397212 -0.094679229 0.25511831 15263974
0.74400002 -0.085102923 0.25512758 15329512
0.74430537 -0.075553857 0.25523126 15329512
0.74452817 -0.065119408 0.25530741 15395305
0.74502802 -0.054698076 0.25548008 15592684
0.74658823 -0.04458081 0.25467706 15790063
0.74768734 -0.035092473 0.25485954 15066339
0.74714273 -0.025245242 0.25458175 14211030
0.74567658 -0.014393336 0.25544539 13750736
0.74483341 -0.0049902857 0.25541303 14013908
0.74402767 0.0045950385 0.25513729 14013652
0.74302781 0.015024601 0.25479349 13684944
0.74252784 0.025445612 0.25462198 13750737
0.74349993 0.035052869 0.25495517 13816530
0.7439999 0.044654787 0.255128 13948116
0.7439999 0.05510509 0.25512797 13750994
0.74397212 0.065552779 0.25511837 14013909
0.74353331 0.075087331 0.25496611 14079703
0.74283326 0.084581129 0.25472534 14474461
0.74386108 0.095148616 0.2550793 14540255
0.7452727 0.10222723 0.25516841 14671841
0.77600002 0.11772911 0.25187099 11316390
0.78500003 0.11970472 0.25724244 11316647
0.78605002 0.12575822 0.2547369 11316390
0.78866673 0.13277788 0.25311089 11250855
0.79056245 0.13663207 0.25629038 11119268
0.79221427 0.14511362 0.25530297 11119269
0.7928822 0.15497334 0.2554028 11053477
0.78900003 -0.162286 0.26501796 9276038
0.76840007 -0.1508535 0.26619101 13157568
0.77608347 -0.15494017 0.26521888 9736589
0.78580004 -0.15978822 0.26486379 9276294
0.75372225 -0.14268425 0.26492584 13816012
0.76116675 -0.14765155 0.26457599 12960446
0.74686664 -0.13439019 0.26485193 13618378
0.7444194 -0.12529166 0.26519129 14276566
0.74258339 -0.11536504 0.26506951 15066081
0.74255568 -0.1049284 0.26506078 15395045
0.74272227 -0.094520129 0.26512039 15263715
0.74233335 -0.08491306 0.26498106 15263973
0.7421667 -0.075336829 0.26492059 15395561
0.74305558 -0.064989179 0.26523817 15395305
0.74361098 -0.054593895 0.26543701 15527148
0.7446667 -0.044924263 0.26525852 15855857
0.74597317 -0.035675086 0.26469839 15329771
0.74602711 -0.024965221 0.26471743 14276825
0.74449992 -0.014758794 0.26543322 13948116
0.7434333 -0.0049809841 0.26537365 14342875
0.74291676 0.0045877858 0.26518852 14277082
0.74188876 0.015001923 0.2648226 14145752
0.74194455 0.0254265 0.26484358 14211289
0.74283332 0.035020657 0.26516056 14145752
0.74338889 0.044618502 0.26535842 14079702
0.74319446 0.055044804 0.26528868 14013909
0.7424444 0.065417618 0.26502007 13882324
0.7414192 0.075040825 0.2647942 14145495
0.73900002 0.082414962 0.26984856 14540253
0.74102843 0.084499955 0.26439229 14474461
0.74302769 0.095043771 0.26523072 14475233
0.74524999 0.10186851 0.26536787 14014169
0.78633338 0.11806721 0.26320651 11185063
0.79000002 0.11861777 0.26812792 11119270
0.78862506 0.12325809 0.26096919 11250854
0.79138893 0.12531054 0.26582289 11185061
0.78860009 -0.16220371 0.27503586 9144964
0.76560003 -0.15030381 0.27418336 12763068
0.7744 -0.15475288 0.27461398 9934226
0.78399998 -0.1594222 0.27434635 9079171
0.75342107 -0.1429994 0.275206 13289671
0.76080006 -0.14793813 0.27425057 12434103
0.74627602 -0.13416377 0.27497497 12960449
0.74289292 -0.1249178 0.27493256 14013650
0.74091649 -0.11510417 0.27488479 14342616
0.74111086 -0.10472423 0.27495623 14803167
0.73900002 -0.091451272 0.27763361 14605789
0.74092847 -0.095406972 0.27463889 14868960
0.73859268 -0.084741607 0.2766791 14539997
0.74050003 -0.08643683 0.27175775 14737374
0.73822248 -0.07493683 0.27561152 14934755
0.74000001 -0.07511767 0.27021369 15461098
0.7382859 -0.064820334 0.27674666 14935011
0.74064296 -0.064284064 0.27168635 15395562
0.73826092 -0.055065781 0.2767908 15132390
0.74106669 -0.054233417 0.27199036 15198183
0.73866671 -0.048178446 0.27837262 15461355
0.74164277 -0.044899024 0.27471691 15724527
0.74358535 -0.035337076 0.27512732 15198183
0.74351209 -0.025104903 0.27510038 14342617
0.73866671 -0.011289075 0.27866057 13948116
0.74181253 -0.014902222 0.27472514 13750737
0.73876923 -0.0053478084 0.27814496 14211289
0.74099994 -0.0049640597 0.27317917 14211290
0.73883337 0.0061484422 0.27800295 14277083
0.74080759 0.0041083135 0.2735092 14277083
0.73861116 0.013880493 0.27767882 13948375
0.74059099 0.015528124 0.27287138 14145497
0.73866665 0.026560891 0.27856472 13883095
0.74075854 0.025236044 0.27383813 14079961
0.73838884 0.035194606 0.27797908 14014168
0.74099994 0.034837797 0.27289012 14342875
0.73900002 0.041327167 0.2780661 14342876
0.74150002 0.044885237 0.27461094 14211290
0.74169439 0.054932669 0.27517131 14013910
0.73900008 0.066844843 0.27590361 13948117
0.74039996 0.063850909 0.27330521 13882581
0.7390002 0.075524732 0.27515799 14277082
0.74000007 0.075473323 0.2704612 14145496
0.73900014 0.084008396 0.27522078 14408669
0.74011105 0.087833092 0.27333403 14540511
0.74274987 0.094792105 0.27502087 14606306
0.74525005 0.10143074 0.27474979 11842744
0.78850007 0.11654665 0.27777183 10987431
0.79233336 0.11896812 0.27541232 11119269
0.78783339 -0.16204602 0.28491312 9079429
0.76700002 -0.15057865 0.28545955 12566459
0.77212501 -0.15339383 0.28510785 11118757
0.78216672 -0.15904942 0.28469452 9013637
0.75690001 -0.1432817 0.28400576 12237498
0.76212502 -0.14739412 0.28542727 11908533
0.74681258 -0.13317826 0.28395635 12763325
0.75266671 -0.13778222 0.28687963 11908017
0.74351853 -0.12514836 0.28471515 13289671
0.74189991 -0.11525677 0.28480431 13553101
0.74186653 -0.10483255 0.28479132 13947860
0.73900002 -0.091883771 0.28152612 14276824
0.74086362 -0.09554553 0.28503597 13882067
0.7385186 -0.085053585 0.28459322 14211288
0.74025005 -0.088573761 0.28893423 13882066
0.73773354 -0.074887261 0.28493044 14211286
0.73766685 -0.064520091 0.284904 14605788
0.73630017 -0.054919716 0.28523743 14606047
0.73753679 -0.045408268 0.28497615 15329768
0.73805898 -0.03538385 0.2861698 14934753
0.74062514 -0.034436427 0.28127789 14935011
0.7383045 -0.025460647 0.28702697 14211289
0.74056256 -0.024465026 0.28233734 14013910
0.73738909 -0.014197033 0.28532052 13817044
0.74000001 -0.018238736 0.28118527 13882323
0.73665637 -0.0047723316 0.28499368 14014166
0.73712522 0.0043800301 0.28494814 14145496
0.73736858 0.015094886 0.28532994 13751251
0.73775017 0.025108075 0.28519195 13751252
0.73722863 0.035496674 0.28547314 13817302
0.73882616 0.044457592 0.2852757 14014424
0.74028575 0.047774162 0.2824485 14013911
0.73900002 0.050986405 0.288302 13487567
0.74078774 0.05520856 0.28490016 13816532
0.73899996 0.066628598 0.28130987 13684946
0.74046415 0.064810559 0.28604752 13684946
0.73899996 0.074802898 0.28092059 14145497
0.74037486 0.075562946 0.28631184 13882068
0.73899996 0.083774254 0.28097007 14408669
0.74058324 0.084975369 0.28632015 14408669
0.74350011 0.095310889 0.28480172 14474719
0.74800003 0.10180502 0.28189036 10592675
0.78900003 0.11846761 0.28995332 10856096
0.79037499 0.11774937 0.28583187 10987941
0.79217249 0.12463737 0.28472045 11053475
0.78833342 -0.16122651 0.2952452 9013637
0.77540004 -0.15222964 0.29475862 9079178
0.78475004 -0.15773818 0.29619876 9079176
0.75900006 -0.14012393 0.29136628 10657439
0.76383334 -0.14310442 0.29381868 11118505
0.77250004 -0.14804097 0.29655224 9408144
0.74900001 -0.13126406 0.29103431 11710127
0.75555563 -0.13379051 0.29495782 11579056
0.76125002 -0.13742283 0.29757634 10657954
0.74656254 -0.12428439 0.29347524 12895427
0.75133342 -0.12522739 0.29838893 12435649
0.74582607 -0.11484092 0.29443657 12566720
0.74503458 -0.10513005 0.29460904 12698563
0.74384379 -0.094664015 0.29512843 12763844
0.73900002 -0.081647873 0.29118535 14079703
0.74190909 -0.085261002 0.29562381 13027015
0.73888898 -0.074524969 0.292391 13487565
0.74091673 -0.075932831 0.29728967 13158344
0.73850012 -0.064592741 0.29300645 13816528
0.74100012 -0.064812578 0.29833397 13158602
0.73740011 -0.055003542 0.29429609 14079447
0.74000001 -0.051730897 0.29966369 13553360
0.73603034 -0.045188472 0.29508004 14869220
0.73597229 -0.03508139 0.29544818 14474461
0.73615402 -0.02454933 0.29505372 13816788
0.73575687 -0.014520213 0.29519698 13619410
0.73470014 -0.0049227909 0.29493684 13750740
0.7346943 0.0045386264 0.29493469 13684947
0.73584855 0.014647464 0.29500753 13290445
0.73673344 0.025247272 0.29489371 13225166
0.7374841 0.035771757 0.295026 13554130
0.73830026 0.045177177 0.29465559 13488337
0.73899996 0.051178627 0.29368427 13356750
0.74047828 0.055938385 0.29526016 13553872
0.7416333 0.065347925 0.29511863 13290701
0.74224007 0.074957579 0.2953614 13224396
0.74280626 0.084718958 0.29541862 13619411
0.74422228 0.095195435 0.29527676 14211290
0.74733335 0.10171428 0.29475975 13158602
0.75700003 0.10480209 0.29237068 10592675
0.76200002 0.10727817 0.29340985 10790305
0.77300006 0.11063641 0.29372466 10921891
0.78715384 0.11663561 0.29564747 10856097
0.78900003 0.12031468 0.2954945 10987682
0.79084623 0.12423027 0.29469091 10921889
0.78650004 -0.15425672 0.3043786 8881798
0.79150003 -0.15786026 0.30816707 8947590
0.77500004 -0.14307982 0.30499527 8881799
0.78225005 -0.14807703 0.30670533 8816005
0.76400006 -0.13363436 0.30376711 10395040
0.77174997 -0.13750955 0.30710202 9407887
0.7571429 -0.12509419 0.30280894 11514804
0.76179999 -0.12637657 0.30635196 11317169
0.75488883 -0.11580285 0.30314282 11579827
0.76180005 -0.11567952 0.30849165 11119533
0.74766666 -0.10302714 0.30101803 11579570
0.75450003 -0.10573846 0.30509537 11645363
0.76100004 -0.10664438 0.30994919 11513777
0.74783343 -0.095168293 0.30225328 11119019
0.75600004 -0.095912039 0.30762011 11053997
0.74600005 -0.085334733 0.30209345 12500672
0.75266671 -0.085219346 0.30655509 12303036
0.74500006 -0.075625226 0.30168846 12894916
0.75050002 -0.074424841 0.30567265 12105400
0.74622226 -0.064391702 0.3027676 13355981
0.75100005 -0.067444935 0.30587626 13355724
0.74456257 -0.054230072 0.30369338 12829637
0.75250006 -0.058772147 0.30824882 12829637
0.73750007 -0.043573264 0.30253595 13684946
0.74274999 -0.046273097 0.30621347 13553360
0.73566663 -0.035068806 0.30307639 13948118
0.74199998 -0.034504104 0.30915877 13882324
0.73577267 -0.024736611 0.30374825 13355980
0.74000001 -0.024879422 0.30832547 13553358
0.7362594 -0.014252674 0.30466419 13027528
0.73614281 -0.0050958376 0.30434212 13027529
0.73641175 0.0042963484 0.30328295 12961480
0.74250007 0.00458739 0.30907801 12501187
0.73786664 0.015441892 0.30260053 12567237
0.74166673 0.014998409 0.30728367 12435651
0.73846155 0.024972955 0.30183393 12369858
0.74109083 0.025790988 0.30625769 12304064
0.73859996 0.034821235 0.30169085 13027529
0.74300009 0.034836754 0.30706486 12500929
0.73900002 0.042105671 0.30168074 12633798
0.74210531 0.045133222 0.30536687 12370369
0.74228579 0.055228613 0.30431572 12830406
0.74445844 0.064725265 0.30452213 13093321
0.7452175 0.074574411 0.30450934 12830149
0.7452085 0.084852606 0.30439183 12895944
0.74599999 0.094438501 0.30384228 13619155
0.75100005 0.096063472 0.30851227 12698052
0.74800003 0.10092831 0.30290565 12566466
0.78583336 0.1152356 0.3032001 10790303
0.79125005 0.1183431 0.30699053 10790303
0.78900003 -0.1512036 0.31211805 8947591
0.79309529 -0.15579425 0.31550711 9079688
0.78691673 -0.14512701 0.31528631 9079432
0.79049999 -0.14825344 0.31826314 9277066
0.77600002 -0.13448398 0.31303123 9342865
0.78280008 -0.13682054 0.3173641 9210762
0.76833338 -0.12386176 0.31113732 11053997
0.77457148 -0.1248628 0.31547943 10198945
0.78100002 -0.1240738 0.31992337 8619655
0.76600003 -0.11272628 0.31198564 11053739
0.77325004 -0.11560271 0.3162975 9738136
0.76300001 -0.10871084 0.31076378 11447984
0.773 -0.10832602 0.31755459 9342606
0.76344448 -0.094476014 0.3133308 11053225
0.77100003 -0.097216204 0.31763196 10000532
0.75900006 -0.084153697 0.31091145 11118762
0.76380002 -0.085225493 0.31466573 11316398
0.77200001 -0.083787799 0.31985119 9013386
0.75860006 -0.074340515 0.31074759 11776694
0.76333332 -0.076591976 0.31447348 10724006
0.77200001 -0.078365996 0.31985119 9013386
0.75800002 -0.065856621 0.31050181 12237500
0.76440001 -0.064166442 0.3156321 11579571
0.77100009 -0.066534042 0.31943688 11184555
0.75660002 -0.055371892 0.31240934 12434880
0.76260006 -0.055098392 0.31702834 11119021
0.74700004 -0.042603344 0.3112421 14013911
0.75200003 -0.045527998 0.31332538 12632258
0.74466676 -0.035211947 0.3114318 13355979
0.74533337 -0.025153156 0.31287515 13027015
0.75200003 -0.020881759 0.31684625 13421774
0.74614292 -0.014230818 0.31363264 12500670
0.75050008 -0.018205291 0.31621426 12105912
0.74514294 -0.0052409642 0.31296211 12172219
0.75000006 -0.0023907062 0.31600359 12171707
0.74657142 0.0052385638 0.31256208 11711927
0.75625002 0.0055643423 0.31863695 11447986
0.74616671 0.015091945 0.31089488 11777464
0.75442857 0.014627255 0.3163572 11514549
0.74700004 0.024724334 0.31124207 11777720
0.75600004 0.02502409 0.31676179 10791082
0.7486667 0.031790845 0.3119365 12172220
0.75550002 0.035391305 0.31589302 11513520
0.74900001 0.049338445 0.31207538 12173762
0.75250006 0.045170229 0.31382987 10922667
0.76000005 0.04294635 0.31843778 10724518
0.74849999 0.053686142 0.31186706 12173504
0.75683337 0.055755764 0.31681833 11317682
0.74900001 0.066872671 0.31032196 11382191
0.755 0.064757451 0.31457797 11842742
0.76066667 0.064353608 0.31871709 11250861
0.7547273 0.074928485 0.3135021 12237500
0.76233339 0.076985501 0.31941542 12500672
0.74900001 0.083822422 0.31032196 11975096
0.75550002 0.084694028 0.31434473 12106426
0.76174998 0.084953554 0.31917101 11843510
0.75662506 0.094568215 0.31303924 12500929
0.76100004 0.093777195 0.31707525 11645106
0.75700003 0.10125779 0.31009218 13224395
0.76300001 0.10206036 0.31433615 13224395
0.78900003 0.11477349 0.31673571 10658719
0.78900003 -0.14196829 0.32135338 9539981
0.79184222 -0.14482279 0.32534227 9606030
0.78800005 -0.13482019 0.32279158 9277323
0.79111111 -0.1353519 0.32735848 9540237
0.7868889 -0.12500751 0.32418063 8948617
0.79100001 -0.12543041 0.32888141 9606031
0.77866673 -0.11276666 0.32079041 8553347
0.78575003 -0.11562967 0.32509035 9079688
0.7906 -0.11449312 0.32940829 9408652
0.77800006 -0.10174146 0.32233709 8618879
0.78542864 -0.10481081 0.32646936 9145480
0.79000002 -0.10885895 0.32915828 9211273
0.77544451 -0.094147772 0.32188514 8487295
0.78500003 -0.095304206 0.32817903 9145223
0.77566671 -0.085697658 0.32288462 8289662
0.78500003 -0.08519873 0.32891271 9079430
0.77530009 -0.074345641 0.32230961 9013385
0.78659999 -0.075243503 0.32958311 8816260
0.77540004 -0.065100692 0.32307512 9671317
0.78366667 -0.064882256 0.32835403 8553092
0.76900005 -0.05195795 0.32220876 11316398
0.77428579 -0.055419933 0.32442579 10790056
0.78200006 -0.054666977 0.3294864 8618887
0.77450001 -0.042357996 0.32813948 11710897
0.75900006 -0.021076137 0.32157245 12303293
0.77125001 -0.025933295 0.32856804 11842740
0.75800002 -0.013952276 0.32114875 10856360
0.76650006 -0.016797254 0.32654443 10855847
0.75819999 -0.0050769434 0.32123348 11119530
0.76600003 -0.0015450979 0.32633144 8553090
0.75900006 0.00024585446 0.32157245 10724002
0.76333332 0.0035176603 0.32400766 9408142
0.77149999 0.0065741637 0.32867453 8618626
0.76462507 0.015459904 0.32328847 10658724
0.77400005 0.014746296 0.3297396 8487297
0.76100004 0.024296951 0.3206383 10462373
0.77400005 0.021088116 0.3297396 7961210
0.76666665 0.037939508 0.32302588 10132122
0.77320004 0.034644224 0.32758865 9079435
0.76766664 0.043380354 0.3234472 10001050
0.77416676 0.044652853 0.32799825 9211534
0.76600003 0.055837937 0.322745 10594215
0.77400005 0.050985258 0.32792762 8488069
0.77414286 0.066268809 0.32747212 10527395
0.76450002 0.072731405 0.32032329 11447727
0.7736364 0.074997395 0.32678819 10329759
0.77525002 0.08373709 0.32845724 10396319
0.76600003 0.091702335 0.32095176 11579568
0.77580005 0.095418371 0.32687598 10921893
0.77500004 0.10003693 0.32472274 12303034
0.78450006 0.10555466 0.32778284 10921637
0.78900003 0.11107937 0.32689455 10658719
0.78866673 -0.095750473 0.3310647 9145480
0.78900003 -0.085632861 0.33243576 9079687
0.7923125 -0.08483468 0.33731019 9211530
0.79133338 -0.074771926 0.33619833 9079944
