# .PCD v0.7 - Point Cloud Data file format
VERSION 0.7
FIELDS x y z rgb
SIZE 4 4 4 4
TYPE F F F U
COUNT 1 1 1 1
WIDTH 765
HEIGHT 1
VIEWPOINT 0 0 0 1 0 0 0
POINTS 765
DATA ascii
0.46033335 -0.13060533 -0.041331168 13026491
0.45862508 -0.12298694 -0.042094804 12369075
0.46009094 -0.12704463 -0.042418737 12828342
0.45430002 -0.11668801 -0.04208428 12499118
0.44472983 -0.10374819 -0.042873934 12565687
0.43846881 -0.093011163 -0.044125605 12696495
0.44107997 -0.097458668 -0.043347098 12499633
0.42900002 -0.080204777 -0.040191237 12499643
0.43296725 -0.085012019 -0.043872524 12958642
0.42726675 -0.07410147 -0.044115141 12894136
0.42999998 -0.078546233 -0.045737546 12300971
0.41800001 -0.061677232 -0.040465813 14078415
0.42344296 -0.065578125 -0.044703465 12959927
0.41763997 -0.053404182 -0.04229689 14012875
0.42076325 -0.056063168 -0.045511939 13419449
0.4176389 -0.046385501 -0.04241509 14210253
0.42110538 -0.042900324 -0.045057427 13749958
0.41875002 -0.038585383 -0.04021126 14408149
0.42248449 -0.034921173 -0.043866195 13750218
0.42647919 -0.025686361 -0.042638365 13355714
0.43133333 -0.01789486 -0.041216083 13355201
0.46064284 -0.13095132 -0.036839325 12169640
0.4565239 -0.12418654 -0.036491327 12104878
0.46000001 -0.12894057 -0.037038118 12366763
0.43700004 -0.1113705 -0.030710477 12302768
0.44770595 -0.11366454 -0.034981873 12302514
0.45233339 -0.11699456 -0.037586853 11841192
0.42800003 -0.10105889 -0.030077996 13814721
0.43524998 -0.10352486 -0.031868614 13223100
0.44465309 -0.1051897 -0.036794357 12434616
0.42640004 -0.090897046 -0.031764861 13222328
0.4352001 -0.093508393 -0.036644477 12236462
0.44028574 -0.098659039 -0.037568133 12630967
0.41900003 -0.080296971 -0.031407285 12696760
0.42625001 -0.084014438 -0.0348121 12499377
0.43125001 -0.087064497 -0.037543159 12301999
0.41691998 -0.074549802 -0.032153413 12893880
0.42294231 -0.075609788 -0.036735401 12630450
0.40900001 -0.063060962 -0.030657709 12366762
0.4149546 -0.065288819 -0.035102837 12894396
0.42050004 -0.068280049 -0.038902905 12498860
0.40849999 -0.054377109 -0.031098971 14144205
0.41286078 -0.05468959 -0.036240388 13815240
0.40862498 -0.046022423 -0.03098866 14210513
0.41301227 -0.044944432 -0.035789918 14276050
0.41523334 -0.03504926 -0.034903854 14736601
0.42050001 -0.031527624 -0.039066777 14869987
0.4170571 -0.027087336 -0.03229652 13817298
0.42312697 -0.024179317 -0.036234908 13948112
0.42682609 -0.018366981 -0.033390079 14080213
0.43368754 -0.014076082 -0.035854939 13355718
0.43900001 -0.0091071613 -0.035989564 12961215
0.44033337 -0.0084473435 -0.035411391 13092801
0.44137502 -0.14076935 -0.022363776 11709095
0.43865716 -0.13262312 -0.023932168 12959417
0.44006652 -0.13732125 -0.023989627 12630711
0.43525341 -0.12485225 -0.024447557 12762042
0.42885709 -0.11087082 -0.023396939 12630715
0.43155181 -0.11573289 -0.02392043 12368824
0.42608207 -0.10483477 -0.024614036 13025469
0.43050003 -0.10870443 -0.028741973 12435388
0.41872731 -0.091294959 -0.023011111 12301234
0.42144004 -0.095713109 -0.025252271 12631998
0.41557649 -0.084710181 -0.024159813 12959162
0.42087504 -0.087923996 -0.029208278 13288637
0.40844002 -0.071963377 -0.022508135 13552325
0.41211605 -0.075792827 -0.025611151 12631482
0.40666673 -0.064808078 -0.024905788 13486277
0.4106667 -0.068285182 -0.029341353 13092804
0.40499967 -0.054778222 -0.025112299 13946826
0.40426922 -0.045195494 -0.024936112 14210513
0.40610474 -0.035580467 -0.024346301 14604758
0.41122732 -0.0329457 -0.028681779 14013389
0.40823072 -0.026882032 -0.021521943 14209486
0.41307795 -0.024553202 -0.025522005 13882064
0.42100003 -0.02056057 -0.029586066 14607586
0.41559467 -0.016581137 -0.022583013 13750475
0.42265725 -0.013517514 -0.025810681 13816265
0.43000001 -0.011437049 -0.029211909 13882317
0.42275 -0.0089557227 -0.023285002 13291462
0.43375003 -0.0092475675 -0.029215004 13816779
0.43889749 -0.13245419 -0.016379697 12827829
0.44006884 -0.13499248 -0.013731777 12629681
0.43658337 -0.12484775 -0.014688901 12236208
0.42900002 -0.11033368 -0.018598858 12630711
0.4319047 -0.11503698 -0.014727005 12564399
0.42649987 -0.10431409 -0.015313875 12170929
0.43000004 -0.10924868 -0.012099068 12564140
0.41900012 -0.091086738 -0.01522266 12827310
0.42162326 -0.095653355 -0.015251702 12564912
0.41554549 -0.084952198 -0.015141667 12169898
0.40806389 -0.072389752 -0.015080637 12696498
0.41125003 -0.077369675 -0.014941098 12039599
0.40506452 -0.06476061 -0.015104115 13091770
0.40268192 -0.055022113 -0.015104474 13683134
0.40135589 -0.044969469 -0.015054867 13946822
0.40316519 -0.034783877 -0.015123555 14407119
0.40686613 -0.025312062 -0.01469173 14144462
0.41057149 -0.020737184 -0.018417938 14474975
0.40899998 -0.019495782 -0.011867236 13422276
0.41417986 -0.014864244 -0.01507939 13685194
0.42000002 -0.010679457 -0.018208673 14538966
0.41837505 -0.0090459529 -0.011895167 13554119
0.42232203 -0.0064061093 -0.016024014 13422281
0.43000001 -0.00086735265 -0.012703051 13751502
0.43425003 0.0025407905 -0.013078624 12895937
0.4419091 0.0079523539 -0.012151321 12961215
0.44733334 0.012367356 -0.010842725 12763836
0.45233336 0.014974527 -0.010609628 12961216
0.49444449 0.028004358 -0.015907696 11711148
0.49497622 0.033214334 -0.013900016 11842734
0.44241074 -0.13327773 -0.0043392796 11578535
0.4378545 -0.12321937 -0.0051614107 11775655
0.4403666 -0.12806828 -0.0041075344 11842218
0.43311244 -0.11494856 -0.0045787762 11775656
0.42687145 -0.10358237 -0.0049012997 11906982
0.43004352 -0.10889503 -0.004089735 11710376
0.41900012 -0.090483114 -0.0056024268 12300973
0.42218077 -0.095453948 -0.004996405 11972775
0.41498893 -0.085026115 -0.0047491645 11906726
0.40767124 -0.073370956 -0.0044278065 12038825
0.41091177 -0.078578405 -0.0056509739 11907238
0.40414661 -0.064723186 -0.0047946749 12499633
0.39891669 -0.051311731 -0.0011855945 13222329
0.4008992 -0.055217728 -0.0050935228 13025462
0.3983922 -0.044985127 -0.0018667042 13288634
0.40005863 -0.044700075 -0.0069460669 13748671
0.39872229 -0.037776873 -0.0010555942 13617858
0.40073484 -0.034405369 -0.0054308134 13881288
0.40415365 -0.025242563 -0.0046432791 13421255
0.4079797 -0.018207381 -0.0043484438 13223360
0.41219449 -0.013195363 -0.0051535047 13355206
0.41687503 -0.0079339193 -0.0044935811 13421510
0.42316681 -0.0036778776 -0.00538381 13224387
0.43000001 -0.00086735259 -0.0075691976 13422537
0.42900002 0.00013896122 -1.936998e-05 13620174
0.43438774 0.0030375961 -0.0055912845 12633538
0.44187501 0.008292947 -0.0064848196 12830146
0.44784614 0.011679441 -0.0071945409 12961473
0.45574415 0.016138356 -0.0054259878 12698045
0.4605 0.019284645 -0.0021762843 13224388
0.46352553 0.023976468 -0.0038215918 12829633
0.47000003 0.029859759 -2.1221191e-05 14539996
0.47600001 0.033583924 -2.14921e-05 11512488
0.49500003 0.033765655 -0.0092927814 11842734
0.44397926 -0.13320006 0.0046125357 12039857
0.43867746 -0.12233105 0.0047837361 12367536
0.44121951 -0.12710892 0.00539668 11775655
0.43461549 -0.11499631 0.0051860502 12170413
0.42689794 -0.10280212 0.0052016252 11316391
0.43034488 -0.10790124 0.0048440746 11579561
0.41868758 -0.091447927 0.0064123105 12433324
0.42221877 -0.096009672 0.0051543312 11710119
0.41458338 -0.085402235 0.0051909364 11972519
0.40682948 -0.073976912 0.0055344692 12039339
0.41016671 -0.079564355 0.0062218537 11447461
0.40280455 -0.065147974 0.0051273433 12104873
0.3978481 -0.053799465 0.0056737335 12827571
0.40010336 -0.058265969 0.0033081176 12629674
0.3964605 -0.044986285 0.005156734 13420477
0.39729974 -0.035583448 0.0054182564 13683908
0.40000004 -0.031708278 0.0018547537 14802132
0.3985264 -0.028447961 0.0076412 14144978
0.40114293 -0.024506884 0.0046124985 13552325
0.40625384 -0.01646591 0.0061538722 13486787
0.41139394 -0.01191795 0.0040357132 13487304
0.41565523 -0.0071893171 0.0055821585 13223103
0.42210007 -0.0024033948 0.0050180522 13027013
0.42636368 0.0009111751 0.0060560093 12764610
0.43519151 0.0056182519 0.0048165447 12370107
0.44028574 0.0092719179 0.0042487993 12764866
0.44465226 0.012281905 0.0066326903 12237752
0.45565516 0.017442388 0.0058970363 12237753
0.46033335 0.019546786 0.0021337322 13158596
0.45900002 0.020994509 0.0087903989 11580335
0.46349999 0.023922525 0.0048595332 12961476
0.47100002 0.029096328 0.0049428623 13421513
0.4765 0.03163084 0.0057151504 13618892
0.48240548 0.036209457 0.0059933695 11380903
0.48675004 0.041749362 0.0085239094 15132386
0.44370741 -0.13235815 0.015107565 12170159
0.4390001 -0.12178121 0.014508217 12302512
0.4415001 -0.12656179 0.015109702 11447976
0.4347848 -0.11541431 0.014769914 11841961
0.42632785 -0.10318984 0.015423522 11578276
0.43032265 -0.10852959 0.013985218 11709863
0.41809678 -0.091933578 0.01529304 11184547
0.42148983 -0.096605301 0.015183829 11381668
0.41358888 -0.085082293 0.014987039 11316646
0.40673968 -0.07501176 0.015064742 11381154
0.39852184 -0.061324265 0.016367707 11907236
0.40155181 -0.066111863 0.014630964 12104617
0.39639986 -0.055090595 0.014826905 12367531
0.39462808 -0.045143329 0.014756689 12828856
0.39472738 -0.034982946 0.014760295 13092285
0.39689776 -0.025749693 0.015432413 13355714
0.40017393 -0.021742504 0.012445003 13157823
0.39900002 -0.019486146 0.019597374 13421772
0.40433049 -0.015036443 0.015152988 13355717
0.41000003 -0.010425185 0.011019388 13552835
0.40871429 -0.0091621196 0.017613426 13619144
0.41427791 -0.0057656947 0.01523007 13289410
0.421 -0.0013413978 0.013961113 12895425
0.42564711 0.0016091361 0.014568491 12500923
0.43394554 0.0069098938 0.014845359 12895680
0.43869239 0.010886293 0.016173733 13158852
0.44429728 0.013985344 0.015024269 12303287
0.45275003 0.018432463 0.015078773 12566459
0.4575769 0.021533148 0.014806806 13027267
0.4642632 0.025899798 0.015595597 12961217
0.47055557 0.029405782 0.014420494 13092546
0.47604346 0.033473045 0.015650503 12960959
0.48183998 0.037428737 0.012831929 13027266
0.48590001 0.042019241 0.012822526 14737370
0.44521737 -0.13340443 0.024859115 11972776
0.43890917 -0.12175612 0.025526648 12434101
0.44218194 -0.12667854 0.024936056 12104622
0.43386251 -0.11515208 0.024862681 12104106
0.42626753 -0.10455023 0.0252073 11709604
0.42999998 -0.10941645 0.023972116 12235694
0.4172979 -0.092549019 0.025109649 11315875
0.42119059 -0.09776295 0.024982609 11643554
0.40900001 -0.080678523 0.028897319 11316393
0.41261962 -0.084994629 0.024768803 11381928
0.40589887 -0.075095281 0.024479719 11579046
0.39753458 -0.062579967 0.025715489 11842474
0.40066662 -0.067522988 0.024621852 11972515
0.39400965 -0.054634184 0.024917509 12369074
0.3918758 -0.044827152 0.024748238 12764863
0.39197508 -0.034740087 0.024754493 13159106
0.39435554 -0.0247899 0.024901845 13158595
0.39765003 -0.017859224 0.026392654 13159625
0.40237659 -0.01346432 0.024579208 13158597
0.40711114 -0.0077860234 0.025390819 13158084
0.413434 -0.0032190816 0.023993637 12698562
0.4168947 0.0009062207 0.026226575 12830146
0.42369235 0.0029675327 0.022869904 12566972
0.43316674 0.0076939315 0.023867346 12632508
0.43711436 0.011810093 0.02567534 12830401
0.44429731 0.016092705 0.024882488 12632510
0.45100001 0.018849149 0.021696594 12369337
0.44900003 0.020116664 0.028885448 12171703
0.45529416 0.022537524 0.025584945 12764868
0.46440005 0.027586019 0.024730554 13158856
0.46900001 0.031443138 0.028525196 15000285
0.47430196 0.034733038 0.024441034 12566202
0.48000002 0.039484587 0.023013944 14869471
0.48340914 0.042703949 0.026985435 15264228
0.49400005 0.046804801 0.025034392 15724523
0.4438045 -0.13268548 0.035008617 11973291
0.43864289 -0.12201966 0.035076909 12301742
0.44147921 -0.12704708 0.034793492 11973805
0.4329626 -0.11491203 0.034947328 11775141
0.4265326 -0.10507736 0.035342209 11512741
0.42999998 -0.10958422 0.031186352 12301486
0.41701853 -0.092612162 0.035015978 11249825
0.42130783 -0.098039709 0.034880035 11511710
0.40842313 -0.080991998 0.035320934 11249571
0.41260603 -0.086175971 0.034899388 11315878
0.40367353 -0.074538112 0.034992151 10789016
0.39693058 -0.063721836 0.035278711 11315616
0.40008 -0.06850417 0.034447804 11643296
0.39243221 -0.054887041 0.03522848 11908012
0.38876927 -0.044068344 0.037523717 12566455
0.39043283 -0.045316186 0.032626014 12106421
0.38830006 -0.035497312 0.036601946 12830141
0.39033341 -0.033898871 0.03155046 12237235
0.38879997 -0.028681109 0.037890904 12500151
0.39182389 -0.024192583 0.034443729 12829372
0.39560434 -0.015831346 0.035444058 13158593
0.40091306 -0.011131554 0.032950349 13290696
0.40501288 -0.0059829792 0.035359204 13158598
0.41176188 -0.0017010889 0.033211164 12237754
0.41530308 0.0015237413 0.034148268 12961217
0.42310005 0.0056905295 0.034885827 12303800
0.43076923 0.0088281333 0.033179067 12501436
0.43537501 0.012835239 0.035214048 12303543
0.4425405 0.01812331 0.034584951 12829630
0.4471539 0.022130152 0.036373187 12763839
0.45533335 0.025913905 0.035445213 12829377
0.46293339 0.028761407 0.033567555 13158340
0.46670589 0.03235374 0.035899505 13487563
0.47285721 0.036952015 0.034340613 12237492
0.47737038 0.041878417 0.036314342 15395299
0.48083791 0.045548722 0.034569871 14606042
0.4835 0.051657841 0.039594047 11974577
0.44287503 -0.13256554 0.045078006 12104364
0.43789122 -0.12267412 0.045392409 12301997
0.44066662 -0.12749171 0.044367101 11776169
0.42861536 -0.1106981 0.046521526 11380124
0.43228361 -0.11532503 0.044641308 11578531
0.42493582 -0.10477043 0.045214269 11249568
0.41678578 -0.093607053 0.044618707 11446177
0.42065397 -0.098491721 0.044408396 11708833
0.40821427 -0.081848875 0.043973055 11250598
0.41226003 -0.087174483 0.044628285 11316648
0.40287498 -0.074671678 0.045150153 11183003
0.39617231 -0.064365551 0.045273595 11315874
0.40000007 -0.068909176 0.042886414 11512992
0.38884372 -0.05201694 0.046491459 12236976
0.3914625 -0.056409962 0.04425548 11645095
0.38732305 -0.045324534 0.045055371 12433325
0.38571894 -0.035090961 0.045126464 12895679
0.38736209 -0.025588389 0.045418292 12895678
0.39058825 -0.021763101 0.041289628 13157564
0.38882351 -0.018774608 0.048171062 13093059
0.39332449 -0.014349761 0.044738781 13027011
0.39760008 -0.008153731 0.046175558 12895167
0.40329328 -0.0038856477 0.044415802 12698044
0.40828007 0.0008211644 0.045628417 12895682
0.41426155 0.0052764681 0.04523202 12239036
0.42300004 0.0083095115 0.040829323 11777968
0.42866668 0.012181051 0.046476383 12830145
0.43567798 0.01620999 0.045145188 12698301
0.44087502 0.019108567 0.041391827 12434870
0.43900001 0.020696336 0.048796259 10855845
0.44497237 0.023418797 0.044885118 13027009
0.45295843 0.028028928 0.045307022 12895427
0.45758823 0.03134077 0.046352014 14014165
0.46475446 0.035395145 0.044792555 12368824
0.47055557 0.039197739 0.042939559 12565686
0.46900001 0.040775601 0.04938601 14737626
0.47491083 0.043997038 0.045356221 15461093
0.4808889 0.04843979 0.042881738 14737628
0.48205879 0.051602781 0.044845641 12040114
0.44172919 -0.13319197 0.05562669 12103849
0.43719631 -0.12403512 0.055136152 11775399
0.44020829 -0.12893236 0.054597538 11973292
0.42840001 -0.11166442 0.054857776 12038312
0.43179312 -0.11670469 0.054930735 11644329
0.42370763 -0.10491735 0.055157047 11513256
0.41619742 -0.094498493 0.055206072 11380124
0.42022225 -0.099113144 0.053429849 10722709
0.40737051 -0.082964525 0.05548685 11052706
0.4115814 -0.087952383 0.054160196 11315876
0.39843753 -0.071401767 0.057286181 10853265
0.40260962 -0.075889625 0.054598559 11446432
0.39474991 -0.065035179 0.054960314 11315616
0.38822371 -0.053414959 0.055419236 11776167
0.39067575 -0.058086406 0.053964969 11183516
0.38495955 -0.044854175 0.055081584 12235430
0.38330385 -0.035002071 0.055039775 12368306
0.38409349 -0.025145227 0.055118624 12698045
0.38705319 -0.016100818 0.055895396 13223877
0.39123079 -0.012306511 0.052466784 13158854
0.39538464 -0.0062194788 0.055928219 13027010
0.40159091 -0.0017909351 0.053092767 12698559
0.40586215 0.0021029266 0.055899393 12633026
0.41426575 0.0070972177 0.054515861 12501437
0.4176667 0.011217085 0.056853641 12633023
0.4234286 0.014213922 0.05653118 12698558
0.43286118 0.017821139 0.054411337 12895424
0.43703711 0.021705462 0.055675857 12895168
0.4439815 0.026330398 0.054505605 13092804
0.45200002 0.029774336 0.05077032 14145238
0.44885716 0.031218732 0.058823228 13158853
0.45596159 0.034949318 0.056054898 13618891
0.46213639 0.037820823 0.052690446 11842223
0.45900002 0.040980715 0.059078276 13024957
0.46526232 0.044310745 0.05601811 14210511
0.47216678 0.047178824 0.052201226 15921386
0.46620002 0.051228277 0.05836441 14868701
0.47528574 0.050699878 0.051952813 14605273
0.43900007 -0.13140428 0.06883654 12630963
0.44054899 -0.13385084 0.064627998 12105136
0.43633756 -0.12487327 0.065111361 12104364
0.44000003 -0.12964351 0.061783012 12763068
0.4268401 -0.11275928 0.065686412 12038314
0.43079996 -0.11754087 0.064263485 11446690
0.41862503 -0.10105051 0.067600816 12958902
0.42235443 -0.10536521 0.064757712 11446433
0.41461292 -0.094936095 0.06500794 11577762
0.40666306 -0.084135197 0.065204963 10987171
0.41027272 -0.089014992 0.063719302 11578793
0.39755821 -0.071991138 0.065409303 10920859
0.40161824 -0.076936096 0.064732797 10855839
0.38900003 -0.060887951 0.068281643 12499897
0.39306992 -0.0651353 0.064631082 11184032
0.38717395 -0.054889765 0.065143548 11775911
0.39000002 -0.059218481 0.061609689 11051932
0.38266402 -0.044724271 0.06500233 12366759
0.37899998 -0.032212418 0.068990894 12960955
0.38074127 -0.034822505 0.064704366 12301999
0.37900001 -0.028490912 0.068966247 12566711
0.381248 -0.024634989 0.064814225 12566201
0.38396147 -0.015194945 0.064982124 12894912
0.3876279 -0.0083558941 0.066199549 12829891
0.39358971 -0.0036316437 0.064485095 12500668
0.39756674 0.0012473959 0.066524401 12434875
0.40400004 0.0051682666 0.064679481 12829116
0.41250005 0.009228277 0.062661938 12566973
0.4086667 0.01097519 0.069182038 13882057
0.4155001 0.013177524 0.065590464 12501181
0.42187893 0.01737896 0.064983368 12632510
0.4266251 0.02169692 0.066895232 13026755
0.43378949 0.025608573 0.065198913 12895171
0.44230002 0.028308293 0.061584622 12895170
0.43833336 0.031611118 0.069073401 13223879
0.44574136 0.034226377 0.065550819 13618890
0.45303851 0.037718553 0.062547214 13288641
0.44900003 0.040438265 0.069003083 12632251
0.455942 0.044441659 0.065819576 12960446
0.46120006 0.047169439 0.061950017 15132386
0.45859089 0.052997883 0.068344988 15066335
0.46150005 0.052724753 0.063895293 14802906
0.43788141 -0.13329466 0.07530959 12104622
0.44000003 -0.13616714 0.070710085 11972520
0.43338758 -0.12497747 0.075013399 12170669
0.42565784 -0.11453095 0.07517153 11973036
0.43011114 -0.11934599 0.072476707 12038054
0.41788235 -0.10183677 0.075680226 11906985
0.42106897 -0.10688574 0.074860424 11972007
0.40885714 -0.091069601 0.077919714 11052194
0.41324106 -0.095265105 0.07457193 11447721
0.40561461 -0.085121669 0.075070098 11316132
0.39679369 -0.072861098 0.074998453 11051931
0.40078375 -0.078151792 0.074229881 10921374
0.38899997 -0.060963836 0.075035661 11776683
0.39238194 -0.065687194 0.074982762 11118238
0.38583064 -0.055086568 0.074946493 11446946
0.3785001 -0.041700851 0.077823997 11446690
0.38134667 -0.04562239 0.07458175 11644068
0.37740639 -0.034632944 0.075326353 9342601
0.38000008 -0.038637485 0.071531042 12236718
0.37745044 -0.02552093 0.075707585 9211275
0.38015008 -0.02190233 0.071622424 12565430
0.37844831 -0.017442796 0.077976361 12040115
0.38146463 -0.01440316 0.074224889 12631224
0.38559631 -0.0058025126 0.075676098 12697532
0.39128572 -0.0021614328 0.071822487 12632510
0.38871431 0.00064628676 0.078760721 13158338
0.39540002 0.0036044505 0.075177439 12632509
0.40192685 0.0078912359 0.073986687 13289923
0.40611118 0.01296467 0.0762088 12435387
0.41277277 0.016805425 0.074204892 12895423
0.42066669 0.019504284 0.071214288 12829886
0.41657144 0.021382015 0.077713862 12896193
0.42463896 0.0251061 0.075135134 12895679
0.43135291 0.028179197 0.071732596 13158854
0.42744452 0.030714754 0.078473993 13290178
0.43472716 0.034256786 0.075511113 13158852
0.4429259 0.037936952 0.072441354 14145237
0.4382 0.040560085 0.079173572 14212055
0.44576114 0.044289336 0.075974226 11974067
0.45203575 0.047427628 0.0723878 12895424
0.44855553 0.053234506 0.078909904 15131869
0.45351475 0.054665934 0.074472427 15264227
0.45300001 0.06059416 0.078985393 14342870
0.43676057 -0.13428287 0.085291713 12170670
0.42818183 -0.12096706 0.087367244 11776430
0.43216217 -0.12552324 0.084768675 12104621
0.42403403 -0.11462958 0.085152976 11840936
0.41686371 -0.10360923 0.085204586 11380900
0.4205001 -0.10832699 0.083922051 11512485
0.40810814 -0.092051581 0.085577175 11840934
0.41214037 -0.096996471 0.084646516 11446435
0.40348989 -0.084864832 0.084939077 11380900
0.39627159 -0.07473617 0.085508794 11183777
0.40018186 -0.079160646 0.082848221 10855584
0.3880702 -0.062657364 0.085774139 10986912
0.39166671 -0.067375317 0.084166005 11643555
0.38375428 -0.055167064 0.084959514 11578532
0.37782058 -0.043210633 0.085469678 10066066
0.38075989 -0.048154309 0.084125526 11710887
0.37289467 -0.034825228 0.084887072 2961964
0.37259999 -0.024704849 0.084908903 3159348
0.37726948 -0.015337981 0.085318558 12302774
0.38040006 -0.011571883 0.081553891 12697789
0.37883329 -0.0088193929 0.088298582 12170675
0.38255453 -0.004871401 0.084639914 12434617
0.38695598 0.0032230595 0.086567774 12369337
0.39305666 0.0069572609 0.083238766 12501182
0.39719051 0.012950691 0.086782612 12698560
0.40213838 0.015834749 0.084353767 12830402
0.41100001 0.019056359 0.080481254 12239037
0.40673921 0.0222845 0.087868549 12829376
0.41454676 0.025073426 0.084777147 13158341
0.42152387 0.028520493 0.082256936 13290181
0.41756254 0.031844784 0.088505864 13091778
0.4242298 0.03472447 0.085308813 13223876
0.43208003 0.037932791 0.082150601 12763843
0.42685717 0.041108426 0.088629059 13223872
0.43487337 0.044990685 0.08576455 12764097
0.44165006 0.047239892 0.081449129 11711665
0.43764517 0.053453926 0.088285469 12434103
0.44415277 0.055197235 0.08395762 15197664
0.44658336 0.062528104 0.087222643 15329251
0.45169231 0.064405277 0.084610291 13552839
0.43700001 -0.14001285 0.095121577 11841451
0.43508443 -0.1349251 0.095178686 12235950
0.42677078 -0.12258556 0.095389016 12104621
0.43117243 -0.12781045 0.094509222 12368307
0.41855553 -0.11091399 0.09763822 11841710
0.42214286 -0.11541728 0.094693452 11710124
0.41553769 -0.10482169 0.095067218 11775142
0.42000002 -0.10973963 0.091175392 12039346
0.4073908 -0.093559176 0.095155895 11840679
0.41096151 -0.098146878 0.094151221 11972263
0.39900002 -0.080667481 0.095790491 11315617
0.40224743 -0.08570151 0.094994225 11577505
0.39497131 -0.074859947 0.095055111 11052705
0.38683334 -0.06397219 0.095216788 11512228
0.39072222 -0.068831369 0.093481451 11447461
0.37900001 -0.050450243 0.098910794 11051936
0.38210431 -0.054932363 0.094852351 11511969
0.37696749 -0.044680182 0.095201336 10131089
0.38011116 -0.049411777 0.091933094 12238008
0.36824998 -0.032871131 0.097273193 2698796
0.3711611 -0.035750017 0.093652263 2764843
0.3682833 -0.026362341 0.097376034 2830125
0.370671 -0.024078691 0.093349196 3026990
0.37531462 -0.015237361 0.094904609 10789789
0.37825856 -0.0066113747 0.09578561 12236980
0.38076082 -0.0023946329 0.093535423 12500923
0.38422954 0.0046279719 0.094990008 12632254
0.38805887 0.012383274 0.096809454 12632512
0.39377335 0.016149666 0.093923531 12698303
0.4005 0.019350657 0.090926364 13353921
0.39680004 0.021830609 0.097587816 12237240
0.40417868 0.025908569 0.094981968 12763579
0.41166669 0.028617296 0.09142521 13027527
0.40722585 0.032886226 0.098077752 13027009
0.41447622 0.035194486 0.094456218 12764096
0.42090911 0.038655877 0.09143839 12829891
0.4169167 0.042308003 0.098106511 13158595
0.42368302 0.045354284 0.094834059 13685195
0.43100002 0.048184495 0.091252141 12698041
0.42648011 0.05399622 0.097717263 11841965
0.4328382 0.055724539 0.093116693 13420994
0.42900002 0.060396764 0.099406004 14605789
0.43509448 0.06428545 0.096330166 15724008
0.44281822 0.066774413 0.092233926 15197663
0.43610007 0.070990995 0.098288551 15986925
0.44220003 0.070740379 0.094381586 12170674
0.43600002 -0.14071314 0.1020487 11315364
0.43327576 -0.13483974 0.10469353 11841962
0.42682761 -0.12394169 0.10512016 11841449
0.42999998 -0.12871033 0.10517423 11511456
0.41832262 -0.11156896 0.10558625 11512484
0.42157385 -0.1166475 0.10491693 11447978
0.41429415 -0.10502125 0.104927 11643554
0.40593183 -0.09445443 0.10501898 11446691
0.41030008 -0.099665165 0.10381148 11380384
0.39800009 -0.081863917 0.10558427 11380383
0.40093207 -0.086590037 0.10448521 11117469
0.38900003 -0.070905164 0.10743985 11315622
0.39384204 -0.0755288 0.10489811 11117211
0.38633332 -0.065221325 0.10495305 11380898
0.37868565 -0.05157404 0.10527334 11643556
0.38132951 -0.056597564 0.1048323 11249053
0.37593511 -0.045026224 0.10487808 9736587
0.36618757 -0.034046922 0.10533299 2501674
0.37073073 -0.039202534 0.10416234 2500900
0.36561725 -0.025194105 0.10516243 2632488
0.37 -0.020668389 0.10045978 3617326
0.36800003 -0.019695174 0.10551648 6380634
0.37441808 -0.014561472 0.10458999 10592412
0.37753204 -0.0051604626 0.10511042 11579821
0.38000003 -0.00076649763 0.10050616 10986657
0.37882358 0.0006444797 0.107132 11908014
0.38144177 0.0054954723 0.10482823 11908275
0.38632193 0.014382613 0.1052828 12369596
0.39085713 0.018819466 0.10213351 13092548
0.38883337 0.020455351 0.10875863 12961220
0.39431238 0.02472434 0.10526185 12961217
0.40035722 0.027979771 0.10147107 13553867
0.39805266 0.0321564 0.10822171 12895166
0.40320918 0.035414603 0.10430516 13092544
0.41100001 0.039581627 0.10004591 12039862
0.40691394 0.043807976 0.10714287 13289667
0.41375762 0.046103537 0.10318753 13289927
0.42033339 0.049008805 0.10067757 14342354
0.41560277 0.054171313 0.10684579 13618376
0.42232007 0.056039695 0.10243982 12170674
0.41799998 0.062600397 0.1089251 11117986
0.42416129 0.064903975 0.10514298 14737114
0.4310526 0.067431815 0.10126048 15790316
0.4248001 0.073267907 0.10725313 16118252
0.43163154 0.072306015 0.10203177 15461094
0.43098623 -0.13409474 0.11498313 11710634
0.42661971 -0.1247525 0.11519795 11775656
0.43000001 -0.12951566 0.11362997 11775656
0.41756409 -0.11225715 0.11497667 11709348
0.42131266 -0.11733884 0.11478123 11381157
0.41338718 -0.10529752 0.11507612 11643041
0.40634897 -0.094817981 0.11508283 11315104
0.41000006 -0.099688202 0.11339992 11051419
0.39734152 -0.082297504 0.11600378 11183260
0.40138 -0.087185286 0.11410893 11052445
0.38899997 -0.070905156 0.11472509 10262677
0.39274991 -0.075705446 0.11482397 11116954
0.38618699 -0.065419115 0.11502597 11249569
0.37842861 -0.051912181 0.11484385 10985111
0.38119999 -0.057044301 0.11503845 11446433
0.37573144 -0.045311578 0.11474304 9802893
0.36438572 -0.034615256 0.11527735 2238757
0.37033334 -0.039760064 0.110953 2171679
0.36408561 -0.025130695 0.11520981 2369573
0.36845455 -0.019326849 0.1175263 8026742
0.37435421 -0.013886101 0.11543962 10986396
0.37646377 -0.0052289111 0.11479855 11514028
0.37845787 0.0030066124 0.11538313 11645873
0.38059998 0.0079490934 0.11417364 11842737
0.38352832 0.015171382 0.11517769 12632253
0.38768056 0.022969585 0.11588167 12829635
0.39163336 0.027236586 0.11355574 12566460
0.39520711 0.034426872 0.11548604 13026499
0.40058827 0.038359128 0.11163194 12434873
0.39810008 0.041555606 0.11801287 12697790
0.40286547 0.045488056 0.11446665 13289411
0.40679535 0.053880163 0.11607537 14079440
0.41185004 0.057261039 0.11241905 13683913
0.40866664 0.061467826 0.11882411 11578277
0.41394588 0.065064408 0.1147498 13092032
0.42020002 0.068601526 0.11054824 15723493
0.41718328 0.073843099 0.11691233 16250094
0.42077556 0.075944237 0.11303793 16184301
0.41900003 0.080568418 0.11964924 16777207
0.42062503 0.082050227 0.11814272 15723239
0.43160787 -0.13355426 0.12505545 11446947
0.42627144 -0.12460817 0.12493157 11183776
0.43000001 -0.12971698 0.12530698 11381926
0.41788885 -0.11226019 0.12476909 10921631
0.42128274 -0.11735608 0.12521161 10986913
0.41441259 -0.10517206 0.12515852 10855323
0.40657988 -0.094092056 0.12432289 10657687
0.41066664 -0.098632962 0.12643591 11051930
0.39775002 -0.082337104 0.1235927 10263960
0.40170369 -0.086844064 0.12576979 10131858
0.38900003 -0.070905164 0.12018903 11380132
0.39342102 -0.075086728 0.12503651 9868432
0.38692635 -0.064339459 0.12467751 9868176
0.39018184 -0.068878733 0.12711476 9473417
0.37844831 -0.051538762 0.12361926 9736589
0.38183925 -0.05646925 0.12437992 9407881
0.36800003 -0.040371045 0.12748459 3488822
0.37641418 -0.045327004 0.12445336 9079172
0.36140633 -0.034454253 0.1222759 2305062
0.36204007 -0.024758793 0.12233225 2370600
0.36763638 -0.018970428 0.12281683 8620678
0.37396514 -0.013767311 0.12406404 10196882
0.37665686 -0.005402796 0.12401547 10066067
0.37853846 0.002714484 0.12314369 10592156
0.38065276 0.0068825353 0.12590404 10263706
0.38281021 0.015320355 0.12484556 11579309
0.38728568 0.025080472 0.12477897 12237497
0.39000002 0.029342232 0.12962797 10856617
0.389 0.030359784 0.12537977 11975095
0.39273447 0.03545884 0.12478773 12369338
0.39734566 0.044151478 0.12539564 13158594
0.40028569 0.048556633 0.12347339 13816270
0.40337715 0.055067547 0.12487859 14079184
0.40788797 0.064090937 0.12523931 12565429
0.41084215 0.068521731 0.12273359 13551811
0.4140555 0.074970573 0.12504841 15724009
0.41786787 0.082770191 0.12534143 14539480
0.42000002 0.083218768 0.12091803 16381167
0.43266669 -0.1335624 0.13030337 10197909
0.42566666 -0.12365618 0.13062987 10065041
0.43000001 -0.12971698 0.13084349 10132116
0.41883335 -0.11131433 0.13104104 8355189
0.42111766 -0.11590717 0.13127105 9933967
0.41618183 -0.1046535 0.13215855 9539979
0.40790913 -0.093713313 0.13167468 9342859
0.41163638 -0.097897857 0.131825 9736846
0.39900002 -0.080200449 0.13168532 11053729
0.40299997 -0.085866928 0.13145421 9408651
0.39559999 -0.076385215 0.13018861 8815999
0.38600001 -0.061322007 0.13010572 10791073
0.36850002 -0.040425897 0.13844171 5528152
0.37090003 -0.034176007 0.13977692 1054224
0.36487502 -0.022257553 0.13841306 1905936
0.37075001 -0.02808859 0.13972038 856332
0.36200002 -0.019091574 0.13811778 7290169
0.37850001 -0.0020919996 0.13023597 8290430
0.38165712 0.0055121817 0.13155265 8816258
0.38503125 0.015004814 0.13186309 10131346
0.38850001 0.023320649 0.13171795 10066327
0.39072734 0.02723651 0.13332185 11316909
0.39341536 0.035406321 0.13298762 10264221
0.39758939 0.044128437 0.13336357 10527133
0.40000007 0.049098156 0.13355768 11250855
0.40246868 0.055171158 0.13315259 12039859
0.40766677 0.064678863 0.13284126 11118242
0.41213462 0.074488513 0.13262111 13553099
0.41742852 0.082920469 0.13141477 14078677
0.36357895 -0.040823184 0.14640415 5789521
0.37 -0.04059045 0.140737 4803659
0.36466911 -0.035437372 0.14626631 922638
0.37090209 -0.034047831 0.14229612 922895
0.36385605 -0.024646943 0.14585781 1316111
0.37070832 -0.028013008 0.14245187 791053
0.36138466 -0.018951071 0.14627354 5382431
0.36124143 -0.041204214 0.15514824 2041117
0.359 -0.030979455 0.15918438 1119757
0.36132887 -0.035030596 0.15481296 1252117
0.35900003 -0.02813494 0.15837167 1054221
0.36075377 -0.024544248 0.15466902 1383188
0.36100003 -0.018944936 0.15388717 3614500
0.34600008 -0.041089371 0.16856669 2436644
0.35720003 -0.040774856 0.16605195 658954
0.36149999 -0.041068692 0.16288929 2040605
0.3468661 -0.035010312 0.16822451 1910815
0.35548076 -0.034418486 0.16489291 1317654
0.3606286 -0.037416995 0.1621495 1778201
0.34751487 -0.025212912 0.16834617 2041377
0.35519624 -0.02622506 0.165097 1383447
0.36032492 -0.023268474 0.16333425 1449496
0.34866667 -0.018932803 0.16867177 2239016
0.35420001 -0.019203348 0.1679633 988182
0.36100003 -0.019320538 0.16731501 134170
0.33806673 -0.041044496 0.17884305 2435882
0.3419784 -0.041448303 0.17378499 2370341
0.33812496 -0.038527951 0.17872569 2172708
0.34213579 -0.03492697 0.17390983 2107425
0.33900002 -0.024227416 0.17689252 2172451
0.34240514 -0.02536004 0.17312644 2107427
0.33900002 -0.01973032 0.17695864 2236962
0.34250006 -0.01966715 0.17303844 1777954
0.33544448 -0.041030832 0.18272953 2238499
0.33360469 -0.036353026 0.18538272 2106912
0.33290482 -0.02579475 0.18817604 2106655
0.79144454 0.077456772 0.3445828 10461339
0.77720004 0.076305807 0.35912108 10396315
0.78471428 0.077149935 0.3571257 10461594
0.79119998 0.078049943 0.35262436 10527131
0.78646153 0.083250135 0.35840943 10527131
0.77600002 0.077912882 0.36147374 10330522
0.77800006 0.081301562 0.36331701 10461851
0.78447622 0.086048737 0.3641049 10593180
0.78858322 0.095330685 0.36456618 10790303
0.7883333 0.10544863 0.36445045 10790816
0.78851998 0.11440935 0.36538619 10791073
0.79114288 0.11693863 0.36085358 10790818
0.78659999 0.086928643 0.37476322 10527644
0.78872216 0.093397565 0.37427342 10725023
0.79011112 0.096849717 0.37667963 10724767
0.78900003 0.10623083 0.37191674 10790816
0.79049999 0.10400442 0.37621024 10856096
0.78900003 0.11329584 0.37159351 10791073
0.79099995 0.11555822 0.37574679 10725280
0.78790009 0.085747913 0.3861084 10462108
0.78884983 0.093237951 0.38509637 10593694
0.79014289 0.097763695 0.3847093 10724768
0.78888893 0.08582443 0.39312845 10330524
0.79000002 0.087640241 0.3971239 10527901
0.78900003 0.091377355 0.39215744 10527903
0.79037517 0.095237352 0.39584896 10527902
0.791143 0.10476808 0.39524978 10593695
0.77650011 0.086143479 0.4089677 10527388
0.78666669 0.087421454 0.40879247 10396315
0.79077774 0.087880708 0.40414754 10396316
0.78900003 0.092608728 0.40816534 10396315
0.790591 0.094898768 0.40478078 10462108
0.79156667 0.1049568 0.40547854 10593694
0.77600002 0.088359088 0.41324943 10527131
0.78100002 0.089841396 0.41134012 10592924
0.78685707 0.095454551 0.41422272 10593181
0.79000002 0.09827432 0.41053206 10659487
0.78900003 0.10184405 0.4155536 10658717
0.79093117 0.10547962 0.41465351 10659230
0.7883001 0.098064013 0.42293653 10658719
0.79100001 0.098398715 0.42956915 10658719
0.78900003 0.10184405 0.42109478 10790303
0.79160875 0.1060506 0.42490575 10724511
