# .PCD v0.7 - Point Cloud Data file format
VERSION 0.7
FIELDS x y z rgb
SIZE 4 4 4 4
TYPE F F F U
COUNT 1 1 1 1
WIDTH 934
HEIGHT 1
VIEWPOINT 0 0 0 1 0 0 0
POINTS 934
DATA ascii
0.78900003 -0.093944646 0.088623412 15066073
0.7915653 -0.09497489 0.08463826 12697270
0.78900003 -0.087479934 0.088623412 15460318
0.78736657 -0.16477659 0.095254906 14802907
0.78706247 -0.15486136 0.095078185 15789799
0.78740615 -0.14502223 0.094660074 15789799
0.78693098 -0.13498901 0.095882431 15987435
0.79000002 -0.1347506 0.090585135 15263709
0.78759992 -0.12512222 0.095837668 15790312
0.79099995 -0.12473658 0.090699799 15066587
0.78758615 -0.11482037 0.095962904 15921898
0.79049999 -0.11540544 0.090950698 15724260
0.78734612 -0.10466544 0.09559314 15856105
0.79000002 -0.10608485 0.090585135 15724773
0.78718168 -0.095068432 0.094612345 15921899
0.78665632 -0.08508905 0.095202141 15790056
0.79000002 -0.081117891 0.090585135 15987177
0.78768176 -0.075598523 0.096351177 15790314
0.79069996 -0.073969826 0.091405161 16250351
0.78864706 -0.065991081 0.097814396 15461350
0.79135299 -0.064256206 0.09302634 15658729
0.78900003 -0.058850452 0.099705793 15066591
0.79165524 -0.055213507 0.095242709 15198177
0.79272735 -0.045462236 0.095111258 14869212
0.79248136 -0.034787562 0.094988756 14869211
0.79177785 -0.024767511 0.095419317 14474710
0.79086691 -0.014556146 0.095309645 14079952
0.78900009 -0.0041102138 0.098026641 13948110
0.79068422 -0.0059787524 0.093584202 14211537
0.78878248 0.005312711 0.096948087 14079697
0.79023081 0.0040975814 0.091891952 14343123
0.78840744 0.015225496 0.095527701 13948111
0.79000002 0.013201726 0.090585135 14540504
0.78758061 0.024995746 0.095657192 13553353
0.79000002 0.026147556 0.090585135 14343125
0.78740758 0.035073534 0.095404007 13684940
0.79000002 0.037243981 0.090585135 14079955
0.78759265 0.044914976 0.096041717 14211541
0.79000002 0.044641595 0.090585135 14408918
0.78750002 0.05496794 0.095627733 14211283
0.79000002 0.054813322 0.090585135 14276560
0.78731996 0.064764872 0.095802262 14474712
0.79020005 0.065000556 0.090608068 14342869
0.78709996 0.074879982 0.095775366 14408920
0.79000002 0.075156771 0.090585135 14079952
0.78623074 0.08513207 0.095808558 14605784
0.79000002 0.085328497 0.090585135 14013387
0.78685713 0.095120721 0.095744893 15132127
0.79040003 0.094624802 0.090631001 14868438
0.78777772 0.10506893 0.097089879 15066338
0.79121435 0.1054389 0.092046045 15131868
0.78880006 0.11252886 0.098941699 11513771
0.79160011 0.1155967 0.094618805 12106162
0.79230762 0.12438588 0.094771303 11645866
0.78752631 -0.17382373 0.1052436 12630971
0.78220016 -0.16455337 0.10525158 15263202
0.77900004 -0.15840548 0.10938401 15724523
0.7819376 -0.15470983 0.10481581 15790316
0.78306073 -0.14506432 0.10561663 15658473
0.78378808 -0.13502479 0.10521515 15592936
0.78372741 -0.12500741 0.10570746 15263715
0.78345174 -0.11511551 0.10527191 15395043
0.78390926 -0.10534826 0.10534418 15329506
0.78440011 -0.095235012 0.10463347 15263714
0.78333366 -0.085017227 0.10449117 15263713
0.78583992 -0.07516931 0.10482564 15263457
0.78819996 -0.065246612 0.10514043 15066335
0.78900003 -0.057926923 0.10524698 15263970
0.79000002 -0.053376831 0.10538036 14672090
0.79103047 -0.044859506 0.10501172 14540247
0.79117864 -0.035133649 0.10494129 14342868
0.79100019 -0.024742341 0.10551374 14211282
0.79036009 -0.0145469 0.10542877 13882317
0.78900003 -0.003233325 0.10360515 13553352
0.79000002 -0.0064481944 0.10630509 13619145
0.78891975 0.0055003632 0.10464564 13422023
0.79000002 0.0017354193 0.10833941 13487560
0.78836 0.015019136 0.10516263 13487816
0.78716666 0.025130246 0.10500376 13224644
0.78615999 0.035222057 0.10486878 13224388
0.78609979 0.045341235 0.10486058 13487562
0.78469235 0.05550193 0.10488332 13619149
0.78258353 0.065290108 0.10530555 13685197
0.78206676 0.07531628 0.10523583 14408406
0.7790001 0.087787688 0.10664854 14342357
0.78087503 0.083885409 0.10416151 14144977
0.77900004 0.091890901 0.10801627 14474199
0.78142321 0.095872268 0.10465647 14868447
0.78474075 0.10477086 0.10508556 15131876
0.78869236 0.11259895 0.10478004 11579563
0.79099995 0.11738028 0.10597864 11777197
0.787 -0.17373379 0.11491293 12630713
0.7906 -0.17927234 0.11471585 10130324
0.77899998 -0.16075018 0.11459445 14999777
0.78166676 -0.16565995 0.11534958 14867676
0.77900004 -0.15759498 0.1144497 15592680
0.78075004 -0.15350589 0.11534166 15132386
0.78166664 -0.14522198 0.11524882 15329764
0.78215986 -0.13524459 0.11532161 15263970
0.78196651 -0.12514387 0.11529188 14935006
0.78171992 -0.11503706 0.11525533 14737883
0.78371882 -0.10500733 0.11520651 15066591
0.78577411 -0.095221549 0.11508445 15132384
0.78557146 -0.08512941 0.11477607 15132384
0.78696668 -0.07527741 0.1151104 15132384
0.78849995 -0.065502845 0.114756 15066848
0.78900003 -0.058850452 0.11355876 15198434
0.79023814 -0.054537337 0.11483851 15000798
0.79133338 -0.04512899 0.11482154 14606040
0.79128015 -0.034939215 0.11481404 14540504
0.79100019 -0.024742341 0.11477245 14079953
0.79100013 -0.014557741 0.11477247 13685195
0.79120004 -0.0053004501 0.11480328 13684940
0.78900003 0.0094908876 0.11078817 13553611
0.790483 0.0047214231 0.11482633 13224389
0.78899992 0.015955608 0.11321244 13158853
0.79000002 0.013407215 0.11688777 13290182
0.78846663 0.025172494 0.11440561 12764094
0.78766674 0.035289481 0.11521216 13027267
0.78688908 0.045385435 0.11509754 13158853
0.78503454 0.055258278 0.1149845 13224390
0.7823 0.065265976 0.11534191 13026497
0.78191984 0.07530304 0.11528577 14277078
0.7790001 0.088699512 0.11485495 14211285
0.78070003 0.083408996 0.1151062 14079700
0.77900016 0.093128368 0.11511548 14342871
0.78027284 0.097728901 0.11470997 14408664
0.78546429 0.10526983 0.11521643 15000544
0.78900003 0.11107936 0.1144823 11645357
0.79269999 0.11624485 0.11502007 11711405
0.78706664 -0.17294604 0.12525746 13420231
0.79083329 -0.17840058 0.12493076 9999251
0.77900004 -0.16022913 0.12123775 15394278
0.78165394 -0.16450875 0.12524059 14933727
0.77900004 -0.15840548 0.12032592 15657707
0.78134483 -0.15509589 0.12541875 15592426
0.78252953 -0.14559779 0.12518103 15197922
0.78329647 -0.13503231 0.12486134 15329764
0.78278583 -0.12494726 0.12438064 15132384
0.78239995 -0.11513788 0.12451592 14869470
0.78490013 -0.10539559 0.12491374 14935262
0.78750008 -0.094686918 0.12532738 15197921
0.78780001 -0.084580496 0.12537464 15395556
0.78800005 -0.075378358 0.12540556 15395556
0.78882331 -0.065082371 0.12488502 15329763
0.79036695 -0.055250525 0.12485685 15329763
0.79175001 -0.045153562 0.12507564 14737626
0.79136676 -0.034943286 0.12501597 14211282
0.79147226 -0.024756817 0.1250333 14079696
0.79183328 -0.014572531 0.12508988 13816269
0.7925666 -0.0053094337 0.12520593 13684682
0.79169446 0.0048875636 0.12506787 13355717
0.78900003 0.018726204 0.12002348 13487561
0.79027611 0.014928355 0.12500334 13223875
0.78899997 0.026246389 0.12160667 13027266
0.79004556 0.024551528 0.12674004 13224388
0.78886938 0.035584342 0.1252232 12961218
0.79000002 0.032620467 0.12942263 12961217
0.78772414 0.045274232 0.12523554 13158598
0.78619236 0.055255447 0.12526147 13092804
0.78420007 0.065422416 0.12480257 12961218
0.78206885 0.075443275 0.12521915 13947858
0.77900004 0.089307398 0.12427717 14145238
0.7808001 0.084393248 0.12529434 14079701
0.77900016 0.093486585 0.12442916 14276824
0.78021431 0.097057499 0.12560217 14474202
0.78480774 0.10484362 0.12510845 15066081
0.78877783 0.11166377 0.12552851 11645355
0.7915715 0.1164739 0.12464744 11777196
0.78749996 -0.17379597 0.13504554 12631485
0.79040003 -0.17922701 0.13503776 9999252
0.78233343 -0.16478489 0.13508503 14736605
0.78149998 -0.15504152 0.13548996 15855853
0.78258079 -0.1450076 0.13506317 15526887
0.78413904 -0.13466591 0.13488859 15263458
0.78499997 -0.12470894 0.13503686 15394786
0.78511119 -0.11461728 0.13505679 15329249
0.78685713 -0.10493709 0.13502701 15066078
0.78800005 -0.094747938 0.13462912 14934748
0.78800005 -0.084601976 0.13462913 14869212
0.78800005 -0.075378366 0.13462916 15131871
0.78886646 -0.065303437 0.13477682 15460835
0.78900003 -0.058388688 0.13710883 15329763
0.79014289 -0.054619081 0.13455459 15461349
0.79156673 -0.045142256 0.1352382 15000798
0.79239988 -0.034988757 0.13538229 14935005
0.79213321 -0.024777168 0.13533534 14606040
0.79288 -0.014591873 0.13546307 14277075
0.79323989 -0.0053140223 0.13552532 13882318
0.79266644 0.0048951753 0.13542785 13553353
0.79176003 0.015083445 0.13527302 13290180
0.79083353 0.025248092 0.13511439 13158594
0.78900003 0.038120367 0.13110587 12960964
0.79030454 0.03516648 0.13534561 13224388
0.78884202 0.04535326 0.13399591 13224389
0.79000002 0.042175725 0.1374367 13224387
0.78793341 0.054668441 0.13461885 13092547
0.78519446 0.065503843 0.13506939 13092547
0.78142315 0.075111046 0.13512303 13553101
0.77900016 0.087144054 0.13566606 13948116
0.78000003 0.082422383 0.13410512 14079445
0.77900016 0.092978068 0.13477486 14277081
0.78075004 0.097581506 0.13537081 14474460
0.78478581 0.10498074 0.13499808 15000801
0.78870583 0.11331963 0.1348584 11579820
0.79000002 0.11792424 0.13473967 11711405
0.79065537 0.1250356 0.13520889 11579819
0.78768182 -0.17417111 0.14513555 13091520
0.79000002 -0.17913629 0.14514256 10065299
0.78287995 -0.16469593 0.144751 14933984
0.78233337 -0.15450272 0.14464997 15921132
0.78464007 -0.14485589 0.14507662 15921132
0.78576648 -0.13494769 0.14528532 15394788
0.78651983 -0.12494989 0.14542484 15263201
0.78713346 -0.11491219 0.1455387 15394786
0.78792596 -0.10467848 0.14527446 15460579
0.78841662 -0.094797939 0.14485337 15394786
0.78813344 -0.084616683 0.14480034 15066078
0.78800005 -0.075378366 0.14477512 15263202
0.78858322 -0.065279022 0.14488225 15395044
0.78900003 -0.05823477 0.14403531 15658472
0.79004771 -0.053908326 0.14554766 15658471
0.79139405 -0.045384783 0.14497727 15066334
0.79207993 -0.034974724 0.1445974 14935005
0.79149997 -0.024595039 0.14514428 14606040
0.79255998 -0.014585047 0.14468502 14342868
0.79255998 0.015098313 0.14468551 13619147
0.79142439 0.02551949 0.14498308 13092802
0.79073358 0.035426412 0.14527689 13158595
0.78900003 0.047253072 0.14629282 13355974
0.79000002 0.043496735 0.14457013 13290181
0.78841662 0.054701805 0.14485157 13092802
0.78644443 0.065097652 0.14520662 13158853
0.782143 0.074731089 0.14481258 13224133
0.77899987 0.08556509 0.14454633 13816530
0.78050005 0.081104554 0.14842218 13882066
0.77900016 0.09301547 0.144155 14276824
0.78071433 0.097250976 0.14578642 14474460
0.78580785 0.10525991 0.14508025 14935011
0.78900003 0.11160709 0.1432437 11382443
0.79100001 0.11589958 0.14523569 11777199
0.79284626 0.12482759 0.14459942 11579819
0.78766674 -0.17369252 0.15454796 13749449
0.79057139 -0.17873748 0.15621988 9933968
0.78299999 -0.16472121 0.15485458 14605533
0.78212106 -0.15487821 0.15443066 15592167
0.78387892 -0.14521345 0.15527676 15789802
0.78619355 -0.13516794 0.154743 15460837
0.78700006 -0.125027 0.15472451 15131614
0.78780001 -0.11500976 0.1548813 15131614
0.78891981 -0.10501599 0.15510204 15263200
0.78899974 -0.094868183 0.15511771 15329250
0.7889598 -0.084705241 0.15511003 15197407
0.78855997 -0.075432025 0.15503252 15197408
0.78896278 -0.065824956 0.15490532 15394532
0.79000002 -0.060774446 0.15716368 14671065
0.79032004 -0.055247661 0.15537773 15526373
0.79200006 -0.044912979 0.15520254 15000028
0.79311103 -0.035226684 0.15448387 15066078
0.79238713 -0.024816539 0.15530723 14737370
0.79276657 -0.014589475 0.15493111 14342869
0.79249996 0.0048933523 0.15487514 13750733
0.79166663 0.015082026 0.15471278 14079698
0.79124248 0.02500838 0.15505196 13750476
0.78900003 0.0390439 0.15788828 13684170
0.79004353 0.035074681 0.15508136 13355462
0.7889998 0.044906322 0.15535864 13487304
0.79000002 0.040942788 0.15254018 13290182
0.78843325 0.05470302 0.15500666 13158083
0.78736007 0.064765915 0.15479583 13223619
0.78380007 0.07469397 0.15488341 13289155
0.77900004 0.088699512 0.15315168 14013652
0.78095835 0.084350325 0.15582347 13816271
0.77900004 0.091434985 0.15315168 14013652
0.7812174 0.095991634 0.15541731 14145495
0.78616005 0.10487062 0.15463248 14803684
0.79000002 0.10937075 0.15901309 15132394
0.7879445 -0.17313813 0.16505574 13749451
0.79100001 -0.17843837 0.1647696 9867664
0.78344011 -0.16481452 0.16503009 14474202
0.782107 -0.15478626 0.16494453 15197924
0.78385192 -0.14511621 0.16491222 15592424
0.78554279 -0.13477714 0.16468294 15460837
0.78633314 -0.1249203 0.16471729 15197922
0.78752786 -0.1149691 0.1649684 15132129
0.78863323 -0.10497689 0.16519952 15132128
0.78897196 -0.094865002 0.16527051 15263200
0.78829998 -0.084634729 0.16512868 15131614
0.78843325 -0.075419195 0.16515645 15065565
0.78899974 -0.065834656 0.16556513 15329250
0.79000002 -0.061236799 0.16317424 15460579
0.78900003 -0.058388688 0.16850889 15395300
0.79026097 -0.05492181 0.16437389 15460580
0.79226667 -0.04518066 0.16503231 14671576
0.79271996 -0.01459052 0.16512761 14276563
0.79159999 -0.0053039719 0.16489364 13882319
0.79096687 0.0048848693 0.16476269 13553354
0.79016024 0.015053708 0.16459526 13684938
0.78900003 0.028577209 0.16866283 13947853
0.7900002 0.024777623 0.1642188 13948110
0.7889998 0.035911921 0.16636069 13881804
0.79000002 0.03354517 0.16191928 13749962
0.78899974 0.04458509 0.16527654 13749963
0.78863877 0.054717354 0.16520062 13355461
0.78790009 0.064811833 0.1650465 13420998
0.78593546 0.074618526 0.16537766 12828860
0.7827 0.085453637 0.1648736 13882319
0.78248 0.095509291 0.16482714 14211285
0.78696299 0.10513381 0.16529281 14804195
0.79000002 0.10937075 0.16178718 15132647
0.78812504 -0.17340803 0.17547098 14407896
0.79072726 -0.17846058 0.17447208 9736336
0.78407413 -0.16474421 0.17474796 14934753
0.78229415 -0.15476562 0.17486097 15461095
0.78309399 -0.14491445 0.17503797 15592167
0.78454548 -0.13498749 0.17494403 15592166
0.7863999 -0.12493008 0.17485718 15394787
0.78780007 -0.11500968 0.17516898 15263458
0.7886799 -0.1049834 0.17536451 15197921
0.78843331 -0.094801269 0.17530854 15132128
0.78800005 -0.084601976 0.17521304 15197664
0.78828013 -0.075404964 0.17527629 15131614
0.78859985 -0.065280505 0.17534627 15460580
0.78899986 -0.05577201 0.17587516 15723751
0.79000002 -0.05258422 0.17195892 15526372
0.78900003 -0.049615134 0.17912951 15526372
0.79062873 -0.044956509 0.17473809 14934492
0.79163343 -0.034954671 0.1750918 14671833
0.79244095 -0.025004204 0.17499879 14540247
0.79283994 -0.01459226 0.17443362 14210769
0.79231989 -0.0053081401 0.1743205 13816524
0.7923333 0.0048938962 0.17432357 13421767
0.79110008 0.015069668 0.17497708 13355973
0.78899986 0.026945636 0.17580482 13684938
0.79000002 0.021879695 0.17380832 13487559
0.7889998 0.035349771 0.17543536 13882317
0.7889598 0.044582639 0.17542636 13947597
0.78820002 0.054687571 0.17525689 13684169
0.78744006 0.064773619 0.17508693 13684168
0.78616124 0.074937195 0.17498067 13355458
0.78250009 0.085430697 0.17490429 13487045
0.77900004 0.092042871 0.17807494 13882062
0.78125924 0.095698528 0.17418589 14277079
0.78428584 0.10471654 0.17497243 14737629
0.78862506 0.11171922 0.17604376 12829631
0.79252386 0.11626206 0.17444852 11579818
0.79265231 -0.1845025 0.18479653 9867919
0.78762972 -0.17450447 0.18537271 13091779
0.79000002 -0.17913631 0.18213063 9933969
0.7844643 -0.16522546 0.18485381 14999776
0.78313369 -0.15466234 0.18513152 15921389
0.78324014 -0.14459857 0.18515745 15921130
0.78524238 -0.13460505 0.1851292 15657958
0.78706676 -0.12503603 0.18514031 15394786
0.78808337 -0.11505166 0.18537839 15328993
0.78803337 -0.10489852 0.18536684 15131614
0.78758353 -0.094697744 0.18525966 15065821
0.78800005 -0.084601976 0.18535903 15131358
0.78888869 -0.075668193 0.18505481 15131358
0.78899974 -0.065315165 0.18467072 15394274
0.7889998 -0.055156317 0.18467073 15526116
0.78900003 -0.048691601 0.1846707 15394786
0.79005003 -0.04320766 0.18491672 14868955
0.79152 -0.034948498 0.18526126 14606040
0.79278117 -0.024565091 0.1852082 14474455
0.79283321 0.0048948266 0.18463907 13618632
0.79052019 0.015059351 0.18502569 13422022
0.78889972 0.025494991 0.18495464 13553352
0.79000002 0.020599341 0.18120594 13421766
0.78836656 0.035321008 0.18544382 13882317
0.78806674 0.044532187 0.18537429 14014160
0.78769457 0.054652084 0.18528645 13816268
0.78599995 0.064998455 0.18500248 13684425
0.78430307 0.074751273 0.18451548 13486789
0.78183341 0.085358702 0.18482442 13815756
0.77900004 0.093258642 0.1814183 13684683
0.78052628 0.095846318 0.18538086 14013905
0.78418517 0.10510511 0.18497247 14803425
0.78854555 0.11219077 0.1843964 12961221
0.79119998 0.11719451 0.18493731 11448488
0.79272741 -0.18448454 0.19482182 9671310
0.78734779 -0.17453237 0.19486201 13025731
0.79000002 -0.17913632 0.19785058 9604750
0.78332168 -0.16459106 0.19493265 14867935
0.78393769 -0.15504766 0.19484079 15724011
0.78559995 -0.14503369 0.19491197 15789802
0.78666675 -0.13510166 0.19517535 15723752
0.78700006 -0.125027 0.19525652 15592166
0.78713346 -0.11491227 0.19528836 15460580
0.78728002 -0.10479835 0.1953256 15394787
0.78753358 -0.094691135 0.1953904 15065822
0.78800005 -0.084601976 0.19550499 15065565
0.78821427 -0.075200714 0.19496393 15065821
0.78847224 -0.065271057 0.19469754 15328994
0.78896642 -0.055153824 0.19482112 15526374
0.78900009 -0.048775557 0.19440974 15461094
0.7905001 -0.043539312 0.19520022 15065822
0.79236001 -0.03498577 0.19473273 14671063
0.79193753 0.0051202811 0.19497453 13552839
0.79023361 0.015054559 0.19513416 13027009
0.78877121 0.025050554 0.19490457 13619146
0.78772002 0.035291392 0.19543505 14013904
0.7869643 0.045062087 0.19544396 14211027
0.78722233 0.055131584 0.19510654 14078928
0.78647989 0.064693905 0.19512835 14078928
0.78453332 0.074633963 0.19464593 13618635
0.78260028 0.085574508 0.19495098 13948113
0.78231043 0.095361546 0.1948525 14079443
0.78668004 0.10523319 0.19517897 14737628
0.78900003 0.11144878 0.19242835 14277336
0.79159093 0.11565913 0.19538552 11711404
0.7934286 -0.18451908 0.20498653 9540238
0.78747833 -0.173999 0.20523396 13355207
0.79000002 -0.17913631 0.20432349 9276813
0.7835927 -0.16504921 0.20501007 14802140
0.78411788 -0.15463723 0.20490628 15657705
0.78676671 -0.14524911 0.20532888 15723753
0.78683352 -0.13513246 0.20534593 15657703
0.78599989 -0.12486813 0.20512897 15592167
0.78636116 -0.11479975 0.20522331 15592166
0.78686678 -0.10474228 0.20535478 15460579
0.78744471 -0.094680831 0.20550428 15328994
0.78716677 -0.084513515 0.20543191 15197409
0.78656679 -0.075241409 0.20527495 15131616
0.78691667 -0.065141566 0.2053657 15328995
0.78851992 -0.055121355 0.2048634 15526374
0.78900003 -0.049615134 0.20498839 15724009
0.79080778 -0.044030227 0.20524392 15329250
0.7929666 -0.035012446 0.20509011 14671833
0.79276657 -0.0053115538 0.20503825 14013903
0.79147077 0.0046683643 0.20497492 13618888
0.78900003 0.016879139 0.20775899 12828861
0.79013056 0.014892288 0.20504034 12894910
0.78885168 0.02569849 0.20488195 13026240
0.79000002 0.020599341 0.20586467 13026240
0.78730774 0.035413601 0.20476177 13882319
0.78549981 0.045305893 0.20499747 14277076
0.78566664 0.055432759 0.20503996 14078927
0.78593332 0.064649664 0.2051094 14210512
0.78469443 0.074649714 0.20478691 13684683
0.78300029 0.08483319 0.20526172 14079698
0.78358638 0.095202364 0.20503724 14079443
0.78755546 0.10514396 0.20502287 14671834
0.79128593 0.11530747 0.20498411 12040370
0.7876786 -0.17512289 0.2151154 12303032
0.78374088 -0.16467251 0.21503833 14867929
0.7825883 -0.15482368 0.21501392 15262946
0.78486204 -0.14546487 0.2156308 15526116
0.78613347 -0.13501157 0.21528436 15525860
0.78612 -0.12488702 0.21528164 15525859
0.78626686 -0.11478623 0.2153213 15526115
0.78584611 -0.10446692 0.21541673 15394530
0.78480023 -0.095281869 0.21583502 15131357
0.78525794 -0.085374102 0.21522161 15131356
0.78588003 -0.075175092 0.21521617 15131357
0.7864334 -0.065101177 0.21536797 15460323
0.7882666 -0.055103723 0.21494694 15395044
0.78900009 -0.047600154 0.21707827 15724266
0.7901668 -0.043984313 0.21438587 15460837
0.78900003 -0.034838628 0.2197649 14935007
0.79112017 -0.034931678 0.21479668 15066078
0.78900003 -0.028373908 0.2197649 14606040
0.79158062 -0.024850782 0.2147413 14737113
0.79128015 -0.014563177 0.21484002 14276562
0.79108 -0.00529974 0.21478604 14013903
0.78900003 0.0053349957 0.2197649 14277075
0.79023361 0.0048797941 0.21455781 14013647
0.78899986 0.016198644 0.2163624 13552582
0.79000002 0.013033598 0.2133183 13618632
0.78899974 0.025322856 0.21527918 12499895
0.79000002 0.020599341 0.21079642 12499383
0.78824145 0.035187352 0.21510008 12763324
0.78596663 0.045329873 0.21524078 13948111
0.78316689 0.055254493 0.21538769 14276820
0.78275025 0.06530498 0.21527253 14079441
0.78306693 0.075413667 0.21536057 13816526
0.78227788 0.085408121 0.21514411 14277077
0.77900004 0.093258642 0.2188032 14672092
0.78227592 0.095547445 0.21498367 14211030
0.78703445 0.1053434 0.21514817 14606043
0.78900003 0.11169505 0.21545509 13816783
0.79000002 0.1163332 0.21416883 11316647
0.79051733 0.12501425 0.21450759 11382440
0.78765392 -0.17477752 0.22513427 12237240
0.78414291 -0.16515942 0.22516429 15066075
0.78147995 -0.15525149 0.22498806 15592165
0.78318191 -0.14525086 0.22497636 15789544
0.78511101 -0.13483538 0.22511417 15591908
0.78559983 -0.12480414 0.22525349 15197406
0.78552926 -0.11495124 0.22501741 15328735
0.78345174 -0.10476416 0.22502084 15328737
0.78223991 -0.094971083 0.22520596 15263201
0.78388584 -0.084943227 0.22489373 15131613
0.78583324 -0.07517048 0.22532228 15065821
0.78608316 -0.065072909 0.22539234 15197151
0.78769243 -0.055205639 0.22514446 15263201
0.78873324 -0.044981644 0.22522907 15789802
0.79000002 -0.042280398 0.22004344 15328995
0.78879982 -0.034829795 0.22524808 15000030
0.78869992 -0.02467067 0.22521928 14211026
0.79000002 -0.022861656 0.22004344 14803419
0.7886399 -0.014514215 0.22520201 14342868
0.79000002 -0.014539337 0.22004345 14737626
0.78887975 -0.0052845329 0.22527127 13947597
0.79000002 -0.0052923169 0.22004345 14145489
0.78899974 0.0048732297 0.22530612 13882317
0.79000002 0.0039547044 0.22004344 14145489
0.7889998 0.015032077 0.22530608 13618632
0.78856659 0.025175804 0.22518155 13289410
0.78796005 0.035302617 0.22500864 12302771
0.78588563 0.045456816 0.22520384 13158852
0.78268003 0.055220257 0.22533439 13816782
0.78199977 0.065242313 0.22513792 13750733
0.78148001 0.075260103 0.22498648 13948112
0.77900016 0.08717981 0.22731359 14277077
0.78065002 0.083861038 0.22383387 14145491
0.77865219 0.094327152 0.22544193 14342872
0.78033334 0.09737692 0.22343911 14408665
0.78544438 0.10500102 0.2250374 14408667
0.78900003 0.11107936 0.22530608 15000804
0.79086959 0.11585178 0.22471496 11250855
0.79232007 0.12453184 0.22440216 11316647
0.78735703 -0.17485413 0.23497316 12434875
0.78307158 -0.16453955 0.23519909 14605270
0.78060019 -0.15507664 0.23478524 15131615
0.7819714 -0.1454082 0.23506618 15329508
0.7845667 -0.13474037 0.23505954 15394787
0.7850399 -0.12471543 0.23520179 15197409
0.78407705 -0.11524626 0.23512317 15065565
0.78225005 -0.10504516 0.23528081 15131615
0.78203428 -0.095072128 0.23505928 15065822
0.7840668 -0.085093841 0.2349108 15065564
0.78596002 -0.075183406 0.23547779 14999771
0.78513324 -0.064995386 0.23522948 15131099
0.78641379 -0.05484613 0.2348498 15197150
0.78794456 -0.044936948 0.23514979 14934235
0.78800005 -0.034730863 0.23500749 15065822
0.78800005 -0.024648501 0.23516652 14013647
0.78800005 -0.014502531 0.23516652 13882317
0.78806674 -0.0052791317 0.23518603 13816524
0.78854281 0.0047393423 0.23519526 13684939
0.7889998 0.015032078 0.23454142 13684681
0.78824246 0.025417155 0.23481917 13224130
0.78743345 0.035278492 0.23499769 12829116
0.78567731 0.045166247 0.23521529 12763581
0.78388017 0.055304628 0.23485588 13421768
0.78254849 0.065434068 0.23463345 13421768
0.78126675 0.075238839 0.23498693 13684940
0.7790001 0.086461395 0.2352161 14540251
0.7803334 0.081239492 0.23501079 13750735
0.77864301 0.093086459 0.23484774 14868704
0.78108341 0.097927697 0.23569433 15000290
0.7861923 0.10524002 0.23498076 14934754
0.78900003 0.11107937 0.23269434 14934754
0.79217398 0.11588386 0.23548417 11645357
0.78692585 -0.17476004 0.24497734 12698048
0.78214812 -0.16474479 0.2449147 14671064
0.78096002 -0.15514699 0.24495083 15131614
0.78196776 -0.14512929 0.24508859 15328993
0.78419459 -0.13467507 0.24504553 15328994
0.78460008 -0.12464727 0.24517161 15131616
0.78289682 -0.11533885 0.24479768 15131614
0.7821331 -0.10502832 0.24531749 15131614
0.78284639 -0.094903037 0.24533013 15065821
0.78430575 -0.085121118 0.24507955 14868442
0.78533334 -0.07512366 0.24540026 14868441
0.78488886 -0.064975232 0.24526204 15130843
0.78536665 -0.054900847 0.24541055 15328993
0.78716135 -0.045039114 0.24522793 15460836
0.788077 -0.034868732 0.24512312 14934492
0.78810006 -0.024652217 0.24534354 14277075
0.78800005 -0.014502531 0.24531244 14079696
0.78800005 -0.0052789189 0.24531247 14079696
0.78809679 0.0050172876 0.24516332 14013904
0.78896642 0.015031599 0.24468976 13882317
0.78866655 0.024926957 0.24501638 13553095
0.78772008 0.035291299 0.24522501 13158081
0.78616124 0.045491207 0.24491845 12829116
0.78493327 0.055380311 0.24527694 13553097
0.78362876 0.065244377 0.24500073 13289668
0.78156 0.075266317 0.24513744 13684939
0.77833331 0.085888438 0.24503548 13882066
0.78000003 0.080596395 0.24464798 12829635
0.77827781 0.0932744 0.24542266 14671582
0.78172737 0.097911976 0.24502204 14934240
0.78678572 0.10518211 0.24512954 14802909
0.79188895 0.11499248 0.24508056 12171444
0.7868889 -0.17468306 0.25492615 12764099
0.78227574 -0.16444038 0.25527567 14737114
0.78249997 -0.15508589 0.25514185 15394786
0.78344458 -0.14504291 0.254697 15526372
0.78381497 -0.13512287 0.25481516 15394786
0.78325027 -0.12502109 0.25503048 15131614
0.78300017 -0.11522644 0.25475404 15197408
0.78330022 -0.10518369 0.25485289 15197407
0.78480005 -0.09528134 0.25534162 15131614
0.78343362 -0.085029989 0.25489515 15065821
0.78327602 -0.074799635 0.25559983 14934492
0.78261137 -0.06478706 0.25554067 14933979
0.78333348 -0.054961603 0.25526774 15263201
0.7856856 -0.044674523 0.25483817 15395041
0.78750008 -0.034968372 0.25496596 15197663
0.78800005 -0.024648501 0.25453609 14605783
0.78800005 -0.014502531 0.25453609 14276820
0.78751731 -0.0051497538 0.25514221 14277076
0.78741688 0.0048641344 0.25526795 14342869
0.78803706 0.014809282 0.25495693 13882316
0.78810006 0.02516184 0.25456792 13619145
0.78723347 0.035269056 0.25520891 13487561
0.78591412 0.0451985 0.25491363 12763838
0.78499991 0.055385251 0.25540474 13487560
0.78380013 0.065389268 0.25501415 13026752
0.78170002 0.075279959 0.25524554 13684939
0.77803856 0.085644804 0.25510141 13816014
0.78000003 0.080596395 0.25377795 13157570
0.77769578 0.094608784 0.25508606 14737375
0.78100008 0.098983079 0.25227344 15000804
0.78483337 0.10498872 0.25516129 14737374
0.78883338 0.11167159 0.25634372 14079188
0.79204553 0.11631582 0.2546621 11513000
0.79286379 -0.18434809 0.26496127 9474445
0.78632146 -0.17469344 0.2648392 12435132
0.78180766 -0.16460945 0.26513505 14737370
0.78200006 -0.15464385 0.2645244 15329250
0.78336364 -0.14511991 0.26520467 15592422
0.78394312 -0.13476631 0.26507425 15460579
0.78316158 -0.12459452 0.26497978 15131614
0.78300029 -0.11522643 0.26483572 15197151
0.7840001 -0.10549142 0.26490331 15131614
0.78596002 -0.095422439 0.26491657 15263200
0.78358841 -0.084833436 0.26476458 15262943
0.77900004 -0.070870131 0.26895365 15131101
0.78139991 -0.075041436 0.26484162 15131357
0.77900016 -0.065291904 0.2676127 14999516
0.78029406 -0.06432616 0.26300651 14868185
0.77900004 -0.05992822 0.26895365 14143695
0.78246439 -0.054500695 0.26497978 15328994
0.78515142 -0.045026775 0.26514423 15329250
0.78670365 -0.034530707 0.26475626 14934492
0.78735304 -0.024898855 0.26424533 14474197
0.78651422 -0.014633643 0.26494056 14211026
0.78657687 -0.0054112868 0.26491001 14342868
0.78626668 0.004856504 0.26501971 14474454
0.7872144 0.015196289 0.26474619 14211282
0.78766686 0.025147835 0.26456872 13750731
0.78636009 0.035230365 0.26505053 13816524
0.78586656 0.045327969 0.26488471 13421767
0.78519994 0.055398516 0.26466039 13290181
0.78403127 0.065637857 0.26461062 12829631
0.77900004 0.078669414 0.26986548 13290180
0.78139997 0.075250909 0.26520911 13487559
0.7777223 0.084909625 0.26487058 13553355
0.77773088 0.094438903 0.26438516 14671837
0.78050005 0.098919705 0.26764494 14671582
0.78441674 0.10500878 0.26493257 14605787
0.78858346 0.11194424 0.26487848 13750221
0.79162508 0.11689531 0.26531953 11118499
0.79240912 -0.18440986 0.27492926 9474188
0.78654164 -0.17505848 0.27470276 12566717
0.77900004 -0.16182482 0.27716008 14408407
0.78104001 -0.16562442 0.27437529 14671834
0.77895015 -0.15465732 0.2761392 15066592
0.7804001 -0.15521914 0.27144611 15066591
0.77863169 -0.14557151 0.2763564 15395556
0.78093338 -0.14453821 0.27199662 15592935
0.77850008 -0.13779971 0.27766517 15461349
0.78179991 -0.13437572 0.27441987 15395300
0.78317255 -0.12517676 0.27510265 15131871
0.78239304 -0.11494187 0.27529043 15000028
0.78236854 -0.10486519 0.27526864 15131614
0.78432262 -0.095340736 0.27466637 15197664
0.7832188 -0.085237935 0.27464795 15196895
0.7790001 -0.071781956 0.27533644 15262688
0.78052634 -0.076299451 0.27472106 15262689
0.77836001 -0.06534639 0.27510956 15196895
0.77884632 -0.058373295 0.27570274 14407893
0.78127265 -0.053533837 0.27464166 15197409
0.78333342 -0.044421971 0.27453095 15263459
0.78420013 -0.03462512 0.27441731 14737628
0.78419995 -0.025448959 0.27441603 14408663
0.78309113 -0.015579852 0.27444589 14211284
0.78386676 -0.0052499021 0.27429941 14277077
0.78577781 0.004856254 0.27497104 14540248
0.78683347 0.014990795 0.27534112 14277076
0.78644443 0.025107704 0.27520457 14145490
0.78493333 0.035166323 0.27467582 14013904
0.78483331 0.045269135 0.27464184 13948111
0.78506655 0.055389952 0.27472383 13882317
0.78382361 0.065175138 0.27455708 13092802
0.77877784 0.077633828 0.27627024 13223876
0.78131574 0.073992074 0.27432528 13355462
0.7767275 0.084885053 0.27502778 13553100
0.77854556 0.092542142 0.27484486 14474459
0.78178579 0.09738493 0.27527598 14606046
0.78680003 0.10524821 0.27477893 14474459
0.78900003 0.11107936 0.27517682 15000802
0.79150003 0.11623467 0.27554241 11908528
0.78875005 -0.18069935 0.28709084 9474445
0.79255563 -0.18487372 0.28455865 9408651
0.78574997 -0.1754186 0.28507474 12237499
0.77899998 -0.16353874 0.28580555 14539736
0.78100008 -0.16897038 0.28355855 14803425
0.77800012 -0.1545617 0.28499871 15066078
0.77680027 -0.14522906 0.28455889 15394787
0.7776857 -0.13550819 0.28501344 15460579
0.78000003 -0.13121891 0.28116786 15198177
0.77895254 -0.12505081 0.28756332 15263970
0.7811904 -0.124626 0.28211778 15198177
0.77850002 -0.11431683 0.28659073 15000799
0.78070009 -0.11598569 0.28160185 15066078
0.77800012 -0.10517375 0.28576815 14869213
0.78000003 -0.104742 0.28116786 14935005
0.77791685 -0.09535607 0.28678873 15066336
0.78100002 -0.094558083 0.28165743 15131871
0.77805012 -0.08535479 0.28683779 15065823
0.78126317 -0.08455351 0.28181416 15065823
0.77846432 -0.074660592 0.28614458 15065823
0.78060001 -0.076864026 0.28211504 15328995
0.77746677 -0.065271772 0.28480384 14933981
0.77870959 -0.056023505 0.28564224 14737371
0.78000003 -0.051240377 0.28335905 15132386
0.77900004 -0.047162645 0.28992566 14869214
0.78147215 -0.044565722 0.28444144 14935007
0.78213328 -0.034535274 0.2846826 14474456
0.77899998 -0.023455158 0.28862306 14211284
0.78157681 -0.025644524 0.28384539 14342870
0.77886683 -0.014699325 0.28841707 14277077
0.78133339 -0.015599938 0.28306922 14342870
0.77900004 -0.0068396521 0.28850725 14211284
0.78128004 -0.0047943504 0.28360227 14145491
0.78291672 0.0048384205 0.2849645 14606042
0.78403342 0.01493761 0.28536949 14277077
0.78438902 0.025043113 0.28550059 14277077
0.7839669 0.035124261 0.28534833 14211284
0.78484839 0.045186091 0.28525355 13882319
0.78446668 0.055346835 0.2855306 13750733
0.78277802 0.065304987 0.28491694 13816526
0.77840924 0.076123364 0.28548181 13487048
0.78050005 0.071968742 0.28363031 13421254
0.77645493 0.084689975 0.28484714 13421513
0.7774784 0.09410733 0.2856383 14540249
0.78144449 0.098024182 0.28270328 14606043
0.78661293 0.10516472 0.28503209 14474202
0.78900003 0.11181819 0.28607446 14803168
0.79082352 0.11645602 0.28474241 11382184
0.78784621 -0.18177047 0.29591182 9211018
0.79211766 -0.18692748 0.29436818 9211272
0.77900004 -0.17117105 0.29904392 15394788
0.78269559 -0.17485543 0.29472169 13224392
0.77893102 -0.16461681 0.29549596 14934237
0.78000003 -0.16956478 0.29121083 15263974
0.77717865 -0.15420337 0.29528931 15592167
0.77610028 -0.14509821 0.29520518 15526373
0.77619481 -0.13512075 0.29524049 15460581
0.77758622 -0.12516125 0.29504591 15460581
0.77723348 -0.11474381 0.29527113 15328995
0.77623367 -0.10514502 0.29525489 15000030
0.77572238 -0.095088243 0.29506063 14934237
0.77596688 -0.085126348 0.29515442 15065823
0.77665651 -0.075427979 0.29484785 15066080
0.77704018 -0.065234721 0.29465318 14802651
0.77803338 -0.055297997 0.29502967 14869214
0.77900016 -0.046519004 0.29614753 14935007
0.78061545 -0.043323573 0.29291523 14803421
0.77900004 -0.034397073 0.29858801 14211284
0.78070366 -0.035487179 0.29407737 14408663
0.77816683 -0.025101455 0.29523072 14145491
0.78033334 -0.028366961 0.29103056 14145491
0.7772426 -0.015296713 0.29522425 14145491
0.77876002 -0.0052162693 0.29530489 14277077
0.78000003 -0.0015733372 0.29029784 14145491
0.7790001 0.0029878123 0.29615644 14277077
0.78041679 0.0057338946 0.29418156 14342870
0.7790001 0.014012624 0.29755184 14145491
0.78068423 0.015354784 0.29334062 14211284
0.77900004 0.023047997 0.29904392 14079955
0.78137511 0.025176821 0.29480779 14211284
0.78193337 0.035034023 0.29559061 14211285
0.78312147 0.04525378 0.29462323 14079700
0.78259993 0.055215549 0.29492804 13487563
0.77900004 0.069551148 0.29904392 13487561
0.78148568 0.065067172 0.2952916 13684940
0.77881831 0.075501211 0.29557604 14013651
0.78000003 0.071466424 0.29303682 13750735
0.77648598 0.084905334 0.29522142 13487307
0.77676952 0.094463341 0.29483005 14408410
0.78100002 0.098983079 0.29981166 14408410
0.7852692 0.10504653 0.29501483 13223877
0.78900003 0.11138722 0.29487881 12566461
0.79090011 0.11606997 0.29518828 10987428
0.787875 -0.18361303 0.30521727 9145224
0.79062504 -0.18807 0.30396771 9145223
0.77900004 -0.17117105 0.30269122 14736605
0.78209096 -0.17584923 0.30514032 11776178
0.77866662 -0.16482025 0.30458677 14868190
0.78000003 -0.16865179 0.30855778 15066085
0.77635515 -0.15511361 0.30482891 15395303
0.7760002 -0.14507906 0.30515882 15592423
0.77603364 -0.1350932 0.305172 15461093
0.77675873 -0.12484037 0.30501926 15395043
0.77666694 -0.11528786 0.30464986 15460837
0.77579999 -0.10508664 0.30508077 15066080
0.77583349 -0.095101163 0.30509382 15000030
0.7760002 -0.085130222 0.30515879 15065567
0.77664733 -0.074985847 0.30477133 15131873
0.77733356 -0.065258786 0.30477506 14737628
0.77763361 -0.055575144 0.30404261 14803678
0.78000003 -0.050875176 0.30855778 15001057
0.77865016 -0.045317329 0.3034668 14803421
0.78183335 -0.044586223 0.30928302 14606299
0.77900016 -0.035612844 0.30279252 14408663
0.78136373 -0.034501445 0.30793521 14408664
0.77754557 -0.024985163 0.30345103 14211284
0.78133339 -0.027185204 0.30908525 14145491
0.77680671 -0.01511739 0.30471581 14079699
0.77804774 -0.0056439969 0.30353627 14145748
0.78075004 -0.0029449309 0.30839798 14474459
0.77900004 0.00098179397 0.3023265 14145491
0.78140908 0.0053247162 0.30545986 14343127
0.77900004 0.016209297 0.30132347 13816526
0.78112507 0.014538499 0.30500507 14145748
0.77900016 0.024871647 0.30269122 14079956
0.78175002 0.024958575 0.30833608 14079956
0.77900004 0.031254437 0.30269122 14014679
0.78140002 0.035010088 0.30481511 14014422
0.78213328 0.045113262 0.30391017 14014423
0.78212011 0.055181678 0.30390453 13948630
0.77899998 0.068248533 0.30269122 13158597
0.78109097 0.064334437 0.3057498 12698050
0.7775833 0.075262867 0.30388558 13027013
0.78050005 0.072425231 0.30875558 10395294
0.77603221 0.084579974 0.30499727 14013650
0.77738893 0.093674548 0.30459338 14671582
0.78171432 0.098551221 0.30636182 14474201
0.7869131 0.10510461 0.30472451 11711151
0.79000002 0.10937075 0.30881482 10592924
0.78900003 0.11107937 0.30103567 10921632
0.79200006 0.11536762 0.3052704 10855839
0.78839999 -0.18295817 0.3142195 9473931
0.7902 -0.18676655 0.31647766 9737358
0.78585005 -0.17488602 0.31538382 9868435
0.77900004 -0.16114096 0.31180951 14473435
0.7828126 -0.16570982 0.31471345 11710384
0.778 -0.15415478 0.31221974 15658732
0.78350002 -0.15549763 0.31804574 14474460
0.77809101 -0.14497258 0.31244037 15658987
0.78354549 -0.14515406 0.31813282 14408667
0.77771431 -0.1357746 0.31155539 15658217
0.7827273 -0.13484171 0.31646863 15329511
0.77900004 -0.12649156 0.31180951 15723753
0.78323078 -0.12442821 0.31576294 15658216
0.77840006 -0.11455186 0.31156933 15395556
0.78310001 -0.11524443 0.31620222 15724009
0.77740002 -0.10530422 0.31208017 15395305
0.78245467 -0.10465714 0.31768954 13355723
0.77791673 -0.095356166 0.31228751 15263975
0.78240001 -0.094990179 0.31775039 11381934
0.778 -0.085349657 0.31232104 15395304
0.78308344 -0.084990226 0.31802818 10395038
0.77833337 -0.076881699 0.31184661 15723754
0.78261542 -0.075004458 0.31621927 12697536
0.78327775 -0.064839587 0.31535888 12763844
0.78490007 -0.05486713 0.31509635 13093837
0.78684998 -0.045241877 0.31532416 13817559
0.79000002 -0.043205105 0.31991127 9015446
0.78766668 -0.034779754 0.31528085 14013910
0.79000002 -0.034882784 0.31991127 8949135
0.78626323 -0.024934916 0.31549639 12632252
0.79000002 -0.028409868 0.31991127 8882055
0.78373688 -0.015100993 0.31506172 12302773
0.78505003 -0.0052563469 0.31515512 10921639
0.78708339 0.0048610996 0.3150492 10790049
0.79000002 0.0076535125 0.31991127 9145479
0.78694999 0.014992671 0.31407493 11645100
0.79000002 0.015051129 0.31991127 9079687
0.78749996 0.024975704 0.31638816 9539466
0.78721732 0.035270005 0.31510344 10527134
0.79000002 0.039093386 0.31991127 9080455
0.78695464 0.044971328 0.31390887 11053482
0.79000002 0.044641595 0.31991127 9080202
0.78703564 0.054935265 0.31522879 9870236
0.78654552 0.064782806 0.31542036 9935258
0.78477281 0.074656017 0.31529436 9868948
0.77900004 0.086875856 0.31180951 13289929
0.78330773 0.084605105 0.31579337 11119016
0.78473687 0.095786951 0.31546283 11974326
0.78830761 0.10360139 0.31397396 10527132
0.79074997 0.1077787 0.31589639 10592924
0.78866673 -0.17360336 0.32183328 10066324
0.79140002 -0.17599562 0.32616153 10263960
0.78799999 -0.16466324 0.32266942 10197656
0.79071426 -0.16581067 0.32707641 10395288
0.78850007 -0.15479957 0.32391918 9803156
0.79100001 -0.15529038 0.32772318 10330007
0.78854555 -0.14507475 0.32402176 9803414
0.79083329 -0.14507619 0.32765409 10198421
0.78761542 -0.13519491 0.32220936 10592673
0.79074997 -0.13418384 0.32692608 10066580
0.7883001 -0.12523282 0.32199177 10723747
0.7915833 -0.12482691 0.3270396 10000788
0.78792858 -0.11450382 0.32223579 10460830
0.79124999 -0.11528289 0.32713324 10066580
0.78776932 -0.10443822 0.32425845 9803153
0.79049999 -0.10553572 0.32875016 10001041
0.7875883 -0.094968818 0.32457659 9934995
0.79000002 -0.094988413 0.32915828 10001041
0.78762496 -0.084906422 0.32436812 9934739
0.79039997 -0.084858239 0.32932496 10132370
0.78773344 -0.075353317 0.32342148 9803153
0.79079998 -0.073979869 0.32875186 10066577
0.78813338 -0.065796219 0.32247755 9606031
0.79111105 -0.064357139 0.32735851 10000784
0.78880006 -0.056619059 0.32164133 9146513
0.79261535 -0.055266801 0.32611197 9934738
0.78900003 -0.020985655 0.32135338 8882308
0.79231834 -0.025123609 0.32574296 9277321
0.78850007 -0.014511732 0.32207328 9211273
0.79128569 -0.014298132 0.32771081 9343113
0.78866673 -0.005897902 0.32152545 9080455
0.79128581 -0.005035392 0.32612327 9277321
0.79234993 0.035500444 0.3255035 9277577
0.79245001 0.044779811 0.32554436 9277835
0.78900003 0.059361596 0.32135338 9147020
0.79169571 0.054729186 0.32535517 9277834
0.78900003 0.064902782 0.32135338 9145993
0.79133332 0.065093935 0.32601082 9474442
0.78866673 0.075952284 0.32183328 9474699
0.79106677 0.074702807 0.32627067 9671821
0.78800005 0.085111059 0.32186913 9869459
0.7912308 0.085889287 0.32753536 10198421
0.78827286 0.094874173 0.32189634 10329754
0.79128563 0.094464563 0.32771081 10396316
0.78900003 0.10184405 0.32135338 10790303
0.79245847 0.10554016 0.32508186 10527646
