# .PCD v0.7 - Point Cloud Data file format
VERSION 0.7
FIELDS x y z rgb
SIZE 4 4 4 4
TYPE F F F U
COUNT 1 1 1 1
WIDTH 575
HEIGHT 1
VIEWPOINT 0 0 0 1 0 0 0
POINTS 575
DATA ascii
0.79438895 -0.60506231 -0.42590636 12103609
0.7941305 -0.59496343 -0.42471904 12499137
0.79422212 -0.58448416 -0.42395723 12564931
0.79562503 -0.57480425 -0.42482358 12433344
0.78866673 -0.62378871 -0.41360354 13289167
0.7877143 -0.61495566 -0.41565281 13552082
0.7876665 -0.60499543 -0.41510072 13552339
0.79000002 -0.60357457 -0.41985044 13748947
0.78789997 -0.59505159 -0.41329464 13486290
0.79000002 -0.59432757 -0.41800103 13748947
0.78853339 -0.58491683 -0.41353378 13354447
0.79000002 -0.5850805 -0.41800103 13617361
0.78868747 -0.5754537 -0.4136146 13617876
0.79057139 -0.57400167 -0.41803923 13683667
0.78872734 -0.5652529 -0.41229209 13354704
0.79107147 -0.56417811 -0.41724661 13618131
0.78900003 -0.55552572 -0.41082248 13487060
0.79138893 -0.55440682 -0.41647413 13552851
0.78900003 -0.54739869 -0.41008365 13092043
0.79136008 -0.54484814 -0.41524121 13683667
0.79175007 -0.53520608 -0.41529012 13947096
0.79126906 -0.52489138 -0.41497117 14210012
0.78900003 -0.513228 -0.41008365 14867685
0.79117388 -0.51512456 -0.41492102 14275547
0.79236007 -0.50450164 -0.41465312 14472670
0.79210001 -0.44478112 -0.41447845 14210778
0.7923637 -0.43514556 -0.41478574 14210266
0.79374999 -0.42526391 -0.41534367 13815764
0.79385722 -0.41488066 -0.41535532 13684433
0.79275018 -0.40477967 -0.41482028 13882068
0.79257149 -0.39512271 -0.41486073 14342106
0.78900003 -0.38023943 -0.41008365 14078677
0.79195005 -0.38536769 -0.41440231 14408412
0.78900003 -0.37469825 -0.41008368 14210265
0.7912941 -0.37469709 -0.41541919 14276571
0.78900003 -0.36620176 -0.41045308 14473436
0.79128575 -0.36484352 -0.41506749 14671329
0.78809518 -0.62509507 -0.40460551 13486291
0.78525919 -0.61489838 -0.4051421 13486546
0.78499997 -0.60508239 -0.40511492 13421267
0.78697371 -0.5948115 -0.40442204 13552596
0.78812504 -0.58495969 -0.40524474 13486546
0.78841931 -0.57536566 -0.40519595 13487060
0.79000002 -0.57213467 -0.40135637 13816025
0.7885384 -0.56553751 -0.40636367 13355217
0.79000002 -0.56381238 -0.40181875 13552853
0.78899997 -0.55571049 -0.40695789 13618646
0.79000002 -0.5540722 -0.40332904 13684696
0.78900003 -0.5483222 -0.40823659 13026509
0.79004014 -0.54497576 -0.40477955 13355731
0.79010379 -0.53505743 -0.40523532 13881304
0.78900003 -0.52061629 -0.40823659 13749460
0.79008347 -0.52518475 -0.4049435 14473183
0.78900003 -0.51433623 -0.40712833 14210011
0.79000002 -0.51521415 -0.40330851 14078425
0.78900003 -0.50768685 -0.40731302 14275804
0.7902084 -0.5040704 -0.40400484 14538976
0.79122239 -0.49522331 -0.40475523 14736356
0.79210705 -0.484983 -0.40448022 14407903
0.79285187 -0.47531161 -0.40445569 14408159
0.79225916 -0.46506646 -0.40477061 14342367
0.79103351 -0.45529333 -0.40465912 14013145
0.79007715 -0.44563654 -0.40488112 14012888
0.78900003 -0.43441999 -0.40392679 14802146
0.79000002 -0.43541092 -0.40531939 14539231
0.78900003 -0.4282631 -0.40361893 14210265
0.79016685 -0.42465672 -0.40537262 13947606
0.7901727 -0.41486624 -0.4050169 13947863
0.78899997 -0.40268835 -0.40368998 14013912
0.79008335 -0.40650204 -0.40602303 13947863
0.78891289 -0.39473182 -0.40417662 14408412
0.79000002 -0.39829069 -0.40875399 14079447
0.78878552 -0.38508239 -0.40436655 14407899
0.78874063 -0.37498474 -0.40447763 14276313
0.78895813 -0.36559737 -0.40467501 14473436
0.79000002 -0.36084029 -0.40366811 14605534
0.78900003 -0.35992175 -0.40546599 14473178
0.7929489 -0.35428721 -0.40470621 15066086
0.79276472 -0.63445604 -0.39533389 10064289
0.78852934 -0.62346309 -0.3956131 13815255
0.79014289 -0.62812674 -0.39323673 14077662
0.78750014 -0.61485749 -0.39535987 13946839
0.78786111 -0.60470498 -0.39565548 14078426
0.78868413 -0.5955233 -0.39650872 14013147
0.79007143 -0.59398454 -0.39201251 14144476
0.78900003 -0.58587915 -0.39869344 13947611
0.79053348 -0.58479601 -0.39428499 14144733
0.79105884 -0.57475263 -0.39541009 14210524
0.79109699 -0.56477427 -0.39557844 14013147
0.79083359 -0.55515033 -0.39529905 14079197
0.79051632 -0.54549628 -0.39499119 14013147
0.79008603 -0.53507262 -0.39505777 14276061
0.79080027 -0.52471262 -0.39515033 14341854
0.79067767 -0.51449841 -0.3953701 14078425
0.79077798 -0.50533319 -0.39475781 14605026
0.79116684 -0.49518928 -0.39454111 14868197
0.79171997 -0.48534191 -0.3948175 14933990
0.7920332 -0.4753364 -0.39497289 14671332
0.79211992 -0.4651899 -0.39501616 14868454
0.79166669 -0.45524555 -0.39458308 14473953
0.79106468 -0.44497511 -0.39526355 14144986
0.79087514 -0.43518209 -0.39554918 14408414
0.79102868 -0.42486617 -0.39526254 14605537
0.79074216 -0.4145788 -0.3954016 14342107
0.78900003 -0.40055713 -0.39900127 14079449
0.79027599 -0.40503275 -0.39486051 14210778
0.78900009 -0.39417639 -0.39765799 14539486
0.79030001 -0.39585131 -0.39299732 14539486
0.78899986 -0.38485709 -0.39715418 14605534
0.79011768 -0.38513058 -0.39227626 14736607
0.78900003 -0.37516001 -0.397616 14473948
0.79000002 -0.37486494 -0.3927258 14670814
0.78900003 -0.36694062 -0.39733896 14342619
0.7900002 -0.36407676 -0.39374521 14473948
0.79405415 -0.35477945 -0.39517203 15132135
0.79366672 -0.63464689 -0.38463756 10656684
0.78900003 -0.62146592 -0.38681066 14210012
0.79031253 -0.62590015 -0.38463274 14143965
0.7889998 -0.61520129 -0.38614878 14275804
0.79000002 -0.61271882 -0.38204038 14276061
0.78900003 -0.60588902 -0.38853458 14210011
0.79000002 -0.60405892 -0.38409528 14210268
0.79017884 -0.59479129 -0.38499737 14275804
0.79078585 -0.58493412 -0.38502941 14341597
0.79171878 -0.57482624 -0.38491198 14276574
0.79199988 -0.56523985 -0.38475865 14276318
0.79163647 -0.55520874 -0.38432774 14276061
0.79145467 -0.54497451 -0.38474458 14078425
0.79118532 -0.5352298 -0.3848764 14275804
0.79100019 -0.52471358 -0.38519871 14604513
0.7909202 -0.51447719 -0.38515946 14078168
0.79000014 -0.5046314 -0.38471177 14670562
0.7901541 -0.49526691 -0.38492966 14802404
0.79037958 -0.4852854 -0.38477004 15065320
0.79172724 -0.47489899 -0.38504779 14933990
0.79282838 -0.46480936 -0.38502857 15131880
0.79290313 -0.45469153 -0.38534537 15000551
0.79312915 -0.44517803 -0.38515505 14802915
0.79297042 -0.43505904 -0.38522995 14736608
0.79280627 -0.42494071 -0.38529894 14671328
0.79253095 -0.41498941 -0.38478318 14671072
0.79193932 -0.40468979 -0.38481253 14473693
0.79193544 -0.39481124 -0.38487506 14671071
0.79146433 -0.38533255 -0.38482818 14736607
0.79020011 -0.37526882 -0.38480869 14670814
0.79000026 -0.36500141 -0.38471174 14473692
0.79333335 -0.35445988 -0.38514602 15263720
0.79395008 -0.63447535 -0.37501785 10920627
0.79080015 -0.6243661 -0.37473288 14210013
0.79054314 -0.61496007 -0.37492755 14407390
0.79056698 -0.60493356 -0.37480667 14276318
0.79025841 -0.59526777 -0.37451184 14210011
0.79017174 -0.58507508 -0.37475255 14341597
0.79139394 -0.57524782 -0.3747794 14407647
0.79255164 -0.56486446 -0.37469333 14341854
0.79276919 -0.55486739 -0.37506679 14144732
0.79236001 -0.54509348 -0.37473091 14210268
0.79150009 -0.53503913 -0.3749201 14341853
0.79100019 -0.52473998 -0.37514633 14539744
0.79100019 -0.51452887 -0.37501404 14078681
0.79086685 -0.50518543 -0.37494901 14539489
0.79041952 -0.49546832 -0.37458792 14671332
0.79025751 -0.4852379 -0.3747929 14934246
0.79148489 -0.47525841 -0.37482214 15131367
0.79258609 -0.46469459 -0.37496659 15131367
0.79307693 -0.4548246 -0.37492889 15131111
0.79457587 -0.44498536 -0.37527189 15197417
0.79392862 -0.43485609 -0.37487358 15000294
0.79300004 -0.42486501 -0.37503415 14737379
0.79351503 -0.41466936 -0.37476918 14737377
0.79330766 -0.40474507 -0.37496421 14736864
0.79267997 -0.39500391 -0.37488285 14802400
0.79140741 -0.3849006 -0.37469253 14802144
0.78900003 -0.37100413 -0.37314239 14736094
0.7900455 -0.37569934 -0.3757388 14736350
0.7889998 -0.36537895 -0.3744857 14538973
0.79000002 -0.36407673 -0.37768403 14670816
0.78900003 -0.35992178 -0.37498942 14933987
0.79222858 -0.35423246 -0.37519738 15263719
0.79216659 -0.62470245 -0.36443859 14210528
0.79267639 -0.6151703 -0.36445504 14341856
0.79243308 -0.60512501 -0.3648091 14276062
0.79126936 -0.59457088 -0.36509573 14341599
0.79100013 -0.58489519 -0.36482945 14407391
0.79159999 -0.57514501 -0.3651062 14473183
0.79270571 -0.56459582 -0.36496115 14407390
0.79274994 -0.55483991 -0.36504048 14276318
0.79203987 -0.54487252 -0.36530945 14144988
0.79136008 -0.53514296 -0.36499578 14276061
0.79106468 -0.52472627 -0.36503783 14868194
0.79164004 -0.51494431 -0.36512387 13947608
0.79231232 -0.5049482 -0.36508614 14473951
0.79266655 -0.49520096 -0.36466885 14802659
0.79270566 -0.48529154 -0.36446878 15000038
0.79265618 -0.47513014 -0.36489603 15065574
0.79288226 -0.46498188 -0.36454967 14934245
0.79306245 -0.45495108 -0.36508301 14934501
0.7944119 -0.44520015 -0.36486998 15132136
0.79542446 -0.4348537 -0.36438364 15263465
0.79415631 -0.42484498 -0.36523652 15065829
0.79490006 -0.41546139 -0.36551064 14934243
0.79444832 -0.40505594 -0.36532784 14868450
0.79356682 -0.39544499 -0.36508188 14868193
0.79222572 -0.38532445 -0.36431548 14802400
0.78900003 -0.37100413 -0.36944827 14736094
0.7908712 -0.37558755 -0.36518499 14670815
0.78900003 -0.36527824 -0.36834002 14670046
0.7901668 -0.36477005 -0.36390495 14473694
0.78900003 -0.35992175 -0.36944827 15262440
0.79217654 -0.35498279 -0.36509633 15066600
0.7933479 -0.6253112 -0.35501036 14275804
0.79309994 -0.61522597 -0.35465828 14473183
0.79265374 -0.60453296 -0.35467285 14341598
0.79130006 -0.59438056 -0.35477978 14276063
0.79044855 -0.58448684 -0.35455641 14341854
0.79141676 -0.57501179 -0.35483202 14407390
0.79253113 -0.5649215 -0.35475114 14472926
0.79262954 -0.55435079 -0.35485917 14341854
0.79199988 -0.54484475 -0.35509321 14342367
0.79177141 -0.53462547 -0.35485727 14671076
0.79203218 -0.52465051 -0.35525674 14868966
0.79199988 -0.51517946 -0.35509333 14144988
0.79208809 -0.50525588 -0.35486025 14473696
0.7927199 -0.49523377 -0.35448924 14671332
0.79299992 -0.48519892 -0.35461339 14934760
0.7931785 -0.47449762 -0.3544938 15000552
0.79473335 -0.46467546 -0.35520071 14802915
0.79554546 -0.45467195 -0.35507271 14737122
0.79500002 -0.40546429 -0.35550782 14868963
0.7949667 -0.39521185 -0.35549277 14802914
0.79380006 -0.38441321 -0.35497084 14737121
0.79206896 -0.37417567 -0.35496438 14539999
0.79092878 -0.36470333 -0.35494378 14343135
0.79236358 -0.35521281 -0.35483462 14935270
0.79395461 -0.62535346 -0.34524009 14342369
0.7929666 -0.6151228 -0.34531689 14342367
0.79280001 -0.60478663 -0.3452436 14210781
0.79226905 -0.59489369 -0.34486872 14210524
0.79175001 -0.58472103 -0.34491676 14276829
0.7921111 -0.57500142 -0.34514847 14210780
0.79322839 -0.56505489 -0.34463343 14276061
0.7931481 -0.55512536 -0.34498239 14276061
0.79260004 -0.54525834 -0.34515613 14342367
0.79229981 -0.5348503 -0.34502539 14473697
0.79223996 -0.52460867 -0.34499991 14803173
0.79199988 -0.51517946 -0.34489587 14408158
0.79199988 -0.50498199 -0.34489584 14408160
0.79199988 -0.49478447 -0.34489578 14802916
0.79239982 -0.48483029 -0.3450703 15066088
0.79383343 -0.47455645 -0.3447631 15066087
0.7949667 -0.46500018 -0.34525698 14934500
0.79503345 -0.45480242 -0.34435642 14737377
0.79588896 -0.41502875 -0.3451409 15263721
0.79545468 -0.40518752 -0.34521368 15131878
0.79506063 -0.39483562 -0.34555182 14934756
0.7934348 -0.38488206 -0.34544069 14737377
0.79150003 -0.37496072 -0.34474978 14671584
0.7901727 -0.36434779 -0.34429133 14342877
0.79310811 -0.35436171 -0.34462291 14737890
0.79209077 -0.61447066 -0.33515859 14342367
0.793235 -0.60478896 -0.33500183 14211036
0.79333317 -0.59455633 -0.33534583 14210782
0.79299992 -0.58451772 -0.33512086 14276575
0.79314685 -0.57468617 -0.33518308 14342111
0.7938149 -0.56508917 -0.33460537 14144988
0.7931785 -0.55474156 -0.33486512 14276831
0.79299992 -0.54553276 -0.33512086 14144990
0.79297203 -0.53530383 -0.335109 14473955
0.79331249 -0.5249694 -0.33501878 14868456
0.79324985 -0.51506364 -0.33522359 14473440
0.79265612 -0.50482064 -0.33520558 14407390
0.7920332 -0.4948054 -0.33471221 14802403
0.79277766 -0.48506084 -0.33502632 15131367
0.79476666 -0.47511521 -0.3349371 15197159
0.79496002 -0.46499658 -0.33501869 15065573
0.79377794 -0.45460051 -0.33452085 14868450
0.79516006 -0.41485381 -0.33510348 15263208
0.7953704 -0.40523875 -0.33539969 15263208
0.79492861 -0.39486173 -0.33480647 15131621
0.79295653 -0.38481069 -0.33490092 14868963
0.79148489 -0.37531841 -0.33462036 14671584
0.79120702 -0.36463159 -0.33484074 14408412
0.79148149 -0.61496472 -0.32469958 14342366
0.79246658 -0.60545844 -0.32469326 14276573
0.79253834 -0.59509563 -0.32486561 14407646
0.79272395 -0.5850811 -0.32467011 14473440
0.79300004 -0.57523555 -0.32491061 14342111
0.79313332 -0.56511962 -0.32496479 14342367
0.79295999 -0.55478716 -0.32489419 14342624
0.79219991 -0.54498315 -0.3245824 14408160
0.79266644 -0.53509593 -0.32477418 14539490
0.79482365 -0.52516896 -0.32500038 14868711
0.79550004 -0.51559466 -0.32500347 14671075
0.79451621 -0.50547749 -0.32445022 14539233
0.79378766 -0.49511182 -0.32421631 14736868
0.79470593 -0.48531038 -0.32467529 15197673
0.79511774 -0.47505245 -0.32506549 15131623
0.79503232 -0.46485838 -0.32466236 14999781
0.79448164 -0.40526974 -0.32510459 15263208
0.79455894 -0.3947888 -0.32489234 15197157
0.79437929 -0.38482001 -0.32438287 15131621
0.79275852 -0.37475747 -0.3251282 14671327
0.79185176 -0.36513633 -0.32485193 14474205
0.79192299 -0.61502582 -0.31498513 14276574
0.79234284 -0.60523146 -0.31457046 14276317
0.79269689 -0.59492213 -0.31432486 14407390
0.79322845 -0.58484304 -0.31481513 14473696
0.79423529 -0.57492769 -0.31540704 14408160
0.79426664 -0.56499755 -0.31520084 14408160
0.79360002 -0.5552361 -0.3149367 14276574
0.79276663 -0.54537261 -0.3146067 14473953
0.79294425 -0.53528464 -0.31467786 14473953
0.79368973 -0.52537566 -0.31462359 14868711
0.79442865 -0.51549536 -0.3141399 14802918
0.7949667 -0.50501233 -0.31455019 14539746
0.79457152 -0.40518004 -0.31499085 15000549
0.79437512 -0.39514861 -0.31466523 15131621
0.79464006 -0.3848182 -0.31442225 15131877
0.79362953 -0.37510973 -0.31512299 14868705
0.79167998 -0.36485222 -0.31510296 14539742
0.79262829 -0.61499214 -0.30514145 14407645
0.79353338 -0.604415 -0.30469412 14407645
0.79444003 -0.594877 -0.30504215 14407902
0.7949 -0.5849874 -0.30521888 14473951
0.79508001 -0.5748831 -0.3052884 14408160
0.79488009 -0.56543481 -0.3052122 14408160
0.79343987 -0.55512404 -0.30465972 14342367
0.79300004 -0.5455327 -0.30448985 14342368
0.79299992 -0.53532243 -0.30448994 14539748
0.79300004 -0.52511203 -0.30448988 14868712
0.79350001 -0.51522416 -0.30468127 14934505
0.7943846 -0.40529567 -0.30480751 15000293
0.7930001 -0.39494866 -0.30463421 15131622
0.79256004 -0.38529494 -0.30432254 15197671
0.79167736 -0.37465462 -0.30422255 14934756
0.79130012 -0.3646751 -0.30476281 14474462
0.79309368 -0.61498898 -0.29489401 14473696
0.79411125 -0.60485548 -0.29469028 14276573
0.79463345 -0.59502244 -0.29488441 14276573
0.79483336 -0.58493829 -0.29495949 14276828
0.79493338 -0.57477736 -0.29499736 14408414
0.7940715 -0.56506002 -0.29501024 14473952
0.79263991 -0.55456412 -0.29507446 14408160
0.7918399 -0.5447349 -0.29477665 14407904
0.79233319 -0.5348717 -0.29496053 14605283
0.79339993 -0.52444637 -0.29504651 15000297
0.79497069 -0.51492047 -0.2952289 14934504
0.79382139 -0.40486568 -0.29458389 15000549
0.79231995 -0.39482316 -0.29495341 15066341
0.7922799 -0.38552994 -0.29493859 15197670
0.79146677 -0.3749443 -0.29463589 15197414
0.79159999 -0.364813 -0.2946859 14671584
0.79405403 -0.61503381 -0.28519902 14473440
0.79576004 -0.58469105 -0.28505656 14276830
0.79468 -0.57459509 -0.28467071 14408416
0.793926 -0.56455028 -0.28481272 14342622
0.79256648 -0.55451316 -0.28484148 14211035
0.79134488 -0.54452288 -0.28456146 14408157
0.79191655 -0.53459078 -0.28460747 14539744
0.79290611 -0.52470076 -0.28508022 14868711
0.79446441 -0.51551831 -0.28439549 14934504
0.79543334 -0.5053072 -0.28494203 15066088
0.79423994 -0.46457702 -0.28451535 14803170
0.79292858 -0.454328 -0.28464091 14671584
0.79345441 -0.44486326 -0.28473896 14803170
0.79480767 -0.40522414 -0.28493026 15066341
0.79394299 -0.39483511 -0.28520122 15066341
0.79325801 -0.38432848 -0.28523901 15197669
0.79229993 -0.37441161 -0.28474513 14999779
0.79199988 -0.36499846 -0.28463799 14867936
0.79337955 -0.61489743 -0.27485591 14539746
0.79429996 -0.60462624 -0.27524036 14408160
0.79581493 -0.59514707 -0.27583456 14473953
0.79523087 -0.58487386 -0.27548993 14408160
0.79427993 -0.57467723 -0.27523187 14473953
0.7935769 -0.56472212 -0.27484533 14474207
0.79288 -0.55473155 -0.27474537 14408414
0.79219222 -0.54483408 -0.27472004 14342367
0.79246646 -0.53496224 -0.27460101 14473953
0.79276919 -0.52474362 -0.27456358 14803172
0.79508346 -0.51516396 -0.27483347 14869222
0.79564524 -0.50499386 -0.27516106 14935014
0.79516006 -0.49489734 -0.27553624 14934757
0.79504007 -0.48551646 -0.27549419 14803427
0.79493338 -0.47521698 -0.27545699 14803170
0.79330009 -0.464955 -0.2748912 14803170
0.79199988 -0.45492172 -0.2744405 14671584
0.79292303 -0.44502768 -0.27490392 14868963
0.79331028 -0.43508488 -0.27476776 15066343
0.79435712 -0.42499286 -0.27545959 15066342
0.79499996 -0.41518238 -0.27527517 15066342
0.79504007 -0.40548488 -0.27549419 15066341
0.79476672 -0.39511305 -0.27539983 15066340
0.79356003 -0.38429469 -0.27498132 15000290
0.79284006 -0.37466687 -0.27473104 14868706
0.79219991 -0.3650915 -0.27450946 14671071
0.79278558 -0.61531436 -0.26563284 14473953
0.79285187 -0.60523719 -0.26524961 14408160
0.79313314 -0.59482753 -0.26555005 14539746
0.79338455 -0.58465827 -0.26542041 14539747
0.79326653 -0.57511955 -0.26466513 14474208
0.79306233 -0.5651859 -0.26517728 14474207
0.79219991 -0.55425555 -0.26523778 14539999
0.79288459 -0.54523826 -0.26539442 14342622
0.79347038 -0.53536665 -0.26489604 14408160
0.79375005 -0.52467763 -0.26482514 14934758
0.79391307 -0.49525306 -0.26557025 14803170
0.79355174 -0.48537448 -0.26556367 14803170
0.79422218 -0.47530758 -0.26612282 14671584
0.79286957 -0.46530756 -0.26522002 14803170
0.79182136 -0.45515043 -0.26530963 14737378
0.79177779 -0.44501042 -0.26489079 14803171
0.79244435 -0.43528607 -0.26552624 14934757
0.79253566 -0.4252114 -0.26515159 15132133
0.79363328 -0.4149842 -0.26571763 15066341
0.79436004 -0.40513793 -0.26596153 15131877
0.7940371 -0.39526647 -0.26605949 15066340
0.79314286 -0.38468891 -0.26535413 14934754
0.79300004 -0.37474144 -0.26550493 14671583
0.79219991 -0.36509147 -0.26523677 14868963
0.79153341 -0.61493766 -0.25482434 14473953
0.79188889 -0.60501647 -0.25493866 14342624
0.79245442 -0.59474009 -0.25537357 14540003
0.79314697 -0.58489656 -0.25474098 14605539
0.79568762 -0.56513608 -0.2549313 14605537
0.79365504 -0.55514646 -0.25566247 14539744
0.79303324 -0.54555589 -0.25530511 14473439
0.79430562 -0.53542596 -0.25493971 14604770
0.79500002 -0.52457529 -0.25500783 15066089
0.79526931 -0.51522851 -0.25523826 14868965
0.79484004 -0.50549084 -0.25495809 14934757
0.79310703 -0.49521139 -0.25506398 14868707
0.79297197 -0.48518175 -0.25528547 14605791
0.79269993 -0.47480977 -0.25519836 14737377
0.79169995 -0.4649435 -0.25487757 14803170
0.79093355 -0.45523545 -0.25462985 14803170
0.79088914 -0.44502571 -0.25461504 14868964
0.79116684 -0.43499553 -0.25470534 15000550
0.79130572 -0.42488292 -0.25475037 15000550
0.79245454 -0.41479003 -0.25537348 15066343
0.79251504 -0.40470266 -0.25488716 15066341
0.79293323 -0.39512861 -0.25527346 15066084
0.79262489 -0.38534987 -0.2553491 14934754
0.79194117 -0.37489566 -0.25479159 14671582
0.79176652 -0.36489078 -0.25489894 14737633
0.79003471 -0.61453819 -0.24404024 14473953
0.79036021 -0.60477424 -0.24426949 14408160
0.79120004 -0.59522921 -0.2445291 14474209
0.79336107 -0.58462381 -0.24504103 14605538
0.79508001 -0.55567575 -0.24498306 14473953
0.79329175 -0.54557979 -0.24509691 14473953
0.79351592 -0.53545952 -0.24536474 14605283
0.79424989 -0.5250091 -0.24547265 15065833
0.7942692 -0.51501107 -0.24533528 14868707
0.79323989 -0.50484473 -0.24515985 14803171
0.79267991 -0.49520901 -0.24498633 14802914
0.79293096 -0.48531657 -0.24519122 14803170
0.79265374 -0.47499594 -0.24483515 14868963
0.7918399 -0.46502563 -0.24472527 14802913
0.79165393 -0.45543563 -0.24452431 14802914
0.79127592 -0.44508356 -0.24467798 14868965
0.79128015 -0.43505809 -0.24455146 15000550
0.79166663 -0.42507657 -0.24466999 15000549
0.79199988 -0.41505852 -0.24477474 15066342
0.79206657 -0.40489483 -0.24479525 15000549
0.79332149 -0.39472345 -0.24478398 14934755
0.7931785 -0.38530439 -0.24454044 15066340
0.79167861 -0.37471387 -0.24487318 14803168
0.79000026 -0.61451155 -0.23503755 14473952
0.79012018 -0.60459077 -0.23494509 14342622
0.7912581 -0.59506238 -0.23510376 14474207
0.79279989 -0.58516407 -0.23494704 14671330
0.79340917 -0.57536304 -0.23491272 14540000
0.79304761 -0.56527984 -0.23493445 14605793
0.79262489 -0.55478412 -0.23499656 14540000
0.7924 -0.54512054 -0.23562542 14408415
0.79227573 -0.53499389 -0.23571619 14408416
0.792346 -0.52489209 -0.23546663 15000552
0.79261547 -0.51536554 -0.23583184 14736863
0.79199988 -0.50482219 -0.23537688 14737376
0.79199988 -0.4947845 -0.23550472 14802912
0.79210705 -0.484983 -0.23527133 14737377
0.79242402 -0.47514981 -0.23484237 14737377
0.79264688 -0.46484366 -0.23454954 14671584
0.79306048 -0.45477 -0.23497321 14671584
0.79316127 -0.4448958 -0.23482805 14934756
0.7936666 -0.43481892 -0.23506774 15066085
0.79473335 -0.41494232 -0.2353825 15000549
0.7930966 -0.40467328 -0.23505105 14868963
0.79351515 -0.39491123 -0.23511226 14934756
0.79337937 -0.38440013 -0.23425044 15066341
0.79269987 -0.37460032 -0.23478381 14868704
0.79083347 -0.61439365 -0.22497438 14342365
0.7914167 -0.60465527 -0.22514084 14276828
0.79239976 -0.59440911 -0.22528803 14342621
0.79219985 -0.58392835 -0.22443771 14605537
0.79189646 -0.57437193 -0.22511865 14671329
0.79113352 -0.56462181 -0.2250621 14605794
0.79070985 -0.55488443 -0.22509158 14474207
0.79048413 -0.54511458 -0.22514617 14342621
0.7903105 -0.53494239 -0.22517869 14408672
0.79045755 -0.52448493 -0.22500193 14935015
0.79177415 -0.51521087 -0.22509404 14539998
0.79199988 -0.50498199 -0.22530726 14737376
0.79206657 -0.49482563 -0.22532564 14803169
0.79299986 -0.48532981 -0.22545631 14737376
0.7944001 -0.4748967 -0.22505811 14671583
0.79468 -0.46483266 -0.22513811 14540254
0.79493338 -0.45474526 -0.22521099 14606048
0.7952401 -0.44468153 -0.22529723 14868962
0.79528576 -0.43479854 -0.22551128 15000035
0.79368001 -0.40479347 -0.22485645 14802912
0.79251999 -0.39492345 -0.2245288 15197414
0.79249996 -0.38542271 -0.22466594 15262950
0.79224128 -0.37514997 -0.22432166 14868191
0.79113334 -0.60443801 -0.2148754 14211035
0.79215372 -0.59480619 -0.21529494 14211292
0.79199988 -0.5848794 -0.2150411 14342621
0.79104185 -0.5747413 -0.2150044 14540000
0.78900003 -0.56125164 -0.21152435 14473953
0.79004174 -0.56499821 -0.21480925 14737123
0.78899986 -0.55415499 -0.21273951 14540003
0.79000002 -0.55525893 -0.21757184 14671587
0.7889998 -0.54448599 -0.21450807 14540003
0.7889998 -0.53532434 -0.21477385 14605795
0.79000002 -0.53792077 -0.21826535 14606050
0.78899992 -0.52825075 -0.2144181 14803429
0.79000002 -0.52335668 -0.21479771 14868965
0.79080015 -0.51532257 -0.21478558 14736608
0.79168963 -0.50494313 -0.21515451 14934243
0.79299992 -0.49468777 -0.21526188 14737377
0.79483342 -0.48507965 -0.21519795 14803169
0.79488575 -0.47505438 -0.21488407 14803170
0.79476672 -0.46488407 -0.21493177 14737376
0.79445177 -0.45509994 -0.21523739 14671584
0.79497069 -0.44518664 -0.21476904 14803426
0.79457152 -0.43520698 -0.21521197 14803425
0.79410702 -0.42485952 -0.21588387 14803425
0.79437512 -0.41479272 -0.21470989 14737632
0.79315376 -0.40466821 -0.21520928 14868960
0.79199988 -0.39466381 -0.21510975 15198182
0.79180646 -0.59493917 -0.20477298 13356242
0.7917999 -0.58548766 -0.20486024 13618900
0.7908752 -0.57519883 -0.20438923 13553876
0.78900003 -0.56199044 -0.20727611 14277085
0.7901668 -0.56585795 -0.20397465 13619411
0.7889998 -0.55478692 -0.20598318 14211291
0.79016668 -0.55468243 -0.20135462 13619154
0.7889998 -0.54462802 -0.20505966 14277084
0.7889998 -0.5353927 -0.2050596 14474464
0.79000002 -0.53052306 -0.20347014 14276828
0.7889998 -0.52508003 -0.20544444 14803172
0.79000002 -0.52571464 -0.20383999 14737636
0.78899986 -0.51507509 -0.2041361 14605536
0.79000002 -0.51480317 -0.20901833 14802657
0.78899986 -0.50554812 -0.2035042 14868962
0.79000002 -0.50389171 -0.2079087 14999779
0.78900003 -0.4984515 -0.2013655 14671582
0.79103345 -0.49479553 -0.2055285 14737375
0.79224128 -0.4854694 -0.20462546 14606047
0.79265511 -0.4751642 -0.20409153 14803427
0.79324144 -0.46475941 -0.20417674 14934756
0.79490316 -0.57480901 -0.19433738 10395558
0.7948572 -0.5647732 -0.19466221 10133156
0.79455888 -0.55502307 -0.19516626 10330533
0.79341185 -0.54520965 -0.19515884 10527912
0.78900003 -0.53631628 -0.19951846 14408671
0.79234302 -0.53490168 -0.19473584 10527654
0.78900003 -0.52266854 -0.19808185 13750741
0.79145467 -0.52577168 -0.19390206 9342609
0.78893334 -0.51503158 -0.19765453 13816277
0.79123533 -0.51468062 -0.1926723 8355199
0.78893745 -0.50533777 -0.19788648 14474204
0.79222739 -0.50402588 -0.19265781 9408400
0.79215801 -0.49497533 -0.19464578 11579824
