# .PCD v0.7 - Point Cloud Data file format
VERSION 0.7
FIELDS x y z rgb
SIZE 4 4 4 4
TYPE F F F U
COUNT 1 1 1 1
WIDTH 614
HEIGHT 1
VIEWPOINT 0 0 0 1 0 0 0
POINTS 614
DATA ascii
0.79211116 -0.61445379 -0.42468473 12301503
0.79435301 -0.60530764 -0.42566821 12169660
0.79466671 -0.59534806 -0.42419568 12697030
0.79564708 -0.58536613 -0.42460927 12499909
0.78850001 -0.62411809 -0.41428539 13485776
0.78690481 -0.61476105 -0.4154897 13551824
0.78731823 -0.60512453 -0.41516092 13617618
0.79000002 -0.60264987 -0.41985044 13617874
0.78783333 -0.59515494 -0.41316757 13420753
0.79000002 -0.59525228 -0.41800103 13617874
0.78812504 -0.58495992 -0.41320473 13354704
0.79066664 -0.58557349 -0.41835377 13618131
0.78823084 -0.57546544 -0.41294941 13487060
0.79059994 -0.57441998 -0.41757876 13684437
0.78870004 -0.56565315 -0.41251293 13289425
0.79128581 -0.56433117 -0.4173598 13618388
0.78900003 -0.55524862 -0.41077635 13749464
0.79119998 -0.5547899 -0.41555098 13618388
0.78900003 -0.54462814 -0.41008368 13223887
0.79143751 -0.5453825 -0.41505823 13487312
0.78900003 -0.53539276 -0.41008368 13882071
0.79122221 -0.53473866 -0.41515124 13881815
0.78900003 -0.52523392 -0.41008368 14144989
0.79147619 -0.52480787 -0.4159615 14144475
0.78900003 -0.51507509 -0.41008368 14275804
0.79128575 -0.51480281 -0.41533217 14210011
0.79145455 -0.50454652 -0.41431049 14341595
0.79287523 -0.49486053 -0.41488731 14472925
0.79478282 -0.48519358 -0.41576287 14210009
0.79448009 -0.47475907 -0.41494435 14144986
0.79391664 -0.46485093 -0.41473278 14013401
0.7933501 -0.45476928 -0.41513196 14276318
0.7926501 -0.44508976 -0.41476536 14275804
0.79278249 -0.4351562 -0.41495618 14210782
0.79450011 -0.42520034 -0.41573545 13618643
0.79522729 -0.41488716 -0.41611683 13552592
0.79464996 -0.40482029 -0.4158152 14144470
0.79404765 -0.3949753 -0.41554475 14604763
0.78900003 -0.38023943 -0.41008365 13947861
0.79177779 -0.38477021 -0.41441467 14539742
0.78900003 -0.37428778 -0.41090462 14211034
0.7911818 -0.37522876 -0.41559684 14671073
0.78900003 -0.36546296 -0.41045308 14473693
0.79161119 -0.36461037 -0.41504699 14933986
0.78785717 -0.62587309 -0.4046576 13354449
0.78423345 -0.61477566 -0.40484938 13486034
0.78425711 -0.60482407 -0.40478328 13551827
0.78599995 -0.59520376 -0.40496188 13552596
0.78734314 -0.58482355 -0.40474463 13355475
0.78756684 -0.57498145 -0.40472773 13552597
0.78797233 -0.56513155 -0.40493715 13486803
0.78887075 -0.55484438 -0.40465465 13684184
0.7889998 -0.54462808 -0.40454248 13420755
0.7889998 -0.53563368 -0.40486374 13815510
0.79000002 -0.53237247 -0.40135637 14210011
0.78899974 -0.52507472 -0.40466997 14407903
0.78899986 -0.51525098 -0.40524611 14144218
0.79000002 -0.51387846 -0.40135637 14275804
0.78899974 -0.50465232 -0.40480632 14604256
0.79000002 -0.50833023 -0.40135637 14472670
0.7889998 -0.49499828 -0.40422124 14801635
0.79000002 -0.49261031 -0.40875399 14472670
0.78900003 -0.48921618 -0.40269542 15064807
0.79065526 -0.48487946 -0.40520033 14407134
0.7913751 -0.47517273 -0.40425625 14473697
0.79166657 -0.4649235 -0.40446839 14473696
0.79158074 -0.45542836 -0.40508878 13947609
0.79102957 -0.44510517 -0.40449393 14013147
0.79077452 -0.43495819 -0.40455642 14539489
0.79122233 -0.42483836 -0.4047569 14145243
0.79113352 -0.4146052 -0.4047114 13881815
0.79038483 -0.40510365 -0.40504014 13947864
0.78900003 -0.39132184 -0.40454248 14540000
0.79025024 -0.39537725 -0.40439025 14473950
0.78899986 -0.38352314 -0.40546602 14276826
0.7902 -0.3872304 -0.40293697 14539742
0.78832 -0.37437618 -0.4041931 14211034
0.78823084 -0.36524767 -0.40436092 14407900
0.78900003 -0.35922909 -0.40454245 14933986
0.79231256 -0.35406446 -0.40461546 15000806
0.79252183 -0.63523108 -0.39497155 9999009
0.78824997 -0.62392104 -0.39576021 13815255
0.79000002 -0.62854153 -0.3921093 14209761
0.78696668 -0.61501318 -0.39489955 14012632
0.7865001 -0.60490662 -0.39502686 14012632
0.78754073 -0.5947926 -0.39557073 14078426
0.78846145 -0.58507597 -0.39524886 14144220
0.7889598 -0.5755555 -0.39595193 14210013
0.79000002 -0.57416904 -0.39136961 14407392
0.78899986 -0.56463796 -0.3965385 13815512
0.79000002 -0.56492203 -0.39173943 14341598
0.78899986 -0.55441755 -0.39678478 13881818
0.79000002 -0.55499214 -0.39182478 14276061
0.78899992 -0.544954 -0.39671957 13881817
0.79000002 -0.5448916 -0.39182484 14013402
0.79000038 -0.53514659 -0.39488336 14276061
0.79028153 -0.52481425 -0.39479148 14538720
0.79002976 -0.51455045 -0.39511546 14012889
0.78900003 -0.50168383 -0.39853951 14801635
0.7900002 -0.50498712 -0.39424327 14604769
0.78899997 -0.49502125 -0.39728615 14802148
0.79000002 -0.49515319 -0.39234048 14802148
0.78900003 -0.48921618 -0.39900127 15327979
0.79057598 -0.48564848 -0.39474982 14999527
0.79166675 -0.47511604 -0.39478868 14802148
0.79199988 -0.46511912 -0.39495617 14999527
0.79199988 -0.45525274 -0.39475754 14605281
0.79151851 -0.44486544 -0.39492041 14079450
0.79136014 -0.43510196 -0.39463565 14408159
0.79133344 -0.42489693 -0.39462325 14605536
0.79160011 -0.41484916 -0.39475524 14342364
0.79140627 -0.4048472 -0.39517874 14145241
0.79162067 -0.39517647 -0.3953405 14539742
0.79159272 -0.38499102 -0.39516339 14670814
0.78900009 -0.37335491 -0.39732218 14605021
0.79015791 -0.37602758 -0.39325842 14736349
0.78895438 -0.36586145 -0.395704 14539229
0.79007143 -0.36292037 -0.39280513 14605022
0.79376322 -0.35474956 -0.39519554 15066854
0.79322726 -0.63558561 -0.38493261 10130082
0.78900009 -0.62220472 -0.38691142 14210013
0.79023528 -0.6262266 -0.3840645 14143966
0.78867733 -0.61474377 -0.38513821 14275804
0.78854531 -0.60472852 -0.38467303 14275804
0.78860587 -0.59470463 -0.38520634 14341340
0.7889998 -0.58603305 -0.385764 14341597
0.79000002 -0.58180213 -0.38387108 14275804
0.78900003 -0.57972229 -0.38976595 14341599
0.79017878 -0.57444328 -0.38460001 14407390
0.7905187 -0.56459373 -0.38516915 14341597
0.79044008 -0.55487365 -0.38492501 14341597
0.79029655 -0.54511142 -0.38464943 14013402
0.79035741 -0.53505784 -0.38508293 14078940
0.79093122 -0.52482754 -0.3852931 14604511
0.7900387 -0.514117 -0.38458836 13947352
0.78899986 -0.50327438 -0.38319865 14605538
0.79000002 -0.50648087 -0.38735375 14605539
0.78899986 -0.49553505 -0.38344705 14736867
0.79000002 -0.49291852 -0.38717762 14867941
0.78900003 -0.48921618 -0.38053063 14868965
0.79037946 -0.48528484 -0.38502502 15065576
0.79156667 -0.47505569 -0.38547608 14933989
0.79209363 -0.46453622 -0.38492006 15262953
0.79269689 -0.45489958 -0.38512462 15131368
0.79279983 -0.44517347 -0.38514629 14868451
0.79239982 -0.43567377 -0.38495141 14671072
0.79199988 -0.42525625 -0.38475871 14802657
0.79217631 -0.41449583 -0.38462585 14736608
0.79253107 -0.40455404 -0.3852483 14473436
0.79196417 -0.39484483 -0.38507256 14802400
0.79144013 -0.38512188 -0.38541424 14736607
0.79032004 -0.37532628 -0.38486794 14670558
0.79020029 -0.36509275 -0.38480905 14539484
0.79384214 -0.35468799 -0.38511443 15329513
0.79180014 -0.63460934 -0.37446749 10327459
0.79023099 -0.62516868 -0.37536082 14209758
0.78900003 -0.61250764 -0.37822184 14275806
0.79000002 -0.61576378 -0.37470821 14407392
0.78899974 -0.60449839 -0.37511688 14341599
0.7889998 -0.59449881 -0.37498939 14275806
0.78899986 -0.58623564 -0.37450343 14275806
0.79000002 -0.58180213 -0.37630537 14341598
0.79000014 -0.57490879 -0.37546483 14407390
0.79000026 -0.56473714 -0.3754648 14341854
0.79004014 -0.55459327 -0.37548396 14276317
0.79054874 -0.54462123 -0.37554726 14144732
0.79050028 -0.53456116 -0.37477648 14341854
0.79030329 -0.5246712 -0.37443039 14736355
0.79036409 -0.51461971 -0.37496319 13947609
0.78900003 -0.50214565 -0.37683654 14671331
0.79017645 -0.50615913 -0.37380686 14473953
0.78899986 -0.49475735 -0.37591296 14737379
0.79000002 -0.4953844 -0.37176591 14671586
0.78900003 -0.48829266 -0.37683651 14934501
0.79000014 -0.48428801 -0.37500238 14934245
0.79048514 -0.4741531 -0.37518981 15065831
0.79302937 -0.46468207 -0.37471712 15000294
0.79491168 -0.45500565 -0.37478513 15065831
0.7944333 -0.4448508 -0.37478012 15328490
0.79342854 -0.43511176 -0.37490314 15065575
0.79261535 -0.42487305 -0.37499318 14868195
0.79279304 -0.41470611 -0.37480733 14802401
0.79265374 -0.40448216 -0.37501195 14868194
0.79207397 -0.39449537 -0.37500682 14868450
0.79096681 -0.38489208 -0.37499678 14736607
0.78900003 -0.37100413 -0.37221885 14605021
0.79000008 -0.37549478 -0.37570605 14670814
0.78900003 -0.36767942 -0.37203413 14538971
0.79012018 -0.36442745 -0.37611413 14670557
0.79329735 -0.35429487 -0.37487164 15394792
0.79262966 -0.63475853 -0.36434066 10722474
0.79066694 -0.62469202 -0.36522892 14210014
0.7903533 -0.61467361 -0.36567235 14407391
0.78900009 -0.60205501 -0.36743328 14407391
0.79010528 -0.60555351 -0.36383238 14407391
0.7889998 -0.59429353 -0.3653436 14341599
0.79000002 -0.59710169 -0.36066949 14341599
0.7889998 -0.58627087 -0.36558625 14342112
0.79000002 -0.58204228 -0.36410406 14342111
0.79021907 -0.57472026 -0.36516184 14342111
0.79029447 -0.56467503 -0.36564526 14342111
0.79033363 -0.55479932 -0.36544564 14276318
0.79042894 -0.54482049 -0.36535749 14210524
0.79107702 -0.53473669 -0.36472112 14210782
0.79106915 -0.52459925 -0.36498779 14867942
0.79152006 -0.51486689 -0.36506793 14012890
0.79092878 -0.50502694 -0.36539069 14473695
0.79032284 -0.49540788 -0.3652916 14671586
0.79014319 -0.48516807 -0.36549044 14868965
0.79141182 -0.47506955 -0.36534417 14934758
0.79500014 -0.46515685 -0.36509794 14868965
0.79534286 -0.42500386 -0.36544552 15065574
0.79445165 -0.41466472 -0.36564025 14933987
0.7931332 -0.40451285 -0.36488512 14999779
0.79306656 -0.39519519 -0.36485404 14868707
0.79244822 -0.38574073 -0.36472809 14802656
0.78900003 -0.37179571 -0.36707348 14539228
0.7904349 -0.3762657 -0.36480907 14670814
0.78899986 -0.36648908 -0.36616462 14538972
0.79000002 -0.36304933 -0.36395729 14670814
0.79348654 -0.35468042 -0.36522028 15197412
0.79303843 -0.6248194 -0.35569894 14341598
0.79243314 -0.61563742 -0.35528582 14473183
0.79130006 -0.60549539 -0.35477808 14473183
0.79025024 -0.59557343 -0.35463804 14407391
0.79000026 -0.5850805 -0.35512128 14341855
0.79128587 -0.57478458 -0.35490522 14407647
0.79203218 -0.56508315 -0.3550778 14407646
0.79202932 -0.55506295 -0.35499731 14407646
0.79177421 -0.54486871 -0.35514027 14407903
0.79199988 -0.53464723 -0.35509315 14539747
0.79153341 -0.52414221 -0.35488471 14868455
0.79126674 -0.51470262 -0.35476574 14341598
0.79096687 -0.50524938 -0.35463029 14539232
0.79077798 -0.49494606 -0.35454521 14736868
0.79103351 -0.48492134 -0.35465956 15000296
0.79194289 -0.47541258 -0.35493457 15066345
0.79455888 -0.46492153 -0.35514671 14868965
0.79411995 -0.41431314 -0.35511491 15197159
0.79300004 -0.40444428 -0.35461345 14999780
0.79300004 -0.39516217 -0.35461345 14933986
0.7929666 -0.38499758 -0.35466018 14868193
0.79176658 -0.37477821 -0.35498688 14736607
0.79050028 -0.36465362 -0.35465074 14539485
0.79297143 -0.35509679 -0.35518417 15000805
0.79452378 -0.62549978 -0.34546322 14276320
0.79280001 -0.61592221 -0.34524494 14407904
0.79175997 -0.60584688 -0.34479076 14276061
0.79090023 -0.59525186 -0.34460127 14276318
0.79009128 -0.58472782 -0.34524098 14276574
0.79061317 -0.57457721 -0.34447074 14210781
0.7916401 -0.56498182 -0.34473979 14210269
0.79199988 -0.55504227 -0.34489575 14275805
0.79199988 -0.54484481 -0.34489581 14538976
0.79199988 -0.53480715 -0.34476784 14604769
0.79119241 -0.52412927 -0.34468582 14934247
0.79100013 -0.51452887 -0.34446031 14408160
0.7909202 -0.50521934 -0.3444252 14342367
0.79100019 -0.49508563 -0.34446034 14802918
0.79171991 -0.485342 -0.34477285 15131625
0.79258817 -0.4749572 -0.34465939 15066088
0.7944572 -0.46459243 -0.34532735 14934501
0.79303843 -0.40460682 -0.34513357 15197671
0.79300004 -0.39516217 -0.34533131 15065829
0.79299992 -0.3849518 -0.34533128 14868193
0.79207993 -0.37430727 -0.34493116 14736606
0.79100013 -0.3645376 -0.34446022 14605021
0.7934444 -0.35466805 -0.34474865 14803940
0.79325002 -0.62463021 -0.33476311 14407903
0.79176009 -0.61511433 -0.33552492 14408160
0.79197133 -0.60494822 -0.33481884 14210781
0.79139292 -0.59464872 -0.3347716 14210781
0.79088014 -0.5848068 -0.33515015 14342367
0.79096687 -0.57468629 -0.33518726 14276576
0.79162073 -0.56484008 -0.33469701 14079453
0.79236102 -0.55529392 -0.33485031 14276832
0.79279989 -0.54539531 -0.33503532 14210269
0.79263878 -0.53507876 -0.33496675 14539233
0.79274178 -0.52476132 -0.33485934 14933992
0.79229015 -0.51488948 -0.33472803 14473953
0.79193741 -0.50494158 -0.33466914 14276574
0.79184371 -0.49503368 -0.33486328 14671588
0.79220569 -0.48498473 -0.33489454 15000551
0.7929998 -0.47527781 -0.33494723 15131882
0.79471439 -0.40498805 -0.33570859 15263721
0.79306662 -0.39519602 -0.33514845 15000549
0.79246658 -0.38562134 -0.33489469 14934498
0.79167646 -0.37526202 -0.33483434 14737118
0.79104018 -0.36455581 -0.33521867 14474204
0.79365778 -0.35460719 -0.33485976 14474976
0.79259104 -0.62411219 -0.32474148 14341598
0.79085732 -0.61434603 -0.3252894 14473440
0.7913872 -0.60478222 -0.32442951 14276317
0.79188883 -0.59461606 -0.32486671 14342111
0.7914688 -0.58489466 -0.32497633 14342112
0.7915588 -0.57484359 -0.32546306 14342112
0.79196292 -0.56514412 -0.32455382 14211040
0.7926206 -0.55531579 -0.32488257 14342368
0.79300004 -0.54553276 -0.32491055 14473953
0.79357576 -0.53511745 -0.32497755 14473953
0.79484379 -0.52482045 -0.32496691 14934505
0.7953999 -0.51552933 -0.3249602 14539747
0.79437935 -0.50569844 -0.32470387 14473954
0.79267997 -0.49521023 -0.32477826 14737125
0.79303116 -0.4849841 -0.32457313 15066345
0.79445708 -0.475063 -0.32444161 15066088
0.79416138 -0.39496225 -0.32520607 15066342
0.79325002 -0.38430056 -0.32485762 15066085
0.79167873 -0.37411895 -0.32489821 14736863
0.79034626 -0.36437941 -0.32546031 14473949
0.79363173 -0.35459226 -0.32477534 14474976
0.79281825 -0.62429118 -0.31462654 14473186
0.79096305 -0.61456287 -0.31522849 14407647
0.79174995 -0.60473651 -0.31478214 14276317
0.79273516 -0.59480184 -0.31437489 14342367
0.79330301 -0.58490843 -0.31495854 14342368
0.79371864 -0.57511717 -0.31480736 14342368
0.79372698 -0.56512046 -0.31523874 14473697
0.79396683 -0.55549133 -0.31508085 14276574
0.79335475 -0.54559749 -0.31469026 14473953
0.79308552 -0.53524709 -0.31486708 14473953
0.79373342 -0.52497691 -0.31437361 14934503
0.79503846 -0.51550788 -0.31443727 14803172
0.79488468 -0.50574839 -0.31473207 14540000
0.79320574 -0.4948819 -0.3145628 14605793
0.7947942 -0.48519847 -0.31513637 15197673
0.79421884 -0.3951318 -0.31529972 15131621
0.79295999 -0.38541588 -0.31509367 15263463
0.79148281 -0.37479243 -0.31489763 14802913
0.79082781 -0.36433065 -0.31552887 14474462
0.79426324 -0.35477573 -0.31490386 14343647
0.79338104 -0.62460029 -0.3049008 14539233
0.79199988 -0.61530018 -0.30503291 14408160
0.79255867 -0.60569173 -0.30497479 14342367
0.79360014 -0.5951764 -0.30472022 14342367
0.79460007 -0.58476561 -0.30510375 14473953
0.7953704 -0.57488495 -0.30498555 14473953
0.79479998 -0.55607498 -0.30518159 14342367
0.7932592 -0.54529887 -0.30479628 14408416
0.79299992 -0.53499091 -0.30429098 14736867
0.79263997 -0.52487463 -0.30435172 14934247
0.79336667 -0.51513791 -0.30463117 14934758
0.79500002 -0.50519407 -0.30512944 14737123
0.79486209 -0.49451751 -0.30475295 14605537
0.79504758 -0.39538679 -0.30500868 15131878
0.79214281 -0.38526648 -0.30475646 15197671
0.79071438 -0.3752484 -0.30539802 14934755
0.79039317 -0.36485162 -0.30520764 14605791
0.79427034 -0.35487646 -0.30497551 14935012
0.79281813 -0.62471068 -0.29488802 14342368
0.79199988 -0.61530012 -0.29483545 14408158
0.79223323 -0.60528016 -0.29492298 14276829
0.79286665 -0.59462708 -0.29515877 14342367
0.79390627 -0.5843128 -0.29478997 14342367
0.79490006 -0.57531065 -0.29479834 14473953
0.79492313 -0.56532222 -0.29427812 14408161
0.79384619 -0.55555171 -0.29530942 14408160
0.79263997 -0.54528582 -0.29507473 14408159
0.7924 -0.53491741 -0.29498562 14605537
0.79287994 -0.5250321 -0.29516351 15000295
0.79360616 -0.51504022 -0.29492581 14868966
0.79480559 -0.50490904 -0.29494986 14934758
0.79500008 -0.39547008 -0.29457363 15132135
0.79216671 -0.38532221 -0.29489753 15197672
0.78900003 -0.37100413 -0.29279512 15197928
0.79020011 -0.37571293 -0.29520106 15066342
0.7889998 -0.36588275 -0.29329893 14737377
0.79000002 -0.36288786 -0.2971293 14737376
0.79255563 -0.35426605 -0.29467997 14540510
0.79269987 -0.62512314 -0.2848886 14342369
0.79263616 -0.61528856 -0.28461215 14408416
0.79266655 -0.60518956 -0.28512922 14276831
0.79308325 -0.59478998 -0.28502661 14342367
0.79437506 -0.58483177 -0.28490865 14276573
0.79500002 -0.57482523 -0.28478569 14408416
0.79444003 -0.56512266 -0.28458521 14408415
0.79282749 -0.55456734 -0.28477499 14276574
0.79182756 -0.5448547 -0.2847361 14342367
0.79111546 -0.5347625 -0.28538907 14539746
0.79175001 -0.52480376 -0.28483841 14802916
0.79318172 -0.51527184 -0.284641 14868967
0.79433346 -0.50460857 -0.28454697 15000809
0.79324138 -0.44522852 -0.28473237 14803170
0.79346418 -0.43499795 -0.28403899 15066342
0.79356021 -0.42516574 -0.28427166 14934756
0.79292852 -0.41494939 -0.28424364 15000548
0.79385179 -0.40528968 -0.28417021 15132133
0.79465526 -0.39521733 -0.28453457 15066340
0.79237026 -0.38481909 -0.28487313 15197411
0.79106271 -0.37504187 -0.28418294 15065569
0.79050016 -0.36482707 -0.28450137 14737120
0.7933172 -0.35454217 -0.28472155 14606304
0.79365206 -0.62514734 -0.2752544 14407903
0.79299992 -0.6149888 -0.27478707 14539745
0.79300004 -0.60493845 -0.27478704 14408415
0.79393333 -0.59542501 -0.27511045 14408415
0.79496557 -0.58519655 -0.27559671 14408160
0.79434621 -0.57456756 -0.27511173 14408160
0.79424006 -0.56497842 -0.2752164 14473952
0.79403991 -0.55554366 -0.2751452 14473694
0.79280782 -0.54525906 -0.2749323 14407902
0.79194111 -0.53488022 -0.27512667 14539488
0.79235476 -0.52486193 -0.27503949 14933988
0.79466659 -0.51488101 -0.27485374 14934758
0.79480004 -0.46490327 -0.27541167 14803170
0.7938 -0.4550283 -0.27506614 14671327
0.79243994 -0.44497216 -0.27459392 14868962
0.79203987 -0.43547577 -0.27445456 15000550
0.79236662 -0.42545208 -0.27456781 15000549
0.79257679 -0.41514775 -0.27449703 15000548
0.79289639 -0.40515861 -0.27487919 15197926
0.79371434 -0.39492014 -0.27523541 15066340
0.79344445 -0.38465083 -0.27473482 15000290
0.79304004 -0.3747609 -0.27480063 14868960
0.79219216 -0.36508793 -0.27472031 14605791
0.79480565 -0.35501462 -0.27499843 14737375
0.79352391 -0.62497836 -0.26541561 14473441
0.79211998 -0.61539382 -0.26521218 14473953
0.79206657 -0.60515249 -0.26519316 14408416
0.79323322 -0.59490138 -0.26558387 14539745
0.79400009 -0.58512652 -0.26507053 14474209
0.79419464 -0.57517159 -0.26497445 14539745
0.79490006 -0.56544816 -0.26521003 14539745
0.79456669 -0.55591232 -0.26509953 14539746
0.79400009 -0.546359 -0.26542655 14407902
0.79303324 -0.53534484 -0.26551598 14539488
0.79346669 -0.52449059 -0.26566094 14934502
0.79533333 -0.51480573 -0.26493272 14934758
0.79477274 -0.47512111 -0.26516852 14737379
0.79277772 -0.46481997 -0.26550061 14868963
0.79207695 -0.45460925 -0.26512617 14803170
0.79173064 -0.44478655 -0.26493838 14868963
0.79199988 -0.43545371 -0.26517019 15000549
0.7924332 -0.42548743 -0.26531547 15132135
0.79299992 -0.41465464 -0.26550487 15066341
0.79300004 -0.40444428 -0.2655049 15132133
0.79300004 -0.39516217 -0.26550493 15066340
0.79293096 -0.38507816 -0.26561019 15000547
0.79257685 -0.37475604 -0.26522201 14737375
0.7916401 -0.36483288 -0.2650508 14803169
0.79195249 -0.62374032 -0.25508991 14276575
0.79042315 -0.61428857 -0.2552492 14539746
0.79128587 -0.60442263 -0.25487545 14408416
0.79255539 -0.59439319 -0.25515187 14540002
0.79362977 -0.58491123 -0.25470603 14605794
0.79462075 -0.57531947 -0.25494993 14605539
0.79460001 -0.5652355 -0.25488102 14539746
0.79396003 -0.55548763 -0.25467625 14474210
0.79335696 -0.54564649 -0.25507838 14407903
0.7929998 -0.53532237 -0.25529462 14539746
0.79269993 -0.52491367 -0.25519913 14868968
0.79303217 -0.51507062 -0.25455815 14869222
0.79486215 -0.50510377 -0.25509503 14868964
0.79344445 -0.47505099 -0.25492284 14737377
0.79118532 -0.4648478 -0.25522611 14803170
0.79044014 -0.45495057 -0.25539702 14868963
0.79136115 -0.44529024 -0.25476673 14934756
0.79241925 -0.4355039 -0.25495684 14934756
0.79199988 -0.42512378 -0.25510508 15132134
0.79231423 -0.41442797 -0.25520733 15132134
0.79296756 -0.40460727 -0.25513467 15066340
0.79323328 -0.39527899 -0.2553696 15066340
0.79209995 -0.38544303 -0.25500476 14868961
0.79119366 -0.37538239 -0.25528136 14671582
0.79083347 -0.36464536 -0.25478247 14737633
0.79210532 -0.62387484 -0.24461174 14210781
0.79059404 -0.61455393 -0.24549565 14408416
0.79103595 -0.60502654 -0.24487391 14408159
0.79153585 -0.5951516 -0.24443448 14473952
0.79223329 -0.5848785 -0.24484879 14605538
0.79284608 -0.57490957 -0.24518183 14605793
0.79282755 -0.56474185 -0.24490407 14605539
0.79300004 -0.55481493 -0.24508423 14408417
0.79300004 -0.54553276 -0.24508424 14408160
0.79286653 -0.53523326 -0.24504317 14539746
0.79275995 -0.52495301 -0.24500899 15000038
0.79289985 -0.51483643 -0.24505284 15000037
0.79292005 -0.50464082 -0.24505983 14803172
0.79284608 -0.4950988 -0.24518107 14803171
0.79255986 -0.48548639 -0.24495055 14803170
0.79153854 -0.47539675 -0.24470527 14868963
0.79003257 -0.46432164 -0.24452505 14737378
0.79056281 -0.45467252 -0.24502334 14737377
0.79185706 -0.44523841 -0.2449286 14868963
0.79266661 -0.43540791 -0.24477492 15000549
0.79199988 -0.42492551 -0.2449735 15066341
0.79195994 -0.41503781 -0.24476288 15132134
0.79246658 -0.40509889 -0.2449204 15000548
0.79283994 -0.39508218 -0.24503544 14934754
0.7918399 -0.38531667 -0.2447259 15000546
0.79077446 -0.37464547 -0.24463415 14803423
0.79096562 -0.36509442 -0.24515612 14737889
0.79313046 -0.62465769 -0.2351125 14276574
0.79160011 -0.6149894 -0.23538435 14408415
0.79162967 -0.60533422 -0.23518731 14342621
0.79107159 -0.59480321 -0.2354268 14474207
0.79052025 -0.58454084 -0.23506574 14671586
0.79076678 -0.57453978 -0.23513941 14605793
0.79160005 -0.56495327 -0.23538649 14605793
0.79199988 -0.55504227 -0.23550467 14408416
0.79212004 -0.544927 -0.2355419 14408415
0.79209989 -0.53471482 -0.23553602 14540001
0.7924999 -0.52463716 -0.23543991 15065831
0.7929998 -0.5149017 -0.23487383 14671071
0.79261535 -0.5045194 -0.23547353 14737377
0.79207391 -0.4946245 -0.23511419 14803168
0.79214281 -0.48580143 -0.23494954 14803168
0.79114825 -0.47532067 -0.23504458 14737377
0.79086226 -0.46483251 -0.23516379 14671584
0.79219997 -0.45490253 -0.23476729 14671584
0.79246646 -0.44498625 -0.2347147 14935012
0.79263878 -0.43487671 -0.23476595 15000548
0.79354835 -0.42497811 -0.23488389 15000548
0.792871 -0.4150371 -0.23474361 15066084
0.79226452 -0.40472358 -0.23487286 14868961
0.79216659 -0.39474687 -0.23462607 14934755
0.79207134 -0.38562721 -0.23492907 15132133
0.79156667 -0.37499127 -0.23537461 14868960
0.79140007 -0.36472133 -0.23532671 14803166
0.79319048 -0.6244514 -0.22498326 14210781
0.79139996 -0.61483425 -0.22513908 14342621
0.79158825 -0.60505998 -0.22541 14342621
0.79112518 -0.59459567 -0.22482711 14342622
0.79066694 -0.58464962 -0.22492698 14605793
0.79026687 -0.57510287 -0.22481383 14540000
0.79041696 -0.56503415 -0.22485839 14671586
0.79073358 -0.55508024 -0.22494879 14540000
0.7906366 -0.54525286 -0.22517329 14408414
0.79027295 -0.5349108 -0.22456497 14540000
0.79114294 -0.52493954 -0.22493242 15065829
0.79187995 -0.51510108 -0.22434808 14539741
0.79202932 -0.50483704 -0.22504331 14737377
0.79260701 -0.49536163 -0.22514859 14803170
0.79293734 -0.48504472 -0.22499339 14737377
0.79258054 -0.47491699 -0.22562091 14671840
0.79274261 -0.46475968 -0.22538471 14540254
0.79327995 -0.45472851 -0.22474185 14605790
0.79351741 -0.44480637 -0.22468048 14868961
0.79470372 -0.43507811 -0.22514397 14935011
0.79503453 -0.42486393 -0.22536814 14935011
0.79444009 -0.41447911 -0.22507076 14868962
0.79320008 -0.40454698 -0.22472012 14737632
0.79300004 -0.39516217 -0.22466354 15132389
0.79282135 -0.38539594 -0.22501014 15132389
0.79197133 -0.37505016 -0.2253257 14737375
0.78900003 -0.61296946 -0.21263261 14211037
0.79000002 -0.61621219 -0.21567616 14079450
0.78899986 -0.60547853 -0.2126531 14211038
0.79000002 -0.60365862 -0.21692032 14211038
0.78900003 -0.59819293 -0.21060082 14211038
0.79039305 -0.59462202 -0.21493848 14211038
0.79092324 -0.5850516 -0.2146752 14408415
0.79040009 -0.57520121 -0.21467537 14539744
0.78900009 -0.56377035 -0.21227998 14605793
0.79000002 -0.56577742 -0.21630034 14736866
0.78899997 -0.55627877 -0.21230578 14737379
0.79000002 -0.55357903 -0.21592276 14671330
0.79000014 -0.54531837 -0.21456656 14605793
0.79000026 -0.53514659 -0.21456657 14671586
0.79014826 -0.5246616 -0.21481287 15000549
0.79050022 -0.51479775 -0.21450536 14671584
0.79135722 -0.50490195 -0.21513505 14934499
0.79196286 -0.49517223 -0.21489479 14802914
0.79260713 -0.4852896 -0.21547481 14803170
0.79225922 -0.47495645 -0.21497478 14868963
0.79299992 -0.46477824 -0.21538137 14737375
0.79336011 -0.45477408 -0.2154804 14671582
0.79379308 -0.44496053 -0.21572657 14803168
0.7950666 -0.43509066 -0.21538638 14868961
0.79483342 -0.42547533 -0.21519826 14868960
0.79311538 -0.41471565 -0.21541372 14868963
0.79244435 -0.40457326 -0.21502574 14868962
0.79227996 -0.39480358 -0.21518666 15197926
0.79211992 -0.3854523 -0.21514282 15263718
0.78900003 -0.61255902 -0.20670146 13553365
0.79038888 -0.61589885 -0.2034661 13224913
0.7889998 -0.60465759 -0.2059831 13684951
0.79000002 -0.60449928 -0.20162073 13224913
0.78900003 -0.59757727 -0.20659883 13684950
0.79017401 -0.59385461 -0.20407708 13356242
0.79071456 -0.58515829 -0.20465806 13488083
0.79076678 -0.57515889 -0.20459208 13684949
0.78900009 -0.56343454 -0.20690669 14211293
0.79006249 -0.5665158 -0.20348597 13619412
0.78899992 -0.55651855 -0.20632946 14277085
0.79000002 -0.55300045 -0.20403917 14145498
0.79025835 -0.54501837 -0.20437083 14145755
0.79012525 -0.53505802 -0.20494664 14343134
0.79000014 -0.52497494 -0.20531954 14803684
0.78900003 -0.51261234 -0.20198119 14606048
0.79000014 -0.51535797 -0.20591134 14606048
0.78900003 -0.50557584 -0.20162937 14671584
0.79005003 -0.50466311 -0.20625746 14934755
0.79068983 -0.49504957 -0.20562777 14934240
0.79133344 -0.48522842 -0.20480321 14736863
0.79172218 -0.47514927 -0.20484139 14934756
0.79283309 -0.46467903 -0.20512725 14868964
0.79323322 -0.45470127 -0.20523025 14540253
0.7930333 -0.44530478 -0.20517927 14672097
0.79444736 -0.60525078 -0.19564641 10922415
0.7948668 -0.59512579 -0.1958428 10988207
0.79532254 -0.58490396 -0.19474168 10593191
0.79399991 -0.57461256 -0.19436592 10461605
0.7937029 -0.56474221 -0.19472025 10526884
0.79392338 -0.55492938 -0.19517502 10527140
0.79478127 -0.54529953 -0.19469145 10067616
0.79414302 -0.5347349 -0.19459373 10067872
0.79278797 -0.52479953 -0.19512305 10593191
0.78900003 -0.51285857 -0.19877963 14079704
0.79120851 -0.51535773 -0.19482483 10592676
0.78900003 -0.5054704 -0.19877961 14540254
0.7910834 -0.50470603 -0.19379272 10395040
0.79090649 -0.49502581 -0.19536871 11842998
0.7917096 -0.48521414 -0.19493915 10922409
