# .PCD v0.7 - Point Cloud Data file format
VERSION 0.7
FIELDS x y z rgb
SIZE 4 4 4 4
TYPE F F F U
COUNT 1 1 1 1
WIDTH 628
HEIGHT 1
VIEWPOINT 0 0 0 1 0 0 0
POINTS 628
DATA ascii
0.79227775 -0.61458403 -0.42477411 12367295
0.79358822 -0.60483658 -0.42536741 12169916
0.79425013 -0.59496516 -0.42594749 11907258
0.7939474 -0.58501768 -0.42488801 11973050
0.79416668 -0.57514644 -0.42392802 12367807
0.79493755 -0.56523997 -0.42422253 12433600
0.79511774 -0.55498028 -0.42454413 12038842
0.79564714 -0.54493982 -0.42460772 11906743
0.79625016 -0.53495121 -0.42515543 11841207
0.79606247 -0.52504027 -0.42482299 11578292
0.78846157 -0.62391037 -0.41420615 13354960
0.79016668 -0.62682468 -0.41778097 13420243
0.78747624 -0.61520773 -0.41570327 13617873
0.78754163 -0.605151 -0.41493639 13617873
0.79000002 -0.60264987 -0.41985044 13683154
0.78808683 -0.59501237 -0.41410312 13486288
0.79000002 -0.59525228 -0.41985044 13814997
0.78824997 -0.58516783 -0.41403204 13354960
0.79000002 -0.58526546 -0.41911069 13881302
0.78852934 -0.57503235 -0.41364026 13617876
0.79016668 -0.57410419 -0.41808918 13684437
0.78872734 -0.5652529 -0.41262797 13419985
0.79054546 -0.56470561 -0.41728085 13618131
0.78899997 -0.55485797 -0.41178867 13617877
0.79099995 -0.55447328 -0.41707665 13684437
0.78900003 -0.54541963 -0.41061142 13223886
0.79105008 -0.54474556 -0.41605863 13749717
0.79120708 -0.53503686 -0.41493899 14078425
0.78900003 -0.52283275 -0.41045308 14078427
0.79089999 -0.52501678 -0.41560984 14210011
0.78900003 -0.51507509 -0.41100723 14210011
0.79117644 -0.51464212 -0.4167735 14210010
0.78900003 -0.50583977 -0.41054547 14341597
0.79182357 -0.5044831 -0.41558787 14275802
0.79330444 -0.49543232 -0.41499105 14472925
0.79452646 -0.4855915 -0.41501525 14078679
0.79494745 -0.47478214 -0.41562688 14078935
0.79414999 -0.46498686 -0.41555339 13947863
0.79305005 -0.45506111 -0.41497636 14210779
0.79170001 -0.44501907 -0.41426983 14342109
0.79140908 -0.43512776 -0.41411802 14144474
0.79152387 -0.42522016 -0.41422182 13749971
0.79139131 -0.41498023 -0.41406834 13618383
0.79199994 -0.4050796 -0.41447216 14078934
0.79263645 -0.39540005 -0.41484582 14408155
0.78900003 -0.38023943 -0.41008365 14078677
0.7919001 -0.38534343 -0.41437587 14473948
0.78900003 -0.37469825 -0.41008368 14210263
0.79137498 -0.37489912 -0.41502544 14736606
0.78900003 -0.36823356 -0.41008365 14341849
0.79218179 -0.36465693 -0.41477585 14868706
0.79215008 -0.63442862 -0.40513641 10656683
0.78810537 -0.62441343 -0.40456831 13551826
0.79000002 -0.62854153 -0.40135637 14077914
0.7863512 -0.61504042 -0.40462163 13617876
0.78628951 -0.60514468 -0.4049395 13617619
0.78745723 -0.59502017 -0.40464315 13618132
0.78772742 -0.58482206 -0.40506107 13420754
0.78821874 -0.57511103 -0.40483192 13618133
0.78847057 -0.56521749 -0.40540951 13486291
0.78888863 -0.55556339 -0.40544251 13749463
0.79000002 -0.55234611 -0.40209612 13946841
0.78900003 -0.54616731 -0.40762091 13289679
0.79000002 -0.54483157 -0.40408179 13552339
0.79000026 -0.53514665 -0.40505517 13946841
0.78899986 -0.52307898 -0.40464512 14538465
0.79000002 -0.52814525 -0.40479103 14209500
0.78875995 -0.5149191 -0.40441865 14079194
0.78814816 -0.50488317 -0.40431091 14538974
0.78877759 -0.49536932 -0.40408728 14670819
0.79000002 -0.4916856 -0.40875399 14408160
0.78899992 -0.48601463 -0.40281856 14605539
0.79042858 -0.48428616 -0.40739053 14144988
0.78900003 -0.47523123 -0.40111223 14342367
0.79030001 -0.47494358 -0.40641254 14407903
0.79017258 -0.46481109 -0.40501681 14342366
0.78900003 -0.45042786 -0.40454248 13947863
0.79012519 -0.45492378 -0.40511981 13882070
0.78899986 -0.44410896 -0.40425089 14013143
0.79000002 -0.44791639 -0.40597987 13947606
0.78885698 -0.43497893 -0.40453523 14605536
0.78870356 -0.42481926 -0.40432227 14210265
0.7889998 -0.41533363 -0.40454254 13947348
0.78899974 -0.40517479 -0.40454257 14144727
0.78899986 -0.39542639 -0.40433729 14473949
0.79000002 -0.39445981 -0.40558359 14539228
0.7889998 -0.38467243 -0.40528131 14342363
0.79000002 -0.38626957 -0.40135637 14670814
0.78891981 -0.37466052 -0.40450126 14211033
0.7889998 -0.36546296 -0.40454257 14408155
0.79000002 -0.36037794 -0.4044387 14473948
0.78900003 -0.35992175 -0.40546599 14737377
0.79352647 -0.35449567 -0.40485501 15132391
0.79357898 -0.63481379 -0.3948617 10393513
0.78900003 -0.62241 -0.39694902 13881047
0.79027778 -0.62567967 -0.39389127 14012379
0.78871417 -0.61485738 -0.39621812 13946583
0.79000002 -0.61467099 -0.39118466 14144219
0.7888332 -0.60452956 -0.39614642 14012376
0.79000002 -0.60449922 -0.39118466 14210010
0.78899986 -0.59480661 -0.39653856 14078682
0.79000002 -0.59478992 -0.39164701 14144474
0.78899997 -0.58552736 -0.39728615 14013147
0.79000002 -0.58471066 -0.39247921 14275804
0.78900003 -0.57602817 -0.39853954 14078940
0.79004019 -0.57456774 -0.39368257 14210012
0.78900003 -0.56679291 -0.39900127 13881048
0.79031277 -0.56455559 -0.39474916 14078426
0.79020023 -0.55470616 -0.3949824 14079195
0.79000026 -0.54531837 -0.39488345 14078939
0.79000038 -0.53514659 -0.39488336 14210780
0.78899992 -0.52361774 -0.39623067 14539232
0.79000002 -0.52576751 -0.39276981 14605280
0.7889998 -0.5148232 -0.3958109 14078425
0.79000002 -0.51642144 -0.39095348 13814996
0.78899974 -0.50491619 -0.39530715 14604768
0.78891975 -0.49470693 -0.39526668 14801890
0.79000002 -0.49353501 -0.39025995 14933732
0.78899986 -0.48569793 -0.39601076 15000039
0.79000002 -0.48479241 -0.39110059 14999781
0.78899986 -0.47560626 -0.39695975 14408160
0.79006249 -0.47473136 -0.39202458 14868196
0.78900003 -0.46889845 -0.39715421 14605539
0.79046899 -0.46456587 -0.39500022 14868710
0.7913332 -0.45507106 -0.39512429 14408160
0.78900003 -0.44211608 -0.39900127 14013656
0.79167652 -0.44530281 -0.39446104 14211035
0.78900003 -0.43472779 -0.39900127 14408157
0.79184866 -0.43525597 -0.39408714 14408157
0.78900003 -0.42518464 -0.39869344 14802400
0.79155195 -0.42511141 -0.39396113 14671071
0.78900003 -0.4162572 -0.39900127 14341849
0.79082769 -0.41463584 -0.39494303 14342106
0.79036701 -0.40495157 -0.3950651 14144983
0.7905885 -0.3951571 -0.39495832 14539741
0.79090643 -0.38520896 -0.39556533 14605791
0.78900003 -0.37248176 -0.3966001 14408413
0.79000002 -0.37653586 -0.39395875 14539742
0.7889998 -0.36546296 -0.39530718 14342619
0.79000002 -0.36064216 -0.39422297 14671328
0.79358351 -0.35472292 -0.39512289 15132392
0.79491663 -0.63524812 -0.38524163 11051443
0.79150009 -0.62453437 -0.38487101 14013149
0.79073101 -0.61452764 -0.38520887 14144989
0.79000014 -0.60449922 -0.38471168 14276061
0.78900003 -0.59142035 -0.38114631 14210781
0.79000002 -0.59567255 -0.3851321 14210268
0.78899997 -0.58499962 -0.38224581 14144988
0.79000002 -0.58508056 -0.38708955 14341597
0.78900003 -0.57910663 -0.38114631 14144988
0.7902416 -0.57399881 -0.38495708 14276317
0.79144448 -0.56463623 -0.38500252 14341854
0.79163647 -0.55520868 -0.38432786 14276061
0.79109693 -0.54499972 -0.38434696 14012889
0.79055202 -0.53516972 -0.38478693 14144731
0.79058641 -0.5245977 -0.38461265 14604767
0.79081267 -0.51475376 -0.3844105 14012375
0.78900003 -0.50491625 -0.38976595 14670816
0.79083878 -0.5049876 -0.38404238 14736355
0.78900003 -0.49752796 -0.38976595 14736609
0.79080021 -0.49502113 -0.38454381 14802404
0.79086226 -0.48500684 -0.38493806 15000038
0.79136372 -0.47484964 -0.38486901 14999781
0.79280543 -0.46466193 -0.38514864 15262696
0.79460621 -0.45481157 -0.38565627 15065831
0.79518521 -0.44506392 -0.38571849 14803172
0.79544008 -0.43548289 -0.38549855 14671586
0.79448158 -0.4254536 -0.38544667 14671586
0.79293925 -0.41504544 -0.38496104 14605792
0.79188877 -0.40531981 -0.38501313 14473435
0.79113352 -0.39515835 -0.38526353 14670814
0.79120016 -0.38500488 -0.38529748 14670814
0.78900003 -0.37100413 -0.38976595 14736607
0.79008019 -0.37521154 -0.38475096 14605022
0.78899992 -0.36622351 -0.38639778 14408412
0.79000002 -0.36375034 -0.38384143 14408414
0.79342115 -0.35439992 -0.3851527 15263721
0.79146433 -0.62395144 -0.3749032 14341600
0.79100019 -0.61452317 -0.37501404 14407649
0.7901113 -0.60479015 -0.37510589 14341598
0.78900003 -0.59154344 -0.37720594 14210781
0.79000002 -0.59599209 -0.37490994 14276061
0.78899986 -0.58495557 -0.37622082 14276574
0.79000002 -0.58600527 -0.37222824 14144988
0.78900003 -0.57828569 -0.37663129 14342367
0.79000002 -0.57416904 -0.37490994 14276575
0.79090929 -0.56546897 -0.37483037 14276575
0.79226655 -0.55522794 -0.37468699 14276061
0.79280001 -0.54539514 -0.37493858 14210012
0.79203117 -0.53472733 -0.37498033 14407390
0.79164523 -0.52469236 -0.37540826 14802147
0.79240006 -0.51543945 -0.37474945 14012889
0.79183996 -0.5058074 -0.374486 14539488
0.79096448 -0.49532771 -0.375328 14736867
0.79100013 -0.48490104 -0.37519923 15065575
0.79121232 -0.47492701 -0.3746939 15131112
0.79335469 -0.46483299 -0.37502208 15065830
0.79500002 -0.45478377 -0.37504941 15000295
0.79500002 -0.44447863 -0.37556642 15197674
0.79431999 -0.43487 -0.37565964 14934501
0.79344004 -0.42510128 -0.37524295 14737378
0.79316646 -0.41474196 -0.37511215 14737377
0.79247993 -0.40418035 -0.37478763 14737121
0.79134494 -0.39478534 -0.37508073 14737120
0.79017264 -0.38507876 -0.37535465 14736863
0.78899997 -0.37298313 -0.37432978 14539742
0.79000002 -0.37735879 -0.37630537 14671071
0.78899992 -0.36730996 -0.37498948 14342877
0.79000002 -0.36222735 -0.37546477 14474462
0.79324323 -0.35441899 -0.37514639 15198183
0.79196155 -0.62461311 -0.36505762 14210527
0.79167998 -0.61505198 -0.36514205 14342111
0.79075021 -0.60487574 -0.36530799 14342110
0.79000026 -0.59525234 -0.36529294 14276574
0.79002815 -0.58510089 -0.36530578 14210781
0.79077178 -0.57467604 -0.36551619 14342367
0.79153848 -0.5651229 -0.36529043 14276575
0.79233325 -0.55527455 -0.36544505 14407389
0.79295999 -0.54550534 -0.36573371 14275804
0.79229993 -0.53485101 -0.36542958 14341597
0.79199988 -0.52444988 -0.36529076 14868197
0.79215986 -0.51528382 -0.36536554 14012632
0.79080003 -0.50514406 -0.36473876 14473438
0.78900009 -0.4940857 -0.36155629 14802660
0.79000002 -0.49558985 -0.36703959 14802403
0.78900003 -0.48921618 -0.3611365 14802918
0.79000032 -0.48515487 -0.36523512 14934248
0.79163647 -0.47467446 -0.36461586 14934759
0.79437834 -0.46510458 -0.36497712 14868965
0.79504007 -0.45536509 -0.36512935 14868965
0.79372424 -0.44505212 -0.36486945 15197929
0.79351521 -0.43493485 -0.36480868 15197928
0.79437155 -0.42480204 -0.36532041 15000550
0.79474211 -0.41481531 -0.36577383 14868964
0.79423338 -0.40507433 -0.36538827 14803172
0.79396975 -0.39513883 -0.36501247 14868707
0.79219359 -0.38477054 -0.36519539 14802401
0.78900003 -0.37248176 -0.36870947 14670813
0.79052019 -0.37586537 -0.36475471 14736606
0.78899986 -0.36590266 -0.36478665 14342618
0.79000002 -0.36309043 -0.36535466 14605534
0.79250008 -0.35468999 -0.36530256 15066597
0.7934584 -0.62479419 -0.35527968 14341599
0.79273516 -0.61521631 -0.35520348 14407904
0.79185712 -0.6049937 -0.35502842 14276575
0.7908389 -0.59510833 -0.35454142 14341854
0.79069716 -0.58517528 -0.35476029 14341854
0.79136127 -0.57497144 -0.35480666 14407647
0.79199988 -0.56523985 -0.35509327 14341852
0.79185289 -0.55521208 -0.35524625 14473439
0.79193741 -0.54514897 -0.35483372 14407902
0.79208326 -0.53470349 -0.35513011 14670818
0.79199988 -0.52444994 -0.35509318 14868711
0.79136676 -0.5147686 -0.35480925 14341853
0.79028594 -0.50501311 -0.35465422 14539231
0.78900003 -0.49475738 -0.35805807 14802660
0.7902084 -0.49528357 -0.35320997 14671330
0.78900003 -0.48921618 -0.35836589 14802918
0.79061788 -0.48531845 -0.35447201 15000295
0.79299992 -0.47526878 -0.35518289 15066344
0.79575008 -0.4545494 -0.35491037 14737377
0.79352379 -0.44487345 -0.35502419 14934756
0.79299992 -0.43507531 -0.35461339 15197929
0.79417855 -0.42489716 -0.35534114 15329257
0.79470372 -0.41502869 -0.35516962 15066085
0.79475999 -0.40534171 -0.35540155 15000036
0.79500008 -0.39522836 -0.35550892 14933986
0.79384005 -0.38443208 -0.35499024 14868193
0.79147828 -0.37507182 -0.35506016 14802399
0.78899997 -0.36348394 -0.35467175 14473947
0.79000002 -0.36671871 -0.35512131 14539741
0.78900003 -0.35992175 -0.35467175 14671583
0.7917577 -0.35477114 -0.35484204 15066084
0.79286194 -0.61520195 -0.34539983 14342367
0.79230762 -0.60462463 -0.3448866 14276318
0.7918399 -0.59478539 -0.34482548 14144732
0.79183328 -0.58458441 -0.34482247 14276574
0.79195994 -0.57448113 -0.34487823 14210781
0.79199988 -0.56523985 -0.34489587 14210524
0.79175001 -0.55519825 -0.34458727 14276061
0.79196286 -0.54523057 -0.34508526 14407902
0.79269981 -0.53511935 -0.34519958 14473694
0.7924 -0.52471477 -0.34506905 14737381
0.79203987 -0.51520598 -0.34491268 14473696
0.79156679 -0.5048908 -0.34489015 14473696
0.79203564 -0.49526963 -0.34530577 14737125
0.79262072 -0.48512611 -0.34503701 15000296
0.79374993 -0.47456354 -0.34559995 15000551
0.79588455 -0.45421711 -0.3449395 14737120
0.79453576 -0.44455424 -0.34480247 14802913
0.79390901 -0.43481272 -0.34487861 15066342
0.79443753 -0.42499441 -0.34490767 15197928
0.79457581 -0.41505557 -0.34533948 15263721
0.79409999 -0.40500563 -0.34487981 15197671
0.79311532 -0.39529154 -0.34516764 15065572
0.79228002 -0.38553008 -0.34501916 14802913
0.79103857 -0.3755255 -0.34469098 14671327
0.78900003 -0.36269236 -0.34913057 14408410
0.79008853 -0.36515057 -0.34471568 14408411
0.79338461 -0.35448393 -0.34497175 14869475
0.79192001 -0.61523843 -0.33559224 14408160
0.79231417 -0.60520899 -0.33496431 14210781
0.79291159 -0.59493512 -0.33486485 14210781
0.79212487 -0.58422089 -0.33498263 14276575
0.79199988 -0.57451022 -0.33469838 14276575
0.7920624 -0.56493628 -0.33460861 14144988
0.79270571 -0.55526334 -0.33510473 14276831
0.79289991 -0.54546368 -0.33507806 14145243
0.7929998 -0.53532243 -0.33512086 14474209
0.79299992 -0.52511203 -0.33512086 14868454
0.79297042 -0.51515567 -0.33488956 14473954
0.79287481 -0.50495923 -0.33529952 14276829
0.79299992 -0.49540919 -0.33512086 14737380
0.7929998 -0.48519886 -0.3351208 15000552
0.79299992 -0.47498849 -0.33512095 15066601
0.79463649 -0.46514174 -0.33499566 14934758
0.79567856 -0.45450643 -0.3349883 14737378
0.79496002 -0.40544406 -0.33501855 15197928
0.79348284 -0.3953405 -0.33516306 15131620
0.79216653 -0.38547501 -0.33476716 15000035
0.7916944 -0.37505186 -0.33456773 14736864
0.79140002 -0.36472157 -0.33444309 14408155
0.79356402 -0.35470811 -0.33471519 14541024
0.79100019 -0.61452317 -0.32501704 14408160
0.791484 -0.60485625 -0.32446894 14210781
0.79269993 -0.59450167 -0.3247878 14342366
0.79243988 -0.58410543 -0.32467988 14342622
0.79191989 -0.57445264 -0.32446751 14407901
0.79203838 -0.56505305 -0.32437375 14407902
0.79286194 -0.55548561 -0.32498193 14408414
0.79280001 -0.54539555 -0.32482946 14474207
0.79286659 -0.53523183 -0.3248564 14473953
0.79418188 -0.52470976 -0.32488587 14999784
0.79458624 -0.51513034 -0.3247897 14605538
0.79356009 -0.50504869 -0.32513991 14474208
0.79300004 -0.49540925 -0.32491058 14671586
0.79316121 -0.48514712 -0.32479611 15132137
0.79449993 -0.47495514 -0.32459149 15066601
0.79507148 -0.41460809 -0.32449681 15132135
0.79493338 -0.40542996 -0.32477239 15132135
0.7948001 -0.39526236 -0.32458401 15066341
0.79396778 -0.38467258 -0.32452467 15131364
0.79319227 -0.37497613 -0.32477352 14802398
0.79215986 -0.36507285 -0.32456592 14473948
0.79100013 -0.61452323 -0.31483245 14473694
0.79153341 -0.60474509 -0.31504408 14341852
0.79319984 -0.59474391 -0.31491148 14342365
0.79403234 -0.58509839 -0.31495729 14407904
0.79317248 -0.57523322 -0.31492686 14407903
0.79243314 -0.56554967 -0.31447396 14473695
0.79223329 -0.55520576 -0.31532425 14342365
0.7922799 -0.54503632 -0.31534213 14473953
0.7929998 -0.53532243 -0.31497321 14473953
0.79368734 -0.52504325 -0.31468442 14868710
0.79451853 -0.51502633 -0.31444314 14803173
0.79380006 -0.50520146 -0.31501737 14474208
0.79328567 -0.49479049 -0.31468025 14605538
0.79508591 -0.48500845 -0.31512561 15131882
0.79555553 -0.45458329 -0.31457913 14737379
0.79550004 -0.44461167 -0.3149077 14868964
0.79529172 -0.43524706 -0.31452471 15000549
0.79488462 -0.42566034 -0.31437442 15066342
0.79417247 -0.41510656 -0.31436419 15066341
0.79500002 -0.40546429 -0.3145633 15000549
0.79519999 -0.395327 -0.31464311 15066340
0.79480004 -0.38489574 -0.31448489 15131877
0.79382759 -0.37500575 -0.31486911 14868448
0.79268956 -0.36544535 -0.31473637 14539996
0.79180008 -0.61514485 -0.30495355 14276830
0.79188883 -0.60501719 -0.30498934 14342621
0.79299992 -0.59487575 -0.30466971 14276830
0.79456675 -0.58474129 -0.30509236 14408160
0.79471999 -0.57462388 -0.30514985 14408417
0.79327279 -0.56479818 -0.30434063 14408416
0.79217637 -0.55489284 -0.30531812 14276829
0.7926451 -0.54510826 -0.30512962 14473951
0.79293531 -0.53512943 -0.30494344 14605794
0.79283994 -0.52500653 -0.30442861 14868965
0.79309982 -0.51496637 -0.30452877 15000551
0.79352003 -0.50502121 -0.30469009 14671843
0.7947942 -0.49499428 -0.30457473 14540002
0.79488468 -0.46509808 -0.30499965 14868707
0.79327989 -0.45472866 -0.30459863 14802913
0.79323065 -0.44520077 -0.30472237 14803170
0.79417253 -0.43555662 -0.304813 15131622
0.79493338 -0.42497036 -0.30523244 15066342
0.79452014 -0.41451955 -0.30507275 14934756
0.79468 -0.40530145 -0.30513626 14934756
0.79425001 -0.39518791 -0.30517077 15066340
0.79327995 -0.38490266 -0.30459863 15197926
0.79251856 -0.37492615 -0.30410022 15000291
0.79234612 -0.36501554 -0.30445355 14605790
0.79387492 -0.61524719 -0.29483366 14473695
0.79311097 -0.60523039 -0.2948353 14342621
0.79279304 -0.59473282 -0.2952593 14276828
0.79334617 -0.58498645 -0.29519519 14342367
0.79444122 -0.57513118 -0.29508901 14473953
0.79410011 -0.56488013 -0.29468784 14408160
0.79366666 -0.55528122 -0.29452533 14473951
0.7943871 -0.54540563 -0.29554436 14473951
0.7943334 -0.53529358 -0.29477423 14605793
0.79304004 -0.52513891 -0.29522228 14868965
0.79299992 -0.51490164 -0.2952078 15000552
0.79406059 -0.50457531 -0.29458693 15000296
0.79466671 -0.46489561 -0.2950705 14803170
0.79291999 -0.45452306 -0.29517874 14737377
0.79316658 -0.44444862 -0.29527065 14803170
0.79436684 -0.4348951 -0.29478627 15132134
0.79421431 -0.42525035 -0.29566118 14934755
0.79375011 -0.41471556 -0.29528952 14934755
0.79323995 -0.40456754 -0.29529762 15000548
0.79300004 -0.39516219 -0.29520777 15066341
0.79288876 -0.38541362 -0.29495957 15263206
0.79189283 -0.37481472 -0.29499421 15131621
0.79128003 -0.36466637 -0.29456854 14802655
0.7943601 -0.61527407 -0.28455874 14539743
0.79328555 -0.60495859 -0.28476849 14342364
0.79229993 -0.59513146 -0.28474522 14408159
0.79238868 -0.58499455 -0.28477871 14342367
0.79274994 -0.57505369 -0.28451154 14408160
0.79320675 -0.56501174 -0.28401688 14408159
0.79328012 -0.55501115 -0.28417054 14276573
0.79283321 -0.54541856 -0.28493831 14342365
0.79263318 -0.53507572 -0.28393891 14539744
0.79266661 -0.52489114 -0.28487906 14868710
0.79297203 -0.51488352 -0.28498748 14934758
0.79429024 -0.50472862 -0.28471139 15066600
0.79570842 -0.47490606 -0.28519514 14868963
0.79295647 -0.46463278 -0.28437808 14868963
0.79140002 -0.45513332 -0.28535029 14737377
0.79124147 -0.44506285 -0.28516573 14803170
0.79261535 -0.43529192 -0.28464624 15132135
0.79256248 -0.42503649 -0.28443551 15000549
0.79260582 -0.41487029 -0.28511053 15000548
0.79284829 -0.40487209 -0.28469029 15066341
0.79365611 -0.39514002 -0.28499955 15066341
0.79317623 -0.38476434 -0.28527835 15132132
0.79266649 -0.37458476 -0.28487673 14999779
0.79173338 -0.36487672 -0.28454125 14802399
0.79176927 -0.61490661 -0.27450559 14539744
0.79224133 -0.60512626 -0.27439791 14408159
0.79293096 -0.59483641 -0.27463508 14473953
0.79238456 -0.5842793 -0.27471617 14473953
0.79199988 -0.57451016 -0.27444059 14473953
0.79199988 -0.56523979 -0.27444056 14473953
0.79199988 -0.55504227 -0.27444059 14342367
0.79271996 -0.5453397 -0.27468938 14276829
0.79276651 -0.53516573 -0.27470589 14408415
0.79223996 -0.52460939 -0.27452347 14802916
0.79239279 -0.5148381 -0.27437672 14934758
0.79324132 -0.50484282 -0.27525559 15000550
0.79541391 -0.49537289 -0.27536932 14934756
0.79469568 -0.4756825 -0.27513331 14803171
0.79223984 -0.46526131 -0.27452409 14803170
0.79090023 -0.45521593 -0.27498481 14671584
0.79041696 -0.44475931 -0.27481616 14803170
0.79107428 -0.43515009 -0.27453151 15000549
0.79103357 -0.42473704 -0.27410725 15000806
0.79136008 -0.41472298 -0.27421969 15000548
0.79283321 -0.40528479 -0.27472955 15132133
0.79456669 -0.39501187 -0.27532908 15132132
0.79480004 -0.38489503 -0.27541 15000546
0.79448009 -0.37544215 -0.27529857 14868703
0.79263997 -0.36529514 -0.27466205 14802911
0.79012018 -0.61383975 -0.26454112 14473953
0.7912001 -0.60448927 -0.26490286 14473953
0.79219985 -0.5950551 -0.26523763 14539746
0.79199988 -0.58470768 -0.26517013 14540002
0.79203993 -0.57453901 -0.26518333 14473953
0.79273325 -0.56483454 -0.26541471 14539746
0.79330003 -0.55502456 -0.26467538 14474209
0.79328573 -0.54592884 -0.26500246 14342366
0.79296654 -0.53530014 -0.2654936 14408416
0.79293096 -0.52448946 -0.26477629 14934758
0.79367638 -0.51506639 -0.26501825 15065831
0.79350007 -0.5052098 -0.26507372 15000293
0.79292297 -0.49514693 -0.26562324 14934756
0.79281467 -0.48525679 -0.26551378 14802914
0.79240733 -0.4750458 -0.26510155 14737121
0.79199988 -0.46511912 -0.2651701 14803170
0.79177779 -0.45530897 -0.26488885 14737377
0.79107153 -0.44479823 -0.26505724 14868963
0.79092008 -0.43486026 -0.26480815 14934756
0.79041404 -0.42456308 -0.26451027 15132391
0.79178572 -0.41474602 -0.26503071 15066341
0.79341924 -0.40501481 -0.26528397 15066597
0.79527783 -0.39536542 -0.26533565 15000548
0.79550004 -0.38523337 -0.2654095 14934755
0.79503334 -0.37570342 -0.26525512 14671582
0.79263991 -0.36529505 -0.26538461 14803166
0.7900002 -0.6141572 -0.25504792 14539746
0.79092598 -0.60479444 -0.25575903 14408160
0.79155874 -0.59522718 -0.25461411 14473954
0.79186106 -0.58460474 -0.25492862 14605539
0.79216659 -0.57463038 -0.25502646 14605538
0.79297203 -0.565005 -0.25528604 14605538
0.79348016 -0.55515075 -0.25452173 14539745
0.79328573 -0.5453316 -0.25485653 14342366
0.79355258 -0.53505826 -0.25532445 14474209
0.79449999 -0.52498806 -0.25552735 14934758
0.79496002 -0.51524407 -0.25499517 14868965
0.79400015 -0.50512207 -0.25509953 14868965
0.79289997 -0.49534783 -0.25526124 14803171
0.79213321 -0.48559597 -0.25501493 14671584
0.79199988 -0.47531658 -0.25497258 14737377
0.7920332 -0.46513855 -0.2549834 14803170
0.79199988 -0.45492166 -0.25497261 14803170
0.79183334 -0.44463083 -0.25491789 14935012
0.79199976 -0.43527392 -0.25481996 15000549
0.79191428 -0.42507672 -0.2550751 15000806
0.79308325 -0.41469651 -0.25531971 15066598
0.79392594 -0.4051218 -0.25507629 15066340
0.79506665 -0.39525971 -0.25503072 15066340
0.79532003 -0.3851468 -0.25511172 14868962
0.79420006 -0.37531099 -0.25475198 14671583
0.79239994 -0.36518416 -0.25510141 14737633
0.79000038 -0.61439902 -0.24529928 14474209
0.79000026 -0.60449922 -0.24508174 14342623
0.79073358 -0.59487796 -0.24438363 14473953
0.79156673 -0.58438605 -0.24464086 14539746
0.79219991 -0.57465458 -0.24483682 14605539
0.7927407 -0.56535608 -0.2447973 14539746
0.79217851 -0.55483663 -0.24502833 14474208
0.79232001 -0.54506421 -0.24487478 14473951
0.7932902 -0.53530753 -0.24529476 14671072
0.79410726 -0.52491498 -0.24529572 15131366
0.79369247 -0.51463723 -0.24529944 14802914
0.79316002 -0.50479341 -0.24513482 14803170
0.7927199 -0.49523458 -0.24499875 14737634
0.79293323 -0.48515764 -0.24506383 14737379
0.79259992 -0.47474918 -0.24496084 14868964
0.79199988 -0.46511918 -0.2447751 14737378
0.79199988 -0.45492172 -0.24477513 14737377
0.7922799 -0.4448804 -0.24486104 14869220
0.79378128 -0.43532819 -0.24497566 15000805
0.79427588 -0.42567748 -0.24470685 15000548
0.79350013 -0.41491678 -0.24523942 15066598
0.79295999 -0.40442368 -0.24507202 15000549
0.7926923 -0.39479417 -0.24513361 15000548
0.79281473 -0.3850331 -0.24509785 15066340
0.79259259 -0.37496135 -0.24475387 14868961
0.79211992 -0.36505428 -0.24481264 14803168
0.79096013 -0.61449301 -0.23519371 14474207
0.79060012 -0.60495836 -0.23508701 14408414
0.79096687 -0.59505463 -0.23519732 14408415
0.79150003 -0.5843367 -0.23535636 14671587
0.79261529 -0.57481253 -0.23547323 14671585
0.7929998 -0.56502527 -0.23487388 14671585
0.79289275 -0.55493939 -0.23517345 14473950
0.79207993 -0.54490018 -0.23552841 14473694
0.79148155 -0.53481227 -0.23555756 14670817
0.79196435 -0.52502 -0.2352968 15131367
0.7929998 -0.51490164 -0.23487383 14671329
0.79215997 -0.50415719 -0.23555298 14671842
0.79199988 -0.49478447 -0.23550467 14737377
0.79251498 -0.48464817 -0.23515232 14671841
0.79303336 -0.47500902 -0.23488249 14671842
0.79241365 -0.46549052 -0.23485854 14606048
0.79238218 -0.4549219 -0.23496249 14606048
0.79299986 -0.44510564 -0.2349636 14869220
0.79351532 -0.43538529 -0.23466164 15000804
0.79365402 -0.42507309 -0.23435479 14934754
0.79263991 -0.41539502 -0.23569599 15066340
0.79203326 -0.40487823 -0.23551473 14868961
0.79218513 -0.3945494 -0.23514679 14935010
0.79248369 -0.38544935 -0.23456962 15132388
0.79173338 -0.3750709 -0.23542576 14869216
0.79112017 -0.36459243 -0.23524351 14737886
0.79133338 -0.61478299 -0.22511904 14342366
0.79063362 -0.60498405 -0.22491975 14276828
0.79061151 -0.59478635 -0.22491328 14277085
0.79103249 -0.58473969 -0.22518148 14540257
0.79150009 -0.57507324 -0.22489391 14671585
0.79180002 -0.56509703 -0.22432587 14605792
0.79169995 -0.55489349 -0.22485295 14474206
0.79134387 -0.54474092 -0.22489046 14408413
0.79103243 -0.53474057 -0.22488245 14605278
0.79165715 -0.52501577 -0.22534138 15131367
0.79255998 -0.51554483 -0.2245395 14539742
0.79149997 -0.50528109 -0.22516656 14671584
0.79140013 -0.49520269 -0.22500537 14737377
0.79337132 -0.48528856 -0.22508496 14737377
0.79485708 -0.47483888 -0.22538827 14671584
0.7937308 -0.46420747 -0.22508271 14474462
0.79329616 -0.45508093 -0.22515847 14605791
0.79300004 -0.44528565 -0.22466348 14803170
0.79251993 -0.43574047 -0.2245286 14868962
0.79206657 -0.42529204 -0.22439943 14934754
0.79199988 -0.41505879 -0.22530727 14934754
0.79191422 -0.40494996 -0.2254152 14803168
0.79234481 -0.3952181 -0.22492619 15197926
0.79296148 -0.3856473 -0.22479559 15197926
0.79151517 -0.37482712 -0.22508568 14802910
0.79032022 -0.60474348 -0.21465272 14211035
0.79103351 -0.59510398 -0.21484597 14276828
0.79138458 -0.58496588 -0.2147987 14408413
0.79092324 -0.57501107 -0.21495973 14474207
0.79007167 -0.56445795 -0.21458624 14671586
0.79032016 -0.55478925 -0.21465383 14671586
0.79106688 -0.54512787 -0.21485573 14671329
0.79170001 -0.53444386 -0.21502747 14671584
0.79243994 -0.52473998 -0.21522881 15065572
0.79239988 -0.515441 -0.21521839 14671070
0.79160005 -0.50565428 -0.21500017 14868705
0.79146677 -0.49537605 -0.21496448 14803169
0.79309994 -0.48525637 -0.21540953 14802913
0.79474288 -0.47496882 -0.21505864 14803168
0.79418522 -0.46475151 -0.21529074 14671582
0.79316002 -0.45466027 -0.21542574 14671582
0.79251999 -0.44501644 -0.21525215 14803168
0.79203987 -0.43547589 -0.21512081 14934754
0.79163337 -0.42505941 -0.21500988 14803168
0.79199988 -0.41505885 -0.21510975 14868963
0.79175997 -0.40566626 -0.21504465 14868961
0.79173332 -0.3954564 -0.21503736 15263206
0.79195994 -0.38537416 -0.21509911 15328998
0.79052019 -0.37542167 -0.21470799 14868701
0.79268742 -0.5846352 -0.20532067 13619155
0.7923333 -0.57475293 -0.20499629 13685202
0.79160011 -0.56495452 -0.20480636 13816790
0.79177779 -0.55488533 -0.20485304 14079706
0.79229999 -0.54505104 -0.20498849 14342364
0.79199988 -0.53464723 -0.20491233 14671328
0.79148287 -0.52423531 -0.20487578 14737635
0.79114825 -0.51489979 -0.20527744 14540255
0.79147059 -0.50442517 -0.2050492 14934754
0.79219985 -0.49490869 -0.20496336 14737632
0.79252768 -0.48490933 -0.2050477 14606047
