# .PCD v0.7 - Point Cloud Data file format
VERSION 0.7
FIELDS x y z rgb
SIZE 4 4 4 4
TYPE F F F U
COUNT 1 1 1 1
WIDTH 906
HEIGHT 1
VIEWPOINT 0 0 0 1 0 0 0
POINTS 906
DATA ascii
0.78900003 -0.17600703 0.08809568 12039857
0.78900003 -0.1687507 0.088623412 11842736
0.79340017 -0.1645474 0.084464781 12106160
0.78863627 -0.17404462 0.094455451 12236466
0.79012501 -0.17847112 0.096842676 10789277
0.787 -0.16505761 0.094589688 14408663
0.78610009 -0.15518607 0.095159575 15658985
0.79000002 -0.15231994 0.090585135 15066845
0.78629619 -0.14516127 0.095674932 15790313
0.79000002 -0.14492233 0.090585135 15263967
0.78658623 -0.13492891 0.095839106 15921899
0.7902 -0.13478379 0.090608075 15329245
0.78749996 -0.12535702 0.096328422 15856106
0.79088885 -0.12440978 0.091303527 15461345
0.78833324 -0.11539593 0.097247422 15921642
0.79100001 -0.11468375 0.092285685 15724518
0.78841174 -0.10462278 0.097350471 15790313
0.79092306 -0.10571016 0.092256218 15790568
0.78799993 -0.094747938 0.096810579 15856107
0.79049999 -0.095048539 0.091567166 15987434
0.78779995 -0.084580258 0.09678553 15921387
0.79049999 -0.084870376 0.091567166 15658469
0.78840005 -0.075416163 0.0968602 15921387
0.7910769 -0.074390359 0.091847077 16118763
0.7888332 -0.065300785 0.097837657 15395299
0.79099995 -0.064554863 0.092549987 15724263
0.78900003 -0.056449272 0.098228134 14737626
0.79100001 -0.054648142 0.093752258 15264227
0.79130554 -0.045127954 0.095362566 14803675
0.79163349 -0.034954831 0.095402941 14737882
0.79180562 -0.024766985 0.095423304 14408917
0.79166675 -0.014571493 0.095405988 14079696
0.78900003 -0.0025150229 0.09785872 13750731
0.79062515 -0.0059911045 0.094587386 14145745
0.78874058 0.0051784753 0.096389785 14079953
0.79022223 0.0039550359 0.091227084 14277330
0.78826916 0.015088747 0.095708363 13816781
0.79000002 0.014588779 0.090585135 14277332
0.78773528 0.025258332 0.095203273 13684938
0.79000002 0.023373447 0.090585135 14408918
0.78751713 0.035219483 0.095063798 13685453
0.79000002 0.037243977 0.090585135 14014932
0.78739274 0.044756223 0.095811911 14145747
0.79000002 0.045566298 0.090585135 14343895
0.78692859 0.054927707 0.095556922 14145489
0.79000002 0.054813322 0.090585135 14342865
0.78626943 0.064889655 0.095813602 14474455
0.79000002 0.064985044 0.090585135 14342868
0.78651738 0.074983463 0.095575854 14539992
0.79000002 0.075156771 0.090585135 14276819
0.78713632 0.084767953 0.096282765 14539992
0.78773689 0.094984949 0.097505905 15001056
0.78742105 -0.17380074 0.10522932 12696765
0.79033333 -0.17890365 0.10480719 10262681
0.77900004 -0.16068505 0.10801627 15592681
0.78219229 -0.16504422 0.10475945 15131874
0.77900016 -0.15453023 0.10733242 15658730
0.78085715 -0.15538833 0.10220068 15921900
0.77900016 -0.1456399 0.10756037 15526887
0.78095233 -0.14443789 0.10312649 15790058
0.78183335 -0.13518658 0.10520423 15592936
0.78409398 -0.12570968 0.10493482 15330021
0.78599989 -0.11474688 0.10484461 15329764
0.78652006 -0.10469607 0.10491484 15329764
0.78632003 -0.095467456 0.10488901 15263970
0.78596658 -0.085303679 0.10484228 15263714
0.78728002 -0.075307511 0.10501756 15263714
0.78839999 -0.065263867 0.10516693 15066334
0.78899986 -0.056225669 0.10505255 15000542
0.79000002 -0.051835652 0.10599684 14869211
0.79060018 -0.045087084 0.10546065 14606294
0.79108012 -0.034930289 0.10552433 14343123
0.7911669 -0.024747124 0.10553592 14277330
0.79096013 -0.014557566 0.10550863 13816780
0.78900003 -0.0025150229 0.10247639 13422023
0.79019058 -0.0058226637 0.10593475 13487816
0.78886342 0.0057952274 0.10430579 13422023
0.79000002 0.0023364755 0.1079233 13356230
0.78832 0.015018187 0.10515748 13619145
0.78700006 0.025124727 0.10498176 13224389
0.78603995 0.035216965 0.10485231 13158597
0.78579992 0.045323107 0.1048206 13487818
0.78408003 0.055317622 0.10459104 13619404
0.78238893 0.065273255 0.10528072 13750735
0.78179991 0.075291067 0.10520092 14342616
0.7815001 0.085055634 0.10537343 14144978
0.78275001 0.0951977 0.10509487 14671837
0.78592598 0.10492834 0.10524182 15132132
0.78675002 -0.17333806 0.11443113 12959423
0.79100001 -0.17883466 0.1155661 10261909
0.77899998 -0.16075018 0.11459445 15131617
0.78155547 -0.16563658 0.11533333 14736860
0.77900004 -0.15589796 0.11211949 15527144
0.78058827 -0.15453526 0.11637987 15329508
0.77900004 -0.14673409 0.1115724 15461351
0.78123999 -0.14474088 0.11584547 15263972
0.78292865 -0.13478544 0.11563317 15132642
0.78435493 -0.12484282 0.11475795 14935006
0.78472221 -0.11456013 0.11478037 14869212
0.78566658 -0.10458145 0.11491849 15132384
0.7872858 -0.094792724 0.11528816 15132384
0.78748393 -0.084724411 0.11503778 15132385
0.78792006 -0.075369962 0.11432654 15132385
0.78879982 -0.065297753 0.11445391 15066591
0.78900003 -0.057557512 0.11337405 15198177
0.79006666 -0.053627763 0.11537712 14935005
0.79080015 -0.04509927 0.11474399 14606040
0.79100013 -0.034926947 0.11477245 14540247
0.79130012 -0.024750512 0.11481623 14079953
0.79144007 -0.014566027 0.11483774 13684939
0.79148012 -0.0053023254 0.11484364 13685196
0.78900003 0.0094908876 0.11078817 13882317
0.79041404 0.0047210781 0.11481594 13224644
0.78899986 0.015678551 0.11383581 13224644
0.79000002 0.012461963 0.11721655 13158852
0.78824234 0.025416872 0.11487642 12698303
0.78726679 0.035271093 0.11515464 13027266
0.78663892 0.045372281 0.11506263 13158851
0.78576654 0.055438023 0.11493494 13224388
0.78343338 0.065358646 0.11551 13223874
0.78191984 0.075302757 0.11528607 14276823
0.7810334 0.085273385 0.11515578 14145237
0.78123999 0.095357113 0.11518587 14408664
0.78592604 0.10520181 0.1151263 14935009
0.78900003 0.11107936 0.11448228 11382444
0.78718752 -0.17308833 0.1249302 13157313
0.79133338 -0.17851394 0.12500975 10130836
0.77900004 -0.16091301 0.12534098 14868962
0.78152382 -0.16536872 0.12489748 14867934
0.77900004 -0.15840548 0.12579688 15790059
0.78116006 -0.15445408 0.12504812 15592167
0.78258842 -0.14560905 0.12519054 15197921
0.7840668 -0.1346533 0.12477912 15329763
0.78579992 -0.12483588 0.12505588 15132384
0.78566647 -0.11469955 0.12503546 14869212
0.78603995 -0.10463207 0.1250938 14935005
0.78766674 -0.094706304 0.12535249 15198177
0.78875983 -0.084682532 0.12552629 15395300
0.78899974 -0.075474024 0.12464114 15263714
0.78899974 -0.066040799 0.12365162 15395300
0.79000002 -0.06285502 0.12826675 15724007
0.78900003 -0.058850452 0.12002348 15197407
0.79089671 -0.055158775 0.12510146 15263970
0.79264504 -0.045354586 0.12447081 14671833
0.7918964 -0.034839224 0.12494079 14211026
0.79202771 -0.024773806 0.12512141 14013905
0.79229993 -0.014581902 0.12516372 13750733
0.79209989 -0.0053067752 0.12513134 13619147
0.79102796 0.0048836409 0.12496228 13355975
0.78900003 0.018110516 0.12063917 13027267
0.79003727 0.01470918 0.12525041 13158596
0.78896528 0.025094086 0.12466767 13158596
0.79000002 0.020599341 0.12849793 13158596
0.78859985 0.035331666 0.12550232 12961217
0.78811544 0.044747233 0.12528279 13224132
0.78737944 0.054788906 0.12543501 13092803
0.78506666 0.065494426 0.12493972 13092289
0.78316027 0.075422272 0.12463666 13882063
0.7829631 0.084974714 0.12440266 14079700
0.782893 0.094969176 0.12479056 14342617
0.78676921 0.10538733 0.12499697 14935008
0.78900003 0.11107936 0.12519526 11579563
0.79275006 0.11594289 0.12492267 11842733
0.78695232 -0.17353646 0.13515069 12762811
0.79066664 -0.17897923 0.13446631 10065555
0.77900016 -0.1620528 0.13491513 15329513
0.78209096 -0.1673574 0.13495056 14276565
0.77900016 -0.15604548 0.13545151 15987182
0.78025007 -0.15226662 0.13398921 15789801
0.78203118 -0.14506012 0.13509624 15526885
0.78358364 -0.13457102 0.13479146 15263713
0.7851333 -0.12473013 0.13505767 15329763
0.78569424 -0.11470279 0.13515371 15263713
0.78619999 -0.10465346 0.13524219 15066591
0.78733343 -0.094666868 0.13543572 14935005
0.78786206 -0.084713727 0.1353673 15000285
0.78863984 -0.075438552 0.13473773 15263200
0.78900003 -0.069932826 0.13479999 15592165
0.79000014 -0.064473264 0.13497087 15328993
0.79171997 -0.0553432 0.1352649 15527140
0.79295999 -0.014594001 0.13547671 14211283
0.7925998 -0.0053101094 0.13541663 13948111
0.79146671 0.0048869038 0.13522229 13619147
0.79040009 0.01505744 0.13503882 13290439
0.78900003 0.027037987 0.13295291 13158596
0.79000002 0.023989916 0.13620378 13093060
0.78900003 0.034426235 0.13239881 13092803
0.79000002 0.036011044 0.13657364 13224389
0.78899992 0.04532392 0.13319921 13224389
0.79000002 0.043531954 0.13737506 13158598
0.78826672 0.054691646 0.1346755 13092803
0.78570592 0.06527704 0.1350494 13223876
0.78390646 0.075149886 0.13496131 13618890
0.78406692 0.084686622 0.13487311 14145491
0.78302819 0.094657466 0.1346955 14408408
0.78657144 0.10502136 0.1349756 15000544
0.78900003 0.11107936 0.13479999 11447977
0.79171425 0.11623114 0.13499641 11777198
0.78900003 -0.18075661 0.14865297 10065042
0.79276186 -0.18471682 0.14498512 9999762
0.78674078 -0.17478734 0.14505453 12762555
0.79000002 -0.17913631 0.14051905 10065555
0.77885717 -0.16124184 0.14218403 15460330
0.78144997 -0.16503514 0.14567482 14868447
0.77900016 -0.156161 0.14263061 15921132
0.78023529 -0.15392917 0.14694847 15855339
0.78243345 -0.14536348 0.14466883 15921131
0.78479999 -0.13478181 0.14510688 15394787
0.78531992 -0.12475982 0.14520317 15263200
0.7859 -0.11473192 0.14531034 15328994
0.78687996 -0.10474379 0.14549169 15394787
0.78720015 -0.094652459 0.14555003 15460579
0.78703851 -0.08435683 0.14530686 15066079
0.78806674 -0.07538411 0.14478691 15263201
0.78891641 -0.06669309 0.14602059 15526372
0.79000002 -0.062623851 0.14298491 15263200
0.79146439 -0.055523653 0.14507912 15592165
0.79280001 -0.014590307 0.14472829 14342869
0.79316008 -0.0053142356 0.14479455 14013905
0.79223329 0.004890664 0.14462598 13948112
0.79026693 0.015055274 0.14519195 13684940
0.79013932 0.025227446 0.14516889 13092803
0.79070026 0.035426952 0.14527191 13158852
0.79040033 0.044662878 0.14521638 13290182
0.78851503 0.055128235 0.14495367 13092803
0.79000002 0.050189808 0.14421785 13289928
0.7856667 0.065543227 0.14526582 13158340
0.78253853 0.07550244 0.14489728 13355975
0.77900004 0.088699505 0.14950438 14013905
0.78126478 0.085083224 0.14509392 13948112
0.77900004 0.091434985 0.14950438 13816526
0.7812857 0.095362946 0.14504147 14342870
0.78640741 0.10540285 0.14499272 15066340
0.78900003 0.11107936 0.14495884 11513517
0.79068184 0.11577738 0.14484671 11645613
0.78900003 -0.18075661 0.15419415 10130835
0.79288238 -0.18514396 0.15522517 9999249
0.7860769 -0.17443022 0.15475538 12828605
0.78221428 -0.16475105 0.15502746 14736605
0.78171992 -0.15529817 0.15551767 15657960
0.78252792 -0.14538169 0.15476049 15855338
0.78472221 -0.13476689 0.15519384 15526372
0.78584611 -0.12498451 0.15470943 15131614
0.78686672 -0.11487303 0.15469891 15131614
0.78763998 -0.10484609 0.15485078 15263200
0.78730017 -0.094664678 0.15478331 15394786
0.78700006 -0.084494598 0.15472451 15197407
0.78780007 -0.075358286 0.15488178 15197407
0.78884602 -0.065940909 0.15473244 15460579
0.79000002 -0.061236799 0.15762603 15000028
0.79070389 -0.05506793 0.15504052 15657702
0.79283315 -0.045214009 0.15494208 15065821
0.79313314 -0.035021294 0.15500112 15066334
0.79224986 -0.024782641 0.15482956 14737626
0.79229993 -0.01458081 0.15483972 14277075
0.79306668 -0.0053127836 0.15498929 13948111
0.79233319 0.0048921937 0.15484516 13750733
0.7909202 0.015068564 0.15549485 14079698
0.79100019 0.02525478 0.1555109 13750733
0.7912001 0.035447586 0.15554933 13290181
0.78900003 0.048279215 0.15696473 13749962
0.79018188 0.044146743 0.15509728 13487561
0.7881 0.054679111 0.15493996 13158082
0.78488243 0.065694712 0.154956 13223875
0.78227592 0.075209886 0.15487003 13158596
0.7790001 0.087621897 0.15348324 13881806
0.78042102 0.083716609 0.15612483 13816526
0.77900004 0.091434985 0.15315168 13947342
0.78156519 0.096034586 0.15548627 14408149
0.78611541 0.10501789 0.15476277 15000802
0.78900003 0.11107936 0.15511768 11447982
0.79154563 0.11624148 0.15511245 11645612
0.78773922 -0.17429613 0.1645726 13355205
0.79025006 -0.17873065 0.16692629 9933713
0.78396004 -0.1649226 0.16514038 14605020
0.78238475 -0.15521933 0.16494857 15328739
0.78293109 -0.14529797 0.16479702 15592166
0.78499991 -0.13481499 0.16535892 15592166
0.7862758 -0.12478377 0.16486567 15328994
0.78722245 -0.11492524 0.16490369 15263201
0.78760016 -0.10484099 0.16498187 15197409
0.78700024 -0.094627723 0.1648576 15263201
0.78763336 -0.084561676 0.1649913 15131614
0.78859991 -0.075434737 0.16519377 15065821
0.78900003 -0.06890668 0.16332684 15328993
0.79014295 -0.06386777 0.1650317 15328993
0.79132009 -0.055317286 0.16483718 15526371
0.79233325 0.0048907748 0.16504782 13619146
0.79020011 0.015054004 0.16460295 13553611
0.78899997 0.026540704 0.16833131 13816526
0.79000002 0.024634408 0.16346845 13948112
0.78900009 0.035685599 0.1687188 13882319
0.79015785 0.035206605 0.16352272 13684940
0.78899986 0.045323916 0.16666184 13619146
0.79000002 0.043162074 0.16271189 13618634
0.7880556 0.054676652 0.1650793 13355717
0.78607142 0.06466005 0.16505896 13355718
0.78413808 0.074755035 0.16530408 12895167
0.78267866 0.085125968 0.16467325 13882319
0.7831853 0.095188744 0.16517964 14277077
0.7870689 0.10541143 0.16503046 14869472
0.78900003 0.11107937 0.1671236 14935010
0.79140913 0.11563183 0.16460115 11908785
0.78854555 -0.17259789 0.17499848 15065056
0.79100001 -0.17763631 0.17513971 10196374
0.78561538 -0.16513069 0.17489538 15065569
0.78308368 -0.15465236 0.17503685 15526374
0.7849232 -0.14504832 0.17474182 15592167
0.78713328 -0.13518135 0.17502184 15526374
0.78780001 -0.12515372 0.17516941 15394788
0.78756678 -0.11497761 0.17511758 15263202
0.78720003 -0.10478687 0.17503589 15328995
0.78770006 -0.094710968 0.17514721 15197409
0.7880401 -0.084606074 0.17522211 15263201
0.7889998 -0.075795256 0.1756763 15131616
0.79000002 -0.070761219 0.17306857 15328993
0.78900003 -0.069471061 0.17682068 15263201
0.79006916 -0.064351022 0.17458855 15328993
0.79106683 -0.055299703 0.17496724 15657958
0.79280543 -0.045212522 0.17535035 14934492
0.79316652 -0.024809139 0.17450471 14540247
0.7921176 0.0050535342 0.17492795 13487560
0.79020029 0.015054003 0.17477728 13355974
0.78899974 0.025350153 0.17556277 13619146
0.79000002 0.020599341 0.17103422 13355975
0.7889998 0.035349771 0.17543535 13948112
0.78891981 0.044580188 0.17541748 13882318
0.78803343 0.054676667 0.17522025 13553352
0.78684008 0.06472268 0.17495531 13553353
0.7846061 0.074891753 0.17495838 13224388
0.78306282 0.084922418 0.17526029 13224390
0.78238243 0.094849072 0.17466317 14211285
0.78462076 0.10483043 0.17521672 14737631
0.78869236 0.11259877 0.17579231 12171959
0.7906875 0.11698688 0.17407517 11513770
0.78830779 -0.17250711 0.18564333 14868191
0.79140002 -0.17785016 0.18461409 10394267
0.78548276 -0.16537035 0.18492375 14999777
0.78356689 -0.15474668 0.18523373 15986925
0.78551728 -0.14489061 0.18493327 15921132
0.78774291 -0.13536543 0.18516693 15723753
0.78800005 -0.12532777 0.18464953 15394788
0.78809386 -0.11528385 0.18480486 15328995
0.78843993 -0.10495231 0.18454105 15197409
0.7883333 -0.094788022 0.18451594 15065823
0.78875983 -0.084683105 0.18461533 15131616
0.7889998 -0.075474016 0.18467067 15065823
0.78899986 -0.067367464 0.18426025 15263203
0.79000002 -0.062315624 0.1855212 15394532
0.79004014 -0.055228926 0.18491396 15592167
0.79130012 -0.045127437 0.1852084 15066079
0.79221421 -0.034914002 0.18482611 14736857
0.79286093 -0.024799805 0.1846455 14605528
0.79246867 0.0047175055 0.18513469 13684426
0.78900003 0.018110516 0.18774913 13684938
0.79018193 0.014633421 0.18452679 13487559
0.78878766 0.025435138 0.18512377 13553353
0.78839993 0.035322659 0.18545143 13948112
0.78806674 0.044532113 0.18537427 14013905
0.78800005 0.054674551 0.18535897 13816526
0.7869333 0.064730287 0.18510841 13618890
0.78478789 0.074407659 0.18502131 13355719
0.78283352 0.085469447 0.18506026 13684940
0.77900004 0.098729603 0.18415378 13948112
0.78108335 0.095182747 0.18464559 13882319
0.7830385 0.10488887 0.18489678 14869215
0.78821427 0.11241952 0.18448713 12566714
0.79124999 0.11741781 0.18566084 11579816
0.78793752 -0.17325212 0.1951427 14802654
0.79083341 -0.17840056 0.19528146 9670544
0.78429645 -0.16478918 0.1949928 14868190
0.78400016 -0.15506005 0.19485582 15723753
0.78583997 -0.14507678 0.19496925 15855338
0.78816134 -0.13526796 0.19536586 15657960
0.78899974 -0.12521735 0.19498877 15526374
0.78897035 -0.11496409 0.19509399 15460581
0.78899974 -0.10502703 0.19482949 15328995
0.78897196 -0.094865009 0.19482255 15197409
0.78869987 -0.084677294 0.19475402 15065567
0.78879982 -0.075454578 0.19477914 15197152
0.78899986 -0.067308046 0.19614191 15394532
0.79000002 -0.063167796 0.19360784 15263204
0.79000026 -0.055226218 0.19507651 15526373
0.7903614 -0.045073763 0.19516569 15263201
0.79103357 -0.034928262 0.19533142 14736857
0.7923333 -0.024782252 0.19472533 14605271
0.79181814 0.0051388559 0.19510216 13552583
0.78899986 0.016417375 0.19547603 13223875
0.79000002 0.012277024 0.19378188 13092032
0.78830302 0.024915701 0.19507617 13684426
0.78792006 0.035301011 0.19548489 14144976
0.78792006 0.044524435 0.19548483 14211026
0.78800005 0.054674555 0.19550496 14079441
0.78707999 0.064743452 0.19527665 14013649
0.78536659 0.074714214 0.19485177 13684426
0.78303152 0.084918313 0.19496003 14013649
0.78269994 0.094678961 0.19474168 14079443
0.78619993 0.10516908 0.1950615 14737628
0.78883338 0.11167159 0.19355758 13882318
0.79185003 0.11602604 0.19544041 11645611
0.78747612 -0.17365088 0.20529391 13618892
0.79033333 -0.17890365 0.20471714 9474192
0.78375012 -0.16507508 0.20486808 14802394
0.78326494 -0.15447134 0.20468217 15526887
0.78473324 -0.14487323 0.20479515 15658215
0.7864722 -0.1350669 0.20524895 15592165
0.78766674 -0.12513237 0.20556213 15592165
0.78815162 -0.11525728 0.20526944 15592166
0.78839993 -0.10494716 0.20483108 15525861
0.78803134 -0.094522096 0.20508149 15328739
0.78746676 -0.08454518 0.20550953 15262689
0.78736681 -0.075317621 0.20548312 15131102
0.78811771 -0.065457851 0.20540802 15328737
0.7888124 -0.056296904 0.20574708 15460836
0.79000002 -0.053171333 0.2038098 15592422
0.7907002 -0.04509243 0.20543028 15329506
0.79180002 -0.034961984 0.20571707 14737370
0.79255539 -0.024789698 0.20498538 14408404
0.79283315 -0.0053127026 0.20505422 14144719
0.78900003 0.0094908876 0.20868251 13486789
0.79078138 0.0044766385 0.20481297 13749961
0.78891283 0.015351345 0.20520635 12894654
0.79000002 0.011352321 0.20247409 13026240
0.78766674 0.025398312 0.20514376 12960447
0.78679997 0.035249952 0.20533612 13947597
0.7865293 0.045095664 0.20548068 14342611
0.78721887 0.055195913 0.20521404 14013904
0.7864666 0.064693533 0.20524931 14210770
0.78480554 0.074659824 0.20481616 13684426
0.78265393 0.084745914 0.20531157 14079698
0.78427291 0.095173381 0.20481649 14079442
0.787875 0.10469856 0.2051568 14737372
0.79000002 0.10937075 0.20524819 15132129
0.78900003 -0.18075661 0.2197649 9737360
0.78753573 -0.17509107 0.21507566 12368824
0.7834816 -0.16461807 0.21496712 14868444
0.78209984 -0.1553745 0.21509698 15197665
0.78303045 -0.14572379 0.21493617 15526373
0.78446674 -0.13472362 0.21482953 15526372
0.78567994 -0.12481607 0.21516094 15460579
0.78660607 -0.11463993 0.214911 15592165
0.78733349 -0.1048051 0.21469106 15460066
0.78700006 -0.095488198 0.21466079 15328480
0.78582746 -0.085130125 0.2153281 15131357
0.78568 -0.075155586 0.21516071 15131356
0.78646874 -0.064873613 0.21503089 15460323
0.78833318 -0.055108156 0.21496455 15395044
0.78900003 -0.048999447 0.21761 15724010
0.79069239 -0.044451293 0.21432638 15461349
0.79207999 -0.034973785 0.21505885 15066334
0.79236656 -0.024785284 0.21513638 14671577
0.79211998 -0.014579103 0.21506931 14277075
0.78900003 -0.0015914912 0.2197649 14277075
0.79116011 -0.005301774 0.21480821 14013903
0.7889998 0.005870644 0.21644019 14144975
0.79009092 0.0026097125 0.21250194 14013646
0.7883333 0.01501852 0.21496446 13683911
0.78775775 0.024898639 0.21522789 12434358
0.78612018 0.035218671 0.21528244 12566203
0.78486657 0.045269586 0.21493837 13948111
0.7848078 0.055512503 0.2151324 14145489
0.78451723 0.064723901 0.21541074 14079696
0.7837503 0.075075582 0.21514726 13816525
0.78138882 0.085311085 0.21489967 14277076
0.77900004 0.092802726 0.21834728 14474456
0.78184617 0.095783897 0.21439026 14145236
0.78640008 0.10519648 0.21516991 14671835
0.78900003 -0.18075661 0.22530608 9605774
0.78707397 -0.17458659 0.22516523 12368827
0.7840001 -0.16512761 0.22512329 15197408
0.78211534 -0.15516594 0.22510029 15592421
0.78359389 -0.14517692 0.22513708 15723750
0.78499991 -0.13481663 0.22508274 15460834
0.78543323 -0.12477686 0.22520727 15197662
0.78599977 -0.11474791 0.22536939 15197406
0.78603321 -0.10463221 0.22537874 15328480
0.78536659 -0.095351234 0.2251866 15197150
0.78497213 -0.085195273 0.22507435 15131614
0.78509992 -0.075100727 0.22511083 15066078
0.78577757 -0.065047592 0.22530572 15197408
0.78776002 -0.055068325 0.22495155 15263458
0.78887987 -0.045618024 0.22586241 15724265
0.79000002 -0.042485889 0.22148186 15789544
0.78900009 -0.035174463 0.22782482 15065823
0.79021055 -0.034696791 0.22273028 14934235
0.78900003 -0.027450377 0.22900021 13816524
0.79048514 -0.024473537 0.22438273 14408406
0.79066682 -0.014552074 0.22485448 14408663
0.78900009 -0.0032706393 0.22664937 13816525
0.79005557 -0.0067313742 0.22355223 14013904
0.78823334 0.0048673628 0.22508678 13948110
0.78800005 0.015013027 0.22502056 13619145
0.78796673 0.02515774 0.22501087 13289410
0.78666663 0.035447851 0.22504866 12368566
0.78463894 0.045255348 0.22497919 13093059
0.78362089 0.055160865 0.22484574 13816782
0.78320634 0.065558732 0.22483768 13750732
0.7824617 0.07521303 0.22505805 14013903
0.77900016 0.087573119 0.22620508 14342870
0.78077775 0.083112724 0.22448008 14079698
0.77889651 0.094944216 0.22531319 14408663
0.78000003 0.098856337 0.22091007 14802651
0.78437048 0.10499531 0.22506925 14539735
0.78900003 0.11107936 0.22530608 15197408
0.78900003 -0.18075661 0.23084728 9671567
0.7925455 -0.18511711 0.23483314 9539725
0.78744453 -0.17494161 0.23517114 12434620
0.78344446 -0.16461115 0.2351304 14670807
0.78169984 -0.15529528 0.23511554 15065823
0.78227776 -0.14533523 0.23528743 15394788
0.78406072 -0.13490349 0.23540591 15328994
0.78450006 -0.12448955 0.23524939 15197407
0.78396863 -0.11502481 0.23556349 15065821
0.78413332 -0.10523432 0.23547736 15131615
0.78436005 -0.09522856 0.23499639 15065822
0.78416687 -0.085108079 0.23493958 15000028
0.78491998 -0.075083353 0.23516594 15000029
0.78530002 -0.065007664 0.23527929 15131358
0.78666663 -0.054991331 0.23476654 15000285
0.78832352 -0.045174167 0.23499072 14869214
0.7889998 -0.034838632 0.2345414 14935007
0.78887075 -0.024586674 0.23468126 13947853
0.78882128 -0.014451682 0.23574042 13882317
0.79000002 -0.01546404 0.23113987 14079697
0.78856659 -0.0052833389 0.23533422 13816525
0.78800005 0.0048670536 0.23516652 13684939
0.78800005 0.015013027 0.23516652 13684940
0.787889 0.025154801 0.23513338 13158595
0.78678578 0.035052326 0.23513369 12829631
0.78536659 0.04529706 0.23530084 12697787
0.78388023 0.055304915 0.23485442 13487303
0.78303361 0.065328397 0.23460099 13487304
0.78162068 0.0753977 0.23493481 13684940
0.77889282 0.085365601 0.23498806 14343128
0.78000003 0.080596395 0.23551799 13553355
0.77866679 0.093928449 0.23470981 14803679
0.78085715 0.098182403 0.2368219 14803937
0.78527999 0.10504827 0.23490696 14869471
0.78900003 0.11107937 0.23361787 15000800
0.79300004 -0.1844638 0.24501194 9605773
0.78717858 -0.17474966 0.24525191 12829632
0.7828216 -0.16487907 0.24494232 14605272
0.78143996 -0.15524383 0.24510048 15131615
0.78103346 -0.14510535 0.24497364 15263200
0.78196287 -0.1350058 0.24485633 15328993
0.78200001 -0.12528031 0.24448907 15197407
0.77900004 -0.11327007 0.24479026 15065821
0.78070593 -0.11553496 0.2446537 15131871
0.78202945 -0.10479635 0.24463771 15197407
0.78346699 -0.095118813 0.2448186 15000285
0.78447229 -0.085140303 0.24513248 14802906
0.78479993 -0.075072408 0.24523379 14868698
0.78419453 -0.064917512 0.24504246 14999772
0.7853449 -0.055025686 0.24524374 15263456
0.78771883 -0.044691581 0.24487798 15263971
0.78869987 -0.034825072 0.24460579 14803420
0.78862846 -0.024748096 0.24471579 14277075
0.78800005 -0.014502529 0.24531247 14079696
0.78800005 -0.0052789189 0.24531248 14145489
0.78800005 0.0048670536 0.24531245 14079439
0.78843993 0.015022624 0.24544974 13882317
0.78856653 0.025175879 0.24548978 13421768
0.78796005 0.035302993 0.24530022 12961216
0.78670007 0.045372888 0.24490926 12829373
0.78499997 0.055588227 0.24478815 13553094
0.78383356 0.065392785 0.24493377 13158593
0.78207707 0.075175278 0.24508834 13619146
0.77823341 0.085877165 0.24500397 14079443
0.78060001 0.080658391 0.24483617 13026498
0.77783346 0.09312053 0.24487829 14737119
0.78140008 0.09811984 0.24508615 14868705
0.78635722 0.10512529 0.24499573 14737632
0.78900003 0.11144878 0.24710146 14276824
0.79160005 0.11582227 0.24457687 11645356
0.7929092 -0.18444151 0.25519058 9539980
0.78622222 -0.17467321 0.25504944 12632254
0.78206652 -0.16452213 0.25536528 14802648
0.78265518 -0.15504007 0.25502247 15394786
0.78329623 -0.14501633 0.25465071 15526372
0.78268015 -0.13533488 0.25465176 15328994
0.78246683 -0.12522331 0.25458172 15131614
0.78265393 -0.11496275 0.25478527 15131614
0.78368998 -0.10507879 0.25485361 15197407
0.7828967 -0.09492559 0.25547579 15197407
0.78230572 -0.084906712 0.25543916 15065821
0.78240013 -0.07484284 0.25547239 14934490
0.78183317 -0.06472183 0.2552886 15000027
0.78396297 -0.054800041 0.25506607 15328994
0.78706074 -0.045135841 0.25473469 15395299
0.78792602 -0.034586493 0.25492156 15132127
0.78783345 -0.024643289 0.25540346 14605526
0.78766674 -0.014496396 0.25534889 14276818
0.78746682 -0.0052761268 0.25528368 14276818
0.78716689 0.0048621017 0.25518614 14408405
0.7879287 0.014946616 0.25510451 13816524
0.7882334 0.025165785 0.25461063 13619145
0.78800005 0.035304975 0.25453609 13421766
0.78770971 0.045581494 0.25462082 12697788
0.78617853 0.055269677 0.2551972 13618632
0.78433341 0.065433465 0.25518838 13092544
0.78214282 0.075518675 0.25506335 13750732
0.77804011 0.085855372 0.25496185 13816269
0.78049999 0.080648057 0.2548525 12960447
0.77804774 0.094274439 0.2551378 14737115
0.78049999 0.098615378 0.2533308 14868446
0.78466672 0.10496558 0.25510815 14933982
0.78860009 0.11194658 0.25472945 13684174
0.79100001 0.11703351 0.25515777 11119012
0.78900003 -0.18075661 0.26501796 9473934
0.79273921 -0.18629822 0.26510069 9539725
0.78532153 -0.17433932 0.26489705 12632254
0.78152001 -0.16440772 0.26524904 14933979
0.78273547 -0.15458195 0.26474452 15394786
0.78451622 -0.14501171 0.26549342 15723494
0.78386682 -0.13554122 0.26512656 15591909
0.78261125 -0.12524639 0.26470226 15131614
0.77900004 -0.11828512 0.26986548 15065821
0.78325009 -0.11491757 0.26468673 15131614
0.78311771 -0.10489211 0.26508754 15197407
0.77899998 -0.091451354 0.26647872 15197407
0.78120005 -0.095943965 0.26440856 15263200
0.77900016 -0.08449389 0.26696905 15262944
0.78000003 -0.08613091 0.26276749 15262944
0.77900004 -0.079684466 0.26682606 15262943
0.78092003 -0.0746997 0.26504567 15196893
0.78203321 -0.064737715 0.26542434 14933721
0.78410727 -0.054811023 0.26520878 15394787
0.78748494 -0.044659056 0.26492685 15460836
0.78692859 -0.034945656 0.26464918 15000028
0.78634608 -0.025304886 0.26490414 14474198
0.78599989 -0.015227281 0.26505619 14145489
0.78640002 -0.005268855 0.26506409 14342869
0.78619987 0.0048566386 0.26499838 14408663
0.787 0.015062642 0.26485774 14277075
0.78752798 0.025144275 0.26452217 13816524
0.78740019 0.035277858 0.26447824 13882317
0.78722852 0.045274254 0.26455203 13355973
0.78627992 0.055474252 0.2650243 13421510
0.78415167 0.065668426 0.26480711 13026497
0.77900004 0.078669414 0.26986548 13815756
0.78174084 0.075079538 0.26491699 13487304
0.77805889 0.085214168 0.26520008 13684683
0.78000003 0.080596395 0.26199493 12828861
0.77796149 0.094397478 0.2646727 14737629
0.78000003 0.098856337 0.26655993 14671837
0.7844401 0.10493506 0.26513812 14671322
0.78858346 0.11194424 0.26487848 13947342
0.79166675 0.11701722 0.26498762 10987427
0.78900003 -0.18075661 0.27517676 9474192
0.79242861 -0.18613963 0.27522331 9474189
0.78569233 -0.17448667 0.27494186 12764096
0.77900004 -0.1620528 0.27898374 14013135
0.78103578 -0.16424157 0.27481464 14671065
0.77899998 -0.15423715 0.27820215 15066079
0.78104359 -0.15532212 0.27399012 15131360
0.77900004 -0.14928721 0.27898374 15460579
0.78168583 -0.14509624 0.2752367 15657958
0.78153342 -0.13513659 0.27531379 15592165
0.77900016 -0.12304688 0.27634957 15197408
0.78077781 -0.12657812 0.27312028 15263200
0.77776009 -0.11445608 0.27489606 15000028
0.78000003 -0.11387197 0.27021191 15000028
0.77830458 -0.10502754 0.27603999 15131614
0.78053856 -0.1038996 0.27166295 15131614
0.77900016 -0.093735948 0.27701983 15197407
0.78018755 -0.095635533 0.27301598 15197407
0.77825016 -0.085226275 0.27522102 15197407
0.78000003 -0.089221045 0.2711249 15131614
0.77833337 -0.07566753 0.27550364 15263201
0.78028578 -0.073335476 0.27109346 15263200
0.77873343 -0.065377101 0.27706462 15065565
0.78105277 -0.064415902 0.27259684 14867929
0.77900004 -0.058560479 0.27852783 14473684
0.78203583 -0.054471161 0.2747716 15066079
0.78416687 -0.044720978 0.27440447 15197922
0.78436667 -0.034634195 0.2744748 14868699
0.78423333 -0.025448559 0.27442902 14605271
0.78447223 -0.015356258 0.2745133 14211283
0.78430003 -0.0052538193 0.27445185 14342868
0.78583336 0.0048562721 0.27498931 14606040
0.7868669 0.014991431 0.27535239 14342869
0.78630555 0.025103431 0.27515545 14145489
0.78489989 0.035164833 0.2746627 14013904
0.78488886 0.045272857 0.27465922 14079696
0.78536665 0.055410732 0.27482742 13882317
0.78360623 0.065122366 0.27462792 13158595
0.778889 0.077847689 0.27570188 13487561
0.78126317 0.073890768 0.27459523 13224389
0.77748406 0.0849723 0.27497575 13553354
0.77825004 0.094841219 0.27522275 14540508
0.78000003 0.098856337 0.2711249 14737885
0.78442866 0.10486843 0.27489039 14408922
0.78850007 0.1119325 0.27500239 14540507
0.79194117 0.11694856 0.27500135 10921890
0.78900003 -0.18075661 0.28533563 9342606
0.78588015 -0.17511672 0.28468326 12434877
0.77900016 -0.1625087 0.28684822 14342103
0.78088886 -0.16671315 0.28412831 14737117
0.77851731 -0.15453763 0.28534517 15000544
0.78000003 -0.15860882 0.28116786 14408663
0.77809095 -0.14497231 0.28478172 15394786
0.77803212 -0.13511764 0.28556708 15460579
0.78000003 -0.13395791 0.28116786 15592167
0.77886099 -0.12464508 0.28531492 15394786
0.77833343 -0.11454043 0.28512505 15131615
0.77763349 -0.10533574 0.28486693 15000030
0.77722239 -0.095272303 0.28471318 15066079
0.77673352 -0.085210845 0.28453431 15066079
0.77711135 -0.075246371 0.28467393 15131616
0.77710027 -0.065239042 0.28466928 14934236
0.77848005 -0.056606211 0.28615966 14802907
0.7807501 -0.052446146 0.28341737 15197921
0.78205544 -0.044600714 0.28465396 15066336
0.77900004 -0.030749768 0.28992566 14211284
0.7821334 -0.034535896 0.28468072 14474455
0.77900004 -0.028014289 0.28992566 14145491
0.78176659 -0.025368828 0.28454605 14342870
0.78213888 -0.015309998 0.28468269 14342870
0.78213352 -0.0052396161 0.28468099 14211284
0.78250003 0.0048341891 0.28481343 14540249
0.78339994 0.014925699 0.28513986 14277077
0.78344482 0.025012378 0.28515702 14277077
0.78290027 0.03507695 0.28496212 14211284
0.78355587 0.045196086 0.28519973 13882319
0.78360015 0.055286154 0.28521484 13816783
0.78241664 0.065275416 0.28478637 13816527
0.77861542 0.07750833 0.28557625 13224134
0.78049999 0.073224254 0.28465948 13289927
0.77685744 0.084738106 0.28471044 13290183
0.77660024 0.094790526 0.28448588 14605789
0.77900004 0.10055325 0.28536654 14474458
0.78400004 0.10575255 0.28468177 14277079
0.78850001 0.11193249 0.28515482 14803423
0.79175007 0.1171454 0.28505576 10921635
0.78860009 -0.18158853 0.29534423 9211020
0.79194742 -0.18680167 0.29483864 9211020
0.78456533 -0.17527306 0.29494873 13158600
0.77900016 -0.16332938 0.29475835 14605272
0.78075004 -0.16820578 0.2962116 15460582
0.77764016 -0.15449008 0.29488063 15526888
0.77663356 -0.14519806 0.29540685 15526373
0.77605587 -0.13509765 0.29518756 15460323
0.77668762 -0.12486392 0.29519832 15460579
0.77824134 -0.11527813 0.29548335 15263201
0.77796012 -0.10538138 0.29500207 15000029
0.77642465 -0.094927564 0.29491532 14934237
0.77600032 -0.08513023 0.2951673 15065822
0.77619487 -0.075157441 0.29524031 15065822
0.77630019 -0.065171868 0.29528058 14802650
0.7774002 -0.055253722 0.29478884 14934750
0.778889 -0.046041206 0.29636723 15000543
0.78041673 -0.044355109 0.2921271 15000030
0.77845854 -0.034678757 0.29594961 14277077
0.78018188 -0.037106313 0.29169348 14671321
0.77727598 -0.025097655 0.29549208 14145491
0.78000003 -0.023485266 0.29029784 14342870
0.77769691 -0.015581106 0.29567119 14211285
0.78000009 -0.014616152 0.29055873 14277077
0.7782402 -0.0052126921 0.29510617 14277079
0.7802 -0.0052257283 0.29037228 14145491
0.77886683 0.0031701343 0.29643977 14211287
0.7803334 0.0059936098 0.29355228 14408664
0.78060025 0.01487243 0.29508752 14145748
0.78152776 0.024952972 0.29543865 14145492
0.78175855 0.035025414 0.29536837 14145492
0.78256667 0.045138218 0.29491594 14013906
0.78203458 0.055301312 0.29547098 13422026
0.77899998 0.066685408 0.29852289 13619147
0.7812413 0.064768448 0.29435197 13619150
0.77796012 0.075429574 0.29565549 13882066
0.78025007 0.071945831 0.29176039 13684686
0.775778 0.084698826 0.29508096 13421772
0.77625018 0.094554327 0.294938 14474204
0.77900004 0.10055325 0.29266113 14670812
0.78477281 0.10548074 0.29516235 13091780
0.78883338 0.11136375 0.29481718 12566205
0.78794122 -0.18225162 0.30497152 9079691
0.79136366 -0.18786722 0.3051368 9079688
0.78340912 -0.17472786 0.30490339 13026756
0.77886683 -0.16238995 0.30507049 14341845
0.78046668 -0.16759647 0.30484444 15460838
0.77671897 -0.15464726 0.30464524 15526632
0.7760402 -0.14508663 0.30517471 15526889
0.77596676 -0.13508251 0.30514657 15460839
0.77587998 -0.12507601 0.30511302 15460583
0.77671444 -0.1150792 0.30466029 15460582
0.77713358 -0.10526697 0.30469453 15000286
0.77681845 -0.095471255 0.30498508 14803419
0.7760002 -0.085130222 0.30515879 14934749
0.77600032 -0.075138777 0.30515876 15197664
0.77624023 -0.065167278 0.30525422 14868700
0.77718771 -0.055637278 0.30420622 14868958
0.78000003 -0.050875176 0.30855778 15132643
0.77858835 -0.045635194 0.3029606 14737885
0.78177786 -0.044279169 0.3086521 14540506
0.77847379 -0.035047308 0.30267921 14408920
0.78189999 -0.035439529 0.30839545 14342870
0.77711779 -0.025218828 0.3037807 14211541
0.78100002 -0.026259633 0.30895337 14277078
0.77696013 -0.015099226 0.30415606 14146007
0.78000003 -0.010703308 0.30855778 13948886
0.77811778 -0.0055324705 0.30277789 14079959
0.78162509 -0.0045491224 0.30851528 14474717
0.77900004 0.002075986 0.3013235 14145238
0.78095001 0.0053721848 0.30482206 14408666
0.78100002 0.014879428 0.30438489 14211286
0.78128582 0.024944875 0.30514982 14014421
0.7819047 0.035031993 0.30451885 13948630
0.78213322 0.045113105 0.30390981 14080215
0.78147614 0.054960836 0.30435154 14079957
0.77857906 0.065867104 0.30300763 13092803
0.78140008 0.063912645 0.30765009 12172215
0.77690923 0.074736774 0.30386418 12829635
0.78000003 0.071466424 0.30855778 10461089
0.77523321 0.084638953 0.30485991 14013652
0.77644438 0.093661889 0.30452672 14606047
0.78150004 0.098741733 0.3061043 14539997
0.78655005 0.10457195 0.30442676 11908531
0.79025 0.10894301 0.30752552 10724510
0.78860009 -0.18214241 0.31399089 9342347
0.78677273 -0.17497481 0.31542665 10131863
0.77900004 -0.16022913 0.31180951 15394275
0.78358817 -0.16538258 0.31494516 11709870
0.77787501 -0.15385139 0.31204307 15592428
0.78250003 -0.15545203 0.31641737 15592684
0.77749997 -0.14596657 0.31151304 15658477
0.78149998 -0.14427778 0.31555623 15724270
0.77833343 -0.13549298 0.31154266 15461098
0.78318179 -0.13491817 0.31631854 15592941
0.77900004 -0.12466791 0.31180951 15395305
0.78345454 -0.12496281 0.31626195 15527149
0.77900004 -0.11463781 0.31180951 15395304
0.78318179 -0.11475393 0.3164852 15197925
0.77833331 -0.10421374 0.31235316 15395044
0.78261542 -0.10530334 0.31734565 13816013
0.77820003 -0.094844997 0.31221876 15263970
0.78290904 -0.095217586 0.31770846 11776942
0.77800006 -0.085349657 0.31232107 15329764
0.78350002 -0.085035942 0.31819791 10526876
0.77742857 -0.07592757 0.311441 15527144
0.78200001 -0.074802548 0.31575796 13092804
0.77900004 -0.06539917 0.31180951 15264487
0.78323078 -0.064486429 0.31604421 11777463
0.78405559 -0.054502051 0.3150616 12896971
0.78713042 -0.045088824 0.31586885 13159370
0.79000002 -0.040430997 0.31991127 9080976
0.78756261 -0.03454515 0.31546989 13619661
0.79000002 -0.035807483 0.31991127 9080204
0.78668177 -0.025027113 0.31597731 12303288
0.78509098 -0.014948693 0.31500503 12303289
0.78674996 -0.0052687889 0.31583697 10790823
0.78711998 0.0046776147 0.3143273 11250858
0.79000002 0.0058041089 0.31991127 9080457
0.787 0.014993854 0.31409469 11710636
0.79000002 0.015051129 0.31991127 8948614
0.78730011 0.025136646 0.31476679 10526105
0.79000002 0.025222851 0.31991127 9079685
0.78710002 0.035265114 0.31413451 10987171
0.79000002 0.035394575 0.31991127 9211273
0.78715003 0.044756327 0.31369287 11185838
0.79000002 0.044641595 0.31917149 9014409
0.78737497 0.055206642 0.31343687 10857644
0.79016668 0.05482547 0.31812894 8357252
0.78693336 0.065223143 0.31437406 10330525
0.79000002 0.062210936 0.31806183 8159100
0.78576195 0.075320266 0.31531042 9868949
0.79000002 0.07145796 0.31991127 9145480
0.77900004 0.08778768 0.31180951 13619407
0.78469241 0.084330231 0.31621125 10789792
0.78525007 0.095574178 0.31569397 11909048
0.78833336 0.10319434 0.31349537 10789793
0.78866673 -0.1732959 0.3212176 9934739
0.78833342 -0.1649179 0.32200536 10592416
0.79160005 -0.16467346 0.32704705 10263703
0.78760016 -0.15462312 0.32170624 11382191
0.79227275 -0.15503266 0.32740986 10198167
0.78720009 -0.1453301 0.32154286 11250604
0.7917273 -0.14481814 0.32701552 10198167
0.78766662 -0.13527302 0.32173344 11052968
0.79150009 -0.13500647 0.32700562 10132116
0.78775007 -0.12483831 0.32222858 10592674
0.79089999 -0.12490517 0.32731238 10066579
0.78782356 -0.11528561 0.32282895 10197912
0.79109991 -0.11456692 0.32869166 10066835
0.78773344 -0.10485873 0.3245278 9869201
0.7902 -0.1051877 0.32924163 10264213
0.78777766 -0.094720699 0.3245461 9934992
0.79016668 -0.095007487 0.32922775 10001041
0.78791672 -0.085054211 0.32414135 9934993
0.79087502 -0.084216237 0.32882935 10066834
0.78773332 -0.075352542 0.32268375 9606286
0.79100001 -0.07510981 0.32809448 9935248
0.78750008 -0.065190993 0.32166481 9475218
0.7906363 -0.064188078 0.32690045 10000786
0.78822231 -0.055510592 0.32185724 9212818
0.79119998 -0.055309489 0.3274371 9934994
0.78900003 -0.048691601 0.32135338 8818319
0.79213637 -0.044837374 0.32566836 9672336
0.78900003 -0.020062122 0.32135338 8882825
0.79204345 -0.024977379 0.3254987 9211529
0.78900003 -0.014520933 0.32135338 9079687
0.79179996 -0.014571841 0.32620338 9343114
0.78900003 -0.0080562122 0.32135338 9080457
0.79227787 -0.0049985615 0.32578376 9211784
0.78860009 0.085175872 0.32119045 10132121
0.78850007 0.093474165 0.32114971 10001046
