# .PCD v0.7 - Point Cloud Data file format
VERSION 0.7
FIELDS x y z rgb
SIZE 4 4 4 4
TYPE F F F U
COUNT 1 1 1 1
WIDTH 651
HEIGHT 1
VIEWPOINT 0 0 0 1 0 0 0
POINTS 651
DATA ascii
0.79352635 -0.52477616 -0.39474186 13421009
0.79266667 -0.51490498 -0.3944079 13486544
0.79366678 -0.50511152 -0.39486313 13420494
0.7945714 -0.49514785 -0.39518037 13486544
0.79481256 -0.48514208 -0.39438501 14275803
0.79522228 -0.47476551 -0.39470446 14341849
0.79296148 -0.65524352 -0.38422921 13880792
0.79270816 -0.64469141 -0.38456365 13814485
0.7927143 -0.63500851 -0.38398117 14012633
0.79311103 -0.62503314 -0.38457799 13815255
0.79339296 -0.61512196 -0.3843092 13946840
0.79323071 -0.60489994 -0.38457203 13814998
0.7935518 -0.59498042 -0.38445714 13749461
0.79415393 -0.58515382 -0.38502041 13618132
0.79256523 -0.57492137 -0.38410708 13881560
0.79120833 -0.56452167 -0.38514832 13815766
0.78900003 -0.55293983 -0.38145417 14144988
0.79035294 -0.5552485 -0.38619059 14013402
0.79008019 -0.54537386 -0.38475114 14079194
0.79025835 -0.53511167 -0.38495785 14079195
0.79103714 -0.52490896 -0.38528767 14210782
0.79033351 -0.51450664 -0.38466969 14276574
0.78900009 -0.50281727 -0.38220978 14342366
0.79021436 -0.50569284 -0.38640231 14342365
0.78899992 -0.49475735 -0.38237774 14407901
0.79009092 -0.49493638 -0.38761461 14407901
0.78899992 -0.485522 -0.38237771 14473437
0.79045451 -0.48507106 -0.38762525 14473694
0.78899986 -0.47536319 -0.38237771 14473437
0.79099995 -0.47513619 -0.38806152 14539229
0.78900003 -0.46705142 -0.3814542 14736095
0.79117393 -0.46439001 -0.38560772 14341849
0.79139405 -0.70510429 -0.37494668 13617879
0.79164708 -0.69504213 -0.37542748 13617878
0.79176474 -0.68462431 -0.37537551 13815000
0.79199988 -0.67463088 -0.37456116 13815256
0.79195994 -0.66532701 -0.37454236 13815255
0.79167861 -0.65522784 -0.37421057 13749462
0.7917667 -0.64551598 -0.37519118 13880791
0.79199988 -0.63476795 -0.37456116 14012632
0.79219991 -0.62472749 -0.37465608 14078425
0.79306662 -0.6152001 -0.37506545 14143961
0.7939679 -0.60495675 -0.37459031 13881046
0.79445457 -0.59539449 -0.37504423 13815253
0.7937693 -0.58522934 -0.37518317 13749460
0.79165387 -0.57411814 -0.37461078 14013145
0.79025948 -0.56420404 -0.37517646 14078682
0.78900003 -0.55460221 -0.37757534 14144988
0.79000002 -0.55438036 -0.37481743 14210524
0.79000014 -0.54531837 -0.3754648 14210781
0.79000026 -0.53514659 -0.37546483 14078938
0.79010737 -0.52464932 -0.37492055 14013401
0.79031467 -0.51487535 -0.37481987 14144987
0.78900003 -0.50029856 -0.3786836 14276574
0.79037958 -0.50500143 -0.37455884 14210779
0.78900003 -0.49475735 -0.37776005 14342621
0.79021055 -0.49551642 -0.37293521 14342108
0.78900003 -0.4852142 -0.37837577 14473693
0.79000002 -0.48546496 -0.37437192 14407900
0.7889998 -0.47458747 -0.375285 14473438
0.79000002 -0.47873977 -0.37361532 14408157
0.78899992 -0.46661684 -0.3753154 14539231
0.79028571 -0.46186528 -0.37480694 15000036
0.79576743 -0.45549083 -0.37495095 12566208
0.7925151 -0.72465646 -0.36434579 13815001
0.79249984 -0.71494424 -0.36459205 13880795
0.79257566 -0.70531356 -0.36488006 13618135
0.7929998 -0.69497514 -0.36482388 13683670
0.79333329 -0.6845451 -0.36472273 13815513
0.79303706 -0.67510194 -0.3651481 13749208
0.79256243 -0.66548532 -0.36438891 13749207
0.79217643 -0.65503591 -0.36466202 13815256
0.79271412 -0.64475065 -0.36455813 13946841
0.79290324 -0.63474357 -0.36492673 14143963
0.79342425 -0.62518603 -0.36476341 14210011
0.79436845 -0.61498463 -0.36554885 14078425
0.794963 -0.60491902 -0.36520931 14012633
0.79500002 -0.59529746 -0.36481327 13880791
0.79448277 -0.58548355 -0.36534375 13814741
0.79310006 -0.5753094 -0.3648679 14275548
0.79150009 -0.56488484 -0.36524194 14210011
0.79050034 -0.55491632 -0.36552244 14473440
0.79010028 -0.54538792 -0.36533886 14605025
0.79000038 -0.53514659 -0.36529297 14539489
0.79078811 -0.52482378 -0.36523575 14473695
0.7917999 -0.51504904 -0.36519772 14342621
0.79233319 -0.50533509 -0.36465621 14276315
0.79144448 -0.49471244 -0.36537647 14341852
0.79035509 -0.48468569 -0.36560577 14407645
0.78899986 -0.47278699 -0.36458755 14539231
0.79000002 -0.4778991 -0.3657133 14539231
0.78900003 -0.46797499 -0.36690858 14539488
0.79109097 -0.46357071 -0.36481437 14868450
0.79460001 -0.72521013 -0.35532752 13815258
0.79420012 -0.71554995 -0.35514835 13881049
0.79300004 -0.70518553 -0.35461339 13815512
0.79237902 -0.69459021 -0.35446483 13881048
0.79320693 -0.6845578 -0.3547712 13881306
0.7935217 -0.67519993 -0.35476741 13815513
0.79299992 -0.66511226 -0.35448542 13749464
0.7931785 -0.65461165 -0.35449383 13683928
0.79434484 -0.64501292 -0.35508442 14012634
0.79567587 -0.63506866 -0.3548499 14210011
0.79659408 -0.62510264 -0.35540158 14078425
0.79687113 -0.61553395 -0.35556036 14078168
0.79685324 -0.60535383 -0.35518336 14210011
0.79576027 -0.5954209 -0.35539895 14012632
0.79500002 -0.58506137 -0.35550779 13947097
0.79390001 -0.57496059 -0.3550162 14078426
0.79235703 -0.56529731 -0.35492191 14078938
0.79086685 -0.55517501 -0.35458478 14342367
0.79000014 -0.54531831 -0.35512125 14407904
0.79030585 -0.53504419 -0.35433209 14474208
0.79128581 -0.52477008 -0.35490432 14605793
0.79196656 -0.51515764 -0.35507825 14605793
0.79209363 -0.5050419 -0.35455623 14408413
0.79124016 -0.4949773 -0.3552351 14408156
0.78900003 -0.48305932 -0.352209 14342108
0.79005551 -0.48627445 -0.35586575 14342108
0.78899974 -0.47520393 -0.3545444 14407901
0.78900003 -0.46889845 -0.35282469 14408415
0.791143 -0.4639765 -0.35505226 14606307
0.79646671 -0.4556154 -0.35491899 12500673
0.79490006 -0.72548372 -0.34522879 13881306
0.79484385 -0.71578014 -0.34508806 13881563
0.79338461 -0.70545727 -0.34506944 13749977
0.79242301 -0.69518352 -0.34493622 13750233
0.79217225 -0.68481737 -0.34509891 13881561
0.79220003 -0.67480123 -0.34498382 14012890
0.79218513 -0.66510338 -0.34518325 14012635
0.79334283 -0.65475851 -0.34500265 13881305
0.79512125 -0.64513743 -0.34540913 14078683
0.79613358 -0.63509697 -0.34483424 14210012
0.79672438 -0.60514194 -0.34521759 14341597
0.79618192 -0.5953365 -0.34493858 14210011
0.79500002 -0.58599192 -0.34527168 14210012
0.79360712 -0.57587641 -0.34499842 14012634
0.79264009 -0.56569761 -0.34517381 14276318
0.79162955 -0.55529797 -0.34452751 14473952
0.79129428 -0.54495668 -0.34540227 14276829
0.79274976 -0.53520352 -0.34460032 14211036
0.79235995 -0.52468902 -0.34505177 14408414
0.7917999 -0.51504987 -0.34480926 14605793
0.79179311 -0.50500911 -0.34474242 14605793
0.79129171 -0.49495995 -0.34466311 14342622
0.78900003 -0.48326451 -0.34707832 14407646
0.79009527 -0.48628426 -0.34388983 14342622
0.7889998 -0.47559404 -0.34628305 14407644
0.79009092 -0.47408625 -0.34137398 14473435
0.78900003 -0.46889848 -0.34913057 14473437
0.79129738 -0.4645513 -0.34483817 14802915
0.79318511 -0.7246747 -0.33420393 13947356
0.79353863 -0.71516633 -0.33427826 13881563
0.79403245 -0.70520341 -0.33486673 13815770
0.79400003 -0.6949212 -0.33554018 13750234
0.79346651 -0.68454862 -0.33531591 13881307
0.7927857 -0.67503536 -0.33529371 13881306
0.79302764 -0.66529447 -0.33513066 14012635
0.79417658 -0.65532082 -0.33534244 13946841
0.79500002 -0.64554751 -0.33503556 14078426
0.79471439 -0.63541567 -0.33511573 14012889
0.79524153 -0.62526286 -0.33513921 14078684
0.79519236 -0.61498821 -0.33511764 14276319
0.79415387 -0.60453051 -0.33461002 14341855
0.79469234 -0.59528106 -0.33476415 14144219
0.79452002 -0.58563781 -0.33483449 14341597
0.79393756 -0.57487035 -0.33493587 14013146
0.7932902 -0.56448424 -0.33539277 14342368
0.79210341 -0.55431604 -0.33490148 14605283
0.7928285 -0.5446167 -0.33491585 14736612
0.79488468 -0.53544956 -0.33484331 14539490
0.79275852 -0.52482617 -0.33517879 14342622
0.79140747 -0.5150007 -0.3349629 14276829
0.79174995 -0.50482154 -0.33459294 14540000
0.79254812 -0.4949469 -0.33477849 14408415
0.79228121 -0.48504886 -0.33469814 14342622
0.79206073 -0.47493044 -0.33497313 14276828
0.79338455 -0.46445107 -0.33478037 14737637
0.7912401 -0.72399604 -0.3241905 13947099
0.79196656 -0.71446151 -0.3244881 13947612
0.79470271 -0.70503604 -0.32470104 13750234
0.79606062 -0.69536942 -0.32548395 13750234
0.79513347 -0.68474668 -0.32485276 13816026
0.79419237 -0.67478287 -0.32518387 13881819
0.79396158 -0.66493523 -0.32544801 13947098
0.79421437 -0.65513498 -0.32540998 13947097
0.79384005 -0.64497751 -0.32525718 13947096
0.79265392 -0.63457906 -0.32462785 14144218
0.79321426 -0.62492889 -0.32519975 14275805
0.79381484 -0.61526477 -0.32504046 14275806
0.79303843 -0.60475326 -0.32478335 14275806
0.79409099 -0.59517843 -0.32479265 14210013
0.79475009 -0.5848763 -0.32469651 14473185
0.79386365 -0.57451087 -0.3255184 14144732
0.79304004 -0.56523979 -0.32492745 14342112
0.79195994 -0.5551998 -0.32403943 14539491
0.79196548 -0.54558587 -0.32486975 14736869
0.79457146 -0.53561014 -0.32507613 14934246
0.79333329 -0.52510226 -0.32481381 14540001
0.79210341 -0.51486343 -0.32498914 14540000
0.79241359 -0.50508463 -0.32479742 14605793
0.79324991 -0.49496728 -0.32521218 14474208
0.79307401 -0.48472878 -0.32473487 14407902
0.79291999 -0.47494075 -0.32487819 14342109
0.79447353 -0.46455917 -0.32482696 14934756
0.79170376 -0.72462702 -0.31469846 13947100
0.7919687 -0.71423149 -0.31486893 13881563
0.79500008 -0.70534909 -0.3148652 13947098
0.7962001 -0.69498515 -0.31504014 13881305
0.79500008 -0.68463087 -0.31456366 13946841
0.79420704 -0.67452383 -0.31501856 13881048
0.7937333 -0.66495961 -0.31498963 13946841
0.7931332 -0.65517277 -0.31475189 13946840
0.79249984 -0.64502507 -0.31426853 13947097
0.79227245 -0.63484591 -0.31455076 14210268
0.79212898 -0.62485152 -0.31444323 14275804
0.79286087 -0.6150403 -0.31464508 14210011
0.79388893 -0.60468501 -0.31505102 14144218
0.79430765 -0.59492326 -0.31450513 14275804
0.79376 -0.58507842 -0.31407478 14473184
0.79284006 -0.57512045 -0.31519482 14407391
0.79207993 -0.56529748 -0.31526288 14342368
0.79199988 -0.55504227 -0.31523037 14473953
0.79199988 -0.54484481 -0.3152304 14605283
0.79299998 -0.53535211 -0.3154377 14868453
0.79340738 -0.52503777 -0.31441614 14802917
0.7929998 -0.51512003 -0.31497326 14737123
0.79303437 -0.50458515 -0.31487396 14671586
0.79349995 -0.49572143 -0.31489709 14474207
0.79299986 -0.48577899 -0.31470022 14276571
0.79228109 -0.47519475 -0.31470451 14276059
0.79281473 -0.7237184 -0.30489895 14012636
0.79276657 -0.71481329 -0.30526528 14012635
0.79396433 -0.70544386 -0.30506149 14077914
0.793926 -0.69527066 -0.30464149 14012377
0.79325914 -0.68457568 -0.30479684 13946841
0.79468763 -0.67493969 -0.30443904 13946841
0.79635167 -0.66513485 -0.30486691 13946841
0.79603451 -0.65461236 -0.3046875 13946841
0.79492307 -0.64519894 -0.30479625 14144475
0.79475009 -0.63544375 -0.30496138 14275805
0.79430777 -0.62510264 -0.30506125 14275805
0.79411542 -0.61529887 -0.30505955 14210012
0.79427594 -0.60514158 -0.30510893 14012889
0.79323995 -0.59435183 -0.30458277 14079195
0.79242295 -0.5843066 -0.3041271 14342367
0.7920689 -0.57443279 -0.30489981 14276318
0.79123342 -0.56469357 -0.30473787 14539747
0.79142427 -0.55505919 -0.30506536 14671332
0.79130322 -0.54487038 -0.30451345 14671332
0.79177779 -0.53449655 -0.30494818 14736867
0.79288 -0.52503204 -0.3044441 14736866
0.79238451 -0.51528764 -0.30446807 14933988
0.7924999 -0.50553089 -0.30464569 14999780
0.79410356 -0.49532837 -0.30478543 14868193
0.79323077 -0.48462671 -0.30472067 14407900
0.79288888 -0.4749907 -0.3048594 14276057
0.79278564 -0.724814 -0.29532763 14012635
0.79284614 -0.7148993 -0.29507959 14012636
0.79288459 -0.70529646 -0.29502243 13946840
0.79323506 -0.69474334 -0.2946386 13946840
0.79367644 -0.68441892 -0.29452837 13881560
0.79528582 -0.67503285 -0.29499361 14078426
0.79621756 -0.65472144 -0.29462498 13881304
0.79500002 -0.64508289 -0.29409218 14079196
0.79464525 -0.63541764 -0.29558161 14210782
0.79476929 -0.62510818 -0.2957243 14210526
0.79387993 -0.61490387 -0.29553699 14144733
0.79260004 -0.60463417 -0.29506016 13947353
0.79207993 -0.59496599 -0.29486626 13947611
0.79216653 -0.58482999 -0.29489717 14210783
0.79256004 -0.57491678 -0.29504263 14276576
0.79132009 -0.56475562 -0.29458198 14539491
0.79100013 -0.55526739 -0.29446319 14605539
0.79159999 -0.54549468 -0.29468626 14737125
0.79285282 -0.53461975 -0.29455021 14737125
0.7940644 -0.52503735 -0.29464245 14539745
0.79311103 -0.51507735 -0.2950424 14540001
0.7927407 -0.50493783 -0.29531655 14868708
0.79322207 -0.49513435 -0.2954976 14802658
0.79288459 -0.4851284 -0.29516572 14736608
0.79218513 -0.47491288 -0.29469901 14473437
0.79215145 -0.72432381 -0.28460836 14012891
0.79255551 -0.71551055 -0.28494132 14012891
0.79238874 -0.70556808 -0.28477842 13946841
0.79373688 -0.69498181 -0.28477275 13881304
0.79500002 -0.68463063 -0.28478569 13815511
0.79511541 -0.67520797 -0.2849707 14012633
0.79503578 -0.66511923 -0.28479898 14078425
0.79448009 -0.6547969 -0.28460082 13947096
0.79350019 -0.64454436 -0.28410679 14144989
0.79296416 -0.63441402 -0.28465316 14276574
0.79289991 -0.62528002 -0.28496188 14276318
0.79319441 -0.61529899 -0.28506634 14210269
0.79269981 -0.60470963 -0.28488821 14012890
0.79256237 -0.59497988 -0.28460658 14078939
0.79205865 -0.58447832 -0.28487703 14276575
0.79226661 -0.57470334 -0.28473511 14144990
0.79192293 -0.56532776 -0.28532302 14539746
0.79141945 -0.5544855 -0.28517625 14671332
0.79233325 -0.54507309 -0.28475699 14671588
0.79352945 -0.53589696 -0.28491348 14868965
0.79389298 -0.52510601 -0.28458863 14737379
0.79329026 -0.51440203 -0.28471223 14539743
0.79299992 -0.5046913 -0.28499734 14605793
0.79229993 -0.49497265 -0.28474528 14671586
0.79228115 -0.48533818 -0.2845059 14671329
0.79274988 -0.47514662 -0.28490463 14670817
0.79309529 -0.73427176 -0.27464426 13815257
0.79191995 -0.72461778 -0.27441317 14012634
0.79199988 -0.71542066 -0.27444059 14144220
0.79199988 -0.7052232 -0.2744405 13947354
0.79289991 -0.69488543 -0.27475306 13816026
0.7942068 -0.68503672 -0.27533552 13750233
0.7944231 -0.67504919 -0.27513915 13881816
0.79448158 -0.66517246 -0.27509433 13881560
0.79418522 -0.65493864 -0.27526528 13816024
0.79419231 -0.6451056 -0.275341 13947610
0.79336005 -0.63493001 -0.27491048 14210781
0.7931428 -0.62487376 -0.27463672 14342367
0.79428583 -0.61541414 -0.27529725 14276575
0.79339987 -0.60487217 -0.27507341 13881817
0.79303437 -0.59459406 -0.27479902 14013402
0.79199988 -0.58378065 -0.27444056 14342367
0.79120833 -0.57409054 -0.27432176 14144989
0.79066688 -0.56434977 -0.27459726 14671333
0.79096794 -0.55506498 -0.27509856 14605797
0.79257572 -0.5452373 -0.27464044 14802917
0.79493338 -0.53513825 -0.27520922 15000550
0.7947309 -0.52461219 -0.2755287 14934500
0.79439998 -0.51488155 -0.2752707 14868706
0.79304004 -0.50471705 -0.27480075 14736864
0.79295999 -0.49538425 -0.27477297 14671072
0.79366672 -0.48560435 -0.27501744 14670815
0.79483342 -0.47515616 -0.27542287 14605278
0.79225004 -0.73512197 -0.26525456 13815002
0.79143339 -0.72509742 -0.26498011 14012891
0.79199988 -0.71542078 -0.26517013 14078427
0.7920332 -0.70525271 -0.26518109 14012634
0.7930333 -0.69500339 -0.26551577 13947097
0.7934801 -0.68517983 -0.26566556 14012890
0.79341942 -0.67475957 -0.26546535 13881817
0.79488897 -0.66499567 -0.26520681 13947866
0.79500002 -0.65485299 -0.26524395 13816024
0.79526669 -0.64576322 -0.26533213 14079195
0.79491186 -0.6355145 -0.26499504 14144988
0.79388893 -0.62523431 -0.26559588 14210781
0.79393107 -0.61532509 -0.26575515 14276573
0.79388899 -0.60485911 -0.26566529 14078936
0.79348397 -0.59440219 -0.26494643 14079194
0.79289281 -0.58470482 -0.26453906 14210781
0.79112506 -0.57441646 -0.264799 14079196
0.79003721 -0.56424963 -0.26471817 14540002
0.79143333 -0.55464339 -0.26497936 14540257
0.79243994 -0.54514724 -0.26531765 14605536
0.79328114 -0.5351038 -0.26577556 14934245
0.79516131 -0.52504033 -0.26550892 14868708
0.79527593 -0.51557773 -0.26549727 14803171
0.79332006 -0.50489634 -0.2656121 14803171
0.79310703 -0.49507782 -0.26494294 14737378
0.79318726 -0.4854292 -0.26521954 14736863
0.79325914 -0.47473121 -0.26579905 14605022
0.79215378 -0.73467553 -0.25473613 13684187
0.79175663 -0.72461665 -0.25486788 13947611
0.7925936 -0.71473843 -0.25527799 14078427
0.7930969 -0.70545077 -0.25547409 14013147
0.79336089 -0.69529182 -0.25541112 13881817
0.79276651 -0.68456382 -0.2552205 13881816
0.79256648 -0.67511338 -0.2551567 13881817
0.79349977 -0.66528344 -0.25470269 13947865
0.79428577 -0.65486175 -0.25458136 14079196
0.79480004 -0.64538503 -0.25494462 14276319
0.79475003 -0.63544339 -0.25512871 14210525
0.79356533 -0.62515956 -0.25454891 14210779
0.79238695 -0.61542183 -0.25524834 14144729
0.79211426 -0.60505623 -0.2548793 14144987
0.79290611 -0.59488833 -0.25468579 14210525
0.79446447 -0.58506471 -0.25483519 14276317
0.79296428 -0.57494557 -0.25554487 14013146
0.79166663 -0.56500208 -0.25486344 14539747
0.79211104 -0.55511892 -0.25500762 14737124
0.79283315 -0.54541862 -0.25524005 14671330
0.79221869 -0.53537536 -0.25527394 14408414
0.79212117 -0.52520198 -0.25459218 14671330
0.79273063 -0.51508349 -0.2544961 14671585
0.79238218 -0.50495213 -0.25487852 14868963
0.79390907 -0.49529856 -0.25516364 14803169
0.79396439 -0.48466235 -0.25527185 14671582
0.79299992 -0.47498852 -0.25529456 14605277
0.7922799 -0.73422217 -0.24486215 13815512
0.79233307 -0.72406727 -0.24487813 14013403
0.79308009 -0.71453941 -0.2451092 13947611
0.79357141 -0.70509559 -0.24506129 14012890
0.79333335 -0.69475228 -0.24539261 13815511
0.79199988 -0.68390131 -0.24477521 13749974
0.79191995 -0.67456245 -0.2447502 13881816
0.79203838 -0.66517842 -0.24492982 14144988
0.79282749 -0.65568632 -0.24490328 14144987
0.79360008 -0.64533883 -0.24527055 14407902
0.79320008 -0.63480169 -0.24514681 14144730
0.79291999 -0.62529641 -0.24505921 14013143
0.79244447 -0.61523288 -0.24470495 14079192
0.79279405 -0.60483432 -0.24425268 14145242
0.79323536 -0.59463048 -0.24444364 14145242
0.79432261 -0.58531111 -0.24471208 14211036
0.79358333 -0.57550526 -0.2451098 14013402
0.79219985 -0.56538343 -0.24483693 14540001
0.79223329 -0.55520457 -0.24484748 14671332
0.79320002 -0.54567057 -0.24514553 14934760
0.79260701 -0.53539002 -0.24476406 14737379
0.7917037 -0.52466464 -0.2448885 14474206
0.79225916 -0.5149352 -0.24464823 14474206
0.79286665 -0.5048514 -0.24485514 14605792
0.79441184 -0.49535969 -0.24486354 14737377
0.79360002 -0.48463851 -0.24527027 14605790
0.79219991 -0.47451016 -0.24483734 14605534
0.79328573 -0.74514782 -0.23518047 10328486
0.79130769 -0.73460269 -0.23537183 13618135
0.79162079 -0.72472584 -0.23532991 14013145
0.79207987 -0.71512204 -0.2355299 13947610
0.79213786 -0.70518506 -0.23541945 13947354
0.79264265 -0.69499332 -0.23589604 13815254
0.79239273 -0.68450433 -0.23522376 13881048
0.79306239 -0.67518681 -0.23465908 13947097
0.79315162 -0.66525859 -0.23505691 14342622
0.79339385 -0.65521753 -0.23484713 14276829
0.79355872 -0.64503223 -0.23525593 14276829
0.79380631 -0.63510633 -0.23495963 14079450
0.79372716 -0.62514383 -0.23500292 14145242
0.79459471 -0.6150009 -0.23541923 14145242
0.79516679 -0.58518487 -0.2346615 14276574
0.79328555 -0.57517862 -0.23515752 14078938
0.7922222 -0.5656054 -0.23515819 14605024
0.79193324 -0.55499524 -0.23548514 14605793
0.79299992 -0.54540473 -0.23503384 14868965
0.79269427 -0.53511727 -0.23478256 14868965
0.79263318 -0.52486855 -0.23476402 14737379
0.79413891 -0.51563859 -0.23521008 14605793
0.79488242 -0.5051775 -0.23515703 14671585
0.79488468 -0.49458313 -0.23471585 14671328
0.79357153 -0.48488641 -0.23490882 14605021
0.79234356 -0.47494262 -0.23479405 14605021
0.79290909 -0.74484706 -0.22514202 10327459
0.79026693 -0.7342065 -0.22481388 13683927
0.79024267 -0.7241469 -0.22517228 13947096
0.79065537 -0.71497136 -0.22495821 13946839
0.79036385 -0.7051959 -0.22459099 13881047
0.79054564 -0.69509441 -0.22514813 13946840
0.79125011 -0.68510389 -0.22494157 13946839
0.79233319 -0.67532539 -0.2242704 13749718
0.79381245 -0.66554523 -0.22483614 14407902
0.79464293 -0.65515655 -0.22519596 14408415
0.79492003 -0.64548218 -0.22520751 14540000
0.79493338 -0.63525778 -0.22521161 14276828
0.79500002 -0.62507522 -0.22523017 14276828
0.79500002 -0.61483902 -0.22523019 14145242
0.79582161 -0.60462713 -0.22566463 14144986
0.79564011 -0.58460271 -0.22541147 14408416
0.79385 -0.57492471 -0.22490375 14144989
0.79224998 -0.56522137 -0.22504723 14737379
0.79133344 -0.55499554 -0.22537127 14540000
0.79227573 -0.54573584 -0.2244588 14737379
0.79306656 -0.53536767 -0.22468215 14803172
0.79300004 -0.52511203 -0.22466351 14868963
0.79359996 -0.51528901 -0.22483484 14803171
0.79435724 -0.50495654 -0.22524901 14803170
0.79481483 -0.49509493 -0.22497159 14803170
0.79503995 -0.48551741 -0.22524093 14605534
0.79360008 -0.47441795 -0.22483239 14736606
0.79435301 -0.74555159 -0.21509019 10590887
0.78900003 -0.73118144 -0.21060082 13749460
0.79078943 -0.73576474 -0.21497564 13814998
0.78899974 -0.72506702 -0.2142313 13749460
0.79000002 -0.72193646 -0.21826535 13881046
0.78899986 -0.71425003 -0.21306355 13749460
0.79000002 -0.71625614 -0.21773696 13815253
0.78899986 -0.70551699 -0.21322559 13946582
0.79000002 -0.7043671 -0.21780302 13946839
0.78900003 -0.69904262 -0.21207848 13946839
0.79000008 -0.69479841 -0.21480778 14078425
0.79000026 -0.68494833 -0.2145666 13881560
0.79039299 -0.67451638 -0.21487282 13749973
0.79166669 -0.66489202 -0.21502168 14210524
0.79316658 -0.65501243 -0.2154282 14539489
0.79359251 -0.64481705 -0.21533722 14605538
0.79393768 -0.63422751 -0.21528788 14408159
0.79500002 -0.62507516 -0.21499406 14276829
0.79473329 -0.61537749 -0.21548107 14145242
0.79437518 -0.60453421 -0.21488464 14144986
0.79493552 -0.5950684 -0.21512762 14144217
0.79506058 -0.58524662 -0.21509603 14605023
0.79373908 -0.57536948 -0.21493614 14341596
0.792 -0.56524205 -0.21511035 14605794
0.7909202 -0.55521107 -0.21481682 14671331
0.79166675 -0.54553986 -0.21502012 14802917
0.79319984 -0.53457826 -0.21495749 14737378
0.79525012 -0.52508825 -0.21529077 14671584
0.79386199 -0.51466227 -0.21484436 14671584
0.79340744 -0.50460535 -0.21528488 14737377
0.79474294 -0.49543366 -0.21489756 14737376
0.79513335 -0.48557398 -0.21503071 14671325
0.79365522 -0.47493321 -0.21556033 14671070
0.79475009 -0.74569929 -0.2050416 10920110
0.78900003 -0.73118144 -0.20505962 13552081
0.79105884 -0.73690355 -0.20494074 13486032
0.78899974 -0.72471672 -0.20505962 13552081
0.7889998 -0.71455789 -0.20505962 13683667
0.7889998 -0.70532256 -0.20505962 13946839
0.78899986 -0.69676769 -0.20418471 14144218
0.79000002 -0.69327068 -0.20683269 14144475
0.7889998 -0.68476391 -0.20473841 14013145
0.79000002 -0.68864715 -0.20901833 14144988
0.78899974 -0.67500514 -0.20493224 13816023
0.79000002 -0.67107779 -0.20901833 13684437
0.78899997 -0.66511339 -0.20292839 13881559
0.79021424 -0.66451991 -0.20775382 13947609
0.78900003 -0.65914601 -0.2013655 13947609
0.79100019 -0.65507418 -0.20570508 14408160
0.79240519 -0.64484274 -0.20504433 14671331
0.79299992 -0.63495022 -0.20486194 14474208
0.79349995 -0.62553853 -0.20451635 14342621
0.79290313 -0.6146847 -0.20445807 14211033
0.79349995 -0.60462135 -0.2047198 14210778
0.79423994 -0.59472907 -0.20456319 14012887
0.79320008 -0.58466589 -0.20429599 14670306
0.7921111 -0.57452291 -0.20477124 14407134
0.79096007 -0.56449866 -0.20557064 14802916
0.79022247 -0.55451494 -0.2049657 14737379
0.79066694 -0.54485244 -0.20456804 14868965
0.79266673 -0.53454453 -0.20496605 14803171
0.79568011 -0.52539551 -0.20493522 14671583
0.79341668 -0.51478678 -0.20466138 14671582
0.79256237 -0.50505042 -0.20465362 14737376
0.79389662 -0.49519798 -0.20460452 14671325
0.79403841 -0.48512018 -0.20436952 14605530
0.79282749 -0.47475812 -0.20496675 14671066
0.78900003 -0.73118144 -0.1949008 13486288
0.79037499 -0.73604155 -0.19466238 13552081
0.78899974 -0.72471654 -0.19490077 13486288
0.78899974 -0.71455789 -0.19490084 13486289
0.78899974 -0.70532256 -0.1949008 13749974
0.78899974 -0.69516379 -0.19490084 14144731
0.78856653 -0.68462908 -0.19479536 14013145
0.78812909 -0.67484486 -0.1948352 13815509
0.78817147 -0.66477954 -0.19456536 13816023
0.78849995 -0.65523374 -0.19444907 14079195
0.79000002 -0.65212142 -0.19930898 14539746
0.78900003 -0.64843303 -0.19268432 14408416
0.79044014 -0.64384186 -0.19492388 14671331
0.79226667 -0.63498002 -0.19478096 14540000
0.79300004 -0.62535918 -0.19496065 14342621
0.79243988 -0.61564332 -0.19482264 14276828
0.79238695 -0.60518748 -0.19493076 14079706
0.79277778 -0.59473342 -0.19497599 13947349
0.79212499 -0.58480078 -0.19474684 14473696
0.79069585 -0.5750944 -0.19415352 14407903
0.78900003 -0.56402224 -0.19089882 14803172
0.79000026 -0.56473708 -0.19594917 14737380
0.79051745 -0.55492669 -0.19486037 14934758
0.79100019 -0.54492307 -0.19453275 14868707
0.79203337 -0.53466743 -0.19472407 14803169
0.79248011 -0.52476859 -0.19483586 14868447
0.79091996 -0.51447773 -0.19445194 14802398
0.78900003 -0.50583977 -0.19028313 14802398
0.79060018 -0.50471836 -0.19466886 14736862
0.78900003 -0.49660444 -0.19028313 14868191
0.79073083 -0.49498731 -0.19461849 14670812
0.78900003 -0.48736909 -0.19028313 14670812
0.79112506 -0.48497751 -0.19473392 14605019
0.79255879 -0.47488347 -0.1947436 14670811
0.7913 -0.73454797 -0.18434998 13223630
0.78900003 -0.72317749 -0.18812822 13617874
0.7907728 -0.72516704 -0.18347126 13289679
0.78900003 -0.71409613 -0.18705076 13486290
0.79016668 -0.71576881 -0.18301082 13158350
0.78899986 -0.70501471 -0.18597333 13618387
0.79000002 -0.70621651 -0.18173963 13618644
0.78882599 -0.69529212 -0.18510225 14013657
0.79000002 -0.69696945 -0.18127728 13750741
0.78839284 -0.68507081 -0.18479618 14013399
0.7884444 -0.67488325 -0.18440534 13750228
0.78825003 -0.66464859 -0.18476297 13553107
0.78851992 -0.65505266 -0.18462823 14013658
0.78899997 -0.64793169 -0.18526968 14079450
0.79028577 -0.64303982 -0.18469051 14474464
0.79209369 -0.63460851 -0.18511833 14539744
0.79299992 -0.62535924 -0.1847503 14276060
0.79289645 -0.61612517 -0.18488589 14473693
0.79199988 -0.6051026 -0.18544441 14079447
0.79164004 -0.59463537 -0.1853611 14078935
0.79064012 -0.58463025 -0.18512708 14275803
0.78900003 -0.57048696 -0.18289487 14343133
0.79004556 -0.57544655 -0.18523914 14343390
0.7889998 -0.56479186 -0.18458803 14803427
0.79000002 -0.56936061 -0.1886749 14869222
0.7889998 -0.55537456 -0.18365051 14737377
0.79000002 -0.55387187 -0.18798138 14934757
0.78899992 -0.54462808 -0.18289493 14605277
0.79030001 -0.54552615 -0.18782184 14802914
0.78899997 -0.53581899 -0.18261074 14868449
0.79033339 -0.53481662 -0.18727484 14737120
0.78900003 -0.52523392 -0.18197136 14605533
0.79033333 -0.52519703 -0.18690495 14737375
0.78899986 -0.51463532 -0.18412626 14539996
0.79000002 -0.51803964 -0.18821254 14605789
0.78896528 -0.50505346 -0.18486138 14737118
0.78865373 -0.49475348 -0.18452018 14539226
0.78851998 -0.4852266 -0.18463096 14670812
0.79000002 -0.48058921 -0.1886749 14539226
0.78890002 -0.47807294 -0.18287194 14736605
0.79140002 -0.47387782 -0.18604583 14407897
0.7948001 -0.71501905 -0.17449889 11052974
0.79423696 -0.70510203 -0.17479956 10855594
0.79357165 -0.69496405 -0.17491837 11250352
0.79203337 -0.6846689 -0.17549422 11974074
0.78900003 -0.67207545 -0.17920075 14145499
0.79200023 -0.67481691 -0.17456795 11645108
0.78900003 -0.66838133 -0.17920075 14211292
0.79385364 -0.66509318 -0.17426106 11184814
0.79345739 -0.65522039 -0.17531991 11448242
0.79258078 -0.64483702 -0.17575873 12106430
0.79321194 -0.63514596 -0.17525853 12303808
0.79180008 -0.59512573 -0.1755082 13026760
0.79075021 -0.58471054 -0.1749094 12763332
0.78900003 -0.57048696 -0.17920075 13882325
0.79053342 -0.57492608 -0.17467315 12171451
0.78900003 -0.56448406 -0.17781545 14342876
0.79100001 -0.56507951 -0.17280106 10988204
0.78894985 -0.55456722 -0.17678818 14211546
0.79108334 -0.55501646 -0.17180167 10725290
0.78857142 -0.54459608 -0.17637745 13883096
0.79090005 -0.54501301 -0.17129943 10527913
0.78884995 -0.53529036 -0.1763963 14146779
0.79099995 -0.53461224 -0.17153454 10659754
0.78899986 -0.52523398 -0.17735368 14539996
0.79099995 -0.5247128 -0.17224655 11777204
0.78899992 -0.51474911 -0.17691906 14671581
0.79061538 -0.51513308 -0.17187849 11776945
0.7886799 -0.50526559 -0.17543441 14079444
0.79000002 -0.50555611 -0.17018086 9999763
0.78820693 -0.49502352 -0.17545652 14210774
0.78812003 -0.48498023 -0.17531031 14408668
0.78871417 -0.4768168 -0.17544274 14210776
0.79052633 -0.47204456 -0.17438447 14211290
0.78900003 -0.50029856 -0.16996545 10395037
0.79407418 -0.50495768 -0.16464472 9804445
0.78900003 -0.49475735 -0.16996545 11382704
0.793226 -0.49530548 -0.16421622 9541531
0.78900003 -0.48593247 -0.16914456 10659500
0.79387099 -0.4850345 -0.16386996 9540759
0.78900003 -0.47905731 -0.16996545 12567237
