# .PCD v0.7 - Point Cloud Data file format
VERSION 0.7
FIELDS x y z rgb
SIZE 4 4 4 4
TYPE F F F U
COUNT 1 1 1 1
WIDTH 779
HEIGHT 1
VIEWPOINT 0 0 0 1 0 0 0
POINTS 779
DATA ascii
0.45900005 -0.13278569 -0.050830513 14144978
0.45900005 -0.12557101 -0.051060766 16513784
0.45900002 -0.11858658 -0.050523505 15592684
0.45711473 -0.13389644 -0.044834163 15592684
0.45670232 -0.12510566 -0.044999804 16382711
0.45767429 -0.11523616 -0.044666264 16514553
0.46000001 -0.11157608 -0.049287491 13750735
0.45883337 -0.108697 -0.041554276 16645881
0.46327275 -0.10500433 -0.044505361 16382966
0.46570906 -0.095629893 -0.042982306 16382709
0.46700019 -0.085344508 -0.042017013 16448502
0.46886665 -0.076900698 -0.041292071 16514037
0.45375001 -0.14121892 -0.033305276 13947086
0.44892308 -0.1317877 -0.031791128 16381687
0.45216674 -0.13524111 -0.035432838 15460328
0.44845954 -0.12492839 -0.031999502 16514296
0.45172343 -0.12506351 -0.037013851 16448760
0.44889292 -0.11593714 -0.031621587 16580089
0.45249996 -0.11453602 -0.03640775 16580346
0.44900003 -0.10811963 -0.03050267 16711675
0.45450002 -0.1052076 -0.034958743 16580346
0.46020001 -0.10262865 -0.039451484 16580603
0.45637932 -0.095358141 -0.033571634 16580089
0.46160868 -0.094518088 -0.038126506 16580344
0.45746869 -0.085523196 -0.032352455 16645881
0.46304345 -0.08451467 -0.036928993 16514552
0.45866674 -0.075013191 -0.03086154 16579830
0.46512306 -0.07497409 -0.036099602 16579830
0.458579 -0.065055214 -0.030645411 16185072
0.46486005 -0.065383837 -0.035730444 16514037
0.45876932 -0.056193039 -0.030422978 15856364
0.46323088 -0.055221014 -0.034625623 16580343
0.46420696 -0.045075152 -0.033642851 16448499
0.47000003 -0.041108198 -0.037430692 16645110
0.46537042 -0.035389207 -0.031944174 16448244
0.47110003 -0.033814404 -0.035534866 15855592
0.46715793 -0.024774481 -0.031277377 15395298
0.47046444 -0.025614273 -0.034361381 15395296
0.44900003 -0.011416849 -0.03050267 14342870
0.46542859 -0.018842252 -0.032247465 15131869
0.44710001 -0.0056164209 -0.03058311 13487559
0.44266662 0.0055529606 -0.030878766 13092801
0.43887502 0.01812147 -0.031356093 13553352
0.44022226 0.013768102 -0.03139472 13224387
0.43623078 0.025547834 -0.031520702 14145490
0.43519461 0.035514534 -0.031942353 14737627
0.4351669 0.045328744 -0.032377582 14606039
0.43405658 0.055007655 -0.032536954 14934491
0.43139648 0.065201655 -0.032739047 15066077
0.42618862 0.075217664 -0.032642081 14671319
0.43000004 0.070939474 -0.033909552 14802905
0.42223689 0.083530106 -0.032457877 14473683
0.44648156 -0.14196523 -0.024029724 14539481
0.45100003 -0.1408031 -0.029582739 14012621
0.44548658 -0.13489728 -0.024935318 15855083
0.45000002 -0.13785724 -0.029517144 14671064
0.43900004 -0.12215491 -0.020573959 16184819
0.44370002 -0.12515947 -0.025207827 16184818
0.43900001 -0.11855794 -0.020573959 16579832
0.44421345 -0.11482464 -0.025062084 16447990
0.44573817 -0.10515646 -0.024915067 16579832
0.45050001 -0.10162456 -0.029549941 16514296
0.44612905 -0.095278636 -0.023628028 16580088
0.45196557 -0.094564974 -0.028554184 16580089
0.44740906 -0.085286424 -0.022805119 16645623
0.45280007 -0.084650248 -0.027820921 16514295
0.44828004 -0.075412557 -0.021849481 16448243
0.45323631 -0.074992202 -0.026399784 16448244
0.44860873 -0.064784348 -0.021892594 16119023
0.45326933 -0.065048724 -0.0262486 16185072
0.44852379 -0.055205077 -0.021620931 16053486
0.45335853 -0.05512194 -0.025981871 16185074
0.44883332 -0.045034703 -0.021560362 15921903
0.45432729 -0.04484665 -0.025962861 16119281
0.44900003 -0.035066981 -0.021042615 15461350
0.45403492 -0.035132933 -0.02518891 15921643
0.46059999 -0.033274923 -0.029134164 16579573
0.44866663 -0.024084359 -0.021517362 14145488
0.4544763 -0.025587879 -0.024930451 14408148
0.46226674 -0.024668956 -0.028736113 14868956
0.44645765 -0.013853244 -0.023978459 13882317
0.45185715 -0.016704615 -0.026617542 13684938
0.46000001 -0.019234626 -0.029096212 14540247
0.43887502 -0.0029406683 -0.020825027 13619399
0.44395897 -0.0052843392 -0.025400883 13816523
0.43700004 0.006060001 -0.022283098 13290180
0.44161224 0.0042732712 -0.026943367 13224387
0.43571913 0.015335419 -0.024573032 13421511
0.44009092 0.011756131 -0.028961025 13421766
0.4285 0.027222624 -0.020332944 13816783
0.43341756 0.024755755 -0.025264265 13816525
0.428 0.03462676 -0.020903178 14277077
0.43240258 0.034924429 -0.025979618 14474455
0.4278571 0.044996593 -0.021985259 14868697
0.43229035 0.045043048 -0.026730191 14803160
0.42712194 0.055520449 -0.022459088 15263453
0.43126929 0.054772578 -0.027127612 15131868
0.42617935 0.065444797 -0.024317233 15657699
0.43013328 0.063173734 -0.028616985 15460578
0.41806257 0.078245535 -0.021796053 14539731
0.42307377 0.074761681 -0.025713725 14670804
0.4170984 0.084363811 -0.02340959 14342099
0.42065397 0.084105879 -0.028426347 14342355
0.43883336 -0.14128539 -0.01097812 14934241
0.44231117 -0.14355552 -0.015397855 14276567
0.43699986 -0.13425986 -0.013869925 15526378
0.44063643 -0.13663146 -0.018166825 15592425
0.43526295 -0.12483554 -0.014794899 16119026
0.43532625 -0.11502293 -0.014624859 16382452
0.44000003 -0.11110265 -0.019590776 16447988
0.43654522 -0.10539533 -0.013619631 16645880
0.44071996 -0.10401972 -0.018633708 16580087
0.43794221 -0.095082827 -0.012365534 16579830
0.44153994 -0.095052816 -0.01765806 16448244
0.43842864 -0.08514367 -0.012020301 16448245
0.44233924 -0.084823243 -0.01722336 16185329
0.43844008 -0.075521067 -0.01114675 16579572
0.44289994 -0.074848153 -0.016485451 16250864
0.43855181 -0.064610258 -0.011313838 15986921
0.44317406 -0.065185539 -0.016600125 16118765
0.43771061 -0.054923892 -0.011860631 15855848
0.44331589 -0.054949548 -0.017125422 16053228
0.43673691 -0.045114044 -0.01172789 15527142
0.44347468 -0.044937067 -0.017115688 15855851
0.43679994 -0.035135422 -0.011783688 15132640
0.44470197 -0.034975573 -0.017290296 15461348
0.43620834 -0.024561614 -0.012216204 14474711
0.44373474 -0.025338866 -0.017475428 14474454
0.42875004 -0.011655169 -0.010307548 13947596
0.43433845 -0.014626991 -0.01387783 14211025
0.44195834 -0.01620095 -0.018688014 14079695
0.42732263 -0.0048019616 -0.011993374 13750216
0.43378577 -0.0054988759 -0.016606072 13750474
0.4255999 0.0051749344 -0.012957696 13092801
0.43182927 0.0041303425 -0.0175789 13290435
0.41839999 0.017764797 -0.010793192 12895424
0.42420003 0.014925179 -0.014504404 13027009
0.43018189 0.013779179 -0.018970603 13355718
0.41785711 0.025288029 -0.011339137 13553611
0.42381945 0.025005527 -0.015987456 13684940
0.41706663 0.034795273 -0.011736875 13816784
0.42303088 0.035329442 -0.016619587 14145491
0.41696882 0.044884216 -0.011703433 14474454
0.42305642 0.045121968 -0.016906785 14737111
0.41745168 0.055179123 -0.011779369 15066591
0.42269984 0.055055518 -0.016849536 15263454
0.4176757 0.065698221 -0.012177221 15921129
0.421433 0.064674258 -0.016986456 15657699
0.41573477 0.075513072 -0.014704577 14868185
0.42066669 0.071827605 -0.018664893 15328221
0.41343769 0.084120274 -0.014848836 14605014
0.43576774 -0.14289644 -0.0045490437 14999777
0.42880002 -0.13076052 -0.0014249082 15197409
0.43255258 -0.13508928 -0.0048233615 15131362
0.42659104 -0.12428749 -0.0034149438 15592423
0.43021744 -0.12632416 -0.0079019377 15921648
0.42537218 -0.11501464 -0.0038055019 16184561
0.43006662 -0.11429901 -0.0087450175 16250608
0.42561197 -0.10523422 -0.0027040516 16316402
0.43120515 -0.10453011 -0.0077095339 16514037
0.42737499 -0.0960913 -0.0012090458 16184560
0.43266663 -0.094648384 -0.0059167459 16250865
0.42899996 -0.084724113 -1.936998e-05 15987695
0.43307784 -0.084962726 -0.0051019061 16382195
0.43334377 -0.075010337 -0.0045805988 16185073
0.42900002 -0.061123133 -1.936998e-05 15855593
0.43353772 -0.065228224 -0.0047055618 15987179
0.42804998 -0.053925175 -0.00092249195 15461605
0.43235996 -0.055341847 -0.0056829746 15461348
0.42661372 -0.044827767 -0.0018394042 15395299
0.43154714 -0.045017742 -0.0069248276 15395813
0.42544067 -0.03514716 -0.0024751353 15329763
0.43162495 -0.034720283 -0.0076014027 15330019
0.42491549 -0.02496767 -0.0030998986 14605526
0.43112004 -0.025619695 -0.008135776 14671832
0.41842863 -0.01217989 -0.00029914593 13487560
0.4247613 -0.015321562 -0.0045997514 14079438
0.43000001 -0.018785503 -0.0088778269 14606294
0.41605407 -0.0043445486 -0.0016290265 13421510
0.42338091 -0.0057814354 -0.0069645075 13552839
0.40875 0.007786653 -0.00025782475 12895165
0.41492406 0.0051862299 -0.0038794272 12829373
0.42136374 0.0039293626 -0.008689234 12960959
0.40781584 0.015606103 -0.0014778534 12764097
0.41409999 0.014894954 -0.0065673608 12895167
0.42000002 0.011443162 -0.0098512396 12829629
0.40658468 0.025083177 -0.0023821737 13685201
0.4131133 0.024748778 -0.0076346053 13421769
0.40650693 0.035079546 -0.0028028823 14606044
0.41260457 0.035017107 -0.0082661984 13948369
0.40628058 0.045145914 -0.0033215487 14474456
0.41233337 0.044712074 -0.0085335374 14277077
0.40515018 0.054806251 -0.0030883932 14869213
0.41239402 0.055073448 -0.0083888248 14803421
0.4041912 0.065056302 -0.0025899953 15197408
0.41351226 0.065107979 -0.0082632797 15328993
0.40478173 0.075250551 -0.0034757212 15000799
0.41184849 0.074396752 -0.0086686583 14933978
0.40644884 0.084341772 -0.0037620885 15394788
0.41058329 0.086360596 -0.0084696133 14736600
0.43400002 -0.15115131 0.007369508 12368312
0.42900002 -0.14079733 0.0086845346 15921132
0.43216419 -0.14467323 0.0050956821 15197155
0.42688143 -0.134031 0.0064803031 15197411
0.43029174 -0.13752827 0.0030854447 15328741
0.41883335 -0.12111931 0.0091321291 15263201
0.42262203 -0.12511979 0.0051136571 15197410
0.41740736 -0.11437479 0.0072703459 15987182
0.42080015 -0.11553969 0.0026391675 15921389
0.41679713 -0.10515817 0.007060519 16119281
0.420919 -0.10449851 0.0023231516 16250353
0.41739994 -0.095720008 0.0081869466 15987952
0.42267165 -0.094611831 0.0035918492 16053231
0.41820008 -0.085948758 0.0095099965 16053488
0.42387784 -0.084943414 0.0047627543 16053487
0.41900003 -0.077844754 0.0097899474 15987695
0.4242757 -0.07489825 0.0052840146 15987693
0.41850004 -0.062240478 0.0096147833 15855336
0.42444831 -0.065417342 0.0050237365 15724263
0.41750002 -0.054599527 0.0090207933 15197920
0.42336836 -0.055236489 0.0042474531 15395042
0.41653064 -0.044842623 0.0077771153 15197664
0.42204085 -0.045192193 0.0029400873 15132127
0.41556248 -0.034802191 0.0062814415 15066590
0.42090484 -0.035900395 0.0016693155 15198177
0.40900001 -0.021889472 0.0095562972 14079954
0.41437367 -0.025023568 0.0057229316 14211538
0.42060003 -0.024974689 0.00096564146 14474198
0.40800002 -0.013830574 0.0086500058 13750986
0.41420275 -0.015211015 0.0042013614 13882317
0.42000002 -0.019528506 0.00096426392 13750733
0.40633917 -0.0045309323 0.0070202597 13290182
0.41219506 -0.0060134823 0.0026377586 13355974
0.40447628 0.0050309687 0.0052868207 12961218
0.41050002 0.00085341698 0.0011824076 12829629
0.39824006 0.015938642 0.0085954657 13224391
0.40270737 0.014832665 0.0040986119 13158600
0.39781407 0.025163595 0.0079281591 14013907
0.4018833 0.025060575 0.0032687604 13948114
0.39800003 0.03432183 0.0082726665 14606045
0.40179232 0.035226043 0.003774398 14803422
0.39742857 0.045117356 0.0079325419 14145235
0.40191531 0.044827282 0.0032775688 14539992
0.3967391 0.055475857 0.0067068478 14737371
0.4006097 0.054019086 0.0023820836 14540249
0.39585066 0.064952224 0.006096676 15132385
0.40000001 0.064741664 0.0013865499 15263714
0.39558074 0.074987352 0.0056551588 15461352
0.40000007 0.074168168 0.0011680551 15395559
0.39598498 0.084196001 0.0063391705 14408667
0.40046161 0.083206855 0.0015676881 15263976
0.39633337 0.09043628 0.0075580305 5326917
0.42400002 -0.1500733 0.016847892 14276826
0.43200004 -0.1508846 0.010430018 12697538
0.42460936 -0.14444746 0.015527125 15723757
0.43036363 -0.14704657 0.010604533 14670813
0.41866669 -0.1313625 0.018929686 15526121
0.42268303 -0.13544101 0.015128021 15855085
0.41719994 -0.12425335 0.015881624 15000030
0.42073688 -0.12806365 0.012577282 14868444
0.40900001 -0.11141351 0.019131061 16250867
0.41389897 -0.11516567 0.014789695 15329509
0.40804556 -0.10446822 0.018172506 15658728
0.4120923 -0.10515312 0.013215167 15790315
0.40776598 -0.095325023 0.018380202 16250096
0.41292956 -0.094841808 0.013302932 16053488
0.40839997 -0.08579684 0.018757835 16118766
0.41380009 -0.084936723 0.014044146 15987694
0.40899998 -0.075234585 0.019131063 15856107
0.41455659 -0.075089239 0.014672784 15921643
0.40899995 -0.064576961 0.019051274 15526628
0.41420457 -0.065008491 0.014466259 15724006
0.40753847 -0.054104984 0.01847264 15000026
0.41308463 -0.055274203 0.013552136 15263454
0.40642437 -0.044675093 0.01722903 14934748
0.41186368 -0.045382153 0.012315326 14869212
0.40527368 -0.034893043 0.016014986 14803419
0.41105276 -0.035624549 0.0110722 15132384
0.39809093 -0.022663416 0.019213486 14013904
0.40429908 -0.025317308 0.014920457 14079696
0.41 -0.028661715 0.01053948 14145489
0.39672348 -0.014260388 0.017901484 13882318
0.40293249 -0.015271734 0.01308831 13948110
0.39605963 -0.0046888241 0.016760156 13750732
0.40127909 -0.0054873182 0.011928697 13553096
0.39504531 0.0050106668 0.015184316 13027267
0.40009096 0.0021726673 0.010710395 13158853
0.38874999 0.017644348 0.019093346 13026757
0.39364257 0.014648258 0.014366126 13027269
0.38826007 0.025120486 0.018304354 13948116
0.39284801 0.024688471 0.01310352 13882323
0.38816923 0.034921043 0.017860031 14211287
0.39292422 0.035025578 0.012558388 14277080
0.3878307 0.044877961 0.017717747 14474458
0.39281806 0.04515807 0.012472942 14342870
0.38762692 0.054948952 0.017679647 15066337
0.39204493 0.055109605 0.012333085 14671835
0.38703403 0.065235958 0.016767751 15461094
0.3913044 0.064546704 0.011609961 15131872
0.38690975 0.074786983 0.016186677 15658731
0.39074194 0.075313725 0.010898976 15724521
0.38814288 0.083278254 0.017355075 15658221
0.39155567 0.083950765 0.011768047 15592683
0.39500001 0.090748757 0.010616239 5327428
0.41800001 -0.1505606 0.026401857 14407640
0.42109999 -0.15098685 0.022653045 14013396
0.41647694 -0.14427853 0.026701868 15854830
0.42069709 -0.14583232 0.022035167 15460586
0.41592482 -0.13463372 0.025579445 15986671
0.42037502 -0.13800819 0.021015946 16118258
0.40888888 -0.12185982 0.02912331 15328738
0.41302246 -0.12518591 0.024643399 15262945
0.40702584 -0.11418968 0.025518984 15197666
0.41100001 -0.1177073 0.021755006 14934494
0.40370071 -0.10489219 0.025061822 15263716
0.3985264 -0.0944447 0.029443346 15724011
0.40262118 -0.095043957 0.024546048 15790059
0.39788473 -0.085351139 0.029034976 15856108
0.40368095 -0.084816188 0.023734294 16052717
0.39847627 -0.075208567 0.029388092 15856108
0.40385839 -0.07493905 0.024098909 15724008
0.39764282 -0.064537898 0.02900457 15329250
0.40400007 -0.06515336 0.02377484 15395042
0.39700007 -0.054524869 0.028001923 15131869
0.40261197 -0.055578165 0.023339029 15197406
0.39543995 -0.044666827 0.026745504 14934748
0.40144438 -0.045610793 0.021803739 14869210
0.38900003 -0.03129163 0.029123429 14211282
0.3946262 -0.034848496 0.025441496 14474455
0.40021434 -0.036143266 0.020928353 14474455
0.38838899 -0.024702309 0.028823743 14277075
0.39388034 -0.024971684 0.02367246 14079954
0.38769999 -0.015018733 0.027872408 14211282
0.39247695 -0.015268954 0.022747744 14079698
0.38684338 -0.005145059 0.02688125 13816524
0.39148992 -0.0056535923 0.021750679 13882318
0.38652283 0.0048880796 0.025855213 13224389
0.39070833 0.0038208792 0.020751866 13158594
0.38552558 0.014868543 0.025004542 13355979
0.39000002 0.010169296 0.020068325 13750988
0.38463712 0.025204845 0.025099913 14079958
0.38404128 0.035185128 0.025146497 14079957
0.38314024 0.044969302 0.025086179 14606046
0.38261601 0.054932971 0.025152288 15132388
0.38244694 0.064994164 0.025048861 15658731
0.38276237 0.075023629 0.025054825 15790318
0.38432825 0.083169185 0.025108175 15724269
0.41215792 -0.15129994 0.03552445 13684432
0.40861109 -0.14308786 0.038456313 15724016
0.41197759 -0.14512153 0.034052081 15789293
0.4078621 -0.13448019 0.037758838 16117999
0.41173074 -0.13558832 0.032749034 16118513
0.40679181 -0.12477113 0.035435531 15460582
0.41033337 -0.12842759 0.031360868 15460581
0.39900002 -0.11009056 0.039212763 14671065
0.40328416 -0.11511109 0.034987353 15395045
0.3974545 -0.10378721 0.036532618 14803164
0.40052378 -0.10702962 0.032707792 15000287
0.39527106 -0.095108017 0.034935731 15329509
0.39319652 -0.084893942 0.034961171 15724522
0.39347854 -0.075063311 0.034938537 15526887
0.38883331 -0.064099364 0.039072894 15460581
0.39276996 -0.065065287 0.034358606 15263714
0.38803706 -0.054734763 0.038082313 15132127
0.39212 -0.055282295 0.032985497 15066334
0.38681179 -0.044812776 0.036716979 14802907
0.39130241 -0.045464404 0.031658262 14869213
0.38534933 -0.034862358 0.035037458 14605785
0.39014289 -0.037712164 0.030383179 15329764
0.37883332 -0.021753713 0.039743524 14408920
0.38357866 -0.025095908 0.03490632 14343127
0.37835303 -0.014258041 0.038824052 14079955
0.38294619 -0.015501953 0.033932507 14211284
0.3783865 -0.0051921303 0.038514569 14014162
0.38206789 -0.0052445405 0.033516344 13816528
0.37837505 0.0049934895 0.038513429 13553357
0.38161469 0.0050359941 0.033478294 13487820
0.37837943 0.015364124 0.037933119 13816530
0.38108099 0.015144836 0.032879561 13553358
0.37836856 0.02478412 0.03797628 14079702
0.38117328 0.025216488 0.03292476 14408665
0.37808347 0.035464209 0.037536234 14145238
0.38101518 0.034489658 0.032604884 14145749
0.37784994 0.045251414 0.03622717 14671582
0.38047364 0.044656251 0.031273734 14606046
0.37753117 0.055050243 0.035789713 15395562
0.38023818 0.055099636 0.030671353 15198184
0.37759629 0.064705022 0.035698935 15592942
0.38015008 0.06629096 0.03077448 15658991
0.37807998 0.07486026 0.03628568 15790320
0.38042849 0.075391427 0.031330734 15855857
0.37844449 0.082647115 0.038208611 15592168
0.38074988 0.083200507 0.033608768 14868191
0.40752006 -0.15143974 0.044697672 13750225
0.4050616 -0.14496131 0.045039527 15658222
0.39900002 -0.13064003 0.04948749 15855086
0.40295473 -0.13504826 0.045196585 16052722
0.39778385 -0.12412766 0.0479252 15591914
0.40191415 -0.12531899 0.043403883 15592170
0.39665174 -0.11438954 0.045995224 15526634
0.40039998 -0.11666425 0.041524034 15329509
0.39361468 -0.10499207 0.045080088 15066336
0.38843399 -0.093279369 0.047145281 15000544
0.39129236 -0.096142858 0.043300141 15000287
0.38709578 -0.085113466 0.044831119 15197665
0.39000002 -0.08889088 0.04015426 15000029
0.38587311 -0.075014956 0.044730403 15395556
0.38459998 -0.065048724 0.045058846 15395556
0.37875 -0.052412678 0.049192268 15066591
0.38300014 -0.055306569 0.044806186 15000541
0.37828007 -0.044351187 0.0478728 14672091
0.38168293 -0.045393795 0.043150097 14737369
0.3772859 -0.034830991 0.046360541 14606299
0.3808139 -0.035247248 0.041466784 14606299
0.37616786 -0.024840428 0.045480527 14408664
0.38033336 -0.027478967 0.040345881 14672092
0.37523302 -0.014851325 0.045246921 14277080
0.37549642 -0.0051114717 0.04519235 13882577
0.3758471 0.0049620261 0.045285378 13619150
0.37549236 0.015064953 0.045243353 13750737
0.37528977 0.025088029 0.045264237 14145495
0.37508142 0.035126407 0.045108076 14211287
0.37468958 0.044855542 0.045151412 14343643
0.37427798 0.05488285 0.04510358 15132645
0.37421069 0.064986885 0.04513013 15329768
0.37475964 0.074806988 0.045188189 15396076
0.37641668 0.082797766 0.044868723 14144982
0.39681819 -0.15061429 0.05680966 14210520
0.40100002 -0.15006982 0.050674301 14145238
0.39693096 -0.14487307 0.056145374 15855600
0.40017235 -0.14514135 0.05144155 15592171
0.39593452 -0.13494712 0.055686664 15986672
0.40000007 -0.13697605 0.0509381 16052722
0.39380488 -0.124984 0.054818794 15657965
0.38891664 -0.11280943 0.058517158 15789807
0.39224458 -0.11553439 0.054120101 15789551
0.38810882 -0.10413464 0.055934083 15197410
0.39076674 -0.10730272 0.052032933 15263204
0.38575196 -0.094858058 0.055051241 15066079
0.37888888 -0.081874542 0.058918018 14934494
0.38242853 -0.0849059 0.054584626 14803164
0.37816405 -0.074533448 0.057655402 15329507
0.38111979 -0.075179555 0.052584108 15198435
0.37751511 -0.064786799 0.05656461 15263715
0.38058332 -0.065611079 0.051756252 15526885
0.37641844 -0.054863017 0.05511811 15000799
0.38000003 -0.059034437 0.050689295 15329250
0.37475759 -0.044940714 0.05493924 14737885
0.37243262 -0.03484904 0.055196293 14606300
0.37153769 -0.025104426 0.055204812 14342872
0.37119448 -0.015086221 0.055157274 14342873
0.37188628 -0.0051018889 0.055259131 14013652
0.37231973 0.0049144216 0.055321086 13553358
0.3723183 0.01493715 0.055321757 13355980
0.37285304 0.024897579 0.05512134 14211289
0.37315717 0.035063118 0.055015098 13882836
0.37301531 0.045092762 0.054995026 14343131
0.37266129 0.055080801 0.054942608 14869218
0.37292871 0.0649345 0.05492131 15198440
0.37373248 0.075115234 0.055162489 15198183
0.37383321 0.082260281 0.056199983 13552589
0.39394644 -0.1524189 0.065452255 13750481
0.38878569 -0.14218338 0.068958536 16184051
0.39257929 -0.14522749 0.064348079 15921136
0.38813344 -0.13432112 0.067611262 15987185
0.39150009 -0.13553125 0.062916443 15920879
0.38719794 -0.12456593 0.065993033 15855344
0.39066672 -0.12605053 0.061324578 15657965
0.38655216 -0.11498937 0.064951055 15986928
0.38448793 -0.10501 0.065317355 15460839
0.37875 -0.090870924 0.068920024 14999777
0.38215804 -0.095403209 0.064702317 15000032
0.3778556 -0.084211826 0.065599315 14737371
0.38049999 -0.088322252 0.062520683 14737372
0.37561411 -0.074999571 0.06489794 14935007
0.37352243 -0.06502597 0.065118313 15066850
0.37213856 -0.054956432 0.06498915 15000802
0.36899999 -0.041809723 0.069090188 14803424
0.37103274 -0.045326568 0.064489201 14737886
0.36885044 -0.03404218 0.066976868 14146009
0.37029833 -0.036229361 0.062671132 14474714
0.36855724 -0.024882769 0.065511845 14014166
0.36999997 -0.025259126 0.060615666 14342874
0.36803025 -0.014959267 0.065457895 13948117
0.36999997 -0.015038241 0.060615662 14277336
0.36798134 -0.0051447246 0.065989144 13750996
0.37003994 -0.0046617128 0.061211213 13882068
0.36884114 0.0025929739 0.06778428 13816531
0.37030625 0.0058258954 0.064157814 13553359
0.37054521 0.014867674 0.065039329 13750738
0.37125179 0.024959896 0.064879954 14343387
0.37237507 0.034951221 0.064773589 14145752
0.3728267 0.045070015 0.065004662 14342874
0.37235638 0.055035241 0.064922869 14869218
0.37215319 0.065025978 0.064885415 15132391
0.3718259 0.074979663 0.064825863 15066853
0.37235838 0.081830673 0.064778402 13815761
0.38800001 -0.15215214 0.075414903 14079446
0.39081821 -0.15233156 0.071261041 14473689
0.38626665 -0.14486723 0.075287357 15789806
0.39025 -0.14901634 0.070556462 15526891
0.38419813 -0.13501804 0.075088657 16118514
0.38327461 -0.12508133 0.074896917 15855600
0.37899998 -0.11222474 0.079502292 15986672
0.38185951 -0.11518888 0.07459195 15855342
0.37847278 -0.10431445 0.077725023 15394791
0.38089326 -0.10569051 0.073157266 15592169
0.37738925 -0.094546378 0.075642087 15197411
0.3804211 -0.097606257 0.071274959 15329254
0.37473026 -0.08499109 0.075130284 14737374
0.3720974 -0.075014621 0.075105533 14935010
0.36895454 -0.062147737 0.078229196 15000547
0.37062722 -0.065458968 0.074321754 15000546
0.36854997 -0.054656751 0.076563992 14935011
0.37032738 -0.055728149 0.071907043 15066597
0.36837289 -0.044977974 0.075198732 14474974
0.36999997 -0.047693096 0.070576683 15000804
0.36819693 -0.034789458 0.074973226 10462118
0.36835825 -0.024926575 0.075019725 10198431
0.3668564 -0.014770451 0.075058825 12961478
0.36653066 -0.0050274353 0.075060546 13422542
0.36788577 0.0047853324 0.075250693 13619407
0.37 0.0092147049 0.070143603 13421772
0.36852831 0.014876204 0.075909525 13619409
0.36999992 0.015658533 0.071167268 13816530
0.36893764 0.023493474 0.078120008 14277594
0.37017316 0.025476793 0.073783197 14343388
0.37066913 0.034830429 0.075350806 14540254
0.37118956 0.044939626 0.075084962 14672096
0.37130818 0.054921079 0.075205274 15000546
0.36891666 0.067914791 0.078934364 14737634
0.37077245 0.064547129 0.07467363 14935010
0.36878011 0.074762821 0.07788869 14869221
0.37044474 0.07504651 0.073270567 15000804
0.36900002 0.080456242 0.0790243 15591914
0.37032354 0.081433006 0.074026987 13288388
0.38404498 -0.15258066 0.085400693 14539225
0.38212383 -0.14485419 0.084919527 15790063
0.37886667 -0.13226715 0.088735104 15592427
0.38104248 -0.13538872 0.084592551 16052978
0.37823701 -0.12437859 0.086604603 15724011
0.3806667 -0.12559859 0.082054131 15789805
0.37738699 -0.11484456 0.08534427 15592427
0.38022226 -0.1181625 0.080685526 15789294
0.37565884 -0.10491783 0.084922709 15460584
0.37371337 -0.095097221 0.085059658 15131875
0.36900002 -0.08086507 0.089606285 15263718
0.3711665 -0.085083961 0.084841624 14934495
0.36884108 -0.074139059 0.087722518 14934752
0.37043557 -0.07586816 0.083640538 15000545
0.36814278 -0.064834021 0.084999926 15000803
0.37 -0.068741187 0.080537722 14605789
0.36751533 -0.05494443 0.084725365 15000548
0.36807638 -0.045115966 0.084856458 14211033
0.36789292 -0.034898195 0.084714986 3028019
0.36763251 -0.02499035 0.084853932 2961968
0.36684307 -0.014892217 0.08507476 11448239
0.36535639 -0.0050130063 0.085083209 13290700
0.3661159 0.0049133147 0.08514405 13487564
0.36685306 0.015149755 0.084998481 13948373
0.36772811 0.024997909 0.084936753 14277595
0.36829498 0.034727946 0.085618533 14474461
0.36999992 0.036932353 0.081325144 14540510
0.36850014 0.044848133 0.08775796 14803169
0.37038913 0.045317903 0.083041415 15066340
0.36852944 0.055346668 0.087574616 15132389
0.37040815 0.054782208 0.083043873 15066597
0.36805755 0.065316021 0.085008435 14935013
0.37 0.061445154 0.080884196 14935013
0.36806822 0.075084701 0.08485496 15066599
0.36890474 0.081052504 0.085521579 11644082
0.37 0.081829183 0.081692621 11116710
0.37861541 -0.15157875 0.098911628 14342621
0.38148209 -0.15290897 0.09328723 14145240
0.37850648 -0.14412652 0.097048126 15592942
0.38063163 -0.14627849 0.09265206 15790064
0.37787464 -0.13508713 0.095186219 15724269
0.37602225 -0.12495442 0.094755523 15526891
0.37386495 -0.11495113 0.094981082 15461097
0.37221813 -0.10501067 0.095021963 15197925
0.36862502 -0.092397541 0.098683208 15263205
0.37085572 -0.095451124 0.094416507 15329254
0.36818576 -0.084587149 0.09576001 15066084
0.37011105 -0.087711446 0.091793098 14934497
0.367291 -0.075079516 0.095085301 15066340
0.36683714 -0.06481915 0.094792061 15198183
0.36663929 -0.055026706 0.095251657 15263720
0.36745858 -0.045040552 0.095036119 13158601
0.36559179 -0.034946602 0.09493921 2699567
0.36529502 -0.025106264 0.094899356 2764591
0.3661038 -0.014917902 0.095077634 10724515
0.36415929 -0.0049972725 0.095034726 13027271
0.36420813 0.0048073917 0.095045641 13421772
0.36438897 0.015046982 0.095093168 13882836
0.36533326 0.025026858 0.094844982 14277338
0.36602619 0.034853261 0.095056161 14408667
0.36675715 0.045070365 0.094989456 14869218
0.36684343 0.055003364 0.094810843 15000548
0.36622906 0.064823136 0.095042825 14935269
0.36731467 0.074690744 0.094945058 15001320
0.36899999 0.080801785 0.094314195 12368320
0.37024999 0.081920959 0.096843772 9210514
0.37806994 -0.15171865 0.10543013 14144727
0.37770227 -0.14488924 0.10520157 15526636
0.37608612 -0.13489224 0.10493911 15460843
0.37389708 -0.12508522 0.10489131 15066340
0.37151149 -0.11480052 0.10485141 15329512
0.36870691 -0.1033999 0.10692337 14869216
0.37041697 -0.106203 0.10364201 15000547
0.36774081 -0.094836712 0.1051932 15000291
0.37 -0.099201739 0.10074851 14934754
0.36605221 -0.084834784 0.10503899 15000547
0.36538091 -0.075084656 0.10476834 15000548
0.36460647 -0.065148816 0.1049986 15066598
0.36475021 -0.054978758 0.10508262 15000806
0.36653507 -0.044928566 0.10509577 12040377
0.3636741 -0.034793042 0.10504615 2567981
0.36362478 -0.024990547 0.10510909 2501933
0.3652789 -0.014922117 0.10501677 10132636
0.36276492 -0.0049825781 0.10486373 12369599
0.36220109 0.0047811684 0.10469951 13093064
0.36247197 0.014968339 0.10477643 13685202
0.36327061 0.025206998 0.10500671 14079703
0.36401477 0.035057884 0.10522482 14145752
0.3648954 0.044992629 0.10508169 14540768
0.36516362 0.055156145 0.10467436 14803682
0.36560348 0.065106295 0.10519863 14606818
0.36756808 0.074869648 0.10490651 14737891
0.36900002 0.080456242 0.1064079 12892867
0.37 0.080963008 0.10204777 13157578
0.3785224 -0.15276898 0.11509883 14211034
0.38000005 -0.15593587 0.11232495 12894919
0.37759477 -0.14484951 0.11489823 15329514
0.37539473 -0.13484219 0.11483647 15132134
0.37369019 -0.12495337 0.11498336 14606047
0.37117383 -0.11489809 0.11506743 14671582
0.36837229 -0.10409161 0.11439393 14342874
0.37003994 -0.10899553 0.11595994 14342617
0.36711919 -0.095336765 0.11501817 14408411
0.36524159 -0.084865302 0.11489321 14408926
0.36502329 -0.075113073 0.11495408 14408925
0.36418924 -0.065105096 0.11508222 14671841
0.36509517 -0.054958642 0.11504472 14737633
0.36672419 -0.044890631 0.11510117 10658468
0.36180848 -0.034562562 0.11502565 2304295
0.36176455 -0.024945792 0.11506321 2107173
0.36519751 -0.014843234 0.11503812 9541012
0.36360314 -0.0049916967 0.11489847 11711669
0.36265904 0.0047849659 0.11460216 12172477
0.36244676 0.014967811 0.11453402 13027529
0.36343157 0.025217446 0.11484513 13356236
0.364099 0.03506653 0.11505449 13487567
0.36482945 0.0448898 0.1151152 13817046
0.3660911 0.054970767 0.11482991 14014424
0.36709607 0.064808197 0.11492414 13883095
0.36820933 0.074171908 0.11429913 13948890
0.36999992 0.077548526 0.11767033 13487312
0.37850007 -0.15210538 0.12186369 14079706
0.38078043 -0.15337491 0.12710868 13159374
0.37809178 -0.14441594 0.12407383 14671841
0.38021436 -0.14775945 0.1286007 13685716
0.37676397 -0.13507767 0.12485186 14343132
0.37498045 -0.12500735 0.12472759 14014169
0.3728385 -0.11468051 0.12467242 13882839
0.36899999 -0.10168968 0.12042671 14145497
0.37144551 -0.10519218 0.12502497 13290445
0.36803234 -0.093613707 0.12298115 13882582
0.37071744 -0.096382432 0.12727641 12961481
0.36733696 -0.084957287 0.12420627 13817046
0.37007686 -0.084850602 0.12907042 12633030
0.3669619 -0.074973695 0.12475822 13751253
0.37 -0.077980407 0.12962104 12961740
0.36549222 -0.065029189 0.12485778 14145754
0.3666918 -0.055095032 0.12475341 14014169
0.36755562 -0.045297049 0.12480646 10132381
0.35859409 -0.032721613 0.12572144 2173220
0.36129043 -0.036313515 0.12385137 2304552
0.3586348 -0.026829073 0.12586519 2239012
0.36082286 -0.023112658 0.12394917 2172967
0.3659423 -0.014849897 0.1247922 9014670
0.36553416 -0.0049292287 0.12481743 11251632
0.36533365 0.0048218155 0.12485752 11186096
0.36536527 0.014964601 0.12466557 11909820
0.36602724 0.02496979 0.12466723 12107199
0.36668921 0.034846209 0.12486004 12435650
0.37 0.039963976 0.12990978 11317170
0.36738095 0.044741012 0.12377221 13224909
0.37052372 0.04642424 0.12868965 12566980
0.3682586 0.054298516 0.12258154 13422544
0.37088889 0.055527076 0.12744254 12830406
0.3687 0.063820168 0.12112425 13356753
0.37147701 0.065435275 0.12581243 12698822
0.37120324 0.073154077 0.1238746 12501446
0.38143998 -0.152502 0.13192628 12633287
0.37900001 -0.14077187 0.13076292 13488339
0.38122356 -0.14532655 0.13438855 12698825
0.3786757 -0.13450353 0.13149531 13619926
0.38051721 -0.13544573 0.13626148 12896717
0.37833336 -0.12489814 0.13229845 13224913
0.38046929 -0.12551944 0.13714926 12370117
0.37793595 -0.11524861 0.13420941 12435651
0.38000008 -0.11493015 0.13840257 11777464
0.37641343 -0.1048116 0.13414361 11975613
0.38000003 -0.10825824 0.13846187 10922157
0.37343082 -0.095147483 0.13331237 11777977
0.37169802 -0.085141025 0.13233092 12172221
0.36845455 -0.071787566 0.13101418 12436165
0.3708182 -0.077009752 0.1325653 12304066
0.36821049 -0.064558424 0.13263977 12172479
0.37018743 -0.062384106 0.13685499 11448756
0.36858487 -0.055249434 0.13193758 13027786
0.37045181 -0.0544587 0.13693787 11383221
0.36830014 -0.043978687 0.1328827 8685705
0.37046403 -0.04604644 0.13648498 9869722
0.36568829 -0.035551999 0.13530333 1647133
0.37020001 -0.031945009 0.13951311 792335
0.36513349 -0.024428921 0.13477914 1646879
0.37071428 -0.026784906 0.13970692 529167
0.36771718 -0.015526314 0.13391775 8488583
0.37048271 -0.012470152 0.1381252 10067104
0.36836216 -0.0052338215 0.13265197 10462118
0.37058342 -0.0055202539 0.13770683 9804189
0.36828211 0.0040550847 0.1321374 10396582
0.37079257 0.0053457888 0.1362166 9409688
0.36844009 0.015523851 0.13201982 10659754
0.37056667 0.014549052 0.13586406 9277586
0.36860001 0.023073394 0.13079926 11580344
0.37230894 0.025569221 0.13505933 10132898
0.36900005 0.035248842 0.13042252 11448499
0.37320289 0.034827936 0.13489653 9869982
0.37464198 0.045277856 0.13453962 11251634
0.37465081 0.054343522 0.13367744 11449269
0.37526667 0.064320587 0.13300921 11909820
0.37400004 0.070748098 0.13102238 11910080
0.38200006 -0.1307376 0.14068107 10659753
0.38142857 -0.12718502 0.14030074 10922412
0.37150002 -0.050972965 0.14109042 9804190
0.36675003 -0.040875744 0.14519817 5659740
0.37120005 -0.045270223 0.14182653 9343635
0.36645243 -0.035595883 0.14608786 857617
0.37028119 -0.031979065 0.14246869 791566
0.36592159 -0.024447063 0.14726421 1053713
0.37066048 -0.027009465 0.14361501 725774
0.36764711 -0.018308029 0.14194164 6052446
0.37121424 -0.013470956 0.14203712 9408144
0.37158334 -0.0076369904 0.14141233 9277588
0.37766668 0.028415097 0.14055873 10790303
0.37844446 0.034181278 0.14084822 10987682
0.36229166 -0.041017156 0.15476151 2238242
0.359 -0.031119525 0.15938449 792081
0.3619867 -0.035076547 0.15495111 1121043
0.35900003 -0.028878393 0.15966463 857102
0.3611173 -0.025012376 0.15487719 1251347
0.36100003 -0.018800469 0.15392327 3613989
0.34770003 -0.041237004 0.16888149 2304290
0.35615385 -0.040673275 0.16755365 659466
0.36191306 -0.041250996 0.16397573 1646361
0.34802499 -0.035672482 0.16916201 1975580
0.35570481 -0.034145009 0.166052 1120788
0.36079547 -0.037547879 0.16274637 1384217
0.34900001 -0.026911302 0.16960917 2041631
0.35546726 -0.025978839 0.1666521 1186069
0.36090699 -0.02351502 0.1634248 1186070
0.35650003 -0.019914273 0.16981891 1251350
0.36446154 -0.018849052 0.16878465 791063
0.34280646 -0.041540202 0.17526354 2501927
0.33900002 -0.032586716 0.17870456 2107167
0.34292004 -0.035000764 0.17449667 2238753
0.33900002 -0.024888752 0.17854583 1975327
0.34324479 -0.025234601 0.17406692 2041375
0.35127279 -0.021713868 0.17058028 1712414
0.33900002 -0.018936714 0.17854583 2698536
0.34229168 -0.01925344 0.17522965 1843999
0.35527274 -0.019012528 0.17085379 1316631
0.36300001 -0.017557573 0.17079036 5067349
0.33621567 -0.041343767 0.18377824 2436133
0.33531749 -0.035102416 0.18442373 2041374
0.33553231 -0.025246976 0.18443722 2040862
0.33711112 -0.01926975 0.18167171 1909020
