# .PCD v0.7 - Point Cloud Data file format
VERSION 0.7
FIELDS x y z rgb
SIZE 4 4 4 4
TYPE F F F U
COUNT 1 1 1 1
WIDTH 934
HEIGHT 1
VIEWPOINT 0 0 0 1 0 0 0
POINTS 934
DATA ascii
0.78400004 -0.46042094 -0.4203324 15262699
0.78770006 -0.45465916 -0.42157793 14473696
0.7766 -0.71059996 -0.41454834 10459049
0.78250003 -0.71783042 -0.41311735 10196389
0.76200002 -0.58218205 -0.41032121 14407912
0.76200002 -0.5750466 -0.41032121 14473703
0.76342863 -0.56450254 -0.41109043 14144738
0.76733333 -0.55556411 -0.4121455 14144738
0.77000004 -0.55224252 -0.41462907 14078945
0.76900005 -0.54589957 -0.41116515 14342117
0.77011114 -0.54420918 -0.41408807 14210786
0.76900005 -0.53577322 -0.41161522 14276577
0.77000004 -0.53511798 -0.41462907 14408162
0.76900005 -0.52362156 -0.41274041 14276576
0.77000004 -0.52700639 -0.41462907 14539748
0.76900005 -0.51522046 -0.41259038 14342369
0.77000004 -0.51438832 -0.41462907 14737125
0.76900005 -0.50651926 -0.41139019 14474213
0.77033335 -0.50439167 -0.41360685 14540005
0.77145004 -0.49494678 -0.41351429 14540005
0.77282614 -0.48532146 -0.41331983 14671591
0.77428019 -0.47530052 -0.41425395 14868713
0.77625006 -0.46563351 -0.41402185 15131881
0.78200006 -0.46382135 -0.41926011 15328746
0.77700001 -0.45630509 -0.4115262 14933989
0.78454161 -0.45353433 -0.41549417 14868710
0.78857148 -0.44912773 -0.41302532 13882067
0.78725004 -0.72633743 -0.40548468 9933217
0.77750003 -0.7132436 -0.40501952 10064548
0.78100002 -0.7182827 -0.40318429 9998498
0.77400005 -0.70822096 -0.40500706 10064037
0.76270008 -0.69342041 -0.40533862 12630220
0.755 -0.68298173 -0.40340993 13288662
0.7517857 -0.67457116 -0.40293583 13618397
0.75147372 -0.66473639 -0.40289536 14013154
0.75414282 -0.65480059 -0.40350586 14144741
0.75667751 -0.64522666 -0.40402719 14078950
0.75790328 -0.63528311 -0.40462473 14078947
0.75853592 -0.62538689 -0.40471527 14275810
0.75878572 -0.61550671 -0.40478492 14078688
0.76000005 -0.61178958 -0.40924427 14408164
0.75899994 -0.60512102 -0.40373069 13749980
0.76010013 -0.60386217 -0.40858641 14210531
0.759 -0.59499311 -0.40248689 14013151
0.76029426 -0.59485573 -0.40751877 14276325
0.75900006 -0.58753043 -0.40195385 14013152
0.76056528 -0.58499491 -0.4063758 14407910
0.76062065 -0.5752632 -0.40417677 14408167
0.76141918 -0.56514788 -0.40472019 14342372
0.76417643 -0.55495018 -0.4050239 14408166
0.76692009 -0.54525602 -0.40507329 14408421
0.7667827 -0.53459865 -0.40540633 14408421
0.76607412 -0.52488351 -0.40527883 14540007
0.76639301 -0.51524496 -0.40532038 14605800
0.76800007 -0.5069496 -0.40514037 14671593
0.77000004 -0.50177008 -0.40471479 14737385
0.77122849 -0.49547631 -0.40523154 14671591
0.77210695 -0.48539057 -0.40511462 14803177
0.77151859 -0.47509867 -0.40468058 14671334
0.77189308 -0.46473169 -0.40480971 14736613
0.77520603 -0.45487422 -0.4048346 14473698
0.78180003 -0.45070878 -0.40670761 15263723
0.77800006 -0.44961208 -0.40072376 14210781
0.78587508 -0.44898328 -0.40432009 14605791
0.79400003 -0.44656605 -0.40491742 11251118
0.79306251 -0.73692048 -0.39513746 9999007
0.78745461 -0.72690189 -0.39503428 9735580
0.77600008 -0.71232361 -0.39515206 10063521
0.78025001 -0.71759284 -0.39457518 9866911
0.76850003 -0.70138931 -0.39852983 12826573
0.77216673 -0.70654345 -0.39500868 10063521
0.76324999 -0.69548345 -0.39356929 12827341
0.75641674 -0.68579012 -0.39491668 13025235
0.7486667 -0.67160392 -0.39291826 13749727
0.75084621 -0.67594939 -0.39538991 13618141
0.74855995 -0.66496527 -0.39390263 13881313
0.75000006 -0.66460615 -0.3985922 13881568
0.74871433 -0.658041 -0.39189982 13947107
0.75188231 -0.65406644 -0.3955546 14144740
0.75593942 -0.64535791 -0.3946712 14210276
0.75703335 -0.63509864 -0.39524132 14144997
0.75758064 -0.62477273 -0.39535624 14210788
0.75799984 -0.61461574 -0.39485866 14078946
0.75799996 -0.60485595 -0.39485857 13881824
0.75813872 -0.59520531 -0.39493176 14079202
0.75872231 -0.58500516 -0.3952356 14408167
0.75899994 -0.57578641 -0.39372966 14605290
0.76000011 -0.57244998 -0.39679003 14342374
0.76032263 -0.56473607 -0.39500654 14210788
0.76142836 -0.55513316 -0.3947351 14211044
0.76400018 -0.54557788 -0.39546615 14210786
0.76459271 -0.53533912 -0.39541057 14145250
0.7627601 -0.5247311 -0.39466098 14276579
0.76296872 -0.51465487 -0.3949379 14342628
0.7664001 -0.505099 -0.39498982 14539751
0.77000004 -0.50086892 -0.39840579 14540005
0.76808333 -0.49572554 -0.3932198 14605800
0.77000004 -0.49415013 -0.39758644 14605797
0.76788241 -0.48458132 -0.3938227 14671592
0.77000004 -0.48554695 -0.39840579 15395312
0.76733333 -0.47466952 -0.39429119 14934505
0.76773083 -0.46503502 -0.39446864 14736869
0.7705 -0.46060908 -0.39776263 14671334
0.77421755 -0.45450526 -0.39475209 14342112
0.78350002 -0.45034301 -0.39224133 15066086
0.77800006 -0.44961208 -0.39799184 14999527
0.78600001 -0.44911814 -0.39583948 14802657
0.79434621 -0.44617432 -0.39490408 11842485
0.79293334 -0.73520035 -0.38502386 9736090
0.78788894 -0.72707856 -0.38552842 9669787
0.77560008 -0.71150064 -0.38496065 9735329
0.78166676 -0.71889585 -0.38522682 9735327
0.76700002 -0.70002025 -0.38248909 12630478
0.77250004 -0.70684844 -0.38432586 10458796
0.76287514 -0.69514209 -0.38578975 13025234
0.75549996 -0.68510586 -0.38471022 13421015
0.74862498 -0.67251629 -0.38427898 13618396
0.75014293 -0.67710912 -0.38587412 13486810
0.74799985 -0.66516864 -0.38439617 13815774
0.74834192 -0.65546721 -0.38424945 13881312
0.75080007 -0.65113431 -0.38847154 14078946
0.74900001 -0.64852369 -0.38052648 13749982
0.75313157 -0.64504009 -0.38508594 13947617
0.7560001 -0.63501292 -0.38524806 14013410
0.75689477 -0.62495655 -0.38509727 14210788
0.75793326 -0.61456132 -0.38506529 14276580
0.75823337 -0.60474604 -0.38432872 14210273
0.7582857 -0.59519362 -0.38448191 14341860
0.75883359 -0.58509129 -0.38463336 14407910
0.75900018 -0.57494819 -0.38521835 14539496
0.76000005 -0.57220292 -0.38122228 14473959
0.76025724 -0.56495839 -0.38522813 14408166
0.76154822 -0.55494905 -0.38494551 14474215
0.76308364 -0.54549503 -0.38500208 14342372
0.76336384 -0.53532672 -0.38549611 14276835
0.76180959 -0.52518088 -0.38508198 14342629
0.76099986 -0.51550198 -0.38484159 14342627
0.76234365 -0.50519764 -0.38552329 14605799
0.7647242 -0.49533537 -0.38493851 14868713
0.76437062 -0.48507905 -0.38456151 14868714
0.76436681 -0.47483572 -0.38475698 14868714
0.76650017 -0.46449465 -0.38493091 14210783
0.76900005 -0.45881283 -0.38348642 14803175
0.77356118 -0.45445383 -0.38513881 14276576
0.78484219 -0.45094746 -0.38441688 15197672
0.78833342 -0.44943157 -0.38882172 15000547
0.79437155 -0.44636118 -0.38524184 12171450
0.79350001 -0.73442554 -0.37526786 9604507
0.78560007 -0.7234357 -0.37428981 9670043
0.77633333 -0.71217328 -0.37532869 9735327
0.78200006 -0.7192024 -0.37898529 9932703
0.76880008 -0.70166314 -0.37618667 13025235
0.77266669 -0.7067005 -0.37416077 10985653
0.76183337 -0.69352132 -0.37545136 12893906
0.75600004 -0.68489659 -0.3750096 13288663
0.74900001 -0.67248708 -0.37760413 13749980
0.75072229 -0.67510891 -0.37388203 13815261
0.74875867 -0.66499728 -0.37453982 13881312
0.75000006 -0.6678251 -0.37049997 13881056
0.748514 -0.65511161 -0.37482131 13881569
0.75000006 -0.65246218 -0.3709389 14013411
0.74900001 -0.64777225 -0.37651867 13881567
0.75156415 -0.64433306 -0.37388572 14013153
0.75449991 -0.63561893 -0.37507656 13881567
0.75668305 -0.6249308 -0.37479469 13815774
0.75816655 -0.61474979 -0.37542117 13947359
0.75896794 -0.60488307 -0.37510163 13947102
0.759 -0.59499311 -0.37494591 14144739
0.75899994 -0.58706576 -0.37658608 14342374
0.76000017 -0.58450896 -0.37340665 14276581
0.76000017 -0.57531655 -0.37455046 14276581
0.76086098 -0.56528044 -0.37497431 14276836
0.76191401 -0.55548763 -0.37536645 14408420
0.76266676 -0.5451979 -0.37497309 14342626
0.76223063 -0.53493541 -0.37496412 14343140
0.76136655 -0.52555448 -0.37522444 14277091
0.76094431 -0.51546454 -0.37501547 14211553
0.76130533 -0.50501418 -0.37519306 14408419
0.76320016 -0.49547452 -0.374773 14671334
0.76247996 -0.48526874 -0.37488052 14802919
0.76327026 -0.47480267 -0.37497804 14934249
0.76746166 -0.46507674 -0.37525374 14408161
0.77050006 -0.46060908 -0.37070572 14671593
0.76900005 -0.45881283 -0.3780857 14540003
0.77331829 -0.45462885 -0.37452611 14276833
0.7846843 -0.4511486 -0.37535176 15395052
0.78800005 -0.449857 -0.37266946 15527153
0.79450011 -0.44637209 -0.37496144 12500159
0.79225004 -0.73349977 -0.3649399 9669791
0.78666669 -0.72533911 -0.36466601 9669792
0.77639997 -0.71223456 -0.36536729 9669792
0.78150004 -0.71874249 -0.36319274 9932452
0.76900005 -0.70184565 -0.36098343 13486558
0.77210009 -0.70576137 -0.36568925 12564941
0.76181817 -0.69269884 -0.3651498 13486556
0.75614291 -0.68391752 -0.36544177 13354970
0.75286222 -0.67502439 -0.36467829 13420763
0.75169444 -0.66488254 -0.36463466 13881570
0.75336558 -0.65490633 -0.36499736 14079206
0.75592113 -0.64491862 -0.36554939 14210791
0.75672227 -0.63513213 -0.36584765 14078948
0.75706452 -0.62469035 -0.36529979 14144997
0.7580303 -0.6143977 -0.36511075 14144995
0.75880581 -0.60460979 -0.36508048 14079202
0.75900012 -0.59499305 -0.3651734 14210788
0.759 -0.5887742 -0.36517337 14408167
0.76000017 -0.58421242 -0.36476493 14539753
0.76016676 -0.57544172 -0.36484477 14408167
0.76099986 -0.56538445 -0.36524487 14408166
0.76109982 -0.55476773 -0.36529335 14408422
0.76166654 -0.54483914 -0.36520916 14276580
0.76114267 -0.53488135 -0.36512312 14276582
0.76099992 -0.5253002 -0.36524487 14473960
0.76121849 -0.5154264 -0.36501494 14408165
0.76270008 -0.50531262 -0.36498779 14013918
0.76360714 -0.49543399 -0.36521965 14145503
0.76269698 -0.48491907 -0.36492214 14342369
0.76470828 -0.4747057 -0.36522985 14671333
0.76824015 -0.46612644 -0.3649776 14539748
0.77033341 -0.46129078 -0.36539593 15197421
0.77450001 -0.45533758 -0.36507374 14934762
0.78404999 -0.45190987 -0.36483341 14671591
0.78850007 -0.44921893 -0.36459884 14343650
0.79446894 -0.44528389 -0.36491325 11975101
0.7922858 -0.73502332 -0.35402781 9669788
0.78611112 -0.7258485 -0.35459882 9735327
0.77577782 -0.71247268 -0.35478121 10853556
0.78000003 -0.717363 -0.35975605 10064039
0.76750004 -0.70047659 -0.35668641 13419995
0.77125001 -0.70570463 -0.3548196 13222617
0.76222223 -0.69387823 -0.3551195 13749472
0.75672728 -0.68420559 -0.35457587 13947106
0.75496882 -0.67468029 -0.35444856 13618141
0.75457883 -0.66520685 -0.3548612 13749727
0.75590265 -0.65492958 -0.35511521 14144741
0.75696969 -0.64489818 -0.35509515 14407912
0.75766659 -0.63522613 -0.35542104 14210533
0.75766659 -0.62498808 -0.35566175 14144996
0.75797224 -0.61459184 -0.35491753 14144997
0.75890929 -0.60504264 -0.35481945 14144996
0.76000005 -0.60170758 -0.35112461 14210788
0.75899994 -0.59524691 -0.35730457 14276581
0.76009536 -0.5944109 -0.35294768 14473960
0.75900006 -0.5887742 -0.35895449 14473960
0.76050001 -0.58459586 -0.35495001 14605546
0.76093537 -0.57530594 -0.35555974 14473960
0.76111096 -0.56546652 -0.35549793 14408165
0.7618047 -0.55495411 -0.35505801 14474214
0.76278365 -0.5453527 -0.35494909 14211044
0.76205546 -0.53509808 -0.35519296 14408423
0.76137477 -0.52522463 -0.35539725 14671595
0.76216662 -0.51518458 -0.3550967 14737387
0.76335508 -0.50530875 -0.35490328 14737386
0.76300031 -0.49529484 -0.35446703 14474213
0.76390016 -0.48464704 -0.35483217 14474213
0.76662177 -0.47465932 -0.3548938 14671592
0.76793116 -0.46536323 -0.35468513 14737385
0.77055556 -0.46054205 -0.35499868 15526900
0.77486843 -0.45547712 -0.35475954 15395313
0.78323525 -0.45123079 -0.35520467 14605796
0.78845459 -0.44927683 -0.35492966 14212830
0.79430014 -0.44544616 -0.35493997 11449013
0.78840005 -0.73062539 -0.34517518 9603997
0.79150003 -0.73566097 -0.34375098 9735837
0.78366667 -0.72379452 -0.3458502 9735328
0.77637506 -0.71471268 -0.34399587 9998501
0.76760006 -0.70236486 -0.34505528 13551323
0.77220005 -0.70838165 -0.34531441 13156565
0.75900006 -0.69094205 -0.34296298 13881314
0.76171434 -0.69468784 -0.34546262 13946594
0.75665009 -0.68437612 -0.34500065 14144743
0.75603366 -0.67496723 -0.34516221 14013411
0.75600028 -0.66520345 -0.34514698 13816032
0.75600034 -0.6554696 -0.34514701 14013668
0.75654554 -0.64507264 -0.34491268 14276583
0.75761104 -0.63558185 -0.34499562 14276839
0.75813884 -0.6253767 -0.34523588 14013669
0.75884867 -0.61554551 -0.3451547 14211045
0.759 -0.60807705 -0.34506291 14144995
0.76000017 -0.60364288 -0.34500676 14210788
0.76049995 -0.59505451 -0.34508729 14408167
0.76105535 -0.58502358 -0.34478241 14539754
0.76159972 -0.57487154 -0.34490037 14473960
0.76220572 -0.56507212 -0.34519762 14408421
0.76290023 -0.55566233 -0.34537962 14540007
0.76358622 -0.54570031 -0.34491313 14408421
0.76317263 -0.5349946 -0.34497193 14408422
0.7623437 -0.52477717 -0.34536579 14672109
0.76322603 -0.51536548 -0.34504488 14737644
0.76406246 -0.50488693 -0.34440988 14803178
0.76412135 -0.49514636 -0.34451407 14737385
0.76487505 -0.48472887 -0.34490001 14737384
0.76638722 -0.47444123 -0.34468088 14934764
0.76803714 -0.46522775 -0.34484822 15197679
0.77045459 -0.46066388 -0.34502316 15460850
0.77467573 -0.45508364 -0.34489813 15131885
0.78337508 -0.45076552 -0.34503412 14606049
0.78850007 -0.4492189 -0.34521756 14080218
0.79513353 -0.44610015 -0.34544915 11185583
0.79200006 -0.736745 -0.33469599 9604765
0.78460008 -0.72618836 -0.3352423 9669535
0.77480006 -0.71348912 -0.33468443 10788017
0.76750004 -0.70317346 -0.33511627 13419736
0.77050006 -0.70682216 -0.33643615 13156566
0.75816661 -0.69018346 -0.33460042 14079204
0.76222229 -0.69645494 -0.33430603 13617886
0.75600016 -0.68367243 -0.33522108 14144741
0.75496775 -0.67472887 -0.33510008 14276326
0.75502837 -0.66510594 -0.33485743 14144740
0.75552773 -0.65505922 -0.33520499 14144997
0.75645477 -0.64547807 -0.33521202 14276583
0.75770581 -0.63545287 -0.33465675 14342376
0.75808328 -0.62533116 -0.33456224 14145254
0.75897241 -0.61540395 -0.33495486 14145509
0.75899994 -0.60766786 -0.3357372 14145509
0.76000017 -0.60348672 -0.33485788 14277095
0.76002955 -0.59511966 -0.33515999 14408424
0.76076663 -0.58480072 -0.33485705 14539753
0.76179981 -0.57489479 -0.33531216 14539753
0.76249999 -0.56527132 -0.33495131 14408423
0.76186645 -0.55526829 -0.33480623 14473960
0.76144421 -0.54481882 -0.33535424 14473960
0.76153564 -0.53515649 -0.33500531 14474728
0.76206034 -0.52489662 -0.33493987 14671851
0.76277786 -0.51491934 -0.33485001 14540009
0.76471066 -0.50486672 -0.33522618 14540264
0.76671451 -0.49494895 -0.33510152 14605800
0.76669466 -0.48525748 -0.33477181 14605543
0.76657158 -0.47453979 -0.33464125 14737385
0.76782608 -0.46662879 -0.33538345 15000301
0.77094746 -0.46196803 -0.33468199 15263728
0.77472514 -0.45483011 -0.33487612 14868969
0.78464997 -0.45124465 -0.33470494 14343390
0.78842866 -0.44931003 -0.33727631 14408669
0.7944839 -0.44676742 -0.33469412 11382446
0.78900003 -0.73302847 -0.32142463 9670814
0.79175007 -0.73651218 -0.32555401 9670556
0.784091 -0.72580135 -0.32526046 9735583
0.77410007 -0.71284413 -0.32532084 11116982
0.76880008 -0.70526266 -0.32579485 13682652
0.7614001 -0.69580221 -0.32533056 13617883
0.75634503 -0.68486279 -0.32478979 14079204
0.7548846 -0.67496306 -0.3249934 14210790
0.75429618 -0.66507763 -0.32494417 14210790
0.75491166 -0.65494001 -0.32505393 14210790
0.75662172 -0.64521134 -0.3249411 14210790
0.75774187 -0.63577783 -0.32511279 14342376
0.75863343 -0.62578374 -0.32503718 14276840
0.75900012 -0.61542672 -0.32519469 14211560
0.76000005 -0.61001039 -0.32651269 14343144
0.75900006 -0.60920775 -0.321641 14408939
0.76000017 -0.60448229 -0.32505122 14211558
0.76000017 -0.5948875 -0.32473361 14343144
0.76006687 -0.58509368 -0.32505891 14474474
0.76038712 -0.57523584 -0.32533097 14343143
0.76074183 -0.56533563 -0.32433397 14342630
0.76084834 -0.55450362 -0.32496208 14540010
0.76083863 -0.54495364 -0.32494918 14606060
0.76097208 -0.53507918 -0.32514915 14671596
0.7615149 -0.52500635 -0.32497486 14934510
0.76217216 -0.51466483 -0.3247079 14606313
0.76350015 -0.50436527 -0.32538864 14474471
0.76523334 -0.49519902 -0.32464355 14605800
0.76616681 -0.48528126 -0.32468045 14737386
0.76638728 -0.47449961 -0.32465714 14934765
0.76825005 -0.46654645 -0.32475075 15000557
0.77088243 -0.4621633 -0.32540187 15395314
0.7748183 -0.45623118 -0.32515451 14803175
0.78546685 -0.45262989 -0.32500654 14343136
0.79476672 -0.44750682 -0.32525763 11382447
0.78860009 -0.73265684 -0.31572467 9605021
0.79100001 -0.73673838 -0.31483522 9605021
0.77900004 -0.72009063 -0.31643897 9735585
0.78360003 -0.72581196 -0.31591922 9604767
0.7743333 -0.71396667 -0.31544372 10459308
0.7658 -0.70251054 -0.31556261 13026002
0.77050006 -0.70862591 -0.31298733 12564685
0.75816661 -0.69195837 -0.31507829 13750239
0.76099998 -0.69632578 -0.31536433 13355224
0.75457907 -0.6842227 -0.31502837 14013411
0.75390619 -0.67433608 -0.31485161 14276583
0.75474977 -0.66498572 -0.31542304 14276583
0.75579488 -0.65490448 -0.31515387 14342376
0.75691432 -0.64519918 -0.31488439 14276583
0.75779986 -0.63561416 -0.31479704 14276839
0.75877786 -0.62590319 -0.31533009 14539754
0.75900024 -0.61542666 -0.31542212 14408424
0.75900018 -0.60525286 -0.31482029 14408424
0.76000005 -0.60200411 -0.31850642 14343144
0.75899994 -0.59499311 -0.31364524 14277350
0.76000005 -0.59488744 -0.31850645 14211558
0.75900012 -0.58482236 -0.31447232 14211301
0.76000005 -0.5886603 -0.31850642 14079972
0.75900024 -0.57476854 -0.31516069 14145765
0.75899994 -0.56520998 -0.31394136 14145766
0.76000005 -0.56226921 -0.31791335 14145767
0.75899994 -0.55501437 -0.31275681 14342888
0.76000011 -0.554856 -0.31761682 14342889
0.75900006 -0.54672247 -0.31157228 14605802
0.76000017 -0.54447752 -0.31568941 14737132
0.76082343 -0.53476411 -0.31466064 14868975
0.76264095 -0.52505744 -0.31494227 15066353
0.76364708 -0.51492834 -0.31566781 14869228
0.76405722 -0.50487214 -0.31555358 14737641
0.76419234 -0.49537137 -0.31468895 14868970
0.76373345 -0.48517182 -0.31470823 14803178
0.7644195 -0.47472194 -0.31481797 14934765
0.76745838 -0.46769667 -0.31526864 15197937
0.77082628 -0.46248946 -0.31472701 15526901
0.77518761 -0.45597467 -0.31483105 15001069
0.78633332 -0.45257938 -0.31515345 14343905
0.79100001 -0.45064259 -0.31112891 15395566
0.79514813 -0.4483436 -0.31530493 11777207
0.78733343 -0.73148012 -0.30508035 9670555
0.79000002 -0.73580694 -0.30518737 9670298
0.78140008 -0.72413844 -0.305525 9605021
0.77400011 -0.71448207 -0.30493701 9604770
0.76775002 -0.70609665 -0.30468187 13223127
0.75840002 -0.69359225 -0.30540693 13749982
0.76150006 -0.69826943 -0.30576512 13420762
0.75262499 -0.68459147 -0.30473316 14013155
0.75096869 -0.6746732 -0.30483481 14210791
0.75418419 -0.66541308 -0.30510578 14276584
0.75581098 -0.6553278 -0.30498883 14342375
0.75671434 -0.64514244 -0.30454016 14473704
0.75759995 -0.63557255 -0.30508602 14408168
0.75882876 -0.62581843 -0.30481884 14408683
0.75899988 -0.61671889 -0.3061341 14474475
0.76000017 -0.61310053 -0.30333659 14540010
0.75900006 -0.60743093 -0.30920318 14605800
0.76000017 -0.60448229 -0.30484495 14408166
0.759 -0.59425277 -0.30772248 14342628
0.76000017 -0.59568805 -0.30302757 14211043
0.75900012 -0.58506733 -0.30577201 14145506
0.76000005 -0.58510196 -0.30071467 14145249
0.75900024 -0.57455951 -0.30476102 14408678
0.75896674 -0.56476229 -0.30474761 14474217
0.75855887 -0.55484825 -0.30474067 14540010
0.75896794 -0.54539043 -0.30471951 14737902
0.76000005 -0.54062259 -0.30516261 14869231
0.75900006 -0.53991127 -0.30476108 14934765
0.76056254 -0.53501201 -0.30483174 14934766
0.76231247 -0.5249207 -0.30536789 15000557
0.76390326 -0.51484269 -0.30566514 14869228
0.76451349 -0.50460136 -0.30506685 14869228
0.7651785 -0.49479064 -0.30493933 14671850
0.76384854 -0.48484015 -0.30500111 14672107
0.76360017 -0.47448578 -0.30469298 14869485
0.7674545 -0.46736068 -0.30505249 15263987
0.77126324 -0.46244165 -0.30517158 15461622
0.77496433 -0.45718297 -0.30533788 15001582
0.78550005 -0.45531711 -0.30515197 14277857
0.79291677 -0.45180765 -0.30460849 13816788
0.78700006 -0.73117042 -0.29481652 9801630
0.79000002 -0.73580694 -0.29501566 9669787
0.7802 -0.72302639 -0.29592305 9932960
0.77310002 -0.71373403 -0.29503947 10065062
0.76540005 -0.7039355 -0.29568642 13421021
0.75749999 -0.69312316 -0.29529393 13749984
0.76033336 -0.6974957 -0.29461828 13486813
0.74900001 -0.6800853 -0.29110193 13881314
0.75157148 -0.68430775 -0.29524231 14144486
0.74883997 -0.67524207 -0.29482716 14144742
0.75000006 -0.67186338 -0.29781136 14079204
0.74900001 -0.66759211 -0.29219785 14210536
0.75120008 -0.664635 -0.29610908 14342119
0.7525 -0.65478057 -0.29446161 14342631
0.75428575 -0.64462012 -0.29492438 14276838
0.75716668 -0.63525712 -0.29521218 14473962
0.75880659 -0.62607014 -0.29508498 14539753
0.75900006 -0.61898035 -0.29387796 14540011
0.76000017 -0.61381418 -0.2953158 14605547
0.7602942 -0.60427785 -0.29439196 14605545
0.76062495 -0.5948199 -0.29495072 14145250
0.7603333 -0.58535928 -0.29461554 14079458
0.75900006 -0.57100588 -0.29609901 14342631
0.76000017 -0.57668507 -0.29421383 14277094
0.759 -0.56478697 -0.29498848 14342887
0.75896567 -0.55520362 -0.29540381 14540266
0.76000005 -0.55218726 -0.2909292 14672108
0.75899994 -0.54633528 -0.29662865 14868973
0.76013058 -0.54404181 -0.29310641 15000816
0.76074994 -0.534922 -0.29477757 14869230
0.76106232 -0.52500892 -0.2951223 14737643
0.76144093 -0.5155375 -0.29483739 14868972
0.76246864 -0.50539446 -0.29471952 14737643
0.76390004 -0.49529013 -0.29510659 14409191
0.76317883 -0.48450035 -0.294635 14540778
0.76348501 -0.47404364 -0.29445523 14672109
0.76706272 -0.46623796 -0.29520279 15066608
0.7711429 -0.46163744 -0.2946789 15198192
0.77577281 -0.45830879 -0.295149 14803431
0.78659093 -0.45724946 -0.2950789 14343135
0.79436374 -0.4526892 -0.29497862 13159116
0.78740007 -0.73228085 -0.28500766 9604250
0.79000002 -0.73580694 -0.28669333 9603993
0.77850002 -0.72145098 -0.28525621 9735582
0.78500003 -0.72931224 -0.28212225 9801374
0.77400011 -0.71546882 -0.28541675 11380923
0.76425004 -0.70332778 -0.28405151 13092055
0.77000004 -0.70996863 -0.28664562 12631503
0.75711119 -0.69355679 -0.28420985 13684448
0.76000005 -0.69718993 -0.28826046 13815778
0.74900001 -0.68066972 -0.28408825 14276327
0.75087506 -0.68464506 -0.2861183 14079205
0.74809998 -0.67401451 -0.28462294 14144741
0.74842834 -0.66479748 -0.28462291 14276326
0.75000006 -0.66167992 -0.28973487 14276326
0.74900001 -0.65826494 -0.28369862 14408167
0.75060612 -0.65363824 -0.2851215 14408167
0.75369048 -0.64464027 -0.28498235 14342376
0.756675 -0.63537085 -0.28482789 14408424
0.75824982 -0.6254679 -0.28493533 14408168
0.75891459 -0.61548364 -0.28505722 14474216
0.759 -0.60796392 -0.28326142 14474471
0.76000017 -0.60396123 -0.28523588 14540265
0.7601335 -0.59499151 -0.28475267 14342630
0.75900006 -0.58291066 -0.28112924 14474214
0.76015013 -0.58557367 -0.28555965 14145508
0.75900006 -0.57353443 -0.28419086 14408679
0.76000005 -0.57857829 -0.28707433 14277606
0.75900012 -0.56478691 -0.28521594 14277607
0.759 -0.55671716 -0.28506786 14474986
0.76000011 -0.55236518 -0.28505793 14671852
0.76043338 -0.54538006 -0.28486511 14935023
0.7608999 -0.53502816 -0.28503969 14935279
0.76110703 -0.52480084 -0.28486198 14540777
0.76202685 -0.51515853 -0.28449473 14737899
0.76293766 -0.5055393 -0.28513107 14737385
0.76300031 -0.49542248 -0.28493273 14408676
0.76402646 -0.48502555 -0.28512421 14474727
0.76590008 -0.47462016 -0.28511611 14935277
0.76840007 -0.46708792 -0.28550953 15132144
0.77123815 -0.4625527 -0.28461194 15461108
0.7757619 -0.4585188 -0.28533074 14868968
0.78583336 -0.45735005 -0.28471905 14672100
0.79323995 -0.45284066 -0.28489619 13093319
0.78820002 -0.7341305 -0.27496991 9735324
0.79140002 -0.7389636 -0.274234 9604249
0.77700001 -0.72006083 -0.27833763 9866658
0.78300005 -0.72745413 -0.27499121 9932703
0.77433342 -0.71658421 -0.2743586 10459052
0.76740003 -0.70757133 -0.27490062 13815007
0.75760001 -0.69498831 -0.27493668 13355224
0.76100004 -0.69988877 -0.27438766 13289431
0.74900001 -0.68096191 -0.27444443 14079203
0.75163645 -0.68680024 -0.27501014 13947617
0.74810708 -0.67395788 -0.27442938 14144996
0.74877781 -0.66498291 -0.27436233 14276583
0.74900001 -0.65838671 -0.27597868 14277096
0.75084621 -0.65354323 -0.27469277 14408425
0.75477505 -0.64446402 -0.27501461 14474218
0.75683331 -0.63493019 -0.27465746 14474732
0.75749999 -0.62484866 -0.27489927 14408938
0.75848401 -0.61486316 -0.27508426 14342886
0.75900024 -0.60476565 -0.27455494 14277092
0.75900012 -0.59499317 -0.27455494 14145763
0.75900024 -0.58522058 -0.27455488 14342885
0.75900024 -0.57455951 -0.27455491 14474214
0.75900012 -0.56478697 -0.27455491 14605800
0.75900024 -0.55514121 -0.27442795 14606057
0.76000005 -0.55129766 -0.27936459 14869488
0.75899994 -0.54541105 -0.27298963 14738156
0.76000017 -0.54432929 -0.27832672 14869742
0.75899994 -0.53591347 -0.27166751 14935278
0.76011127 -0.53476971 -0.2773298 14935278
0.75900006 -0.52925032 -0.27011284 14868972
0.76066667 -0.52536541 -0.27525795 14869486
0.76299995 -0.51489568 -0.27506158 15132657
0.76461285 -0.50469887 -0.27470919 15066864
0.76466662 -0.49471268 -0.27481353 14672106
0.76586139 -0.48472944 -0.27524406 14869483
0.76653141 -0.47460991 -0.27492401 15329520
0.76852947 -0.46742079 -0.27466837 15198449
0.77203852 -0.46284485 -0.27454072 15461620
0.7761429 -0.45917839 -0.27556068 15001068
0.7853871 -0.45677513 -0.2751109 14672614
0.79436004 -0.45199117 -0.27480751 12633026
0.78783339 -0.73317528 -0.26531309 9538972
0.79100001 -0.73766541 -0.26483881 9539225
0.778 -0.72098756 -0.26139224 9078427
0.78325003 -0.72768641 -0.26682186 9801631
0.7743001 -0.71647269 -0.26558763 11643582
0.76683336 -0.70704883 -0.26482055 13091541
0.75716668 -0.69459081 -0.26502803 13552859
0.7610001 -0.69988877 -0.26458931 13618396
0.74900001 -0.68052369 -0.26699239 14144995
0.75133336 -0.68552905 -0.26454985 13881824
0.74889982 -0.67482245 -0.26634261 14079203
0.75000006 -0.67455548 -0.26222789 13948131
0.74900001 -0.66759223 -0.26721156 14276582
0.75000006 -0.66466486 -0.2644518 14211046
0.75017649 -0.65496463 -0.26532009 14277096
0.75276935 -0.64518505 -0.26473379 14408426
0.7558108 -0.63495463 -0.26510531 14605805
0.75702637 -0.62478507 -0.26479438 14540268
0.75754541 -0.61465007 -0.26524392 14408937
0.75793093 -0.60479939 -0.26441136 14342887
0.75875002 -0.59536695 -0.26450545 14408680
0.75900012 -0.58522052 -0.26478231 14211301
0.75899994 -0.57595563 -0.26512077 14211299
0.76000011 -0.57205462 -0.26434046 14277091
0.75900006 -0.56320751 -0.26478234 14540522
0.76000017 -0.56642067 -0.26513121 14343143
0.75900012 -0.55501437 -0.26478231 14540523
0.759 -0.54524177 -0.26478234 14935535
0.75900012 -0.53546917 -0.26478237 15000816
0.759 -0.52776963 -0.26404199 14868973
0.76011121 -0.52359897 -0.26566455 14803178
0.76115131 -0.51519811 -0.26531836 15197935
0.76199991 -0.50536317 -0.26432633 15461107
0.76351619 -0.49520725 -0.26463005 15066350
0.76400012 -0.48481506 -0.26467943 14869226
0.76545465 -0.47461325 -0.26524463 15000813
0.76766664 -0.4675 -0.2642132 15198961
0.7725001 -0.46323252 -0.26512092 15330546
0.77642107 -0.45816627 -0.26435536 14935789
0.78576916 -0.45557848 -0.26527303 14475491
0.79491997 -0.45238504 -0.26510179 12435391
0.78833342 -0.73240918 -0.25563496 9342619
0.79260004 -0.73822862 -0.25609025 9277081
0.78342861 -0.72601837 -0.2549555 9473695
0.7741819 -0.71481466 -0.25425884 10657715
0.76614285 -0.70487577 -0.25445777 13421276
0.77000004 -0.70996863 -0.25780424 13355227
0.75709999 -0.6932897 -0.25578621 13881568
0.76050001 -0.69809401 -0.25417876 13815776
0.75220829 -0.68410033 -0.2547048 13881824
0.75042868 -0.67495787 -0.25551572 13947874
0.75022578 -0.66522181 -0.25543153 14079460
0.75002861 -0.65543455 -0.2556324 14079716
0.75105405 -0.64502287 -0.25497764 14276840
0.75428206 -0.6357066 -0.25485158 14605548
0.75616157 -0.62531596 -0.25505605 14737131
0.75620711 -0.61478001 -0.25483501 14605801
0.75642872 -0.60480291 -0.25522217 14540009
0.75751609 -0.5952577 -0.25534254 14474985
0.75848585 -0.58479786 -0.25501624 14606058
0.75882882 -0.57450563 -0.25482613 14540008
0.76000005 -0.57264775 -0.25979367 14605800
0.75893342 -0.56473738 -0.25498775 14211299
0.75900024 -0.55501437 -0.25500977 14540521
0.75900012 -0.54524189 -0.25500977 14935279
0.75900024 -0.53546929 -0.2550098 14869485
0.75900018 -0.52519691 -0.25450996 14934763
0.76000005 -0.52238607 -0.25934887 14803178
0.75899994 -0.51534915 -0.25276262 15132142
0.76000017 -0.51482457 -0.25801447 15132142
0.75900006 -0.50773084 -0.25194967 15066349
0.76050001 -0.50366431 -0.25521758 15132142
0.76169986 -0.49457628 -0.2550264 15000812
0.76215369 -0.48485389 -0.25531551 14803946
0.76203209 -0.47462219 -0.2551969 14804204
0.76568013 -0.46657494 -0.25449395 15264753
0.77176476 -0.46269193 -0.25531334 15198960
0.77548146 -0.45729497 -0.25493217 14738663
0.78575003 -0.45546436 -0.2550717 14408669
0.79495841 -0.45335543 -0.25468054 12303549
0.78800005 -0.73025483 -0.24353892 9605278
0.79066664 -0.73457694 -0.24528581 9473946
0.77900004 -0.72009063 -0.248052 9341856
0.78314292 -0.72444665 -0.24465838 9473439
0.77437502 -0.71377838 -0.24454318 10394544
0.76600003 -0.70314407 -0.24346828 12960213
0.77033335 -0.70847255 -0.24529153 13026007
0.75820005 -0.69305485 -0.24533597 13882078
0.76128578 -0.69760692 -0.24495937 13552858
0.75410712 -0.68447286 -0.24472685 13750237
0.75244457 -0.67453611 -0.24533476 13816031
0.75208855 -0.66528225 -0.24564151 13882337
0.75130308 -0.65478206 -0.24546684 13882337
0.75096965 -0.6447944 -0.24551897 14210789
0.75270599 -0.635351 -0.2449159 14408167
0.75512183 -0.62540835 -0.24476218 14606057
0.75585741 -0.61477399 -0.24523367 14606056
0.75583893 -0.60507184 -0.24495873 14540520
0.75616693 -0.59542662 -0.24520758 14540263
0.75691175 -0.58543336 -0.24513648 14606056
0.75737929 -0.57495207 -0.24459249 14540264
0.7578333 -0.56480515 -0.24486086 14474728
0.75873339 -0.55481815 -0.24515158 14671594
0.75899988 -0.54564565 -0.24531794 14934765
0.76000011 -0.54141343 -0.24476954 14803435
0.759 -0.53235978 -0.24494106 14672106
0.76000017 -0.53733802 -0.24583404 14803436
0.75892597 -0.52525085 -0.24541092 14803692
0.75824994 -0.51509678 -0.24480574 14935277
0.75888473 -0.50580066 -0.24485867 15197935
0.76000005 -0.50192559 -0.24778426 15197935
0.75900006 -0.49904415 -0.24168353 15263728
0.76074284 -0.49530357 -0.24524176 15066349
0.76119983 -0.48521662 -0.24493106 15000555
0.76071417 -0.47447601 -0.24502932 14935019
0.76434988 -0.46524018 -0.24486217 15330033
0.77099997 -0.46082571 -0.24501319 15264239
0.77491301 -0.45760357 -0.24509367 14606308
0.78518182 -0.45642787 -0.24491787 14343392
0.79473341 -0.4532555 -0.24499699 11383476
0.78866673 -0.73087257 -0.23820531 9473435
0.79200006 -0.73519903 -0.2342684 9473688
0.78570002 -0.72554958 -0.23380999 9407643
0.77536374 -0.71359569 -0.23534113 10789299
0.78100002 -0.71828264 -0.23040546 9736609
0.76733333 -0.70331866 -0.23445559 12894929
0.77200007 -0.70819819 -0.23226735 12697293
0.75814283 -0.69168311 -0.23456275 13158356
0.76140004 -0.69669181 -0.23531607 13027027
0.75580764 -0.68477064 -0.23433544 13421784
0.75462502 -0.67494535 -0.23489752 13355993
0.75422215 -0.66506088 -0.23500776 13487834
0.75409532 -0.65499282 -0.23456761 13750749
0.75394744 -0.64481485 -0.23463209 13816542
0.75392318 -0.63526934 -0.23517224 14013664
0.75419348 -0.62562609 -0.23462732 14277092
0.75413322 -0.61501116 -0.23483816 14211301
0.75435698 -0.60491276 -0.23509757 14343142
0.75586122 -0.59533143 -0.23463842 14408934
0.75730765 -0.58521008 -0.23473388 14540520
0.75736368 -0.57469082 -0.23519707 14211812
0.75783324 -0.56480515 -0.23510188 14277091
0.7582857 -0.55461746 -0.23537004 14408420
0.75880671 -0.54527479 -0.2352623 14474728
0.7584849 -0.53524059 -0.23538743 14606313
0.75759369 -0.52505583 -0.23480935 14540777
0.7569142 -0.5146327 -0.23494644 14803691
0.75791895 -0.50470859 -0.23501086 14934763
0.75899994 -0.49564499 -0.23395814 15197934
0.76000011 -0.49280733 -0.23733161 15198189
0.759 -0.48482946 -0.23215324 15066347
0.76000017 -0.48480105 -0.2368868 15066604
0.75899994 -0.47493005 -0.233307 14935018
0.76000011 -0.4747932 -0.23793527 15000556
0.75900006 -0.46883798 -0.23191094 14803176
0.76325589 -0.46396962 -0.23497322 15264240
0.77083331 -0.46020707 -0.23552561 14212319
0.77509093 -0.45790642 -0.23501116 14409184
0.7858181 -0.45696583 -0.23508392 14408924
0.79419243 -0.45345604 -0.23486724 11054251
0.78744453 -0.72318435 -0.2263623 9407896
0.79150003 -0.72627223 -0.22293973 9408151
0.77700001 -0.71217865 -0.22740567 10394538
0.78462505 -0.71610314 -0.22343381 10066087
0.76900005 -0.70184565 -0.22686532 12894671
0.77383333 -0.7051999 -0.22436202 11710912
0.78000003 -0.70823306 -0.22098051 11120059
0.75900006 -0.69094205 -0.22924569 13355479
0.764 -0.69446814 -0.22512408 12632011
0.77100003 -0.69645125 -0.22023565 11843012
0.75838882 -0.6839745 -0.22649495 13026513
0.76100004 -0.68612313 -0.2220744 12566219
0.75803572 -0.67472637 -0.22502245 13092562
0.76000005 -0.67761898 -0.22065185 12368584
0.75800008 -0.66518801 -0.22450411 12829391
0.75823706 -0.65474498 -0.22457476 12632525
0.75834614 -0.64473468 -0.22556356 12895697
0.76000005 -0.64559388 -0.22065184 12237769
0.75812507 -0.63512725 -0.2245415 13224918
0.75688565 -0.62467283 -0.22460337 13488089
0.75586843 -0.61465502 -0.22475405 13619418
0.75579488 -0.60486346 -0.22473282 13751774
0.75695121 -0.59528488 -0.22473317 13751261
0.75862867 -0.5853135 -0.2250728 14146275
0.76000005 -0.58243322 -0.22065185 13685213
0.75885743 -0.57457811 -0.22463357 13620445
0.75880641 -0.56481463 -0.22488849 13554651
0.75885743 -0.5550366 -0.22463349 14014432
0.75841939 -0.54499716 -0.22477369 14211810
0.75741386 -0.53535998 -0.22448589 14080226
0.75623357 -0.52466571 -0.22486855 14211810
0.7567355 -0.51438379 -0.22413051 14343395
0.75762153 -0.50451189 -0.22451401 14540517
0.75883347 -0.49449247 -0.2247541 14672359
0.75900012 -0.48482952 -0.2248036 14737896
0.75900018 -0.4754608 -0.22493826 14737639
0.76000005 -0.47123489 -0.22361715 14803431
0.75900006 -0.46883798 -0.22569202 14935274
0.76278424 -0.46387619 -0.22499186 14869992
0.77116674 -0.46010551 -0.22479557 15330031
0.77527273 -0.45801276 -0.22508483 14080220
0.78590465 -0.45697707 -0.22519156 14212573
0.79520011 -0.45364612 -0.22515903 10659494
0.78833342 -0.71395415 -0.21841943 9474719
0.79511768 -0.71515989 -0.21408509 9277592
0.77700007 -0.70277941 -0.21921992 10462130
0.7853334 -0.70525551 -0.21620269 9738659
0.79345453 -0.70541346 -0.21212205 8816528
0.76900005 -0.69284439 -0.21966435 11645633
0.77460003 -0.69426131 -0.2169072 10791350
0.7856667 -0.69544029 -0.21292414 9409435
0.79166669 -0.69720381 -0.21069305 7236982
0.7651819 -0.68369925 -0.21791629 11580096
0.77461541 -0.68436742 -0.21387021 11054775
0.78471434 -0.68731689 -0.21128955 8883348
0.76309532 -0.67441672 -0.21660814 11514301
0.77333337 -0.67486888 -0.21199732 10726067
0.78100002 -0.67988765 -0.21029378 9212825
0.75900006 -0.66073591 -0.2185847 11711678
0.76242316 -0.66501343 -0.21523617 11251385
0.77200001 -0.66572863 -0.21088099 10660273
0.76174998 -0.65485305 -0.21505982 11449020
0.77100009 -0.65402848 -0.21075806 10331052
0.76262844 -0.64491248 -0.21497893 11382714
0.77245462 -0.64499182 -0.21078587 10791603
0.75900006 -0.63052976 -0.2185847 13487837
0.76357579 -0.63540417 -0.21507001 11908803
0.773 -0.63492054 -0.21085292 10922162
0.75900006 -0.62519932 -0.2185847 13356249
0.76357692 -0.62531602 -0.21466702 12238537
0.77228582 -0.62581098 -0.2107867 11383481
0.75900012 -0.61479205 -0.21833086 12961745
0.76339287 -0.61514944 -0.21383989 12041414
0.77000004 -0.61893815 -0.2109371 11186103
0.75875002 -0.60456675 -0.21762429 13488859
0.76284605 -0.60466522 -0.21260998 13028821
0.75900006 -0.59565943 -0.21791837 13356504
0.76296967 -0.59468871 -0.2130615 12831187
0.75900006 -0.5887742 -0.2185847 13684698
0.76209372 -0.58515102 -0.21450587 13553881
0.76096874 -0.57521415 -0.21491711 13422295
0.7608 -0.56510842 -0.21477526 13159379
0.76105881 -0.55499911 -0.21451068 13291478
0.75900006 -0.54346496 -0.2185847 14080481
0.76121432 -0.54549468 -0.21412674 13488857
0.7586922 -0.53504843 -0.21781233 13685722
0.7615217 -0.53519297 -0.21295224 13291478
0.75800008 -0.52500314 -0.21829507 13685722
0.76122737 -0.52505058 -0.21306735 13291478
0.75846678 -0.5150277 -0.21724625 13817308
0.76094455 -0.51536506 -0.21251228 13291477
0.75888884 -0.505189 -0.21677588 13882845
0.76100004 -0.5050745 -0.21192843 13553880
0.759 -0.49500588 -0.21777703 14474980
0.76079172 -0.49495223 -0.21308757 13751772
0.75900006 -0.48482949 -0.2185847 14409701
0.7605862 -0.48479915 -0.21382113 13751771
0.75900006 -0.47772217 -0.2185847 14475236
0.76053125 -0.47428975 -0.21407208 14014942
0.76420516 -0.46607825 -0.21544391 14212320
0.77150011 -0.46271032 -0.21455753 13357266
0.77540916 -0.45834205 -0.2151401 13357005
0.78559077 -0.45766982 -0.21495558 12961475
0.79470003 -0.45637226 -0.21518958 9540758
0.78750008 -0.68339396 -0.20866199 6449006
0.79460871 -0.68541867 -0.2043246 8093830
0.77800006 -0.67363501 -0.20948599 9673376
0.7855714 -0.67479938 -0.20771053 6580078
0.79550016 -0.67487961 -0.203087 7895937
0.77533334 -0.66345632 -0.20916854 10198950
0.78521436 -0.66516227 -0.20735286 6316906
0.79500008 -0.66574401 -0.20359609 7500923
0.77518183 -0.65551829 -0.20921941 9804965
0.78494453 -0.65513521 -0.20787951 6580592
0.79433334 -0.65521884 -0.20457971 6579824
0.77716666 -0.64471078 -0.2092616 10988466
0.78647059 -0.64522189 -0.20797174 7631996
0.79446667 -0.6451031 -0.20486245 6185578
0.77740002 -0.63489729 -0.20932443 10724526
0.78606665 -0.63522035 -0.20797296 8554381
0.77514297 -0.6237222 -0.20923369 10922930
0.7853334 -0.62481678 -0.2071639 8225416
0.77471429 -0.61469334 -0.20846786 10659245
0.78550011 -0.61484057 -0.20598318 9541533
0.77389473 -0.60437214 -0.20789713 11120567
0.78584617 -0.60513288 -0.20480035 9804451
0.7921111 -0.60487759 -0.20153914 5725027
0.77355009 -0.59443808 -0.20710194 11646655
0.78619999 -0.59508115 -0.20297661 8818325
0.79100007 -0.5978567 -0.20064066 5527904
0.76757145 -0.58322966 -0.2092434 12698571
0.77380955 -0.58520269 -0.2057627 11778496
0.78458339 -0.58473539 -0.20176427 10660785
0.76630002 -0.57470208 -0.20848563 12698058
0.77336383 -0.5750587 -0.20411624 11449788
0.78380001 -0.57406223 -0.20095325 10923443
0.76590919 -0.56511539 -0.20728417 12238790
0.77337492 -0.56439191 -0.20291865 11318201
0.78290009 -0.56423891 -0.20072238 10265513
0.76638103 -0.55515277 -0.20797764 12436425
0.77370852 -0.55459154 -0.20326622 11515580
0.782875 -0.55528432 -0.20048738 10067621
0.76737505 -0.54496926 -0.20841934 12634062
0.77348006 -0.54491818 -0.20369768 11186616
0.78275001 -0.54534906 -0.20045517 10396843
0.76721424 -0.53459132 -0.20876062 12436682
0.77417248 -0.53538394 -0.20325743 11120821
0.78433329 -0.53497881 -0.20017451 10331044
0.76693332 -0.52520633 -0.20829892 12568010
0.77371454 -0.52494782 -0.20301792 11120307
0.78440005 -0.52492756 -0.20019153 9607324
0.76639998 -0.5149411 -0.20743427 12172995
0.77456516 -0.51494837 -0.20240456 11054770
0.78400004 -0.51823473 -0.20008942 10397097
0.76577783 -0.50479096 -0.20768534 12699341
0.77354169 -0.5055812 -0.20291965 11318456
0.76563162 -0.49528885 -0.20728207 12830926
0.77243757 -0.49544612 -0.20244762 11712956
0.76515388 -0.4851054 -0.20636494 12502474
0.77268773 -0.48475087 -0.20228611 11449785
0.76545465 -0.47501746 -0.20765114 13160403
0.77366674 -0.47493631 -0.20287827 12107202
0.76750004 -0.4695949 -0.20935211 12962767
0.77405006 -0.46517199 -0.20533399 12370113
0.78538096 -0.46341234 -0.2032427 12106941
0.79384613 -0.4611935 -0.20245537 8685966
0.77633333 -0.45924821 -0.20782422 11974579
0.78500003 -0.45952821 -0.20805971 11711409
0.79541677 -0.45904991 -0.20703048 9277844
0.78900003 -0.58433998 -0.19951846 7239034
0.79547375 -0.58574438 -0.19712956 6514798
0.78880006 -0.57588309 -0.19946788 7371134
0.79421425 -0.57517922 -0.19711228 6382956
0.78800005 -0.56515211 -0.19926558 9146775
0.79442114 -0.56538993 -0.19627972 6448749
0.78854555 -0.55488658 -0.19839603 6909556
0.79488236 -0.55503118 -0.19552827 6646128
0.78845459 -0.54475474 -0.19854094 7699071
0.78800005 -0.53471416 -0.19926558 10002079
0.79473919 -0.53506947 -0.19618693 6449517
0.78822231 -0.52440816 -0.19850087 7173241
0.79556525 -0.52486145 -0.19444905 7370619
0.78676927 -0.51475072 -0.19866712 7897221
0.79491299 -0.51521045 -0.19388458 7239034
0.78506672 -0.50515234 -0.19851896 8753298
0.79450011 -0.50504678 -0.19422217 6712947
0.77600002 -0.4947803 -0.19986433 11055025
0.78464699 -0.49493721 -0.19830365 9607580
0.79440004 -0.49534521 -0.19436635 6515055
0.77600002 -0.48569715 -0.19986433 10265511
0.78493744 -0.48531136 -0.19860074 10462632
0.7941364 -0.48537835 -0.19430152 6844276
0.7856667 -0.47518784 -0.19867058 10330277
0.79471993 -0.47496793 -0.19455725 7765378
0.78733343 -0.46790293 -0.19909465 8554380
0.79540902 -0.465929 -0.19690032 8751760
