# .PCD v0.7 - Point Cloud Data file format
VERSION 0.7
FIELDS x y z rgb
SIZE 4 4 4 4
TYPE F F F U
COUNT 1 1 1 1
WIDTH 1117
HEIGHT 1
VIEWPOINT 0 0 0 1 0 0 0
POINTS 1117
DATA ascii
0.77560008 -0.10506038 0.099828131 15330793
0.7845 -0.10477258 0.097409308 13422281
0.77600002 -0.096030027 0.099879615 15593964
0.7853334 -0.094852909 0.09727487 13224902
0.7930001 -0.094768554 0.092898071 12698554
0.78568745 -0.085271366 0.097557463 13356487
0.78600001 -0.075647831 0.097942747 13816782
0.78613341 -0.064524606 0.09786728 13027522
0.78620005 -0.054958947 0.098429359 12369078
0.79340911 -0.054954413 0.093588188 12500919
0.78766674 -0.045843668 0.098921597 12237235
0.78800005 -0.034794472 0.099579424 11974577
0.7881667 -0.024654692 0.099600486 11251626
0.78800005 -0.01450253 0.099579424 11185836
0.78800005 -0.0058938265 0.099579424 10857383
0.78866673 0.0048719514 0.099663667 11054504
0.78900003 0.012261483 0.099705793 11317419
0.78900003 0.065826312 0.099705793 11251883
0.78871435 0.073848061 0.099141955 11514028
0.79232001 0.074969023 0.094628811 11448234
0.78705555 -0.14387412 0.10580122 11447979
0.79077774 -0.14887111 0.10383864 11448231
0.76800001 -0.13099806 0.10873722 15263462
0.77564293 -0.13411967 0.10618634 13948118
0.78446156 -0.13635185 0.10266037 13224137
0.76561546 -0.1243887 0.10777705 15724782
0.7742632 -0.12510075 0.10365649 15132389
0.78160006 -0.12600215 0.1006004 15263972
0.76335007 -0.11438899 0.10673352 15790576
0.77455562 -0.11529083 0.10190413 15461610
0.76238096 -0.1047973 0.10602485 15921904
0.77172732 -0.10502773 0.10211994 15658734
0.76273924 -0.095084988 0.10631914 15921903
0.77233338 -0.094667763 0.10181541 15724782
0.76408684 -0.084910281 0.10627185 16053747
0.7741251 -0.085262977 0.10155966 15922160
0.76400012 -0.075126387 0.10650446 16053491
0.77433336 -0.074977137 0.10147365 15527402
0.76362509 -0.065002479 0.10632508 15856367
0.77446675 -0.065019064 0.10149108 15658733
0.7630477 -0.054872219 0.10611612 15856367
0.77511752 -0.055360079 0.10168252 15329766
0.78000003 -0.050875176 0.10039446 15658728
0.76252174 -0.045077045 0.1062871 15921906
0.77440012 -0.045070797 0.10239136 15790318
0.78200006 -0.045145124 0.10065188 15724008
0.75900006 -0.0352908 0.10835253 15658734
0.76300007 -0.035479292 0.10560081 15592942
0.77413344 -0.03454629 0.10289712 15593454
0.78320003 -0.034581594 0.10080634 15396328
0.75862497 -0.027059022 0.10896444 15395563
0.76191664 -0.024871742 0.1063877 15724785
0.77413338 -0.025120415 0.10325796 15199467
0.78400004 -0.025443872 0.10090931 14739685
0.76222223 -0.014919777 0.1070236 14935525
0.77394444 -0.015150602 0.10323387 14870502
0.78300005 -0.015327018 0.1007806 14147549
0.76259995 -0.0051081353 0.10707697 14869733
0.77400005 -0.0051846625 0.10324109 14673379
0.78333336 -0.0058571007 0.10082349 13029068
0.76400006 0.0047205091 0.10727216 14738404
0.77480006 0.0042399107 0.10371144 14804965
0.78366673 0.0057544569 0.10147507 13686483
0.76362503 0.015329361 0.10744312 14804453
0.77390915 0.014580693 0.10438425 14673379
0.78440011 0.014943969 0.10187589 13159370
0.76300001 0.024503803 0.10757941 14672867
0.77331257 0.025141951 0.10473456 14476002
0.78527278 0.025157051 0.10190547 12829635
0.79200006 0.028067837 0.1000849 11316649
0.76166672 0.035017468 0.1078397 14672611
0.77312505 0.034977384 0.10504724 14541538
0.78540003 0.035188716 0.10200578 10791336
0.79200006 0.031776011 0.1000849 11316649
0.76290005 0.044898055 0.10801337 14475746
0.77447069 0.04493773 0.1050101 14475489
0.78600007 0.044917818 0.10216825 10791078
0.76475006 0.054853719 0.10827481 15067628
0.77450007 0.054984026 0.10523419 14541538
0.78655559 0.054263886 0.10225891 10726054
0.79200006 0.052170962 0.1000849 11383212
0.76612502 0.064141564 0.10869458 14803942
0.77447379 0.065233581 0.105403 14738145
0.78490919 0.065065756 0.10202613 10857125
0.76716667 0.074784562 0.10951837 15066601
0.77434999 0.074665114 0.10627723 14869475
0.7849167 0.075438775 0.10209595 11514028
0.76900005 0.083960384 0.1097801 14935014
0.77512503 0.08473929 0.10736067 14869733
0.78592855 0.085148759 0.10391225 12764098
0.79271442 0.086949356 0.10096877 11579821
0.77650005 0.094096497 0.10834968 14935013
0.7860834 0.095639013 0.10623443 12961480
0.78680003 0.10266785 0.10863407 12500414
0.77900004 -0.14108077 0.11485497 10723743
0.78626674 -0.14528514 0.11420774 10658206
0.79200006 -0.14992444 0.11213646 10855840
0.76372725 -0.13254622 0.11552305 15066080
0.77254546 -0.1365431 0.1137371 13815758
0.75825006 -0.12427757 0.11667567 15986926
0.76086676 -0.12586372 0.11218032 15987441
0.7570312 -0.11467317 0.11531942 16185074
0.76000005 -0.11806887 0.11027446 16382710
0.75690478 -0.10518384 0.1151335 16053488
0.75777429 -0.094804019 0.11509834 16053232
0.76000005 -0.094050027 0.11027446 15921902
0.75782609 -0.085142031 0.11558684 16184817
0.76000011 -0.084391654 0.11078279 16185074
0.75800008 -0.075170375 0.11619321 15987439
0.76050013 -0.075418286 0.11123659 16119281
0.75817251 -0.064384915 0.11545411 15987696
0.76000011 -0.065329082 0.11052863 15856366
0.75803435 -0.054644227 0.11457547 15790574
0.76000005 -0.058466557 0.11027446 16053745
0.75788885 -0.044997148 0.11439995 15856112
0.7577334 -0.035231981 0.1143776 15592941
0.75751501 -0.02522568 0.11474825 15263976
0.75805718 -0.014964983 0.11455306 15066854
0.76000005 -0.010428865 0.11027446 15132392
0.75839996 -0.005080624 0.11536659 14737632
0.76000005 -0.0050913431 0.11027446 15000806
0.75825006 0.004429345 0.11559724 14606046
0.76000011 0.0055836993 0.11071925 14869220
0.75808334 0.015330005 0.11620591 14672096
0.76016682 0.015372135 0.11118823 14803940
0.75816 0.025377816 0.11525857 14540509
0.76000005 0.023731273 0.11063029 14541025
0.75777781 0.03483738 0.11438306 14671840
0.7578826 0.045279793 0.11466026 14737891
0.76000005 0.048283868 0.11027446 14869990
0.75810003 0.054907165 0.11611947 15198186
0.76036376 0.055589244 0.11129768 15001577
0.75838894 0.065048143 0.11714152 14935013
0.76111126 0.065281838 0.11221565 15001063
0.75866663 0.07483995 0.11718442 15198185
0.76133329 0.075103 0.11224788 15066600
0.75869232 0.083723396 0.11773516 15264235
0.76156527 0.085436031 0.11313349 15395565
0.7630384 0.094579212 0.11579164 15856630
0.77222228 0.096064359 0.11124361 16053495
0.76600003 0.10111732 0.11831498 15922679
0.77405572 0.10454568 0.11563006 14540769
0.7852 0.10723396 0.11245281 12237497
0.77600002 0.11106579 0.11986253 16381430
0.78754544 0.11338948 0.11661568 11842736
0.77900004 -0.1419926 0.12853238 10197141
0.7876364 -0.14641815 0.12484391 10526105
0.75900006 -0.13123977 0.12167877 14473686
0.76166672 -0.13269319 0.125967 14078928
0.77181822 -0.13789347 0.12512873 12565689
0.75696981 -0.12509204 0.12465566 15658217
0.75403446 -0.11516585 0.1252946 16184048
0.75320011 -0.10466997 0.12515619 15921645
0.75358069 -0.094848201 0.12419268 16053231
0.75445718 -0.085287854 0.12460604 15724526
0.75611126 -0.074981682 0.12475362 15790319
0.75657582 -0.064804718 0.12458932 15724269
0.7553637 -0.055057336 0.12487146 15395561
0.75513893 -0.044832412 0.12459344 15461098
0.75656688 -0.03517719 0.12482948 15329512
0.75630575 -0.025428571 0.12478692 15198183
0.75658345 -0.014809691 0.12483229 14671839
0.75686663 -0.0050708978 0.12487987 14408666
0.75602782 0.0046679205 0.1247392 14013652
0.75494438 0.015266269 0.12455828 14342874
0.7541334 0.024959655 0.12442492 14211031
0.75383329 0.034656815 0.12437724 14277081
0.75461113 0.045292579 0.12450562 14408667
0.75489998 0.055029113 0.12455237 14606047
0.75508344 0.064764015 0.12458122 14803170
0.75480562 0.075342081 0.12453432 14868963
0.75576669 0.085171886 0.12469329 15132906
0.75830424 0.094178773 0.12662125 15396335
0.7603001 0.096537963 0.12277664 15988472
0.75900006 0.10152532 0.12967452 15329512
0.76263332 0.10463271 0.12499209 16316408
0.77100009 0.10794438 0.12149601 16579838
0.76666671 0.11272332 0.12799138 16579578
0.77420008 0.1147982 0.12489846 14803166
0.78442866 0.11699831 0.12168615 12171187
0.77700007 0.12030376 0.12820122 11579564
0.78733325 0.12487575 0.12611409 11908527
0.79109097 0.12619047 0.12202389 11908784
0.78900003 0.13139705 0.12925881 11908784
0.79138738 0.13526091 0.12462537 11842991
0.79153347 0.14479062 0.12503901 11842991
0.79251409 0.15504235 0.12532701 11908784
0.77900004 -0.1419926 0.13309151 10197142
0.78718185 -0.14616631 0.13499013 10525850
0.79200006 -0.14992444 0.13160437 10394520
0.75900006 -0.13123977 0.13678186 14605533
0.76250005 -0.13318519 0.13428822 13421258
0.77020007 -0.13678248 0.13519366 12828863
0.75673336 -0.12553635 0.13548635 15066339
0.75319457 -0.11525079 0.13485233 15789290
0.75181264 -0.10502729 0.13438483 15855595
0.75161779 -0.095392697 0.13477807 15789803
0.7527501 -0.085220948 0.13477333 15724012
0.75488895 -0.0748588 0.13515632 15592684
0.75566667 -0.065209851 0.13529508 15592684
0.75444436 -0.055391736 0.13507642 15592681
0.75499994 -0.044824459 0.13517636 15263717
0.75583363 -0.035143249 0.13532558 15066596
0.75600034 -0.025417354 0.13535629 14935011
0.75625026 -0.014802128 0.13540119 14671838
0.75676668 -0.0050706961 0.13549377 14145494
0.75450003 0.0046564359 0.1350874 13619150
0.75286126 0.015224235 0.13479421 13750994
0.75253356 0.024907323 0.13473657 13619408
0.75294465 0.034616016 0.13480952 13882580
0.75288916 0.045187723 0.13479769 13947860
0.75280017 0.054875016 0.13478117 14013653
0.75219458 0.064514868 0.1346726 14342617
0.75116688 0.074979275 0.13448735 14342617
0.75203341 0.084751301 0.13464294 14803168
0.75586104 0.094916776 0.13532691 15526636
0.75849992 0.1036296 0.1357037 15921650
0.7603001 0.10792889 0.13327728 16250614
0.76322728 0.11346693 0.13486065 16382195
0.77275008 0.11919392 0.13383067 13092546
0.77680004 0.12318362 0.13562317 11908784
0.78492862 0.12731001 0.13410188 11842991
0.78900003 0.13192479 0.13453613 11777198
0.79050004 0.13658279 0.13515992 11777198
0.79239988 0.1449507 0.13538352 11777198
0.78672731 -0.14625031 0.14495713 10328470
0.75775003 -0.13146783 0.14542641 14144468
0.76354545 -0.13495326 0.14442016 13749709
0.77000004 -0.13854954 0.14957969 13157060
0.7548148 -0.12502277 0.14525288 14868959
0.75205576 -0.11507518 0.14521284 15461094
0.75266683 -0.10459485 0.14533278 15592423
0.75213343 -0.094838686 0.14523014 15657960
0.75205582 -0.085141838 0.14521356 15789804
0.75378108 -0.074970923 0.14499447 15198183
0.753923 -0.064923435 0.14489488 15329767
0.75358325 -0.055326007 0.14550711 15395558
0.75366664 -0.044746712 0.14552309 15395046
0.75389284 -0.035241455 0.14525162 15066339
0.75573349 -0.025407298 0.14503875 15000546
0.75636691 -0.014804936 0.14516135 14671838
0.75656009 -0.0050693275 0.145197 14211289
0.75440001 0.0046557784 0.14478295 13684944
0.75277793 0.015222909 0.14535327 13553359
0.75317872 0.024803592 0.14511569 13553359
0.75343335 0.03463719 0.14459866 13816531
0.75266689 0.045414031 0.14493203 13816531
0.75134379 0.055097666 0.14496845 13618895
0.75179422 0.064741246 0.14526954 13882323
0.75094455 0.074955009 0.14500166 14276826
0.75086659 0.084618218 0.14498383 14605790
0.75341177 0.094399929 0.14521456 15197928
0.75772429 0.10502772 0.14468583 15395563
0.76314288 0.11340163 0.14467132 15790577
0.77228582 0.11905883 0.14588813 11908275
0.77740008 0.1229146 0.14555654 11842991
0.78725004 0.12834382 0.14555559 11842991
0.79000002 0.12971419 0.14976607 11842991
0.78900003 0.13139705 0.14034118 11842991
0.79281825 0.13557988 0.14465135 11842991
0.76900005 -0.14016984 0.15838665 12696762
0.77700007 -0.14344701 0.15548576 9933454
0.78466672 -0.14649801 0.15467151 10328213
0.79124999 -0.14978246 0.15463182 10262419
0.75718743 -0.13247919 0.15551005 14078673
0.7641111 -0.1372938 0.15479158 13486279
0.75371426 -0.12522405 0.15466988 15197667
0.75127786 -0.11495592 0.15561484 15329252
0.75231445 -0.10467083 0.15570192 15395558
0.7520324 -0.094995879 0.15591146 15329765
0.75187516 -0.085341372 0.15518843 15329767
0.7535882 -0.074523672 0.15458934 15461095
0.75396538 -0.065184414 0.15455982 15132386
0.75306684 -0.055289149 0.15510516 15198181
0.75306684 -0.044710707 0.15510498 15066340
0.75392586 -0.034857884 0.15489045 15000547
0.75541657 -0.025396148 0.15470438 14803423
0.75658345 -0.014809885 0.15494218 14672093
0.75603366 -0.0050648474 0.15483083 14342872
0.7545554 0.0046577542 0.15452825 13948115
0.75313348 0.015229512 0.15511885 13619151
0.75329638 0.02506417 0.1547593 13487565
0.75388873 0.034659568 0.15439129 13882323
0.75418168 0.045025639 0.15485391 13750482
0.75364 0.05493629 0.15522407 13355722
0.75316685 0.064599246 0.15512615 13618894
0.75243348 0.075103633 0.15497509 13750735
0.75188005 0.084732011 0.15486215 14474203
0.75446874 0.094962783 0.15506431 15132133
0.75792313 0.10438652 0.15494567 15526889
0.76000005 0.10877577 0.15653296 15592937
0.76337498 0.11294914 0.15510494 15724784
0.77177787 0.11849377 0.15494263 11514033
0.77900004 0.12243708 0.15315168 11777199
0.78649998 0.12619779 0.15462501 11842991
0.79100001 0.12987837 0.15180738 11842991
0.78737509 -0.15158455 0.16654602 10131347
0.76800007 -0.14178547 0.16716863 11644589
0.7753334 -0.14526263 0.16483313 10525850
0.78375006 -0.14836273 0.16233528 10262675
0.75645465 -0.13321684 0.16554137 14341589
0.76225007 -0.1384944 0.16413094 13551817
0.7528668 -0.12489446 0.16475619 15263203
0.75023341 -0.11479648 0.16505902 15592167
0.75004005 -0.10510829 0.16501653 15592168
0.7500667 -0.095454976 0.16502228 15395302
0.75152946 -0.084874406 0.16472222 15461351
0.75336123 -0.074709512 0.16486444 15395301
0.75396651 -0.065062471 0.16499788 15132133
0.75366664 -0.055333778 0.16493355 15132133
0.75319457 -0.044718519 0.16483016 15066340
0.75399983 -0.035058316 0.16500537 14803425
0.75480533 -0.02537632 0.16518144 14737632
0.75544447 -0.014786586 0.16532031 14540253
0.75559998 -0.0050628036 0.16535459 14408411
0.75491643 0.0046612527 0.16520706 14211031
0.75338894 0.01523377 0.16487223 13816273
0.75273359 0.024913786 0.16472819 13684944
0.75336117 0.034636315 0.16486591 13948372
0.75488883 0.045310292 0.1652016 14408924
0.75456655 0.055002868 0.1651306 13882323
0.75341672 0.064619757 0.16487795 13289928
0.75291687 0.075153738 0.16476817 13619148
0.75266677 0.084820874 0.16471322 14408663
0.75529414 0.094638012 0.16502874 15197926
0.75850004 0.10382704 0.16480646 15066339
0.76062506 0.10842043 0.16556489 15197924
0.76328576 0.11244135 0.16435532 15263717
0.77157146 0.11714164 0.16562565 12566716
0.77900004 0.12243708 0.16318178 11777198
0.78762501 0.12656006 0.16683279 11777199
0.79100001 0.12987837 0.16847309 11842991
0.78716677 -0.15238954 0.17441674 10197397
0.79293752 -0.15741321 0.17480212 10065811
0.76666671 -0.14153932 0.17495531 12104883
0.77500004 -0.14610316 0.17232479 10000018
0.78200006 -0.14986214 0.17570962 10131603
0.75595248 -0.13349651 0.17491172 14341847
0.76066667 -0.13865088 0.17536645 13355208
0.7525 -0.12483411 0.17524663 15328742
0.75122213 -0.11494689 0.17495126 15394535
0.75033337 -0.10515044 0.17474322 15525865
0.74900001 -0.092688769 0.1783769 15526891
0.75000006 -0.095775388 0.17417079 15395048
0.74900001 -0.08830522 0.17881526 16250614
0.75041181 -0.084750421 0.17450067 15658475
0.75260025 -0.074759088 0.17514321 15395303
0.75395989 -0.06506186 0.17470451 15197925
0.75399983 -0.055357277 0.17471361 14869218
0.75383866 -0.044841778 0.17484678 15131620
0.7541998 -0.035066679 0.17475992 15000290
0.75459987 -0.025370207 0.17485271 14539996
0.75533324 -0.014785215 0.17502357 14277081
0.75508004 -0.0050602555 0.17496328 14342619
0.75454545 0.0047402298 0.17531875 14145239
0.75453317 0.015258448 0.17483768 13553101
0.75400001 0.024954993 0.17471565 13619151
0.75513339 0.034718197 0.17497845 13882323
0.75653344 0.04540766 0.17530206 14145495
0.75624013 0.055125255 0.17523409 14013909
0.7543999 0.064704053 0.17480734 13684945
0.75252962 0.075320557 0.17499492 13487565
0.75265527 0.084699072 0.17513169 14079958
0.75659376 0.095230475 0.17498317 15001061
0.75884616 0.10273485 0.17406058 14935525
0.76093751 0.1070187 0.17587632 15001061
0.76587498 0.11208378 0.17432824 15790063
0.77369237 0.11672941 0.17565361 13487819
0.78620005 0.12412401 0.17499563 11777200
0.79100007 0.12765674 0.17588055 11777198
0.78714287 -0.15242858 0.18476376 10000273
0.76550007 -0.14132394 0.18544041 13158343
0.77219999 -0.14473145 0.18615754 10131864
0.78140002 -0.14974716 0.18654807 10000274
0.75520843 -0.13323876 0.18471718 14473947
0.76000005 -0.13852938 0.18499975 13421515
0.75182152 -0.12453304 0.18533294 15263720
0.75091666 -0.11489972 0.18542288 15394792
0.75026679 -0.10514108 0.18526416 15394535
0.74900001 -0.094182439 0.1844652 15526377
0.75000006 -0.09886016 0.18666233 15591914
0.74899989 -0.086405672 0.18553673 15724270
0.75000006 -0.081692696 0.18402869 15526891
0.7519412 -0.074667983 0.18510669 15526377
0.7544331 -0.065101713 0.18452665 15065827
0.75433308 -0.055382922 0.18450306 14868705
0.75357151 -0.044666186 0.18444195 14803168
0.75346667 -0.035033129 0.18428999 14606046
0.75461096 -0.025368121 0.18457177 14408667
0.75597256 -0.014798055 0.18490401 14277081
0.75443321 -0.0050563137 0.18452737 14211289
0.75330305 0.0045726928 0.18465258 14079702
0.75411093 0.015251886 0.18444894 13685198
0.75503331 0.024990687 0.18467437 13421771
0.75625026 0.034768928 0.18497242 13553358
0.75700003 0.045435056 0.18515556 13816530
0.75700003 0.055181868 0.18515556 13816788
0.75622237 0.064860098 0.18496749 13750994
0.75443751 0.075083055 0.18508343 13816531
0.75461543 0.085177831 0.18525396 13882325
0.7576471 0.094931476 0.18505377 14672097
0.75900006 0.10152532 0.18209109 15921907
0.76195836 0.10594057 0.18547529 15132391
0.76866674 0.11181566 0.18471141 15592942
0.77358836 0.11551886 0.18543015 13487564
0.7852 0.12268045 0.18451193 11842735
0.79211116 0.12759 0.18416151 11776941
0.78659999 -0.15258512 0.19515809 10065809
0.76600003 -0.14141624 0.19542637 12829377
0.77477777 -0.14646946 0.19443701 10658206
0.78000003 -0.14947885 0.19808513 10197140
0.75590914 -0.13320255 0.19510397 14539483
0.76083344 -0.13868126 0.19499977 13881808
0.74900001 -0.12124451 0.19710097 15329512
0.75154555 -0.12563553 0.19445667 15197412
0.74900001 -0.11470398 0.19660927 15461098
0.75000006 -0.11446696 0.19231981 15658477
0.74900001 -0.10693532 0.1983221 15263974
0.75000006 -0.10457615 0.19415358 15460841
0.74900001 -0.092438281 0.1940951 15132134
0.75000006 -0.09604314 0.1954177 15329512
0.74899983 -0.084638961 0.19491488 15658478
0.75000006 -0.085384287 0.19634154 15592684
0.74900001 -0.078661397 0.19459607 15658479
0.75059384 -0.074049301 0.19451433 15461355
0.75293338 -0.064972028 0.19473489 15263720
0.7539165 -0.055350155 0.19499069 14868961
0.7543332 -0.044787154 0.1951015 14671582
0.75406659 -0.035061102 0.19503215 14539996
0.75552785 -0.025399497 0.19540875 14211031
0.75600034 -0.014798502 0.19552983 13882324
0.75584632 -0.0051998347 0.19481061 13816788
0.7561667 0.0046713343 0.19469054 13882838
0.75603247 0.015430851 0.19482619 13685714
0.75580019 0.025015676 0.19547911 13619664
0.7565456 0.034541398 0.19526826 14013908
0.75700003 0.045435049 0.19490235 14013908
0.75685191 0.055302169 0.19525731 13948373
0.75679415 0.064702593 0.19547412 14014165
0.75639415 0.075634524 0.19522952 14145238
0.75642872 0.08505559 0.19532456 14211288
0.75831252 0.095444813 0.19490744 15263462
0.7613793 0.10529028 0.19498409 14934496
0.76833344 0.11176717 0.19511957 15921645
0.77423531 0.11636059 0.19507469 11842735
0.78561115 0.12419902 0.19532247 11711405
0.79016668 0.12943332 0.19542527 11711148
0.79178798 0.13545772 0.19497743 11711148
0.78662503 -0.15305172 0.20551991 9999761
0.7639091 -0.14168294 0.20594296 13026241
0.7748 -0.14721653 0.20474091 10131347
0.78000003 -0.14947885 0.20082413 9670795
0.75546157 -0.13417116 0.20491138 14539482
0.76000005 -0.13852938 0.20190191 13289412
0.74899989 -0.12261386 0.2055842 15197156
0.75066668 -0.12722215 0.20440051 15328742
0.74886674 -0.11458585 0.20508024 15460583
0.74899989 -0.10510885 0.20526272 14933983
0.75000006 -0.10217661 0.20070843 15329508
0.74899995 -0.094846837 0.20558874 15592427
0.75000006 -0.097640879 0.20122053 15460840
0.7489655 -0.084885113 0.2052279 15657964
0.75000006 -0.082277946 0.20100106 15395305
0.74900001 -0.078076921 0.20803899 15855856
0.75036359 -0.074065469 0.20426583 15658477
0.75250024 -0.064934477 0.2051948 15592684
0.75399995 -0.055354241 0.20472097 15197926
0.75593358 -0.044881303 0.205246 14737632
0.7558403 -0.035143685 0.20522109 14606046
0.75570023 -0.025406919 0.20518117 14606046
0.75566685 -0.014792445 0.20517203 14342874
0.75606906 -0.0049414989 0.20454739 14079703
0.7569167 0.0046754912 0.20462626 14145496
0.75677145 0.015176212 0.20471339 13882322
0.75572008 0.025012763 0.20518699 14013909
0.7565456 0.035024498 0.20492856 14145495
0.75700003 0.045435052 0.2046492 14211288
0.75689286 0.055047147 0.20493694 14211545
0.75631273 0.065090887 0.20501609 14342874
0.7561518 0.075342089 0.20482111 14342617
0.75592613 0.085385174 0.20484915 14277081
0.75786126 0.095166616 0.20488116 15132133
0.75900006 0.10152533 0.20785515 15000547
0.76183993 0.10583474 0.20485154 15132388
0.76800001 0.11171868 0.20492892 15000800
0.77387506 0.11608657 0.20502128 11579820
0.77900004 0.12061343 0.20603761 11646382
0.78620833 0.12549543 0.20517997 11580332
0.79000002 0.12971419 0.20154938 11579819
0.7902801 0.13531139 0.20532167 11514539
0.7921924 0.14491153 0.20489174 11580332
0.77900004 -0.15111086 0.21515588 9868176
0.78454554 -0.15319213 0.21467657 9933969
0.79272729 -0.15850002 0.21472727 9868176
0.76250005 -0.14166528 0.21506019 13289157
0.7728889 -0.14711282 0.21568134 9999508
0.75457698 -0.13448863 0.21506657 14210004
0.74899989 -0.12260009 0.21419317 15329253
0.7501334 -0.12701444 0.21526034 14934752
0.74900007 -0.11500508 0.21457444 15197410
0.75000006 -0.11037016 0.21709557 15263202
0.74899989 -0.10474355 0.214176 15131874
0.75000006 -0.10598076 0.2173882 15132129
0.74877787 -0.095291667 0.21469623 15132131
0.74808311 -0.084694169 0.21449743 15460842
0.74899983 -0.076557294 0.21511114 15855856
0.75009096 -0.072230704 0.21403523 15855856
0.74900001 -0.069894277 0.21914399 15658479
0.75150007 -0.065670349 0.21520051 15658477
0.75422204 -0.055371523 0.21449097 15592684
0.75522202 -0.044839602 0.21477446 15197926
0.7543999 -0.03507809 0.2145405 14737374
0.75323069 -0.025121663 0.2146814 14474460
0.75276196 -0.014734892 0.21495315 14474460
0.75321889 -0.0052100052 0.21458912 14869218
0.75511116 0.0046662567 0.2147416 14606046
0.75541663 0.015275655 0.21482851 14145495
0.75469983 0.024978956 0.2146257 13948116
0.75580561 0.034748502 0.21494058 14079702
0.756639 0.045413539 0.21517789 14014166
0.75666678 0.055157576 0.21518578 14080215
0.75591689 0.064834729 0.21497315 14474716
0.75447202 0.075308613 0.21456175 14540252
0.75456655 0.085035786 0.21458925 14605789
0.75694126 0.094842397 0.21500447 15197926
0.75900006 0.10152532 0.21496251 14868962
0.76195455 0.10638443 0.21490765 15197925
0.76875007 0.11182778 0.21322501 13948116
0.77483344 0.11589202 0.21400099 11579821
0.78250003 0.11932349 0.21887094 11448747
0.78652942 0.12438434 0.21409462 11448747
0.79000002 0.12823465 0.21597473 11580332
0.78440005 -0.15307979 0.22490926 9868176
0.79230005 -0.15814507 0.22457767 9802895
0.75900006 -0.14012393 0.2265119 12762555
0.76310009 -0.1421333 0.22451437 13091777
0.77287501 -0.14675824 0.22476925 10131093
0.75360715 -0.13447054 0.22496288 14276309
0.74869221 -0.12386259 0.22592889 15263971
0.75011116 -0.12833719 0.22395656 15066593
0.74877793 -0.11457256 0.22521295 15197668
0.7486552 -0.1049144 0.22532679 15000547
0.75000006 -0.10510287 0.22119235 15132386
0.7481665 -0.095213898 0.22502913 15263975
0.74752772 -0.084631532 0.22483648 15527148
0.74839985 -0.075093336 0.22509925 15724270
0.74899995 -0.068680368 0.22602281 15790063
0.75044006 -0.063703232 0.22483355 15855856
0.75221062 -0.055408195 0.22480576 15592682
0.75350004 -0.044736825 0.2248688 15000802
0.7530002 -0.035012599 0.22472037 14606043
0.75128573 -0.025285913 0.22493577 14276824
0.75027776 -0.014686944 0.22566396 14145239
0.74900001 -0.004140941 0.22966452 14606818
0.75055182 -0.0049666166 0.2245032 14540253
0.74900001 0.00024261526 0.22966452 15001576
0.75207716 0.0045797173 0.22491539 14803425
0.75283337 0.015224359 0.22466868 14606046
0.7530334 0.024924494 0.22472808 14145495
0.75349993 0.034641232 0.22486874 14145495
0.75416654 0.045266233 0.22506696 13948116
0.7544331 0.054994471 0.22514677 13882323
0.75480539 0.064740509 0.22525991 14013911
0.75413877 0.075274684 0.22506268 14342875
0.75417221 0.084869355 0.22491968 14605791
0.75734383 0.095324516 0.22479886 15132134
0.75900006 0.10152532 0.22118141 15066595
0.7622 0.10481407 0.22514439 14869473
0.76900005 0.11006391 0.22319539 15592935
0.77300006 0.11199684 0.22616597 12632252
0.7856667 0.11858046 0.22680604 11514026
0.78866673 0.12149444 0.22459678 11448490
0.77900004 -0.15111086 0.23703973 9933709
0.78511119 -0.15352534 0.23399846 9802380
0.79100001 -0.15714213 0.23513594 9802380
0.75900006 -0.14012393 0.23894973 13354694
0.76510006 -0.14394131 0.23549268 12038831
0.77350003 -0.14793277 0.23325415 9933710
0.75320005 -0.13532251 0.23461661 14144210
0.74803215 -0.12431671 0.23512883 15131874
0.75000006 -0.12968357 0.23699421 15197924
0.74769682 -0.11480536 0.23515138 15066594
0.74715137 -0.10518098 0.2354573 14934752
0.74702764 -0.095067963 0.23518045 15066594
0.74699986 -0.08457195 0.23517185 15263976
0.74733323 -0.074986227 0.23527612 15527149
0.74848372 -0.065945148 0.23623119 15724527
0.75000006 -0.062613398 0.23242922 15790061
0.74900001 -0.059373748 0.23843162 16119285
0.75036365 -0.054742921 0.23460658 15987697
0.7525003 -0.044676166 0.23514043 15263976
0.75296688 -0.035010431 0.23528773 14671582
0.75123537 -0.025467234 0.23500623 14013652
0.74878252 -0.013019221 0.2356941 13882324
0.75000006 -0.018095035 0.23426302 13816274
0.74803317 -0.0050118011 0.2354947 14145754
0.74812502 0.0042385962 0.23601656 14540255
0.75033337 0.0078548677 0.23153651 14737634
0.74886662 0.014151028 0.23757057 14671839
0.75043488 0.015519648 0.23270041 14606046
0.74900001 0.022686424 0.23773026 14474460
0.75032008 0.025256069 0.23372166 14474460
0.7519446 0.034573168 0.23496638 14474461
0.75338715 0.045077104 0.23470737 14342618
0.75399989 0.054963194 0.23472793 14145240
0.75483316 0.064744167 0.2349873 13948118
0.75509983 0.075371295 0.23507042 14079961
0.75550014 0.085276797 0.2349911 14803170
0.75786114 0.095166549 0.2350435 14935013
0.76304549 0.10491576 0.2347777 14934755
0.77484614 0.11229931 0.23549773 11447724
0.78500003 0.11786702 0.23519006 11579819
0.78860009 0.12025368 0.23626721 11579819
0.77900004 -0.15111086 0.24342251 9736590
0.78450006 -0.15332924 0.24513678 9736590
0.79049999 -0.1570428 0.24516369 9802383
0.75900006 -0.14012393 0.24516864 13354696
0.76350003 -0.14244555 0.24513333 12762814
0.77100003 -0.14594916 0.24543777 11512744
0.74900001 -0.13126406 0.24895218 14540249
0.7530418 -0.13476785 0.24500281 14341845
0.74748266 -0.12466452 0.2449474 15197667
0.75000006 -0.12968357 0.24226151 14736859
0.74699992 -0.1151749 0.24478999 15197666
0.74666667 -0.10550997 0.24555323 14934752
0.74655563 -0.095008098 0.2455164 14869218
0.74622232 -0.084484138 0.24540731 15132390
0.74633342 -0.074886754 0.24544357 15395562
0.74680549 -0.065318115 0.24559861 15658734
0.74806887 -0.055736266 0.24537911 15856115
0.75000006 -0.052649438 0.24160311 16185080
0.74883336 -0.047673393 0.24772781 16316666
0.7507 -0.043924894 0.24447788 15461099
0.75288481 -0.03514152 0.24515864 14474202
0.75218195 -0.025052119 0.24520753 13816273
0.74830759 -0.013706653 0.24440882 13421515
0.75000006 -0.01863152 0.24577302 13421515
0.74687994 -0.0050038253 0.24475032 13816530
0.7469666 0.0046141967 0.24477857 14145495
0.74788225 0.015330804 0.24445893 14145495
0.7484287 0.024522049 0.24463053 14211545
0.75000006 0.028335158 0.24138363 14737632
0.74900001 0.030050797 0.24719875 14079959
0.75151628 0.034753051 0.2448508 14474460
0.75414264 0.045390222 0.24460948 14342875
0.75399983 0.054963198 0.24443616 14211289
0.75408095 0.064797446 0.24462685 14211289
0.75364292 0.07522615 0.24519832 14408412
0.75441933 0.084906302 0.24476869 14803170
0.75780004 0.094626807 0.24495739 15132134
0.76000005 0.099879913 0.24816042 15526632
0.76238096 0.10436383 0.24447291 14803424
0.77000004 0.10840445 0.24872182 12105655
0.77375001 0.11119792 0.24223351 11381927
0.78649998 0.11778752 0.24454351 11579819
0.78900003 0.12031468 0.24192967 11514026
0.77733332 -0.15078756 0.25836727 9736337
0.78445458 -0.15350886 0.25455904 9736335
0.79242861 -0.15822423 0.25543788 9670798
0.75900006 -0.14101234 0.25494123 13157573
0.76370007 -0.14349744 0.25544503 12697022
0.77100009 -0.14594917 0.25265312 11118246
0.7482143 -0.13262881 0.25594682 14671065
0.75264704 -0.13719404 0.25441086 14473687
0.74705541 -0.1248026 0.25442666 15263202
0.74663329 -0.11511932 0.25428209 15197666
0.74550027 -0.10534505 0.25564066 14868959
0.74563915 -0.094890766 0.25568846 14803168
0.74558103 -0.085115477 0.2555277 14934754
0.74517173 -0.075517729 0.25565335 15132133
0.74541694 -0.065196894 0.25561213 15592684
0.74612832 -0.054844931 0.25484735 15724270
0.74792302 -0.045817893 0.25499088 15987700
0.75000006 -0.040841926 0.25472742 16250101
0.75263339 -0.034991883 0.25491497 15328998
0.75197238 -0.025285937 0.25521806 14210773
0.74803841 -0.013230345 0.25503132 13619151
0.75000006 -0.018368153 0.25472745 13947859
0.74686658 -0.0050039082 0.25436237 13948116
0.74641675 0.0046107676 0.25420794 14013652
0.74672216 0.015100905 0.25431204 13750737
0.74712104 0.025205843 0.25468686 14013910
0.74838096 0.033446968 0.25558633 14474460
0.75114298 0.037422687 0.25330386 14474460
0.75312185 0.045182768 0.25547513 14606047
0.74900001 0.058105558 0.2594727 14408669
0.75251418 0.055003583 0.25524753 14474461
0.74864286 0.065338686 0.25772077 14671582
0.75154179 0.0641663 0.25272629 14408668
0.74880004 0.072639927 0.2580007 14868962
0.75030768 0.075704403 0.25438488 14737377
0.75303453 0.084986344 0.25485122 15000549
0.75750011 0.094424598 0.25475341 15197927
0.76000005 0.099879913 0.25171876 15197411
0.7633571 0.10275091 0.25499803 14934752
0.77214295 0.10819111 0.25561064 11776944
0.77600002 0.11106579 0.25792643 11184804
0.78800005 0.11647274 0.25822553 11514026
0.79079998 0.11873788 0.25544149 11514026
0.77550006 -0.15043193 0.26411319 9341579
0.78558344 -0.15514971 0.26478457 9539214
0.75900006 -0.14190076 0.26471382 12762814
0.76400006 -0.14462408 0.26466861 12763326
0.7713334 -0.14781797 0.26540306 9210248
0.74804538 -0.13348652 0.26542982 14803167
0.75328577 -0.13856731 0.2647368 14210261
0.74636114 -0.12468694 0.26467156 15395561
0.74563348 -0.11496489 0.26441413 15263718
0.74473536 -0.10503249 0.26558328 15132132
0.74444479 -0.094739169 0.26573527 15066340
0.74466681 -0.085179403 0.26581472 14934754
0.74444449 -0.075569093 0.2657353 15263718
0.74427795 -0.065097585 0.26567608 15263462
0.74472982 -0.054604646 0.26538923 15592941
0.74660611 -0.044721812 0.2645196 15921651
0.74787492 -0.035794012 0.26681343 15658478
0.75069231 -0.033957668 0.26195017 15395305
0.7480799 -0.024555802 0.26671731 14473946
0.75042862 -0.026862232 0.26222536 14671323
0.74736094 -0.01463118 0.265026 13948116
0.74626672 -0.0050003552 0.26463857 14277081
0.74566692 0.004605324 0.26442617 14474460
0.74558371 0.015077906 0.26439643 14211289
0.7459169 0.025562651 0.26451454 14014168
0.74689996 0.035212919 0.26486355 14342876
0.7477777 0.044881787 0.26517308 14342877
0.75100005 0.045953982 0.26016557 14803427
0.74752778 0.055365894 0.2650851 14539998
0.74736649 0.0649774 0.26502889 14539997
0.74824136 0.073692694 0.26549149 14869220
0.75000006 0.078959674 0.26450118 14869477
0.75282139 0.084653616 0.26488671 15001319
0.75734484 0.094092928 0.26486981 15264748
0.76353848 0.10158677 0.26422936 15263978
0.77278572 0.10724889 0.26525578 12829378
0.77816671 0.11137589 0.26502547 11316393
0.78664291 0.11601279 0.26475233 11382440
0.79000002 0.11861777 0.26442915 11382440
0.77600002 -0.15052892 0.27609271 9210763
0.78520006 -0.15507407 0.27476802 9605006
0.79200006 -0.15919489 0.27529606 9473934
0.75900006 -0.14190076 0.27715161 13553103
0.76388884 -0.14401001 0.27416947 12434878
0.74633336 -0.13341935 0.27514526 14474204
0.75483328 -0.13935469 0.27474326 13882068
0.74484855 -0.12483062 0.27436072 15461098
0.744394 -0.11524832 0.27466816 15592684
0.74400002 -0.10535061 0.27483043 15460841
0.74400002 -0.094682604 0.27515781 15066340
0.74400008 -0.085103147 0.27515778 15066340
0.7438333 -0.075507447 0.27509546 15263719
0.74272227 -0.064962238 0.2755526 15000804
0.7434001 -0.054651655 0.27538061 15263976
0.74470025 -0.045085412 0.27454337 15790322
0.74583358 -0.035549775 0.27496123 15263977
0.74630558 -0.025092684 0.27513504 14605789
0.745 -0.014584867 0.27465278 13948117
0.74374282 -0.0049829688 0.27505836 14342876
0.74408317 0.004596292 0.27431604 14408669
0.74427772 0.015051145 0.2743879 14145496
0.74461126 0.025517425 0.27451068 13750739
0.74540025 0.035141893 0.27480152 13684945
0.74605572 0.044778556 0.2750434 13158602
0.74638897 0.055282354 0.27516606 13816275
0.74683326 0.064931341 0.2753306 13948117
0.7480666 0.074147239 0.27543479 14277083
0.75000006 0.079252295 0.27210951 14803171
0.74900001 0.080900043 0.27876034 14737634
0.75193334 0.084917568 0.27474397 15263978
0.75669998 0.094136633 0.27506879 15198184
0.76000005 0.099879913 0.27929598 15986672
0.76299995 0.10125058 0.2745508 15790322
0.77264714 0.10697246 0.27489769 12500669
0.77900004 0.11149516 0.27533644 11382441
0.7865715 0.11587046 0.2751177 11316647
0.79000002 0.11861777 0.27275145 11316647
0.78900003 0.12031468 0.27887091 11250854
0.7762 -0.15056771 0.28525028 9079437
0.7856667 -0.15516588 0.28504607 9408143
0.79200006 -0.15919489 0.28549355 9408142
0.75900006 -0.14190076 0.2807053 14013911
0.7641111 -0.1438536 0.28557438 11908792
0.77266669 -0.14807349 0.28455564 9013643
0.74552381 -0.13290079 0.28494486 14013911
0.75442857 -0.13877831 0.28607148 13224138
0.74416673 -0.12519147 0.28480095 15198182
0.74292105 -0.11523518 0.28464213 15658219
0.74258327 -0.1049319 0.28419322 15461352
0.74336106 -0.094600938 0.28449157 15197923
0.74303335 -0.084992573 0.28436628 14935009
0.74210012 -0.075158603 0.2846154 15066340
0.74111092 -0.064821512 0.28536546 14934498
0.73900002 -0.055121019 0.28887868 15790063
0.74127018 -0.054209948 0.28497994 14934499
0.74333328 -0.045001652 0.2844803 15329771
0.74463886 -0.035493527 0.28498039 15263721
0.74494469 -0.025046963 0.285097 14539741
0.74299991 -0.014363892 0.28467208 13882067
0.74172425 -0.0048494376 0.28545153 14211289
0.74252784 0.0045873993 0.28417191 14342875
0.7436111 0.015038639 0.28458706 14211546
0.7439999 0.025495894 0.28473717 14211803
0.74490017 0.035118245 0.2850818 14408668
0.7450003 0.044714808 0.28511992 14079703
0.74519467 0.055193465 0.28519323 13553359
0.74573356 0.064836174 0.28539991 13684688
0.7475428 0.074695945 0.28476635 14408411
0.74900001 0.081401028 0.28652552 14342619
0.75086957 0.085537098 0.28465191 15197929
0.75578588 0.093962446 0.28501225 15197928
0.76310003 0.10118298 0.28490001 14670814
0.77363646 0.10727449 0.28496763 11381672
0.77900004 0.11149517 0.28171921 11382183
0.78610009 0.11573739 0.28520375 11316647
0.7889998 0.12422192 0.2861881 11250854
0.79012501 0.12672941 0.28181177 11382440
0.78900003 0.13139705 0.28625917 11316649
0.79135716 0.13576148 0.28439835 11250855
0.78600007 -0.15410876 0.29477826 9211019
0.75900006 -0.14012393 0.29491997 12500669
0.77440006 -0.14768277 0.29401609 9210765
0.78100002 -0.14967048 0.29981166 9408142
0.74438894 -0.13219897 0.29534042 14408154
0.75060004 -0.13681598 0.29516849 13092551
0.74323338 -0.12503448 0.29488155 15197924
0.7424413 -0.11554728 0.29482505 15526889
0.74197227 -0.104846 0.29438284 15066341
0.74212122 -0.0948385 0.2942031 14868962
0.73900002 -0.08539623 0.29839376 14671582
0.74111408 -0.085268892 0.29470864 14671839
0.74143744 -0.075479768 0.29471323 14539996
0.74103326 -0.06481529 0.29487887 14276824
0.73900002 -0.055553522 0.29277119 15132391
0.74065375 -0.05417534 0.29492706 14671841
0.74260008 -0.044957496 0.29463163 15263978
0.74297225 -0.035415124 0.29477665 15000548
0.7425676 -0.024849616 0.29477921 14276569
0.73900002 -0.012669177 0.29752874 13947860
0.74107391 -0.015631709 0.29360652 13684945
0.73900002 -0.0051978054 0.2976523 13882324
0.74052942 -0.0049614576 0.29294246 14145495
0.73900002 0.00023937608 0.29839376 14080474
0.74141657 0.0046290471 0.29420927 14145495
0.74266684 0.015020256 0.29465878 14079703
0.74388885 0.025493063 0.29514363 14145496
0.74480021 0.035113759 0.29550475 14408924
0.7450003 0.044714808 0.29558432 14474715
0.74502969 0.055027489 0.29533949 14342871
0.7456001 0.064824775 0.29495022 14408408
0.74708557 0.074697949 0.29478687 14671581
0.74808335 0.08357466 0.29563805 15395050
0.75055557 0.088096589 0.29417539 15131876
0.75570369 0.094145618 0.29501307 15854825
0.76000005 0.098100737 0.29352936 16776699
0.76375002 0.10126954 0.29497239 11577767
0.77519995 0.10732676 0.29576433 11118756
0.78711766 0.11493758 0.29500449 11250597
0.79000002 0.11861777 0.29771841 11119011
0.78900003 0.12031468 0.29180035 11382183
0.79095846 0.12508835 0.295073 11250598
0.78750008 -0.15245418 0.30476341 9210763
0.75900006 -0.14012393 0.30025047 12237243
0.7615 -0.14236815 0.30747825 11710898
0.77500004 -0.14743537 0.30802894 9144972
0.78166676 -0.14979826 0.30433607 9276299
0.74500018 -0.13318278 0.30473903 14145239
0.75600004 -0.13931924 0.30487913 12303035
0.74272001 -0.12494742 0.30424348 15001062
0.74323326 -0.11546446 0.30445465 15198183
0.74256665 -0.10493117 0.30418146 15066597
0.7416923 -0.095056824 0.30402449 14869218
0.74117231 -0.085496709 0.30522802 14935011
0.74252778 -0.075372212 0.30503577 14540254
0.74277771 -0.064967744 0.30513823 14408925
0.74255538 -0.054515809 0.30504736 14606047
0.74286658 -0.044975676 0.30517361 15132392
0.74138886 -0.035340786 0.3045657 14803427
0.74111408 -0.025040664 0.30457789 14145754
0.73900002 -0.01298286 0.30271879 13948887
0.74068749 -0.015800003 0.30666232 13619922
0.73873097 -0.0047494201 0.30460489 14080473
0.74000001 -0.0084220665 0.30832547 13883093
0.73900002 0.001681053 0.30416048 14212060
0.74113649 0.0064714323 0.30453917 14277853
0.742778 0.015022308 0.30513433 14212060
0.74355549 0.025481706 0.30545372 14212060
0.74410015 0.035080291 0.30567834 14409439
0.74461788 0.044487949 0.30563414 14343133
0.74515653 0.055354718 0.30491281 14211290
0.74560016 0.064823888 0.30454794 14145494
0.7456947 0.074433684 0.30458584 14211029
0.74638879 0.084988967 0.30486926 14802654
0.75000006 0.08978688 0.30020171 14605789
0.74833339 0.091923296 0.30800045 15328999
0.75440747 0.095881984 0.30457726 15722983
0.76000005 0.099879913 0.30064604 12890026
0.75900006 0.10152532 0.3082462 10917260
0.76376486 0.10406039 0.30549595 10850436
0.77316672 0.10794702 0.30358672 10788502
0.77580005 0.1117657 0.30834633 10920086
0.78615791 0.11543077 0.3047919 11053218
0.79000002 0.11861777 0.30234194 11119011
0.78640002 -0.15328492 0.31568614 9079434
0.76366669 -0.14218016 0.31759092 12236984
0.77366668 -0.14766377 0.31430161 9210765
0.74700004 -0.1335396 0.31080374 13882324
0.75542861 -0.13542564 0.31576419 13947860
0.74516672 -0.12448573 0.31047824 15198955
0.75491673 -0.12522468 0.3171961 15396334
0.74580008 -0.11498896 0.31074208 15264746
0.75442857 -0.11581662 0.3163572 15527920
0.74633336 -0.10546301 0.31096432 15198953
0.75549996 -0.10454246 0.3172186 15396333
0.74666673 -0.094729871 0.31188169 15133160
0.755 -0.096455537 0.31760827 15198955
0.74580002 -0.085311398 0.31248802 15462127
0.75266665 -0.085220911 0.31712714 15133163
0.7458182 -0.075310946 0.31329095 15067368
0.75300002 -0.072913483 0.31903034 11448754
0.74546158 -0.064864762 0.31342232 14738403
0.75000006 -0.06559819 0.31775934 12501442
0.74550009 -0.054734077 0.31411064 14606817
0.75000006 -0.050674204 0.31951511 14013911
0.74495006 -0.045102928 0.31475061 15001319
0.74329185 -0.035430785 0.31404892 14869733
0.74388003 -0.024834156 0.31447279 14277596
0.74346662 -0.014555192 0.31499481 13948632
0.74169558 -0.0050455658 0.31454617 14080216
0.74099988 0.00479367 0.31427282 14146265
0.74133325 0.014991667 0.3149541 14080474
0.74211764 0.025229236 0.3150323 14146010
0.7440002 0.035076093 0.31521761 14343389
0.74462515 0.044911403 0.31515574 14474717
0.7450003 0.05517916 0.31476894 14408667
0.74500018 0.064771481 0.31476891 14145495
0.74533361 0.074397661 0.31491148 14277081
0.74603587 0.084698819 0.31408581 14737375
0.75000006 0.088031121 0.31951511 15198187
0.74783343 0.092154115 0.31334075 15263462
0.75333339 0.096853405 0.31466231 15591396
0.75830001 0.10214243 0.3150633 11114124
0.76361114 0.10711249 0.31498265 11639177
0.77452642 0.11372226 0.314787 10917769
0.78354549 0.11814875 0.31445679 11052958
0.7883637 0.12239926 0.31572452 10921888
0.79100001 0.12592956 0.3140192 10987682
0.78680003 -0.15391617 0.32414165 9671569
0.79110003 -0.15827398 0.32572746 9539981
0.76600003 -0.14141624 0.32095176 12697792
0.77460003 -0.14627481 0.32310042 10526623
0.78100002 -0.14875749 0.32814974 10066070
0.76000005 -0.13497102 0.32021695 14276824
0.77399999 -0.13202149 0.3297396 9539987
0.77400005 -0.1247737 0.3297396 9276815
0.76000005 -0.11362094 0.32021695 15396334
0.77400005 -0.11462679 0.3297396 8816780
0.76000005 -0.10739383 0.32021695 15527920
0.77280003 -0.10468207 0.32922834 8685451
0.76450008 -0.094825201 0.32457778 9409430
0.77050006 -0.098055616 0.3282485 8488071
0.76450002 -0.08834292 0.32480282 9672605
0.75779998 -0.074969575 0.32212967 11909307
0.76200002 -0.071107402 0.32641119 9474966
0.75625002 -0.06526082 0.32217771 11514036
0.76100004 -0.068341807 0.32598284 11053998
0.75450009 -0.05539107 0.32172835 12501442
0.76000005 -0.053129032 0.32555446 11908535
0.75550002 -0.043975938 0.32407105 11777463
0.74840003 -0.034797937 0.32058549 12764614
0.75800002 -0.035244301 0.32647222 11449010
0.76200002 -0.033646435 0.32997888 12567235
0.74860001 -0.026046207 0.32067114 14277340
0.75699997 -0.024821745 0.32629538 11645363
0.7610001 -0.024696266 0.32954586 11579570
0.74720001 -0.013753978 0.32182068 13751509
0.75571436 -0.015426653 0.32700577 11514290
0.74680001 -0.0050038504 0.32164839 13685715
0.75600004 -0.0050645461 0.32738063 12040891
0.74566668 0.004608314 0.32174358 14212058
0.7525 0.0028820762 0.32586497 13488335
0.74555564 0.015949212 0.32344142 13289930
0.75250006 0.013455285 0.32762659 11513775
0.74400008 0.02599437 0.3226836 13092808
0.75200003 0.02488842 0.32916936 12828608
0.7453571 0.03526574 0.32264876 13553360
0.75240004 0.035118796 0.32934445 13025987
0.74663639 0.045131397 0.32396328 13421772
0.75000006 0.041503385 0.32829392 13157573
0.74596155 0.055384312 0.32424524 13224393
0.7459501 0.064855598 0.32390341 12895428
0.7477501 0.072742753 0.32366344 13552846
0.75200009 0.076728031 0.32701874 12368572
0.74849999 0.081722751 0.32062829 14869221
0.75483328 0.084771641 0.32540604 13750996
0.76000005 0.089204863 0.32911283 13882323
0.75683331 0.09430024 0.32301813 12894915
0.76142853 0.095994949 0.32744059 12499899
0.76442862 0.1046861 0.32438478 10456965
0.77100003 0.10854524 0.32846153 9931130
0.77477282 0.11493754 0.32487217 10590092
0.78630441 0.12423105 0.32537395 10856096
0.79028571 0.12896816 0.32346192 10921891
0.78800011 -0.15233062 0.33254218 10066325
0.79186666 -0.15645143 0.33586833 10066325
0.77850008 -0.14372513 0.33074486 9868694
0.78650004 -0.14589205 0.33575693 10132119
0.79000002 -0.14954583 0.33840528 10132118
0.77550006 -0.13863203 0.33037859 9408401
0.78416675 -0.13497762 0.33621439 9473935
0.7845 -0.12554811 0.33651108 9408141
0.78581828 -0.11513849 0.33762121 9539982
0.77775002 -0.1044419 0.33315787 9145227
0.7856667 -0.10550021 0.33808362 9540237
0.77516669 -0.095020533 0.33205128 8816776
0.78400004 -0.0951842 0.33767048 9343115
0.77525008 -0.085497446 0.3325423 8620169
0.78275001 -0.08679077 0.3371321 9080460
0.77457142 -0.074355341 0.33386979 8553092
0.78166676 -0.074774869 0.3384954 9013644
0.77409995 -0.06498757 0.33431619 8947850
0.76850003 -0.052824285 0.33099461 12829380
0.77377778 -0.055902321 0.33447805 10658469
0.76600003 -0.041893713 0.33171105 12896200
0.77900004 -0.048986297 0.33916429 8487301
0.76333332 -0.037280042 0.3305563 12764614
0.77600002 -0.033356294 0.33967474 8355713
0.76300001 -0.028331997 0.33041194 11711926
0.77433342 -0.025129326 0.33864477 9013643
0.76099998 -0.012224101 0.33132738 12369858
0.7713334 -0.0045656245 0.33763203 12435649
0.75733334 0.017972283 0.3315039 12763328
0.76000005 0.014479568 0.33267117 12632256
0.75900006 0.026009928 0.33401027 12829379
0.75866669 0.034877207 0.33386359 13158600
0.76250005 0.038624465 0.33733553 13224394
0.75530005 0.04603637 0.33309183 13488078
0.76150006 0.044816718 0.33778563 12369087
0.75411111 0.054970514 0.3328439 13488335
0.7610001 0.0545827 0.33845344 12961478
0.75518185 0.065175086 0.33329833 13750992
0.76250005 0.065402195 0.33912054 13750736
0.75649995 0.074626677 0.33308965 13355976
0.76216668 0.075480171 0.33837888 14079698
0.75875002 0.081509531 0.33212399 12829637
0.76291674 0.085083477 0.33484372 12698564
0.77000004 0.088576026 0.338851 9409169
0.76719999 0.093642019 0.33330995 12237756
0.77311116 0.096576825 0.33720535 10132632
0.76800001 0.10093127 0.33077925 11117728
0.77400005 0.10560387 0.33453149 9603973
0.78000003 0.10798631 0.33959967 10987682
0.77700001 0.11323181 0.3330403 9999757
0.78322226 0.11760087 0.33631897 10790816
0.78760868 0.12555741 0.33497655 10725282
0.79000002 0.12971419 0.3374806 10791075
0.78900003 -0.096715242 0.34167105 9606029
0.78850007 -0.083733879 0.34145451 9343120
0.78800005 -0.074914247 0.34262276 9145994
0.78800005 -0.065232389 0.34308276 9342859
0.7856667 -0.054312292 0.34237468 8882571
0.78600001 -0.044368424 0.34474409 8882313
0.778 -0.038907371 0.34055021 8487299
0.78600007 -0.034708034 0.34589204 8947848
0.7906 -0.034910683 0.34976715 9145737
0.78525007 -0.024101302 0.34625405 8750468
0.79000002 -0.027485168 0.3495017 8882308
0.77700001 -0.014307105 0.34193149 8289661
0.78660005 -0.014477232 0.34799752 8750211
0.77700001 -0.0052033546 0.34193149 8224127
0.7876001 -0.0052748341 0.34843993 8355715
0.77500004 0.0047750548 0.34105134 8356482
0.78683335 0.0048541906 0.34810075 8158334
0.77750003 0.013901153 0.34397161 7960953
0.78300005 0.015530332 0.34762767 8158333
0.7753334 0.024751067 0.34482822 8159362
0.78200006 0.029544124 0.34962383 8488837
0.7751112 0.035129383 0.34553826 8356739
0.78000003 0.031294554 0.34872964 8488837
0.76700002 0.043338787 0.34112191 8816265
0.77428573 0.045820389 0.34721258 8750984
0.76900005 0.055156503 0.34381166 10066845
0.77400005 0.05460915 0.34785905 9014154
0.77322221 0.065413475 0.34690812 10330270
0.76600003 0.07914979 0.34067717 14672092
0.7726 0.074584842 0.34614664 11711923
0.76800001 0.082054473 0.34156668 14737632
0.77400005 0.085930638 0.34566185 11053480
0.77622223 0.092928961 0.34320655 10001559
0.78299999 0.097100765 0.34701589 10264731
0.778 0.101336 0.34055021 10527903
0.78507698 0.10543967 0.34577179 10462110
0.78700012 0.11417797 0.34480041 10593696
0.79033333 0.11805135 0.34903273 10659489
0.78842866 0.12207427 0.34247875 10725282
0.79126668 0.12597178 0.34574214 10659489
0.78833342 0.015633503 0.35122478 8487296
0.78571433 0.025482323 0.35181215 8554372
0.78666681 0.035856631 0.35385966 8817542
0.78500003 0.045276929 0.35495067 9080459
0.79050004 0.041893404 0.3589758 9146250
0.77880007 0.054948281 0.35183948 9277583
0.78620005 0.055470854 0.35702309 9277836
0.78427279 0.06501469 0.35515022 9211790
0.77900004 0.077757582 0.35192984 9540757
0.78500009 0.074373767 0.3558687 9474962
0.77900004 0.084140368 0.35147393 9738134
0.78509998 0.086084448 0.35671133 10132889
0.78676921 0.095750205 0.35544208 10330524
0.78878248 0.10518827 0.3542628 10462110
0.79000002 0.10937075 0.35782403 10593696
0.78900003 0.11107937 0.35090637 10659489
0.79121745 0.1150992 0.35559767 10593696
0.78900003 0.053820405 0.36014169 9212043
0.78900003 0.078755759 0.36014169 10001559
0.78900003 0.0846048 0.36075735 10264474
0.78900003 0.096533746 0.36198875 10527133
0.79133338 0.094732799 0.36676571 10592926
