# .PCD v0.7 - Point Cloud Data file format
VERSION 0.7
FIELDS x y z rgb
SIZE 4 4 4 4
TYPE F F F U
COUNT 1 1 1 1
WIDTH 1119
HEIGHT 1
VIEWPOINT 0 0 0 1 0 0 0
POINTS 1119
DATA ascii
0.78766674 -0.044922996 0.099537291 12040370
0.78766674 -0.03539427 0.099229455 11777970
0.78800005 -0.024648502 0.099579424 11382187
0.78800005 -0.01450253 0.099579424 11120297
0.78833342 -0.0058944984 0.099621542 11055016
0.78900003 0.00025557203 0.099705793 11055017
0.7925455 0.0053162989 0.099139102 11317161
0.77900004 -0.14016895 0.10938401 11578541
0.78741664 -0.14322163 0.10580108 11710381
0.79109091 -0.14722767 0.10367202 11644843
0.76700002 -0.1314268 0.10889527 15066593
0.77506655 -0.13377738 0.1058043 14276823
0.78433341 -0.13669415 0.10263208 13223365
0.76485723 -0.12483703 0.10752237 15724523
0.77431577 -0.12453506 0.10289923 15198436
0.78099996 -0.12773204 0.10052317 15329765
0.76386958 -0.11489908 0.10647511 15856109
0.77493757 -0.11494623 0.10155334 15527657
0.7632274 -0.10468092 0.10594385 15856109
0.77308345 -0.10592664 0.10176289 15593707
0.75900006 -0.093037866 0.10835253 16053488
0.76330763 -0.095144741 0.10531522 15921902
0.77300006 -0.094753981 0.10130309 15725550
0.75900006 -0.086818948 0.10835253 15790316
0.76385182 -0.084922105 0.1051277 16053746
0.77240002 -0.084735319 0.10122446 15922161
0.76386958 -0.075477473 0.1063199 16053489
0.77275008 -0.074067064 0.1018708 15593196
0.76608342 -0.065211102 0.10666782 15856110
0.77523082 -0.065503225 0.10187059 15527403
0.78166676 -0.061962482 0.10060897 15790573
0.76557148 -0.055054992 0.10646717 15790575
0.77450007 -0.055049241 0.10240448 15395560
0.78280002 -0.054721963 0.10075486 15461349
0.76343471 -0.045132834 0.10641418 15856112
0.77450007 -0.045077085 0.10240448 15724783
0.78220004 -0.045526173 0.10067762 15790571
0.76261902 -0.035120517 0.10631201 15592941
0.77400005 -0.03456641 0.10272487 15396590
0.78180009 -0.035981975 0.10062613 15396586
0.75900006 -0.02581436 0.10835252 15592941
0.76192862 -0.024851587 0.10647289 15527661
0.77400017 -0.025116224 0.10311163 15265259
0.78380001 -0.02543504 0.10088356 14607330
0.76176471 -0.014963669 0.10685594 15067110
0.77383351 -0.015148426 0.10321891 14870501
0.78300005 -0.014410509 0.10078059 14278621
0.76179999 -0.0051032454 0.10696543 14935524
0.77386677 -0.0051834569 0.10322236 14739171
0.78399998 -0.0058607869 0.10090929 12831687
0.76261115 0.0047121258 0.10707781 14803939
0.77415383 0.0044336221 0.10396063 14870758
0.7846365 0.0052645761 0.10182269 13883862
0.76370591 0.015179356 0.10733576 14738661
0.77450007 0.014755823 0.10421759 14804966
0.78540003 0.014963726 0.10200578 13356490
0.76366669 0.024527432 0.10767322 14672867
0.7743125 0.025175635 0.10486884 14541537
0.78663635 0.024868058 0.10208309 12961472
0.79299998 0.027176818 0.10021126 11250597
0.76349998 0.03510097 0.10809832 14738147
0.77425003 0.034233794 0.10554087 14607073
0.78566676 0.035349861 0.10280407 11778230
0.79333347 0.036160391 0.10056162 11119271
0.7639001 0.044955034 0.10815449 14672098
0.77349997 0.044614602 0.10589381 14869218
0.78458339 0.045254361 0.1034288 12369341
0.79233336 0.044568479 0.10094898 11053736
0.76441669 0.054828644 0.10822762 15001576
0.77346164 0.055684589 0.10567825 14672353
0.78600007 0.054846365 0.10331148 11317166
0.79250002 0.053364165 0.10107279 11119529
0.76560003 0.064773001 0.10839669 14738661
0.77337515 0.065086909 0.10485513 14672865
0.78475004 0.065008223 0.10238148 10856613
0.79250002 0.06426248 0.10014808 11382442
0.76800007 0.07319355 0.10912298 14936041
0.77322227 0.075068086 0.10625498 14804451
0.7858001 0.075858891 0.10260787 11909041
0.79150003 0.079003543 0.10094641 11645866
0.7748667 0.084178977 0.10783102 14804709
0.78609103 0.0849052 0.10485511 13619658
0.77683336 0.094213851 0.10877582 15001574
0.78600007 0.095016174 0.10668265 13619150
0.78720009 0.10271949 0.10868976 12500409
0.77750003 -0.14171919 0.11554329 10066072
0.78600007 -0.1456138 0.11555078 10592414
0.79075003 -0.14876312 0.11473855 10855841
0.75900006 -0.13123977 0.1181251 15394536
0.76400012 -0.13357171 0.11540727 14934241
0.77280003 -0.13760825 0.11375825 12434620
0.75881249 -0.12454642 0.11742941 15855854
0.76070005 -0.12565753 0.11251161 15921903
0.75857884 -0.11499766 0.11642287 16184818
0.7601667 -0.11527774 0.11133648 16053488
0.75821871 -0.10514608 0.11500596 16053232
0.76000005 -0.10650424 0.11027446 16185074
0.75794435 -0.094682962 0.11440919 15987695
0.75824147 -0.085078746 0.11460784 16119281
0.76000005 -0.081595816 0.11027446 16579832
0.75866657 -0.075786173 0.11659226 15790573
0.76040006 -0.074636139 0.11187477 15856366
0.75861114 -0.064575762 0.11717585 15922159
0.76088887 -0.064769328 0.1121834 15921902
0.75821066 -0.054592382 0.11636561 15790573
0.76054555 -0.055271529 0.11148601 15856366
0.75803453 -0.044852551 0.11543276 15790573
0.76000011 -0.045758169 0.11052861 15987952
0.75809997 -0.035249341 0.11443251 15658731
0.75788885 -0.025480859 0.11440097 15263976
0.75830567 -0.014843728 0.11446467 15132390
0.75820011 -0.0050797523 0.11444779 14803425
0.75805581 0.0046822336 0.11442596 14606559
0.758129 0.015188287 0.11515325 14737889
0.76000005 0.016258743 0.11027446 14737634
0.75790918 0.024842896 0.11577542 14540254
0.76000011 0.025821799 0.11094165 14671842
0.75758088 0.034686152 0.11541139 14671840
0.76000005 0.034940068 0.11027446 14671841
0.75794125 0.045282841 0.11466956 14869220
0.76000005 0.048283868 0.11027446 14606048
0.75847632 0.054867093 0.11597066 15198442
0.76020014 0.055771679 0.11119305 15001320
0.75862503 0.06462387 0.11739998 14803940
0.76100004 0.065629028 0.11255576 14935784
0.75854534 0.074666455 0.11781153 15067369
0.7617895 0.075242758 0.11306451 15001577
0.75866657 0.084609024 0.11807285 15198700
0.76226085 0.084814765 0.11339025 15264749
0.7713334 0.086924486 0.11011318 14541538
0.75900006 0.092641152 0.11901352 15725301
0.76287502 0.094526254 0.11507294 15922422
0.77266669 0.096118093 0.11130679 15987957
0.76533335 0.10197581 0.11801101 15856629
0.77454549 0.10459197 0.11534634 14540769
0.78511113 0.10705909 0.11288927 12632254
0.79100001 0.10950918 0.11106899 12171956
0.77600002 0.11106579 0.11986253 16053494
0.7865001 0.11386015 0.11779986 11842994
0.77600002 -0.14144577 0.12712906 10066068
0.78480011 -0.1458087 0.12489581 10329497
0.79016668 -0.14957739 0.12482446 10395034
0.75900006 -0.13123977 0.12434401 14408407
0.76457149 -0.13438261 0.12525392 13750732
0.77300006 -0.13908935 0.12437558 11447722
0.75741673 -0.12476236 0.12496933 15592680
0.75646675 -0.11486408 0.12481152 16119024
0.75530553 -0.10496374 0.12461822 15987439
0.75547069 -0.094632208 0.12443738 15921902
0.7565313 -0.085096166 0.12504406 15658732
0.75680548 -0.075053312 0.12486708 15658989
0.75551623 -0.065026186 0.1245096 15593195
0.75454289 -0.055271693 0.12461846 15395816
0.75472224 -0.044808283 0.12452336 15461352
0.75666672 -0.035181139 0.1248465 15395559
0.75700003 -0.025450977 0.12490243 15132390
0.75700003 -0.014818072 0.12490242 14606046
0.75700003 -0.0050712456 0.1249024 14408666
0.7561112 0.0046687932 0.12475399 13948372
0.75497222 0.015266798 0.12456354 14342875
0.75396675 0.024953671 0.12439723 14145495
0.75327772 0.034681607 0.12457749 14145495
0.75466657 0.045296762 0.12451323 14342618
0.75573325 0.055090249 0.12468889 14540255
0.75580555 0.064825699 0.12469888 14737634
0.75513893 0.075374961 0.12458874 14737634
0.75563335 0.085156225 0.1246708 15198444
0.75805885 0.094981849 0.12533575 15659251
0.76000005 0.098990321 0.12094949 16054264
0.75900006 0.10270988 0.12848997 15592944
0.76195836 0.10593695 0.12482262 16448252
0.77100003 0.10854524 0.12089515 16448252
0.76550007 0.11255205 0.12779672 16382458
0.77411765 0.11484869 0.12468415 14145496
0.7834 0.11799338 0.12247056 11776943
0.778 0.12137042 0.12836854 11711152
0.7870869 0.12515192 0.12493523 11842991
0.79071426 0.12692292 0.12081265 11908784
0.78890002 0.13304277 0.12702593 11777198
0.79049999 0.13636567 0.12367318 11842991
0.79153335 0.14479138 0.12504049 11842991
0.77625 -0.14149134 0.13353057 10262678
0.78527278 -0.14581281 0.13466312 10394776
0.79020005 -0.1495837 0.13500547 10197655
0.75880009 -0.13120519 0.1349685 14408407
0.76536369 -0.13494991 0.13483064 12894911
0.77300006 -0.13908935 0.13327281 11184036
0.75626665 -0.12545925 0.13540274 15000546
0.75325006 -0.11525825 0.13486138 15658219
0.75211793 -0.10477814 0.13445085 15724268
0.75243759 -0.095203951 0.13493572 15790061
0.75375003 -0.085334487 0.13495082 15724269
0.75391662 -0.074767269 0.1349812 15592683
0.75270009 -0.064954005 0.13476394 15592939
0.7531113 -0.055291757 0.13483973 15461352
0.75394428 -0.044762883 0.1349885 15263975
0.75509995 -0.035108063 0.1351928 15066597
0.75627798 -0.025425723 0.13540421 14935011
0.75697219 -0.014817368 0.1355302 14671582
0.75696665 -0.0050711785 0.13552919 14145494
0.75525004 0.0046613608 0.13522148 13684943
0.75311118 0.015227957 0.13483828 13750738
0.75146681 0.024870299 0.13454357 13750481
0.75068569 0.034587432 0.13452981 13882836
0.75111109 0.045082387 0.13447721 13882580
0.75159389 0.055116992 0.13478251 13817045
0.74900001 0.068626091 0.13760984 14277338
0.75128132 0.064436629 0.13406762 14146009
0.74900001 0.074763067 0.13760985 14277081
0.75075006 0.074936971 0.13265678 14277081
0.74900001 0.082302786 0.13778518 14408412
0.7511155 0.085255489 0.13393787 14737633
0.75505716 0.094942629 0.13505729 15461101
0.75824004 0.10447859 0.13550743 16185079
0.76000005 0.10877577 0.13251413 16185078
0.76272732 0.11339207 0.13477308 16381943
0.77228564 0.11905815 0.13349412 12895170
0.77725005 0.12307386 0.13279428 11842737
0.78558332 0.12761326 0.13375801 11842991
0.78900003 0.13262844 0.13233724 11842991
0.79149997 0.13613921 0.13584672 11777198
0.7856667 -0.14596979 0.14525999 10263190
0.79133338 -0.14979824 0.14538753 10197655
0.75777787 -0.13162071 0.1454322 14145237
0.76318187 -0.13521409 0.14451574 13487050
0.75453573 -0.12498434 0.14537431 14934751
0.75147229 -0.11498655 0.1451001 15461351
0.75202864 -0.10463098 0.14533655 15527144
0.75229049 -0.095026389 0.14511928 15658474
0.75300008 -0.085490473 0.14499612 15724010
0.75343329 -0.074718244 0.14459886 15198180
0.75316012 -0.064992532 0.14454585 15329256
0.75379986 -0.055341661 0.1446685 15461097
0.75396758 -0.044622432 0.1448708 15263719
0.75360006 -0.035040114 0.14551018 15000803
0.75415617 -0.025518762 0.14506544 15066597
0.75630015 -0.01480246 0.14514765 14802911
0.75652015 -0.0050689657 0.14518958 14276824
0.7559002 0.004668205 0.14507206 13684945
0.7542333 0.015249847 0.14475329 13553359
0.75193113 0.025007335 0.14503959 13553358
0.75191689 0.034568734 0.14518912 13816530
0.75150001 0.045102999 0.14510982 13750737
0.74900001 0.058105554 0.1419934 13619153
0.75043756 0.05508751 0.14473875 13487566
0.74900001 0.068626091 0.14023997 14277081
0.75106269 0.064694144 0.14541039 13948117
0.74899989 0.076052345 0.14240596 14277081
0.75052631 0.073757984 0.14690726 14211033
0.74899995 0.082528234 0.14349632 14408411
0.75004554 0.08715868 0.14554341 14737119
0.75310713 0.095263027 0.14510068 15263721
0.75784624 0.10485432 0.14462492 15395564
0.76000005 0.10877577 0.14852668 14803170
0.76340002 0.11346909 0.14445409 15790064
0.77300012 0.11916842 0.14602555 11974070
0.77724999 0.12216203 0.1464418 11842993
0.78600007 0.12669565 0.14611225 11777198
0.7906 0.1298127 0.14617959 11842991
0.79320681 -0.15559717 0.15485571 10000531
0.77600002 -0.1432624 0.1543785 9999762
0.78614289 -0.14750271 0.15534255 10262934
0.79000002 -0.14954583 0.15346487 9933969
0.75736845 -0.13301244 0.15571016 13881294
0.76233339 -0.13687351 0.15314113 13486535
0.75403708 -0.12528583 0.1549124 15263203
0.75230008 -0.11511113 0.15494864 15395044
0.75319999 -0.10466836 0.15513298 15526631
0.75379997 -0.095047429 0.15525691 15263973
0.75393927 -0.085116602 0.15480359 15329511
0.75411093 -0.074784383 0.15443797 15461354
0.75446641 -0.065105453 0.15451236 15132133
0.75433314 -0.055382598 0.15448432 15132133
0.75362861 -0.044871908 0.15446395 15132132
0.7530002 -0.035011817 0.1550912 15000547
0.75391161 -0.025189709 0.15465638 14868960
0.75613904 -0.01479982 0.15485302 14671582
0.75650018 -0.0050678174 0.154926 14408410
0.75647241 0.0046735909 0.1549204 13948116
0.75572228 0.015279917 0.15476729 13553358
0.7533462 0.02479743 0.15495883 13421772
0.75303352 0.034619972 0.15509824 14013909
0.75379986 0.045243848 0.15525761 13750738
0.75360006 0.054934036 0.15521619 13224650
0.75320011 0.064601913 0.15513301 13553101
0.75165635 0.075244129 0.15514523 13750737
0.75050002 0.084752455 0.15492912 14342361
0.75450003 0.095276624 0.15522404 15263720
0.75816679 0.10407803 0.15526882 15461100
0.76000005 0.10877577 0.1547538 15329514
0.76394129 0.1130264 0.1549238 15790322
0.77245462 0.1187802 0.15498604 11514033
0.77900004 0.12243708 0.15315168 11842993
0.78654552 0.12613791 0.15496776 11777199
0.78800005 -0.1513198 0.166602 10065811
0.76750004 -0.14169316 0.16616006 11577511
0.77700007 -0.14708497 0.16821857 10131348
0.78700006 -0.14897795 0.16025163 10131348
0.75715005 -0.13357975 0.16480884 14144210
0.76116675 -0.13874201 0.1647893 13551558
0.7548334 -0.12522088 0.16518855 15197412
0.7530002 -0.1152186 0.16478652 15395047
0.75308347 -0.10465304 0.16480435 15526889
0.75346667 -0.095005244 0.16488695 15461096
0.75377768 -0.085338444 0.16495591 15461096
0.75433308 -0.074805707 0.16507748 15329253
0.75516671 -0.065164909 0.16525869 15066339
0.75516671 -0.055445541 0.16525985 15066340
0.75325012 -0.044724092 0.1648408 15066340
0.75296688 -0.035010114 0.16477919 14737375
0.75394422 -0.025346419 0.1649927 14737375
0.75561118 -0.014789392 0.16535589 14539996
0.75576687 -0.0050633731 0.16539086 14342874
0.75527787 0.0046632555 0.16528325 14079702
0.75372213 0.015240838 0.16494295 13750737
0.75303352 0.02492387 0.16479364 13619151
0.75344443 0.034640308 0.16488425 14013909
0.75469416 0.045298263 0.16515779 14342874
0.75449979 0.054998323 0.16511533 13947859
0.75336111 0.064614996 0.16486539 13290184
0.75270605 0.07492429 0.16498144 13619149
0.75229645 0.084975086 0.16512217 14408409
0.75505883 0.094609022 0.16497761 15197926
0.75847065 0.10364886 0.16478264 15066341
0.76055562 0.10826223 0.16554978 15197926
0.76364285 0.11249364 0.16443323 15263720
0.77128571 0.11709841 0.16556379 11842738
0.77900004 0.12243708 0.16226995 11908784
0.78675008 0.12549697 0.16664788 11777198
0.79000002 0.12786478 0.16641071 11842991
0.78625005 -0.15251899 0.17551188 10065554
0.79246676 -0.15731208 0.17496486 10065554
0.76300007 -0.14086239 0.17500481 12368054
0.77488899 -0.14729112 0.17592557 10131347
0.78100002 -0.1496705 0.17274123 9999762
0.7571786 -0.13421956 0.1748167 14209748
0.76000005 -0.13852938 0.17165595 13880779
0.75362068 -0.12489793 0.17535317 15328999
0.75230581 -0.11511167 0.17519927 15328999
0.75255579 -0.1045809 0.17525834 15460841
0.75173354 -0.094786689 0.17506623 15263719
0.75286126 -0.085234046 0.17532937 15592940
0.75396758 -0.07491228 0.1748767 15526632
0.75451994 -0.065109342 0.17483492 15263201
0.75426656 -0.055378105 0.17477499 15197155
0.75326669 -0.044723753 0.1745441 15000547
0.75344002 -0.035031807 0.17458512 14934754
0.75393319 -0.025347479 0.17469835 14539739
0.75413316 -0.014761412 0.17474417 14408410
0.75496 -0.0050570164 0.17493634 14276825
0.75546682 0.0046649422 0.17505501 14014166
0.75379997 0.015241434 0.17466815 13487565
0.7530002 0.024922926 0.17536324 13487822
0.75396758 0.034522463 0.17487729 13882323
0.75556684 0.045349684 0.17507784 14079702
0.75564009 0.055082548 0.17509495 14079445
0.75403327 0.064671859 0.17472252 13750738
0.75277162 0.075265378 0.17518462 13487309
0.75314295 0.084685974 0.17508186 14145238
0.75659376 0.095230848 0.17498337 15066340
0.75881821 0.10247017 0.17389274 15329512
0.76082361 0.10669461 0.17556182 15066597
0.76637501 0.1121568 0.17444146 15790063
0.77310002 0.11626308 0.17497492 13947858
0.77900004 0.12061343 0.17503552 11777200
0.78533334 0.12389641 0.17538482 11777198
0.79033333 0.12791874 0.17480831 11711405
0.77900004 -0.15111086 0.18658532 9868945
0.78606665 -0.15469456 0.18496253 10000017
0.79099995 -0.15899386 0.18420863 10000273
0.76455563 -0.14194837 0.18571097 11973557
0.77388895 -0.14750396 0.18455642 9934482
0.7567693 -0.13385524 0.18482663 14473690
0.76000005 -0.13852938 0.18677892 13289930
0.75315386 -0.12507802 0.1848931 15394535
0.75099999 -0.11491238 0.18544489 15329255
0.75093752 -0.10490503 0.1852079 15394535
0.75038236 -0.095235847 0.1854995 15460841
0.75210011 -0.085146956 0.1848378 15592940
0.7541427 -0.074659206 0.18458311 15395048
0.75570017 -0.065211557 0.18483843 15131363
0.75463861 -0.05540584 0.18457858 14934497
0.75399983 -0.044766508 0.18442173 14868704
0.75399983 -0.035058316 0.18442176 14671582
0.75408316 -0.025352487 0.18444237 14408667
0.75424981 -0.014764342 0.18448323 14342617
0.75536668 -0.0050583514 0.18475625 14277081
0.75641692 0.0046715578 0.18501356 14145495
0.75480551 0.015260892 0.18461896 13684944
0.75312012 0.024926331 0.18508834 13421772
0.75408554 0.034796417 0.18456839 13553359
0.75613922 0.045383915 0.18494563 13750994
0.75676668 0.055164315 0.18509847 13816787
0.75563914 0.064810626 0.18482408 13816273
0.75425804 0.075144276 0.18519895 13947859
0.7547406 0.085252136 0.18509525 13816275
0.75770599 0.094938666 0.18506797 14737632
0.75900006 0.10152532 0.18209109 15790320
0.76176 0.10596524 0.18521364 15132388
0.76850003 0.11179142 0.18257172 15263977
0.77319998 0.11477229 0.18591979 14013908
0.78616673 0.12310699 0.18431227 11777198
0.79199994 0.12766008 0.18563874 11711405
0.77900004 -0.15111086 0.19236022 9868946
0.78558332 -0.154385 0.19551365 9868946
0.79028571 -0.1585861 0.19580886 10000531
0.76600009 -0.14193025 0.19414382 12303033
0.77338469 -0.14668258 0.19521949 10394778
0.75686359 -0.13337016 0.19534846 14605272
0.76083344 -0.13868126 0.19499975 13750221
0.74900001 -0.12074354 0.19985634 15132133
0.75253332 -0.12484011 0.19463018 15328997
0.74900001 -0.1141682 0.19883351 15527146
0.75012511 -0.1149988 0.19408317 15527146
0.74899989 -0.10506587 0.19769035 15395303
0.75000006 -0.10496782 0.19283 15395048
0.74900001 -0.099702455 0.19810291 15592426
0.75053579 -0.095198266 0.19480684 15329512
0.75286126 -0.085233778 0.19471847 15658477
0.75438869 -0.074810632 0.19511276 15527148
0.75546658 -0.06519112 0.19539036 15329255
0.75505531 -0.055434592 0.19528557 14868961
0.75452757 -0.044799436 0.1951503 14737375
0.75399983 -0.03505832 0.19501254 14474203
0.75536114 -0.025393827 0.19536622 14211288
0.75555563 -0.014790582 0.19541645 13948116
0.75593358 -0.0050637876 0.19551286 13948116
0.75600034 0.0046694069 0.19552982 14013909
0.75511104 0.015268341 0.19530162 13882066
0.75419992 0.024961706 0.19506665 13750737
0.75511444 0.034591284 0.19517688 14013909
0.7568 0.045424063 0.19485126 13948116
0.75684005 0.055169746 0.1948618 13948116
0.75621897 0.065082088 0.19503376 13948116
0.75602883 0.075590275 0.19541122 14145495
0.75576675 0.085170954 0.19546954 14211288
0.75809377 0.095417529 0.1948508 15066599
0.75900006 0.10152532 0.198971 14935781
0.76142853 0.10541988 0.194833 14934752
0.76900005 0.11186415 0.19349138 15987694
0.77441669 0.11552746 0.19469811 12369079
0.78000003 0.11894227 0.19717215 11513769
0.78690004 0.12275966 0.19523323 11711405
0.79177779 0.12712404 0.19603023 11711405
0.77850008 -0.15101388 0.20863852 9802382
0.78541666 -0.15389226 0.20528157 9933968
0.79124999 -0.1583506 0.20487855 10066066
0.76391673 -0.14177959 0.20561908 12828863
0.77353853 -0.14699009 0.20417152 10262934
0.7550385 -0.13450351 0.20479454 14473433
0.76000005 -0.13852938 0.20101231 12894654
0.74890459 -0.12365042 0.20550801 15197156
0.75025004 -0.12753169 0.20326288 15394535
0.74890006 -0.11459091 0.20508955 15395049
0.74899995 -0.10496272 0.20511661 14868961
0.74899983 -0.096195623 0.20657779 15526891
0.75005883 -0.094265588 0.20230779 15329512
0.74881822 -0.085175432 0.20777582 15790063
0.75092006 -0.084838636 0.20317921 15592427
0.74900001 -0.078661397 0.20862347 16447993
0.75205714 -0.074452668 0.20494349 15724270
0.75385708 -0.065241031 0.20524776 15526891
0.75520003 -0.055443279 0.20504692 15263719
0.75556666 -0.044861212 0.20514606 14737632
0.75488001 -0.035099603 0.20495953 14671582
0.75566685 -0.025404748 0.20517273 14605789
0.75600034 -0.014798502 0.20526376 14342874
0.75600028 -0.0050645466 0.20526376 14277081
0.75660014 0.0046741269 0.20542738 14145495
0.75636685 0.015294314 0.20536384 13882323
0.75600028 0.025022214 0.20526379 13948373
0.75664526 0.034930073 0.20526804 14145495
0.75700003 0.045435052 0.2046492 14211545
0.75700003 0.055181872 0.2046492 14277337
0.75688231 0.064709574 0.20487814 14408666
0.75612932 0.075330801 0.20512743 14342617
0.7555601 0.08514756 0.20514448 14145751
0.7576111 0.095135711 0.20481384 15132133
0.75900006 0.10152531 0.2051899 14869475
0.76190478 0.10625065 0.20491116 15132133
0.77300006 0.11401872 0.20505451 13224391
0.78200006 0.11924725 0.20591575 11579821
0.78763634 0.1227902 0.20513721 11645613
0.7923637 0.12740479 0.2053573 11711405
0.7766 -0.1506453 0.21449253 9999760
0.78558332 -0.15514952 0.215131 9868174
0.79000002 -0.15879287 0.21449521 9802381
0.76250011 -0.14166506 0.21506087 13289412
0.77218187 -0.14716101 0.21458669 10131347
0.75383347 -0.13454334 0.21504152 14144467
0.74900001 -0.12227777 0.21234947 15000290
0.75028008 -0.125728 0.21558474 15066340
0.74899983 -0.11540358 0.21468073 15065827
0.75000006 -0.11350545 0.21517256 15131620
0.74899989 -0.10481026 0.21464613 15263462
0.75000006 -0.10560451 0.21542339 15197926
0.74841648 -0.095245808 0.21459228 15132134
0.7480275 -0.084688142 0.21448149 15395563
0.7489472 -0.0766256 0.21497576 15790320
0.75016671 -0.072490685 0.21436243 15855856
0.75188243 -0.065654323 0.21496251 15658220
0.75449979 -0.055392042 0.21456972 15658220
0.75499988 -0.044827323 0.21471228 15197927
0.75399983 -0.035058938 0.21442786 14605789
0.75402778 -0.025350103 0.21443437 14606046
0.7548334 -0.014775664 0.21466269 14540253
0.75463331 -0.0050549996 0.21460542 14869218
0.75527781 0.004666572 0.21478896 14606304
0.75561124 0.015280141 0.21488437 14079960
0.7553333 0.024999764 0.21480541 13882580
0.75605571 0.0347597 0.21501146 14079959
0.75663906 0.045413539 0.21517786 13948373
0.75666678 0.055157576 0.21518573 14145496
0.75661117 0.064895019 0.21516982 14474460
0.75569457 0.075430088 0.21490884 14540252
0.75513321 0.085099488 0.21474963 14540254
0.75714719 0.094868913 0.21506253 15132134
0.75900006 0.10152532 0.21407408 14803169
0.76259094 0.1062315 0.21467842 15197669
0.76900005 0.11006391 0.21959491 15657707
0.77407151 0.1141585 0.21444024 12566205
0.78320009 0.11943024 0.21448617 11645612
0.78812504 0.1227189 0.21444672 11645612
0.77800006 -0.15091689 0.22034363 10065553
0.78490919 -0.1539335 0.22496726 9867918
0.79214287 -0.15869519 0.22567548 9736845
0.75900006 -0.14012393 0.22828874 12828861
0.76339996 -0.14201146 0.22424793 12960959
0.77310002 -0.14707239 0.22474542 9933968
0.75319237 -0.13430838 0.2245062 14276308
0.74900001 -0.12099402 0.22590719 15329256
0.75021428 -0.12620886 0.22564565 15132132
0.74877787 -0.11457341 0.22521329 15197669
0.74816668 -0.10484634 0.22502807 15066083
0.74761081 -0.095142752 0.22486173 15197670
0.74758309 -0.084637374 0.22485338 15526635
0.74865377 -0.075455673 0.22564855 15789807
0.75000006 -0.0730602 0.22250918 15658477
0.74900001 -0.069894277 0.22966452 15724270
0.75111121 -0.065544702 0.22503465 15921391
0.75294453 -0.055279199 0.22470249 15592683
0.75361115 -0.044742964 0.22490209 14935012
0.75336671 -0.03502981 0.22483008 14540253
0.75200021 -0.025082268 0.22489291 14145495
0.74879992 -0.014132237 0.22820044 14013910
0.7513333 -0.015000212 0.22295016 14211288
0.74842864 -0.0052638105 0.22786161 14343390
0.75128573 -0.0048654145 0.22265695 14540255
0.7486667 0.00082698138 0.22897784 14475232
0.75210822 0.0047672912 0.22466525 14737890
0.75363886 0.015241135 0.22491057 14540253
0.75386649 0.024951452 0.22497912 14277081
0.7538054 0.034654528 0.22496086 14211288
0.75383329 0.045245051 0.22496706 14013909
0.75383341 0.054951124 0.22496699 13816530
0.75455546 0.064720079 0.22518285 14079702
0.75433308 0.07529413 0.22511904 14342875
0.75416654 0.084989853 0.22506943 14474719
0.75718755 0.095305219 0.22475211 15066599
0.7631579 0.10434476 0.22478926 14869218
0.77050006 0.10847484 0.22814071 15000804
0.77344447 0.11170743 0.2248901 13289929
0.78425002 0.11775792 0.22669804 11448235
0.78860009 0.12136193 0.22445397 11645612
0.77866673 -0.1510462 0.23693752 9868176
0.78500009 -0.15350327 0.23396465 9737103
0.79079998 -0.15710239 0.23507555 9671566
0.75900006 -0.14012393 0.23628448 12960193
0.76388896 -0.14341457 0.23542354 11973039
0.77200001 -0.14686373 0.23237626 10460313
0.75344002 -0.13508178 0.23476395 14079186
0.74873906 -0.12321685 0.23552766 15132389
0.75000006 -0.12880568 0.23523843 14935008
0.74769992 -0.11528376 0.23539022 15066339
0.74672222 -0.10551836 0.23508331 15000034
0.74636126 -0.094983265 0.23496911 15066340
0.74652779 -0.084517673 0.2350218 15263464
0.74773318 -0.075025663 0.23540129 15592685
0.74878931 -0.067383304 0.23670307 15987443
0.75031251 -0.063429281 0.23346904 15790064
0.7504167 -0.055094432 0.23448879 15987444
0.75147223 -0.044613939 0.23481788 15198183
0.75290018 -0.035006776 0.23526627 14671838
0.74900001 -0.020798454 0.23448643 14013909
0.7507242 -0.026121134 0.23498005 14079445
0.74799985 -0.014518627 0.23536107 13816530
0.74709988 -0.0050050816 0.23520283 14277081
0.74788225 0.0044147735 0.23570499 14474974
0.75050002 0.0081493044 0.23100236 14738402
0.74863642 0.012988914 0.23815584 14474974
0.75121433 0.01575751 0.23373207 14540510
0.75180012 0.024883909 0.23491849 14474461
0.75241685 0.034592573 0.23511325 14474461
0.75297242 0.045193464 0.23528916 14342618
0.75329638 0.054716811 0.23490132 14211031
0.75449973 0.064716257 0.23488396 13948116
0.75483328 0.075344056 0.23498802 14146008
0.75491995 0.0850759 0.23501526 14672354
0.75752795 0.095125332 0.23493965 14803940
0.76264715 0.10390759 0.23500088 14868963
0.77083331 0.10852177 0.23545599 15197928
0.77500004 0.11183097 0.23491544 11447982
0.78400004 0.11680154 0.23488975 11579821
0.78866673 0.12026384 0.23536389 11448234
0.77833343 -0.15098155 0.24230391 9868175
0.78588891 -0.15429112 0.24546735 9802638
0.79257149 -0.1582526 0.24540924 9737101
0.75900006 -0.14012393 0.24516866 12959935
0.764 -0.14313558 0.24409659 12697019
0.77100003 -0.14594917 0.24633917 11249318
0.74849999 -0.1316148 0.24747151 14606043
0.75204557 -0.13500106 0.24443875 14276052
0.74734282 -0.12472763 0.24504948 15066594
0.75000006 -0.12968357 0.24050574 14869214
0.74623334 -0.11505749 0.24540995 15000801
0.74533373 -0.10532202 0.24511491 14999776
0.74502808 -0.094813578 0.24501552 15000290
0.74529433 -0.084634662 0.24489686 15197925
0.74634385 -0.075214297 0.24566528 15460842
0.74734271 -0.065339327 0.24474986 15658477
0.74844831 -0.055280622 0.24532355 16052978
0.75000006 -0.053684082 0.2410074 16053235
0.74900001 -0.048101749 0.24669777 16447479
0.75075871 -0.043692879 0.24462737 15592170
0.75234497 -0.035041656 0.24550866 14539994
0.74900001 -0.020798454 0.24193847 13618894
0.75033337 -0.025627689 0.24524403 13816273
0.74853337 -0.01465398 0.24505933 13421772
0.75000006 -0.01907046 0.24752879 13553611
0.7471199 -0.0050054328 0.24482971 13750737
0.74699986 0.0046138181 0.2447899 14014166
0.74730545 0.015550051 0.24488741 14014422
0.74789286 0.024566773 0.24451701 14211801
0.75000006 0.027457274 0.24050574 14606816
0.74878567 0.032045942 0.24637625 14342874
0.75050008 0.03602184 0.24385934 14540253
0.75177789 0.045123693 0.2454728 14342874
0.75310016 0.054898757 0.24484749 14211288
0.75372219 0.064647824 0.24434417 14145752
0.75388879 0.075251073 0.2443983 14277081
0.75483328 0.085066766 0.24470539 14672097
0.75777423 0.094611898 0.24511553 15132391
0.76000005 0.099879913 0.24816042 15526889
0.76222223 0.10384449 0.2448207 14934756
0.77025002 0.10843965 0.24564804 13553101
0.77420002 0.11153482 0.2424655 11316647
0.7840001 0.11690377 0.24508399 11514026
0.78880006 0.12028418 0.24556246 11382440
0.786125 -0.15318532 0.25438809 9802383
0.75900006 -0.14012393 0.25049913 13486538
0.76283336 -0.14261742 0.25443891 12828862
0.77183336 -0.14610691 0.25563475 11644331
0.74783325 -0.13281187 0.25469124 14671065
0.75354552 -0.13815923 0.25542724 14210515
0.7458058 -0.12459537 0.25487235 15263460
0.74500018 -0.11486652 0.25547096 15132130
0.74477792 -0.10524328 0.25539452 14868958
0.74469465 -0.094772115 0.25536528 14803421
0.74486673 -0.085202374 0.25542459 14935007
0.74525028 -0.075649537 0.25555599 15066339
0.74600017 -0.0650727 0.25520006 15527148
0.74669242 -0.055021107 0.2547709 15658735
0.74803329 -0.045052882 0.25540024 16053235
0.75016671 -0.041319054 0.25226662 16381940
0.74900001 -0.036929943 0.25877133 15592684
0.75088471 -0.03443959 0.2547816 15394789
0.74900001 -0.021382928 0.25888821 13750733
0.75015157 -0.025567448 0.255135 14210772
0.74824995 -0.014648842 0.25483239 13750735
0.74733317 -0.0050070332 0.2545206 13948116
0.74697208 0.0046134833 0.25439838 14013910
0.74615175 0.014850284 0.25451529 13750739
0.7463612 0.025577493 0.25418901 13948118
0.74765503 0.035128191 0.25478002 14343388
0.75000006 0.038869739 0.25104031 14474460
0.74881244 0.04362952 0.25743532 14541024
0.75010002 0.046074834 0.25353184 14474717
0.74900001 0.051091868 0.2594727 14541023
0.7511819 0.055185243 0.25526848 14474460
0.75197583 0.06460467 0.25508896 14605789
0.75173825 0.075036749 0.25513625 14803168
0.75363338 0.084931917 0.25490054 15000291
0.75732148 0.094276309 0.25507215 15328742
0.76000005 0.099879913 0.25527713 15328995
0.76428568 0.10389881 0.25505418 14671322
0.77216667 0.10840867 0.25574905 11316394
0.7766 0.11188066 0.25703305 11316392
0.7854445 0.11691646 0.25533998 11448233
0.78900003 0.12031468 0.25208849 11448233
0.79149997 0.12490361 0.25523722 11448233
0.80508006 -0.1655952 0.26570746 9605517
0.77733332 -0.15078756 0.26746598 9407372
0.78525007 -0.1532459 0.26467809 9736333
0.76418185 -0.14368676 0.2652173 12828352
0.77283335 -0.14780502 0.26531795 9801874
0.74768424 -0.13296987 0.26537228 14934498
0.75436366 -0.13846904 0.26517817 14276310
0.74524271 -0.12473834 0.26467288 15460583
0.74458641 -0.11480377 0.2656365 15329253
0.74402767 -0.1051368 0.26558805 15066594
0.74405551 -0.094689876 0.26559785 15001057
0.7440666 -0.085111007 0.26560175 14934753
0.74425006 -0.075548537 0.26566643 15263462
0.7445004 -0.065117143 0.26575503 15132133
0.74469239 -0.054472044 0.26535353 15527661
0.74590337 -0.044988368 0.26436785 15987442
0.7474857 -0.035503209 0.26519537 15526893
0.74799979 -0.025024178 0.26537743 14474458
0.75000006 -0.02960504 0.26157489 14803427
0.74661112 -0.014616538 0.2647604 14013905
0.74590015 -0.0049970415 0.26450759 14277081
0.74543619 0.0044028899 0.26481301 14474461
0.74542135 0.015074331 0.26465964 14211289
0.74535036 0.025367986 0.2649233 14079703
0.74610007 0.035175201 0.26457867 14211803
0.74716657 0.044846218 0.26495716 14212060
0.7476874 0.055159178 0.2656886 14474973
0.75000006 0.057305254 0.26157489 14671839
0.74764007 0.06500119 0.26600015 14474717
0.75000006 0.065206192 0.26157489 14671839
0.74802935 0.074460618 0.26552036 14869219
0.75000006 0.078374416 0.26157489 14803427
0.74871433 0.081620649 0.26763615 15198185
0.75156003 0.085261077 0.26415765 15132392
0.75644827 0.093984477 0.26491991 15329771
0.76000005 0.099879913 0.26461777 15461356
0.7644546 0.10274675 0.26531219 15329768
0.7731111 0.10783815 0.26521179 11645613
0.77740002 0.11126617 0.26567465 11448233
0.78619999 0.1164564 0.26536351 11382440
0.79157698 0.12427489 0.26517183 11382440
0.77700001 -0.15072289 0.27462953 9473678
0.78618181 -0.15518361 0.2746934 9473677
0.79280007 -0.15935569 0.27649885 9474188
0.75900006 -0.14190076 0.27804005 13618639
0.76430011 -0.14396873 0.27461094 12829378
0.77300006 -0.14813738 0.27864456 9539728
0.74579173 -0.13332246 0.27494514 14408155
0.75466675 -0.13932391 0.27468011 13947604
0.74451613 -0.12508087 0.2743912 15461098
0.74406457 -0.11556529 0.27495641 15592683
0.74400002 -0.1051329 0.27515778 15461097
0.7439667 -0.094678558 0.2751452 15000801
0.74360007 -0.085057393 0.27500841 15132131
0.7439667 -0.075520128 0.27514523 15197926
0.74400002 -0.065073408 0.27515775 15132133
0.74393338 -0.054618053 0.27513298 15198183
0.74443334 -0.04506927 0.27444533 15790321
0.74563909 -0.035540223 0.27488917 15329771
0.74633336 -0.025093 0.27514517 14540254
0.74500018 -0.014584805 0.27465406 13948116
0.74426669 -0.004986255 0.27438393 14277083
0.74384844 0.0048324638 0.27462515 14408669
0.7440294 0.015046291 0.27455279 14079704
0.74406242 0.025716044 0.27485383 13750738
0.74463344 0.035106216 0.2745195 13618894
0.74525034 0.044730235 0.2747466 13289929
0.74572247 0.055232778 0.27491993 13750481
0.74640006 0.064893901 0.27516997 13882324
0.74702841 0.074441552 0.27527857 14408668
0.74846148 0.082325183 0.27505544 15198184
0.75053334 0.086689107 0.27476233 15329770
0.75586218 0.09415631 0.27490526 15329255
0.76000005 0.099879913 0.27484801 15724013
0.76566672 0.10346564 0.27494901 14803425
0.77316666 0.10794663 0.27508035 11250601
0.77740002 0.11126617 0.27658659 11250854
0.78600001 0.11547446 0.27483499 11382183
0.79000002 0.11861777 0.27552554 11316647
0.77600002 -0.15052892 0.28426597 9341579
0.78583336 -0.15519899 0.28510636 9473676
0.7924 -0.15927528 0.28563911 9474188
0.75900006 -0.14190076 0.28337055 13158344
0.76300007 -0.14392646 0.28575134 11841970
0.77300006 -0.14813738 0.28135896 9473679
0.74508703 -0.13308339 0.28496391 14013395
0.7536 -0.13912699 0.28400213 13683917
0.74366671 -0.12510738 0.28460827 15197926
0.74311107 -0.1154457 0.28439406 15658477
0.74302793 -0.10499567 0.28436229 15526891
0.74257898 -0.094548091 0.28455645 15197924
0.74191678 -0.085250005 0.28490222 15066340
0.74322224 -0.075442806 0.28443849 15000547
0.7434445 -0.065025993 0.28452313 14868961
0.74291897 -0.054613441 0.28448582 14803171
0.74376667 -0.045028746 0.28464687 15395564
0.74475026 -0.035498694 0.28502333 15198185
0.74469465 -0.025038265 0.28500113 14539997
0.74366665 -0.014558313 0.28460738 13947859
0.74306667 -0.0049782931 0.28437784 14277083
0.74294448 0.0045890296 0.28433302 14342876
0.74333328 0.015033673 0.284482 14211290
0.7439999 0.025495894 0.28473723 14277082
0.74470019 0.035109438 0.2850056 14408667
0.7450003 0.044714805 0.28511995 14013909
0.7450003 0.055179164 0.28511998 13487308
0.74560028 0.064824902 0.28534895 13750738
0.74715143 0.074500822 0.28522676 14408412
0.7484616 0.081920736 0.28502929 14605792
0.750875 0.086377621 0.2850607 15461100
0.75585717 0.093970589 0.28503984 15263719
0.76000005 0.099879913 0.28285432 16185076
0.76310003 0.10225542 0.2843613 13289927
0.77172732 0.10782805 0.2849192 11316647
0.7762 0.11200438 0.28524843 11250854
0.78466672 0.11647323 0.28394598 11250597
0.78850007 0.12139255 0.28769246 11185061
0.77700001 -0.15072291 0.29282078 9210763
0.78588897 -0.15490447 0.2949385 9342093
0.7665 -0.14509732 0.29155439 9079177
0.77400005 -0.14832902 0.2962203 9407885
0.74495661 -0.13306125 0.29529917 14210774
0.75628573 -0.13937199 0.29487729 12631485
0.73900002 -0.1225915 0.29925877 15263978
0.74193758 -0.12470962 0.29474589 15132133
0.73899996 -0.11441325 0.29831511 15263978
0.74096745 -0.11525185 0.29333884 15395562
0.73900002 -0.10736738 0.29856676 15132392
0.74108088 -0.10432203 0.29428473 15066341
0.74079984 -0.095489264 0.29495665 14803169
0.74080634 -0.085463718 0.29461867 14605789
0.74236131 -0.075356148 0.29453629 14606044
0.74219441 -0.0649174 0.29446965 14540251
0.73899996 -0.055121019 0.29810542 14868963
0.74093318 -0.054339662 0.29350618 14803170
0.73900002 -0.049930979 0.29752874 15197926
0.74222583 -0.045102153 0.29467773 15198184
0.74355543 -0.035442635 0.29500926 15000292
0.74319452 -0.024988353 0.29486585 14276824
0.74172229 -0.014520707 0.29428253 13684687
0.74220002 -0.004970693 0.29447272 14013910
0.74366659 0.004594401 0.29505613 14014167
0.74374992 0.015039985 0.2950893 14014166
0.7436111 0.025483416 0.29503193 14211546
0.74416661 0.035083976 0.29525259 14342874
0.74477798 0.044701599 0.295495 14540253
0.74466681 0.055153683 0.29545093 14211031
0.74500012 0.064772107 0.29558367 14277081
0.74612832 0.07458961 0.29529035 14408411
0.74737918 0.08404579 0.29565164 15263718
0.75042862 0.088332579 0.29334551 15066081
0.75560719 0.094381765 0.29498747 15920875
0.76000005 0.099879913 0.29886687 11050904
0.76345462 0.10131139 0.29437426 11578794
0.77273339 0.10698402 0.29543167 11118755
0.77728575 0.11177051 0.29396868 11053218
0.7840001 0.1163429 0.29515117 11053475
0.78828579 0.12192038 0.2949641 11184804
0.79050004 0.12736823 0.29524642 11119268
0.78637505 -0.15323383 0.30417657 9210763
0.76033336 -0.14215003 0.30789694 12039864
0.77499998 -0.14815965 0.30548891 9144972
0.74442858 -0.13320594 0.30469313 14079445
0.75533336 -0.13944699 0.30498454 12039606
0.73891664 -0.12272204 0.30398178 15132648
0.74173337 -0.12640117 0.30523089 15001062
0.73787516 -0.1146329 0.30312023 15066856
0.74166679 -0.11521915 0.30901992 15264748
0.73833346 -0.10433001 0.30330917 15001063
0.74366665 -0.10508424 0.30985323 15198441
0.73900002 -0.097679317 0.30271876 14803427
0.74170834 -0.094028838 0.30571333 15066854
0.74185282 -0.085468918 0.30455476 14803682
0.74247235 -0.075368531 0.30501214 14606046
0.74161118 -0.064866483 0.30465731 14408925
0.73900002 -0.054832686 0.30127713 14737634
0.74056518 -0.054407924 0.30607438 14606048
0.7416451 -0.045067601 0.30458692 15132391
0.74163878 -0.035352673 0.30466691 14803426
0.74161124 -0.024932683 0.30465597 14211545
0.74119437 -0.014509562 0.30448586 13948117
0.74153328 -0.0049659153 0.30462348 14211803
0.74338889 0.0045930753 0.30538526 14343390
0.74349999 0.015034508 0.30543122 14211803
0.74300003 0.025461627 0.30522701 14146267
0.74393338 0.035072509 0.3056106 14474719
0.7439999 0.044654787 0.30563784 14342876
0.7439999 0.05510509 0.30563775 14277082
0.74433351 0.064520948 0.30529046 14211032
0.74472743 0.074626654 0.30522189 14276822
0.74556768 0.084825143 0.3049821 14737118
0.74811119 0.091896296 0.30644971 15263206
0.75420833 0.096477211 0.30467641 15985641
0.76000005 0.099879913 0.30064604 12825516
0.75850004 0.10145844 0.30804253 10851211
0.76388901 0.10407107 0.30515802 10850951
0.77260005 0.10804759 0.30399829 10853782
0.77650011 0.11168351 0.30589435 11117724
0.78537506 0.11631841 0.30493569 10987682
0.78887504 0.12075738 0.30537328 10987683
0.79066664 0.12550631 0.30537418 10922147
0.77866673 -0.1510462 0.31714392 9276813
0.78622222 -0.15394767 0.31552073 9145227
0.79261547 -0.15789288 0.31425795 9079433
0.75900006 -0.14012393 0.31624198 12566206
0.76485717 -0.14376698 0.31611961 10592418
0.77380002 -0.14829069 0.3144359 9342606
0.74650007 -0.13213693 0.31147152 14474203
0.75544453 -0.13573046 0.31594431 13750481
0.74566668 -0.12486481 0.31272361 15527919
0.75633335 -0.12723671 0.31867206 15396333
0.7424168 -0.115335 0.31193972 15527921
0.74685723 -0.10615701 0.31318077 15330541
0.75533336 -0.10495951 0.31825069 15330541
0.74683332 -0.095044143 0.31292096 15198955
0.75440001 -0.095125899 0.31785744 15198955
0.74657148 -0.084145851 0.31331223 15461356
0.75225002 -0.086931154 0.31695157 15330284
0.74550009 -0.07494811 0.31338236 14869731
0.75225002 -0.076364979 0.31871259 11316396
0.74488902 -0.065152846 0.31385344 14080215
0.75100005 -0.061290395 0.31994113 11317166
0.74400008 -0.054433785 0.31423843 14475232
0.75000006 -0.059453022 0.31951511 11580338
0.74345005 -0.045009885 0.31411648 14869477
0.74366677 -0.03544949 0.31508157 14409182
0.7435385 -0.024728181 0.31448972 14212060
0.74369997 -0.014559564 0.31509355 14014424
0.74240005 -0.0049746553 0.31454098 14080217
0.74206668 0.0045834263 0.31439811 14080474
0.74254841 0.015155604 0.31477019 13949402
0.7428 0.025455397 0.3147085 13949658
0.74408013 0.035079397 0.3152515 14343902
0.74433362 0.044674478 0.31535971 14474718
0.74413329 0.055114809 0.31527433 14343389
0.74471438 0.064934261 0.31496039 14145754
0.7453751 0.073965438 0.31492993 14145751
0.74624991 0.084753446 0.31420752 14737632
0.75000006 0.088031113 0.31863722 14737633
0.74816674 0.092487425 0.31289634 15329512
0.75318754 0.096674606 0.31492141 15591400
0.75820005 0.10212904 0.31502137 11114125
0.76294446 0.10701822 0.31470749 11508105
0.76900005 0.11096403 0.3159079 10982017
0.7743479 0.11453881 0.31514567 10853774
0.78271431 0.11804854 0.31303266 10987424
0.78736848 0.12307545 0.31573427 10921890
0.79049999 0.12763767 0.31471571 10922148
0.77900004 -0.15111086 0.32092774 9539987
0.78692305 -0.15477705 0.3250404 9474193
0.7911666 -0.15902737 0.32501617 9408656
0.77433342 -0.14598008 0.32474777 10461088
0.78100002 -0.14967048 0.32723671 9934488
0.76000005 -0.13675019 0.32021695 13882325
0.77300006 -0.13456708 0.32931358 9474194
0.77225 -0.12539639 0.32899404 9211023
0.77275002 -0.11552591 0.32920706 8882059
0.7663334 -0.1014097 0.3258796 8948368
0.77100009 -0.10714504 0.32846153 8816782
0.75900006 -0.091261029 0.32157245 11053228
0.76355565 -0.095677964 0.32449904 9014160
0.75800002 -0.084932879 0.32114875 11447984
0.76500005 -0.08929614 0.32590541 8882829
0.77000004 -0.084472023 0.32983807 8751241
0.75760007 -0.074248128 0.32275286 12500671
0.76000005 -0.079816639 0.32377532 11908535
0.75349998 -0.065905482 0.32100618 11711154
0.76033336 -0.067392744 0.32569727 11711154
0.75650001 -0.05199945 0.32405519 11448755
0.76600003 -0.058928132 0.32991785 11974326
0.74849999 -0.042688303 0.32062829 11909305
0.75433332 -0.044778898 0.32401317 12040377
0.76100004 -0.041619092 0.32954586 13093579
0.75620002 -0.035159674 0.325697 11514803
0.76100004 -0.036274552 0.32954586 12568005
0.74800003 -0.026899472 0.32041413 14277853
0.75614291 -0.024792595 0.32592621 11776949
0.76000005 -0.02288308 0.32911283 11513777
0.74700004 -0.013751234 0.32173452 13553873
0.7545715 -0.01540495 0.32651085 11645363
0.74680007 -0.005001978 0.32164839 14080474
0.75440001 -0.0050533591 0.32668775 12106684
0.74633336 0.0046069697 0.3214474 14278366
0.75400001 0.0046500308 0.32651457 13422544
0.74530768 0.015271475 0.32234991 13685972
0.75333333 0.014347873 0.32798946 11382961
0.74411118 0.025499836 0.32223445 13225165
0.75250006 0.027548213 0.3293882 13026757
0.7458334 0.035455313 0.32356355 13356236
0.75100005 0.031886805 0.32873166 12829378
0.74645847 0.044801708 0.3241252 13422284
0.74588478 0.055378698 0.32421181 13158856
0.7466315 0.06473098 0.32406124 12961735
0.75000006 0.068717718 0.32829392 11316398
0.7484445 0.073443204 0.32274628 13817046
0.75300014 0.076048054 0.32703179 12435907
0.75542861 0.085007444 0.32486373 13882839
0.76050007 0.088373967 0.32932934 13092809
0.75727272 0.094689839 0.32261384 13158346
0.76175004 0.096099436 0.32719752 11974071
0.76386666 0.10492324 0.32399318 10325892
0.77000004 0.10750316 0.32893679 10260098
0.76900005 0.11186415 0.32130864 10325116
0.77378958 0.11513967 0.32545382 10459792
0.778 0.1204586 0.324157 10725025
0.78608328 0.1260861 0.32483724 10856353
0.78900003 0.13139705 0.3278181 10921889
0.79177773 0.13570727 0.32481772 10921889
0.78733343 -0.1514999 0.33234844 9934486
0.79257149 -0.15639751 0.33513561 9934998
0.77900004 -0.1419926 0.33186969 9803159
0.7865001 -0.14589119 0.33575746 10066329
0.79100001 -0.14973514 0.33883366 10198168
0.77600002 -0.13962914 0.33059162 9605780
0.78500003 -0.13520774 0.33652735 9539984
0.78900003 -0.12903886 0.33797693 9408142
0.79150003 -0.12388547 0.33904785 9408142
0.78725004 -0.11216594 0.33815026 9539983
0.79150003 -0.11740552 0.33904785 9210763
0.77560008 -0.10506227 0.33223689 9013643
0.78320009 -0.10426199 0.33732593 9539985
0.77518183 -0.09460929 0.33288521 9079435
0.77414286 -0.085702397 0.33290896 9145485
0.78316671 -0.085003853 0.33914497 9342607
0.7737 -0.074193284 0.33396137 8750470
0.78000003 -0.078265086 0.33777368 9211022
0.76833338 -0.064506806 0.33092284 9342606
0.77540004 -0.065097883 0.33578166 8816263
0.77466673 -0.054755975 0.33607045 9145485
0.76300001 -0.044407766 0.33041194 13027786
0.7753334 -0.044516921 0.33877894 8553091
0.77550006 -0.036964551 0.33945587 8290431
0.77320004 -0.024363946 0.33772764 10000792
0.76166672 -0.014916055 0.33161762 12566721
0.76060003 -0.0050953622 0.33115321 12370370
0.76000005 0.00024617839 0.330892 12567235
0.75733334 0.017972283 0.3315039 12632256
0.76000005 0.014479568 0.33267117 12500672
0.77200001 0.01109366 0.33973113 9013643
0.75620002 0.025034925 0.33171853 12764356
0.76000005 0.024265023 0.33445033 12501698
0.75716668 0.034804538 0.33320349 13093575
0.76050007 0.038523156 0.3364507 12961733
0.75566667 0.045351509 0.33343124 13225416
0.76233339 0.046646688 0.33904645 10330529
0.75388891 0.054955095 0.33274561 13356744
0.7610001 0.0545827 0.33845344 12962246
0.75600004 0.064547181 0.33347926 13685454
0.76140004 0.065123729 0.33791965 13751248
0.75725001 0.075366504 0.33257619 12961222
0.76100004 0.075071998 0.33667192 13882579
0.75900006 0.081091747 0.33134502 11778233
0.76378572 0.084672377 0.33484164 12764101
0.77200001 0.088806093 0.33973113 9605778
0.7665 0.093109444 0.33237764 13487566
0.77266669 0.095515668 0.33681053 10527136
0.76900005 0.1010627 0.33120999 10723483
0.7748667 0.10534178 0.33543384 9670536
0.7765556 0.11438058 0.33244437 10131855
0.78242856 0.11617597 0.33751675 10658973
0.78661907 0.12548177 0.33476609 10725281
0.79000002 0.12971419 0.33840528 10856868
0.78900003 0.13139705 0.33151221 10725281
0.78850007 -0.10219222 0.34145454 9408652
0.78659999 -0.095502675 0.34063178 9342604
0.79200006 -0.094956793 0.34657109 9737617
0.78900003 -0.083785802 0.34351814 9408399
0.78700006 -0.075285517 0.34264737 9276813
0.78550005 -0.065027967 0.34199429 9276813
0.78460008 -0.054844521 0.3423394 9079434
0.79175001 -0.056045603 0.34772864 9408653
0.77800006 -0.045280792 0.34055021 8882055
0.78562504 -0.045725163 0.34526938 9145227
0.79033333 -0.045075078 0.34964919 9277583
0.77700001 -0.031580307 0.34011248 8224895
0.78600007 -0.034703352 0.34589204 8751239
0.79033333 -0.036746904 0.34964919 9409169
0.77700001 -0.027942365 0.34011248 8224638
0.78600013 -0.024191981 0.34641942 8619140
0.79050004 -0.024727285 0.34972292 9211533
0.77500004 -0.011541842 0.34105134 8289918
0.78500003 -0.014453404 0.34728971 8684677
0.77500004 -0.00519183 0.34105134 7895932
0.7834 -0.0052466979 0.34658185 8224897
0.77450007 0.0047811349 0.34083131 8290434
0.78366667 0.0048352168 0.3466998 8093311
0.77650005 0.01434094 0.34398454 7960954
0.78366667 0.014926565 0.34853438 8618883
0.77483344 0.024736082 0.3446058 7961983
0.78200006 0.029544124 0.34962383 8619653
0.77566671 0.034451187 0.34618905 8488324
0.78000003 0.031294554 0.34872964 8553860
0.76700008 0.046042267 0.34202206 8751240
0.77383333 0.045841981 0.34718212 8685447
0.76880008 0.054242738 0.34372225 9409425
0.77400005 0.05460915 0.34785905 9080202
0.76550007 0.067450389 0.34045482 14079702
0.77350008 0.06507802 0.34691194 10724258
0.76616669 0.074683957 0.34075129 13882323
0.77354544 0.074989058 0.34666896 11514546
0.76900005 0.081260026 0.34201142 14803427
0.77420002 0.085678264 0.34529379 11579825
0.77612501 0.09359891 0.34222853 10000789
0.78314292 0.096115015 0.34725299 10198681
0.77900004 0.10055325 0.34098795 10330522
0.78585726 0.10538248 0.34596494 10462110
0.787 0.11411595 0.34424722 10725024
0.7902 0.11605816 0.34885043 10725282
0.78840005 0.12170037 0.34215006 10659489
0.79164708 0.12562539 0.34565493 10791075
0.78900003 -0.010826807 0.35090637 8882825
0.78900003 -0.0057473835 0.35090637 8882825
0.78900003 0.0085673565 0.35090637 8685446
0.79207993 0.0049281181 0.35583806 8883077
0.78820002 0.015015431 0.35202682 8619649
0.79191667 0.014470593 0.35683918 8883076
0.78587502 0.025554819 0.35204896 8554115
0.78666669 0.035855848 0.35385966 8948871
0.79150003 0.035768453 0.35819462 8949385
0.77900004 0.045843657 0.35101801 9080459
0.78590006 0.045146164 0.35560188 9080714
0.79050004 0.041893404 0.3589758 9212043
0.77850008 0.054016579 0.35170397 9277579
0.78550005 0.056030363 0.35640094 9277836
0.78445458 0.065030277 0.35523233 9212302
0.77900004 0.078669414 0.35192984 9607320
0.78510004 0.074688151 0.35579154 9278354
0.77900004 0.084140375 0.35101801 9343890
0.78370011 0.0855643 0.35479012 9738389
