# .PCD v0.7 - Point Cloud Data file format
VERSION 0.7
FIELDS x y z rgb
SIZE 4 4 4 4
TYPE F F F U
COUNT 1 1 1 1
WIDTH 612
HEIGHT 1
VIEWPOINT 0 0 0 1 0 0 0
POINTS 612
DATA ascii
0.79442108 -0.63548577 -0.4155474 12301760
0.79272723 -0.6247201 -0.41472408 12235967
0.79471439 -0.61487931 -0.41531652 12367552
0.79568756 -0.64552683 -0.40517557 11775163
0.78900003 -0.63144004 -0.40084833 14275806
0.79109997 -0.63506675 -0.40506402 13946842
0.78899992 -0.6251601 -0.40232602 14144220
0.79015386 -0.62410998 -0.40755326 14012632
0.78900003 -0.61789495 -0.40146402 14078426
0.79052019 -0.61459363 -0.40539733 14144219
0.79225004 -0.60488468 -0.40453106 14210013
0.79384619 -0.59528965 -0.40467161 14341599
0.79433334 -0.58523476 -0.4046227 14144733
0.79400003 -0.57503152 -0.40510699 14276062
0.79366672 -0.5649839 -0.4050104 14473184
0.79414815 -0.55520415 -0.40539497 14407390
0.79530776 -0.54504049 -0.40462822 14473438
0.79615378 -0.51508534 -0.40448511 14670815
0.79581493 -0.50503343 -0.40410632 14473437
0.79554558 -0.4949688 -0.40553033 14210265
0.79441673 -0.48529163 -0.40561831 14341855
0.79328567 -0.47495964 -0.40495285 14670562
0.79339296 -0.46467566 -0.40474129 14868454
0.79328018 -0.45472866 -0.40488121 14934248
0.79353571 -0.44498828 -0.40507847 14802662
0.79417849 -0.43499079 -0.40540782 15065320
0.79328001 -0.42464361 -0.40488377 15197160
0.79250008 -0.41474894 -0.4045575 15065574
0.79217404 -0.40531224 -0.40464166 15197417
0.79199988 -0.39489564 -0.40461564 15132137
0.79196304 -0.38496259 -0.40441632 15132135
0.79322571 -0.37478358 -0.40443558 14934498
0.79493338 -0.64549625 -0.39517707 11577273
0.78900003 -0.63144004 -0.39530715 14276063
0.79087502 -0.63652939 -0.39474201 14078942
0.78899974 -0.62513453 -0.39543444 14275806
0.79000002 -0.62176043 -0.39087641 14473185
0.78900003 -0.61689442 -0.39738512 14143964
0.79010737 -0.61389512 -0.39407772 14209757
0.79133344 -0.60459137 -0.39462322 14275806
0.79246658 -0.59432667 -0.39518943 14407136
0.79300004 -0.58451766 -0.39545479 14275807
0.79380554 -0.57488835 -0.39492613 14341599
0.79443341 -0.56511766 -0.39523828 14473185
0.79319233 -0.55509311 -0.395336 14341599
0.79412502 -0.54537439 -0.39508516 14473183
0.79573345 -0.53530347 -0.3949551 14736354
0.79620016 -0.52536714 -0.39518726 14802146
0.79496002 -0.51524442 -0.39457172 14670816
0.79374993 -0.50516963 -0.39490122 14407387
0.7934584 -0.4955411 -0.39552984 14078167
0.79259992 -0.48588315 -0.39525577 14604769
0.79199988 -0.47531661 -0.39495611 14802148
0.79199988 -0.46511912 -0.39495617 15000040
0.79236662 -0.45513105 -0.39513978 15131624
0.79279989 -0.44517335 -0.39535594 15065575
0.79277778 -0.43546903 -0.39555147 14999782
0.79185712 -0.42484924 -0.39468628 15065830
0.79100013 -0.41453472 -0.39445743 14934757
0.79085195 -0.40499482 -0.3947942 15000550
0.7908532 -0.39523503 -0.39503652 15131879
0.79191995 -0.38535449 -0.39491594 14934758
0.79193324 -0.37516305 -0.39492318 15198186
0.79636675 -0.36607072 -0.39495701 14080218
0.79425007 -0.64482415 -0.38527101 12103617
0.78900003 -0.63144004 -0.38976595 14342369
0.79068011 -0.63493419 -0.38467246 14276320
0.78900003 -0.62743807 -0.38915026 14342369
0.79011559 -0.62436426 -0.38441184 14408162
0.79118204 -0.61488664 -0.38461155 14341855
0.79234254 -0.60523129 -0.38505593 14407392
0.79338878 -0.59501815 -0.38543075 14407391
0.79425806 -0.58526522 -0.38570306 14276318
0.79437941 -0.57514453 -0.38511273 14342111
0.79444009 -0.56512266 -0.38501436 14407904
0.79317236 -0.55480826 -0.38516805 14341599
0.79440629 -0.54580009 -0.38534582 14407391
0.796 -0.53534943 -0.38496986 14802404
0.79663652 -0.52514625 -0.38489008 14802403
0.79512006 -0.51512539 -0.38511893 14538975
0.79283327 -0.50458658 -0.3851634 14210010
0.79184604 -0.49483112 -0.38539758 14210011
0.79222572 -0.48493364 -0.38507751 14802662
0.79212111 -0.47496837 -0.38490149 14737124
0.79181474 -0.46521676 -0.38518432 15000553
0.79150009 -0.45496508 -0.38564187 15132138
0.79137045 -0.44478187 -0.38517448 15197930
0.79148 -0.43516713 -0.38543373 15263209
0.79230541 -0.4254193 -0.38490617 15197416
0.79260606 -0.4148705 -0.38479769 15132136
0.79190308 -0.40466255 -0.38473985 15197928
0.79144841 -0.39496401 -0.38522476 15197413
0.79132009 -0.38506344 -0.38535634 15131621
0.79116142 -0.37464708 -0.38509881 15263723
0.79594117 -0.36560011 -0.38491672 13817301
0.79435009 -0.644557 -0.37483528 12498886
0.7913214 -0.63422501 -0.37503245 14473442
0.79132366 -0.62468994 -0.37538347 14473955
0.79264504 -0.61502188 -0.37504467 14408161
0.79332238 -0.60410464 -0.37500623 14407904
0.79496878 -0.59492427 -0.37503433 14407391
0.79526472 -0.5849824 -0.37517384 14407647
0.79500002 -0.57482523 -0.37504938 14539232
0.79456657 -0.56521219 -0.37484375 14604769
0.79396772 -0.55531263 -0.37441039 14407391
0.79422855 -0.5453133 -0.3748177 14473184
0.79612917 -0.53571784 -0.37483025 14736355
0.79519051 -0.51486284 -0.37500721 14341853
0.79304004 -0.50471908 -0.37505376 14210011
0.79113811 -0.49411887 -0.37491986 14605026
0.79155552 -0.48544595 -0.37476248 15131370
0.79199988 -0.47531661 -0.37456116 14868710
0.79107159 -0.4643757 -0.3747175 14934760
0.79100019 -0.45527309 -0.37501413 15066344
0.79044467 -0.44529033 -0.37588271 15132137
0.7904287 -0.43518332 -0.37547109 15197930
0.79226673 -0.42539713 -0.3746888 15197929
0.7932142 -0.4150992 -0.37533551 15329002
0.79187495 -0.40479824 -0.37450337 15526123
0.79081827 -0.39483273 -0.37551782 15328744
0.79007167 -0.38504964 -0.37530091 15131623
0.79094309 -0.37482482 -0.3748531 15132137
0.79602641 -0.36498135 -0.37499213 13882321
0.79409534 -0.64410704 -0.36457285 13288143
0.79192585 -0.63419384 -0.36518815 14473955
0.79223067 -0.62460887 -0.36518303 14539748
0.7929998 -0.61514878 -0.36482388 14408162
0.79329407 -0.60450602 -0.36495957 14342370
0.7945385 -0.59516484 -0.36445934 14342368
0.7960555 -0.58490366 -0.3646754 14342369
0.79660016 -0.57473791 -0.36461335 14473953
0.79659373 -0.56513757 -0.36484352 14342110
0.79570365 -0.54477131 -0.3650662 14539489
0.79565221 -0.52533185 -0.36535707 14342110
0.79285723 -0.51485443 -0.36506915 14276574
0.79146153 -0.50499505 -0.36511633 14276574
0.79114294 -0.49484357 -0.36469799 14737125
0.7918399 -0.48541537 -0.3652164 15066090
0.79196656 -0.47529685 -0.36527523 14868711
0.7912401 -0.46467328 -0.36493978 14934504
0.79068017 -0.45508975 -0.36468184 15066346
0.79003358 -0.44546941 -0.36530825 14934759
0.79002821 -0.435294 -0.36530578 14868963
0.79116684 -0.42480695 -0.36490601 15066343
0.79184604 -0.4151217 -0.36500594 15263722
0.79036021 -0.40494937 -0.36453509 15526122
0.7901566 -0.39524725 -0.3651334 15526122
0.79076499 -0.38544446 -0.36586273 15197159
0.79234368 -0.37512463 -0.36510065 15394794
0.79600006 -0.64511913 -0.35463119 13815515
0.79340613 -0.63502562 -0.3553125 14473957
0.79316127 -0.62524521 -0.35522178 14539493
0.79342872 -0.6151495 -0.3550024 14539748
0.79291999 -0.60487759 -0.35457775 14473955
0.79356658 -0.59515029 -0.35486716 14408162
0.79619449 -0.58500516 -0.3551093 14408160
0.79600006 -0.55531693 -0.35489228 14539233
0.7954815 -0.54461843 -0.35579419 14539232
0.79613644 -0.53515136 -0.35491598 14342366
0.79450005 -0.52517784 -0.3552849 14408416
0.79175872 -0.51489681 -0.35482505 14539746
0.7901113 -0.50490838 -0.35475954 14539747
0.79011559 -0.4952428 -0.35531595 14868711
0.79080027 -0.48539409 -0.35517332 15131882
0.791861 -0.4752326 -0.35503155 15065832
0.7918666 -0.46504104 -0.3550328 15131624
0.79163635 -0.45513329 -0.3546752 15263723
0.7917273 -0.44507617 -0.35522127 15263723
0.79165626 -0.4349165 -0.35470533 15066344
0.79255873 -0.42528227 -0.35556018 15000294
0.79241365 -0.41514945 -0.35511768 15197672
0.79121882 -0.40504083 -0.35450903 15394794
0.79152942 -0.39508155 -0.35509774 15394794
0.79246855 -0.38527268 -0.35512829 15197158
0.79302692 -0.37475023 -0.35532707 15460842
0.79522586 -0.63492179 -0.34479973 14539491
0.79493338 -0.62502295 -0.34524313 14605541
0.79475009 -0.61522758 -0.34493032 14474211
0.79341388 -0.60480618 -0.34467718 14538978
0.793657 -0.59508592 -0.34482044 14473440
0.79531437 -0.58515787 -0.34511641 14408160
0.79575014 -0.57482392 -0.34459054 14144988
0.79540008 -0.56550729 -0.34458935 14144988
0.7942223 -0.55587852 -0.34545109 14342367
0.79276919 -0.54515994 -0.3453747 14473696
0.7936129 -0.53516477 -0.34566158 14408416
0.79260862 -0.52453107 -0.34492153 14540000
0.79140007 -0.51479018 -0.34463531 14605794
0.79078585 -0.50493562 -0.34496102 14737124
0.79040653 -0.4952921 -0.34489384 15000296
0.79060644 -0.48544347 -0.34529686 15197674
0.79170001 -0.47513548 -0.3447645 15197160
0.79269987 -0.46460098 -0.34520048 15000038
0.79311115 -0.45483807 -0.34496644 15263467
0.79300004 -0.44528568 -0.34533131 15461103
0.79276657 -0.43494686 -0.34522882 15329515
0.79291999 -0.42482227 -0.34529671 15197929
0.79249996 -0.41510773 -0.344971 15132135
0.79284358 -0.40488487 -0.34485531 15197929
0.79348284 -0.39553145 -0.34477097 15263721
0.79257691 -0.385461 -0.34529024 15262951
0.79340535 -0.37447652 -0.34495494 15460586
0.79490006 -0.64453864 -0.33499557 14341603
0.79315996 -0.63476914 -0.33426166 14473955
0.79333353 -0.62520891 -0.33454081 14539747
0.79439402 -0.61495954 -0.33461118 14473954
0.79484004 -0.60448164 -0.33496743 14539490
0.79427999 -0.59475935 -0.33473164 14342367
0.79465389 -0.58552128 -0.33503336 14210781
0.79439294 -0.57531518 -0.33478087 14210781
0.79399991 -0.56502277 -0.33447397 14210781
0.79274994 -0.55444252 -0.33468559 14408160
0.79155999 -0.54454333 -0.33543992 14539746
0.79108012 -0.53495276 -0.33523619 14474209
0.79034638 -0.52499175 -0.33506805 14408416
0.79003471 -0.51466602 -0.33466503 14605794
0.79080027 -0.50514174 -0.33511734 14803173
0.79121894 -0.49498996 -0.33494619 15066088
0.79223514 -0.48500228 -0.33457887 15197417
0.79259372 -0.47509265 -0.33517957 15131368
0.79302758 -0.46479404 -0.33513236 15066087
0.79307139 -0.45441008 -0.33481956 15066086
0.79296654 -0.44526687 -0.335107 15263465
0.79311091 -0.43513593 -0.3351675 15592430
0.79299992 -0.42486495 -0.33512083 15460587
0.79299986 -0.41465446 -0.33512059 15263721
0.79451865 -0.4054237 -0.33524457 15197928
0.79446161 -0.39574939 -0.33502299 15197928
0.79282331 -0.38513955 -0.33482721 15066085
0.79422212 -0.37484869 -0.33527294 15394793
0.79376191 -0.6448983 -0.32495707 14342115
0.79232126 -0.63469309 -0.32443351 14671333
0.79324991 -0.62495834 -0.32481328 14539747
0.79423541 -0.61440945 -0.32525256 14473953
0.7949667 -0.60457766 -0.32478574 14342623
0.79444838 -0.59501374 -0.32473361 14211037
0.79453582 -0.58525008 -0.32494131 14210780
0.79351997 -0.57561415 -0.32512319 14210781
0.79243994 -0.56555521 -0.32468131 14210781
0.79148 -0.55560571 -0.3242878 14473954
0.79100019 -0.54495049 -0.32488474 14605540
0.79083353 -0.53478611 -0.32494792 14473953
0.79054576 -0.52483237 -0.32457617 14473953
0.79075778 -0.51487505 -0.32516712 14605538
0.79140633 -0.50518179 -0.32506636 14802917
0.79128134 -0.49520308 -0.32495853 15197675
0.79218513 -0.48521456 -0.32478315 15328746
0.79264277 -0.47536978 -0.32456598 15131367
0.7923702 -0.46492431 -0.32485989 15132136
0.79235697 -0.45479539 -0.32444975 15132392
0.79207993 -0.44476905 -0.32453403 15329514
0.79259986 -0.43485445 -0.32474765 15526893
0.79360008 -0.42518616 -0.32515651 15526893
0.79326671 -0.41479322 -0.32501918 15329514
0.79482138 -0.405173 -0.32505864 15197927
0.79430777 -0.39595893 -0.32523185 15132135
0.79299992 -0.38495177 -0.32491058 15000292
0.79467744 -0.37450939 -0.32511806 15394792
0.79350001 -0.64526099 -0.31489784 14408163
0.7924999 -0.63493502 -0.31508148 14605540
0.79374993 -0.62502074 -0.31499884 14605539
0.794182 -0.61457157 -0.31491536 14539489
0.79503852 -0.6048466 -0.31457818 14342110
0.79496157 -0.59512568 -0.31476259 14276574
0.79487884 -0.58522546 -0.31502226 14276573
0.79475862 -0.57477933 -0.3152366 14342367
0.79349977 -0.56476289 -0.31489649 14276575
0.79303229 -0.55501753 -0.31485915 14539746
0.79213339 -0.54493725 -0.31435317 14671332
0.7918126 -0.53469408 -0.31428468 14473953
0.79155564 -0.52456707 -0.31525797 14473953
0.79195994 -0.51515329 -0.31521431 14605539
0.79136008 -0.50550097 -0.31497666 14803174
0.7911002 -0.49514765 -0.31487176 15132138
0.79222554 -0.48547286 -0.31424224 15131880
0.79234272 -0.47538921 -0.31457111 14868452
0.79263628 -0.46498632 -0.31430155 14934757
0.79227263 -0.45465675 -0.31466311 15066342
0.79171997 -0.44456798 -0.31511888 15197928
0.79173064 -0.43509042 -0.31526729 15461100
0.79299986 -0.42542598 -0.31484163 15395307
0.79375005 -0.41504562 -0.31499803 15461099
0.7943334 -0.40532944 -0.31471264 15263720
0.7938751 -0.39495963 -0.31464097 15197927
0.79285187 -0.38518974 -0.31556991 15065829
0.79282147 -0.37518549 -0.31529406 15197927
0.79503447 -0.36530283 -0.31445077 12961477
0.79350007 -0.64422846 -0.30499035 14539491
0.79209077 -0.63492471 -0.3049278 14671334
0.79292303 -0.62508357 -0.30453226 14671334
0.79440004 -0.61498278 -0.30481479 14473954
0.79641193 -0.60501713 -0.304647 14276574
0.79638737 -0.59495211 -0.30494606 14210782
0.79555559 -0.5748139 -0.3048484 14342621
0.79465389 -0.56541753 -0.30490893 14342622
0.79496557 -0.55542004 -0.305116 14605794
0.79399985 -0.54490483 -0.30479488 14671331
0.79299986 -0.5349704 -0.30506533 14473953
0.79216653 -0.52456099 -0.30509698 14473953
0.79143339 -0.51481199 -0.30481547 14802918
0.79151517 -0.50509357 -0.30459183 15066090
0.79215145 -0.49538293 -0.30534238 15197675
0.79319984 -0.48532084 -0.30456585 14868709
0.79304004 -0.47501266 -0.30450511 15000551
0.79284608 -0.46540257 -0.30457407 15132137
0.79244822 -0.45501798 -0.30415019 15263721
0.79243332 -0.44496801 -0.30519792 15263722
0.792 -0.43527409 -0.30488107 15197928
0.79303128 -0.42569128 -0.30484825 15197928
0.79382765 -0.4149265 -0.30493551 15395050
0.7938 -0.40485245 -0.30479783 15197928
0.79323995 -0.39528239 -0.30458242 15131878
0.79248148 -0.38542295 -0.30470294 15000548
0.79251266 -0.37493643 -0.30487141 15263719
0.79395241 -0.64390177 -0.29485375 14539748
0.79331231 -0.63489062 -0.29439351 14671332
0.79379386 -0.62499958 -0.29435259 14671332
0.79563916 -0.61569142 -0.2954624 14540000
0.7959643 -0.56494182 -0.29517773 14342621
0.79500002 -0.55486059 -0.29527551 14737122
0.79461539 -0.54535747 -0.29516512 14540001
0.79278558 -0.53484738 -0.29492944 14276828
0.79163992 -0.52421254 -0.29470217 14671587
0.79072016 -0.51434672 -0.29436004 14868711
0.7919333 -0.50493795 -0.29481158 15131882
0.79326665 -0.49464595 -0.29530704 15197929
0.79414302 -0.48476925 -0.29503614 14539742
0.79267997 -0.47479829 -0.29508954 15066344
0.79160005 -0.46488526 -0.29468772 15197930
0.79183328 -0.45482343 -0.29477355 15329514
0.79411769 -0.44476247 -0.29496679 15592686
0.79459381 -0.43466973 -0.29463568 15395307
0.79485297 -0.42465323 -0.29518503 15263720
0.79446673 -0.41449296 -0.29482323 15329255
0.79383337 -0.40487057 -0.29458788 15263463
0.79323316 -0.39527848 -0.2943649 15197414
0.79251838 -0.38523409 -0.29482132 15065571
0.79502386 -0.37471306 -0.29493782 15263719
0.79392588 -0.64460856 -0.28481326 14671076
0.7952258 -0.6352796 -0.28474513 14737124
0.79624152 -0.62495685 -0.28535694 14671586
0.79629177 -0.59494543 -0.28532714 14342622
0.79516 -0.55446506 -0.28484231 14737121
0.79471999 -0.54485673 -0.28468508 14342365
0.79287088 -0.53448778 -0.28510004 14473953
0.79155171 -0.5242821 -0.28463593 14803173
0.79012018 -0.51395696 -0.28488672 14803172
0.79096782 -0.50417179 -0.28501382 15131881
0.7928822 -0.49467805 -0.28473631 15197417
0.79400009 -0.48545721 -0.28513077 14605793
0.79273319 -0.47483021 -0.28490058 14869222
0.79166663 -0.46492359 -0.28451687 15066343
0.79213876 -0.45500028 -0.28468806 15197928
0.79279304 -0.44497588 -0.28457314 15592686
0.7941429 -0.43536812 -0.28428119 15461100
0.79500002 -0.42500597 -0.28478566 15329514
0.79419988 -0.41435415 -0.28449982 15329513
0.79468 -0.40530014 -0.28467107 15197928
0.7948333 -0.39514542 -0.28472549 15197671
0.79319346 -0.38429698 -0.28521645 14934499
0.79391998 -0.64467233 -0.27510539 14671333
0.79503232 -0.6351251 -0.27561191 14671332
0.79610723 -0.62501252 -0.27586594 14671331
0.79620004 -0.60551691 -0.27589759 14342366
0.79504007 -0.59532875 -0.27549535 14211035
0.79538244 -0.58457285 -0.27572292 14408671
0.79607415 -0.55517286 -0.27536818 14671073
0.79452181 -0.5450443 -0.27555755 14210523
0.79307407 -0.53485703 -0.2746067 14737124
0.79276919 -0.52481711 -0.27491948 14868965
0.7919333 -0.51513714 -0.27534211 14934758
0.79160011 -0.50485843 -0.27509469 14868708
0.79319996 -0.49460334 -0.27485645 15131366
0.79395998 -0.48485729 -0.2751202 14539229
0.79303992 -0.47501305 -0.2748014 14803172
0.79276651 -0.46464074 -0.2747063 15132136
0.79288 -0.4544996 -0.27474558 15263721
0.79199988 -0.44472417 -0.27444053 15263721
0.79286659 -0.43500006 -0.27474123 15461100
0.79486668 -0.42493391 -0.27543429 15329514
0.79352003 -0.41399947 -0.27496713 15395307
0.79372001 -0.40481004 -0.27503791 15395307
0.79435998 -0.39584142 -0.27525973 15197928
0.79249984 -0.38504085 -0.27481347 14934756
0.79581583 -0.374542 -0.27497798 15198183
0.79623812 -0.65481001 -0.26499116 12433604
0.79430008 -0.64497948 -0.26501048 14671332
0.7947576 -0.63503236 -0.26558697 14737124
0.79496777 -0.62522966 -0.26508322 14671331
0.79500002 -0.61483908 -0.26524395 14605793
0.79500002 -0.60460299 -0.26524395 14276829
0.79490006 -0.59522301 -0.26521006 14276829
0.7948612 -0.58495861 -0.26519775 14342366
0.79516673 -0.55540115 -0.26491347 14540001
0.7933479 -0.54544973 -0.26537991 14145242
0.79293323 -0.53527707 -0.26548284 14737380
0.7945556 -0.5252105 -0.26509464 15066344
0.79366666 -0.51525921 -0.26487407 15000551
0.7918275 -0.5047124 -0.26524007 14803173
0.79362863 -0.49473703 -0.2649169 14868452
0.79433334 -0.48508647 -0.26502016 14539487
0.79247993 -0.47467846 -0.26533112 14737635
0.79211521 -0.46497244 -0.26535195 14803172
0.79203558 -0.45494255 -0.26518285 15132392
0.79188454 -0.44487265 -0.26498929 15263721
0.79287088 -0.43485323 -0.26528108 15395307
0.79431432 -0.42450362 -0.26514784 15197928
0.79371423 -0.41430047 -0.26514614 15263721
0.79304004 -0.40446448 -0.26551849 15395307
0.79324007 -0.39528313 -0.26558578 15329514
0.79196286 -0.38496277 -0.26495138 14868963
0.79552394 -0.37459302 -0.26523787 15132647
0.79610008 -0.65510947 -0.25526777 12038591
0.79269564 -0.64440286 -0.25435147 14736868
0.79224145 -0.63492882 -0.25444546 14737124
0.79324132 -0.62516302 -0.25451091 14605795
0.7942667 -0.61501402 -0.25477508 14671331
0.79448152 -0.60462135 -0.25463647 14342621
0.79396009 -0.59451944 -0.2546761 14276828
0.7942189 -0.58407575 -0.25446641 14408157
0.79399997 -0.55537403 -0.25490078 14276574
0.79299992 -0.54553276 -0.25529456 14276573
0.79324317 -0.53530979 -0.25524622 14868710
0.79486215 -0.52525342 -0.25509179 15197672
0.79455554 -0.51477629 -0.25527689 15131880
0.79381824 -0.50470436 -0.255301 14737379
0.79517853 -0.49550483 -0.25546172 14737379
0.79516006 -0.48559076 -0.2550588 14802657
0.79331237 -0.47482809 -0.25516135 14605791
0.79276663 -0.46495092 -0.2552174 14737378
0.79184365 -0.4548324 -0.2549217 15132391
0.79234284 -0.44475472 -0.25505516 15132135
0.79374993 -0.435195 -0.2556504 15000549
0.79381478 -0.4252319 -0.2549721 15066341
0.79380655 -0.41468769 -0.25486434 15066341
0.79306668 -0.40447849 -0.25531563 15132391
0.79279989 -0.39506349 -0.25523019 15066341
0.79230535 -0.38461319 -0.25507087 14803426
0.79506254 -0.65490717 -0.24478991 11775164
0.79119056 -0.64501363 -0.24470207 14605283
0.79006922 -0.63491005 -0.2440508 14737125
0.79156667 -0.6251536 -0.24464114 14671332
0.79226661 -0.61457866 -0.24485789 14605539
0.79336649 -0.60428786 -0.24501158 14473953
0.79393554 -0.59467995 -0.24447142 14408159
0.79514647 -0.58437026 -0.24470143 14408414
0.79473919 -0.55522406 -0.24489239 14210780
0.79295999 -0.5455054 -0.24507202 14342623
0.79338717 -0.53537208 -0.24532504 14934502
0.79472739 -0.52495795 -0.244829 15131880
0.79500002 -0.5152697 -0.24477173 15131623
0.79530549 -0.50522685 -0.24486679 14474208
0.79556668 -0.49515072 -0.24494757 14737636
0.79500002 -0.48549193 -0.24477173 15000550
0.79466671 -0.47505748 -0.24559879 15066342
0.79363996 -0.4642247 -0.24528225 15131879
0.79251993 -0.45429391 -0.24493518 15066342
0.79219991 -0.44483569 -0.24483751 15461100
0.79303318 -0.43509299 -0.2450953 15263719
0.79324007 -0.42499283 -0.24515854 15132389
0.79458827 -0.41526523 -0.24491745 15066340
0.79363996 -0.40477246 -0.2452819 15197668
0.7924 -0.39486381 -0.24489968 15066083
0.79229993 -0.38461056 -0.24486801 14803168
0.79518747 -0.65489322 -0.2349398 12368070
0.79184008 -0.64513379 -0.23508561 14671331
0.79148394 -0.6345613 -0.23516969 14671331
0.7932353 -0.6252141 -0.23483084 14671330
0.79397207 -0.61497223 -0.23515815 14671586
0.79415619 -0.60459834 -0.23532999 14540001
0.7956 -0.59481406 -0.23471254 14540000
0.79600012 -0.58465022 -0.234687 14474464
0.79504764 -0.55518448 -0.23481491 13947863
0.79303324 -0.54555732 -0.23488314 14276828
0.79234356 -0.53464609 -0.23525919 14868965
0.79525721 -0.52532655 -0.23476958 15395051
0.79500002 -0.50487316 -0.23466402 14342622
0.79476011 -0.49464837 -0.2344659 14737637
0.79384011 -0.48478457 -0.23419373 14869220
0.79296416 -0.47516674 -0.23519552 14803171
0.79251838 -0.46501109 -0.23586644 15000549
0.79268742 -0.45479399 -0.23483905 15329512
0.7926333 -0.44507983 -0.23476362 15526891
0.79255855 -0.43510589 -0.23463261 15329511
0.79309368 -0.42526212 -0.23501769 15066338
0.79354841 -0.41533059 -0.23458846 15132387
0.79268003 -0.40428212 -0.23570828 15131876
0.79136014 -0.39434573 -0.23531561 15065826
0.79159266 -0.38478151 -0.23559046 14868705
0.79534149 -0.37451908 -0.23499788 15263976
0.79417658 -0.65461493 -0.22466989 12762569
0.79123086 -0.64462501 -0.22523323 14605793
0.79085726 -0.63493502 -0.22485302 14540001
0.7930001 -0.62501621 -0.22449718 14605793
0.79540002 -0.61514837 -0.22534262 14671331
0.79556006 -0.60502934 -0.22538862 14671586
0.79579318 -0.59511971 -0.22532634 14605793
0.79606664 -0.58435416 -0.22578064 14606050
0.79556006 -0.55474573 -0.22538862 14013913
0.79365003 -0.54505193 -0.22484663 14211035
0.79351276 -0.53502202 -0.22537833 14605537
0.79577786 -0.50466639 -0.22503464 14211033
0.79460001 -0.49454898 -0.22511555 14737636
0.79403996 -0.48490563 -0.22495802 14803169
0.793037 -0.47480634 -0.22508496 15197928
0.79203326 -0.46513888 -0.22531651 15066341
0.79265612 -0.45552897 -0.22491366 15197927
0.79410726 -0.44530776 -0.22477731 15461353
0.79344457 -0.43480337 -0.22499445 15198179
0.79300004 -0.42486495 -0.22466354 15000800
0.79244006 -0.41529033 -0.22450572 15132386
0.79158068 -0.405395 -0.2253383 15132130
0.79094142 -0.39506215 -0.22500636 15000287
0.79090339 -0.38503829 -0.22484678 14934495
0.79444182 -0.37463096 -0.22498398 15198437
0.79390907 -0.6550563 -0.2151197 12697032
0.78900003 -0.64129108 -0.21121651 14079449
0.79029417 -0.64488316 -0.21519038 14408415
0.78899986 -0.63504612 -0.21359135 14342621
0.79000002 -0.6338256 -0.21747276 14342621
0.78900003 -0.62959301 -0.21152435 14145242
0.79073346 -0.62449437 -0.21476731 14408414
0.79334372 -0.61500603 -0.21565214 14540000
0.79436678 -0.60449147 -0.21519636 14803172
0.79555887 -0.59505737 -0.21514513 14868965
0.79543746 -0.58480132 -0.21511312 14737123
0.79512906 -0.55462372 -0.21487939 14408155
0.7950334 -0.54507041 -0.21500233 14276313
0.79505563 -0.5348478 -0.2150088 14671585
0.79520011 -0.49492282 -0.21504769 14671328
0.79464293 -0.48547366 -0.21523032 14803167
0.79356003 -0.47532585 -0.21553449 15066339
0.79274988 -0.4649635 -0.2155128 15263977
0.79266649 -0.45478848 -0.21508591 15329257
0.79311115 -0.44493428 -0.21561982 15395047
0.79303545 -0.43476313 -0.2151939 15263459
0.79267997 -0.42469433 -0.21529533 15131873
0.79191989 -0.41501752 -0.2150887 15131616
0.79108012 -0.4053176 -0.21486059 14999772
0.79032016 -0.39567769 -0.21465431 14934235
0.79016691 -0.3854253 -0.21461229 14868443
0.79445237 -0.37439531 -0.21506457 15198694
0.79595238 -0.65448487 -0.20481904 11842234
0.78900003 -0.64067537 -0.20875375 14211035
0.79240006 -0.64469647 -0.20475046 12237248
0.78900003 -0.63421059 -0.20875375 14211035
0.79119235 -0.6349749 -0.20420097 12763332
0.78900003 -0.62774593 -0.20875375 14211035
0.79055202 -0.62457716 -0.20412064 12829637
0.79097164 -0.61497462 -0.20472433 13290188
0.79414278 -0.60536057 -0.2051535 13750997
0.79532015 -0.58436716 -0.20484059 14606048
0.79464006 -0.5745644 -0.20466517 14934756
0.79439998 -0.56509298 -0.20460352 14868963
0.79526669 -0.55546892 -0.20482579 14539485
0.7952401 -0.54521304 -0.20481926 14671072
0.79465532 -0.53473991 -0.20479859 14276827
0.79514819 -0.52467185 -0.20479637 15263462
0.79445845 -0.49500334 -0.2046975 14671326
0.79295993 -0.48506379 -0.20460472 14802909
0.79179418 -0.47492161 -0.2046428 14869215
0.79133332 -0.46486488 -0.20525624 15263974
0.79057717 -0.45481589 -0.2056134 15197412
0.79053879 -0.44518396 -0.20553255 15460328
0.78900003 -0.43472782 -0.20136549 15131616
0.7906819 -0.43523338 -0.20625593 15460582
0.79082167 -0.42495349 -0.20573366 15197666
0.78900003 -0.41385597 -0.20173493 14803419
0.79035008 -0.41502652 -0.20624414 15066336
0.78877765 -0.40454853 -0.20325831 14802905
0.79022223 -0.40528929 -0.20825517 14933979
0.78849989 -0.39461181 -0.20477723 14933980
0.79000002 -0.3992154 -0.20901833 14999515
0.78880936 -0.38612667 -0.20439512 14868444
0.79000002 -0.38215977 -0.20675796 14144722
0.7943334 -0.3748247 -0.20480251 15330025
0.79510343 -0.62476742 -0.19469927 10593447
0.79525 -0.61476821 -0.19467768 10987948
0.79586202 -0.54486829 -0.19476223 12895171
0.79555899 -0.5348556 -0.19459869 12830149
0.79433346 -0.50538713 -0.19513492 13355981
0.79280007 -0.49528465 -0.19491296 13356237
0.79285175 -0.48562342 -0.19471778 13093065
0.79196423 -0.47496483 -0.19490318 12566977
0.79107159 -0.46444252 -0.19507897 13224393
0.79030019 -0.45487052 -0.19522041 13224392
0.78899997 -0.44389206 -0.19724515 15197922
0.79000002 -0.44621199 -0.19335282 12171444
0.78899992 -0.43467343 -0.19756275 14539992
0.79010528 -0.43538541 -0.19278847 12105906
0.78900003 -0.4282631 -0.19767138 15526374
0.79023361 -0.42492405 -0.19495755 13618891
0.78899997 -0.4139128 -0.19724514 14540504
0.79017645 -0.4164969 -0.19339538 12829891
0.78844112 -0.40467179 -0.19503321 13619661
0.79000002 -0.40846244 -0.19052429 10461861
0.78756678 -0.39429852 -0.19454545 13816527
0.7885713 -0.38583359 -0.19505811 14144721
0.79012501 -0.38124394 -0.19425324 15855083
0.79550004 -0.375723 -0.19510528 14474712
0.79487497 -0.49500647 -0.18512112 11185582
0.7952413 -0.4550164 -0.18510255 11054509
0.79441202 -0.4448157 -0.18501411 11383216
0.7949689 -0.43493006 -0.18525855 10988457
0.79518181 -0.4249585 -0.18527794 11119531
0.79541934 -0.41510546 -0.18521424 10791079
0.78900003 -0.40055713 -0.18843606 10659240
0.79359275 -0.40515614 -0.18477532 10987945
0.78900003 -0.39501595 -0.18843606 10855847
0.79255557 -0.39493814 -0.18371275 11119529
0.78900003 -0.38855124 -0.18843606 12039862
0.79338902 -0.38456675 -0.18478201 12303802
