# .PCD v0.7 - Point Cloud Data file format
VERSION 0.7
FIELDS x y z rgb
SIZE 4 4 4 4
TYPE F F F U
COUNT 1 1 1 1
WIDTH 696
HEIGHT 1
VIEWPOINT 0 0 0 1 0 0 0
POINTS 696
DATA ascii
0.45457146 -0.0041063856 -0.06067764 15131358
0.45822227 0.0030109719 -0.060687914 15329764
0.46800002 -0.030525105 -0.050418567 13354172
0.46411768 -0.024403218 -0.052458391 13156793
0.45572346 -0.013707276 -0.053655639 13288124
0.46000001 -0.019234626 -0.051710445 12959414
0.45297334 -0.0051556169 -0.054899011 15328735
0.45522228 0.0026847548 -0.055158712 15132385
0.47610003 -0.042090856 -0.041480694 13354171
0.46719047 -0.031307153 -0.044138473 13485756
0.47300002 -0.036948889 -0.043694902 13485758
0.45727581 -0.022113595 -0.043213885 12827571
0.4629375 -0.026070079 -0.046081554 13090743
0.44842109 -0.01223208 -0.042398583 14209481
0.45355004 -0.015450859 -0.045948122 13222331
0.44815862 -0.0051488038 -0.044138212 15789287
0.45033333 -0.0049497443 -0.048866972 15460322
0.44900003 0.00040821885 -0.041802175 15329253
0.45264587 0.0030650895 -0.046186481 14408408
0.48750001 -0.051198758 -0.03211971 13025205
0.49000001 -0.052607823 -0.032714441 13025205
0.47629175 -0.042870793 -0.03436004 13222328
0.48186958 -0.046736743 -0.034642763 13156535
0.45875001 -0.03126435 -0.030896984 13025205
0.46482354 -0.034189276 -0.034609895 13288377
0.47133341 -0.038100965 -0.037611946 13419707
0.44820005 -0.021890355 -0.031498265 13090998
0.4547385 -0.025429586 -0.035367172 12959413
0.4605 -0.028419448 -0.039368622 13222584
0.44500008 -0.014538922 -0.034768 14143688
0.45075005 -0.018980404 -0.037744977 12893621
0.44358552 -0.0050187712 -0.035042729 15855336
0.4465 0.0013668754 -0.035220258 14144719
0.47659999 -0.051168222 -0.022561777 12893876
0.48372734 -0.052448966 -0.027517952 12893877
0.46862504 -0.040851131 -0.022649145 12959925
0.47313219 -0.04499694 -0.024807002 13025462
0.48180002 -0.049021237 -0.028445926 13025206
0.45630774 -0.032397389 -0.024920028 12893620
0.46451357 -0.037182126 -0.025504092 12959413
0.43900001 -0.020411938 -0.020573959 13682885
0.44549996 -0.02402682 -0.024429562 12827829
0.4522 -0.028120616 -0.02754798 12893619
0.43743038 -0.013714726 -0.024147516 14933976
0.44095835 -0.017322917 -0.027462786 13749188
0.43799996 -0.0065883729 -0.024226256 16052973
0.44115993 -0.0031992311 -0.027492234 15460580
0.44611114 0.0017722917 -0.027230835 13815498
0.52400005 -0.069751784 -0.012905111 12697011
0.477 -0.051771611 -0.019004852 13156791
0.48050004 -0.052713908 -0.01633391 13090998
0.46710345 -0.041857861 -0.015367835 13025462
0.47229412 -0.046647541 -0.016444664 13025462
0.44645455 -0.030924099 -0.013615513 12630962
0.4553158 -0.034419004 -0.016345834 12762548
0.4621875 -0.037992198 -0.016861565 12959925
0.43666667 -0.02253449 -0.013587425 12959926
0.4428542 -0.02683858 -0.016030218 12565170
0.42900002 -0.014423342 -0.010062338 15526626
0.43269983 -0.014853537 -0.015057485 15131354
0.43505561 -0.0055276169 -0.014604946 15461093
0.44000003 -0.00088752358 -0.019590776 14277081
0.43900001 0.0001422004 -0.012866158 12698044
0.44016668 0.00031464314 -0.017881451 13027010
0.51100004 -0.072806351 -2.3072402e-05 12762803
0.48500001 -0.060018767 -0.0022926859 12960184
0.47900003 -0.054790877 -2.1627555e-05 12762805
0.48116669 -0.057386566 -0.0014296524 12828598
0.44800001 -0.04128271 -0.0005446159 12959414
0.45600003 -0.04415606 -2.0589072e-05 13156793
0.46533334 -0.047786295 -2.1010484e-05 12960184
0.43784216 -0.031418297 -0.0031536529 12696242
0.44246513 -0.035612237 -0.0058220555 12893877
0.42738891 -0.022152735 -0.0018004219 13420480
0.43373606 -0.025819086 -0.0052867127 12762291
0.44000003 -0.029728865 -0.0092902975 12630447
0.42604253 -0.015077765 -0.0042728889 15460576
0.43000001 -0.01918816 -0.0082738446 14078665
0.42717955 -0.0080656344 -0.0035131066 15724009
0.43108335 -0.0054892451 -0.0071270876 14671835
0.523 -0.081618741 0.0038947817 12433838
0.50800002 -0.071189672 0.0035406775 12828596
0.51411432 -0.07556159 0.0056142928 12697010
0.52200001 -0.079261661 0.0011984423 12631217
0.47900003 -0.060397618 0.0078278054 12960182
0.48400003 -0.06164759 0.0048168181 12828596
0.49400002 -0.065299526 0.0032115772 12828596
0.50266665 -0.068679489 0.0046839202 12762803
0.46609095 -0.051727042 0.007113101 12828596
0.47475761 -0.054919656 0.0044225259 12762804
0.48060003 -0.058574844 0.0029026999 12828596
0.44655555 -0.041557986 0.0061364551 12828598
0.45504349 -0.045712024 0.0069713625 12894390
0.46254548 -0.048578463 0.0047956533 12828597
0.4349499 -0.03352201 0.0054554958 12696756
0.44211113 -0.038095891 0.0031963368 12894134
0.41900003 -0.020462897 0.0097899474 14867411
0.4245455 -0.024305996 0.0058983169 13288894
0.43100002 -0.028268103 0.0026946799 12565426
0.41861546 -0.016221456 0.0094036963 15724004
0.42156348 -0.014984916 0.0047964673 15592677
0.42242566 -0.0078373738 0.0056954506 14935007
0.509 -0.08086244 0.016659113 12170668
0.51160002 -0.081274554 0.012907748 12433840
0.49850002 -0.072192371 0.016898371 12697012
0.50648165 -0.076472379 0.016660441 12565426
0.51086682 -0.076614462 0.012334388 12631219
0.47566667 -0.062021405 0.013160015 12697012
0.45756415 -0.052807063 0.015740994 12696754
0.46221426 -0.05534612 0.01288466 12696498
0.43687502 -0.041023243 0.017361162 12762805
0.44535714 -0.043800332 0.014758321 12762547
0.45325932 -0.047997858 0.015030719 12762547
0.42558146 -0.032535188 0.016142791 12696756
0.43264583 -0.036793064 0.013860315 12697013
0.41658342 -0.023273643 0.016229887 14078410
0.42244744 -0.027377207 0.013274335 13025208
0.41608185 -0.015048712 0.015071535 15789800
0.42000002 -0.010679457 0.010796539 15593194
0.41744441 -0.0090943752 0.015882777 14869470
0.42025006 -0.0079795979 0.011417775 14672351
0.51020002 -0.081531122 0.022431541 12039082
0.49100003 -0.071106225 0.028713828 12565426
0.50808328 -0.077050589 0.021586411 12433840
0.51000005 -0.078394696 0.023616575 12368047
0.47311115 -0.062611006 0.02421286 12631219
0.44850004 -0.051303275 0.026228413 12631219
0.45477772 -0.053684209 0.022894843 12565426
0.46000001 -0.058001883 0.02097816 12762805
0.42700002 -0.04084589 0.028966427 12434353
0.43484378 -0.042875275 0.025330884 12565426
0.44400001 -0.047202814 0.025185013 12565683
0.45166668 -0.049197674 0.021300429 12697012
0.41742858 -0.031554814 0.025592893 12696755
0.42401844 -0.035826202 0.024753677 12631219
0.43037504 -0.038776208 0.021766959 12696755
0.4085882 -0.022711992 0.028563732 14802646
0.41277659 -0.025264375 0.02443012 13881287
0.40859091 -0.017693117 0.028415453 15855850
0.41198888 -0.014362671 0.024340728 15592934
0.41333339 -0.009219571 0.025321145 13290952
0.42347836 -0.041806541 0.034885462 12499632
0.4325 -0.046683781 0.034633391 12433839
0.44300002 -0.049635909 0.030055057 12697010
0.40768752 -0.031364143 0.038095269 12960183
0.4149459 -0.034533728 0.034317672 12565424
0.42080003 -0.038217213 0.032158922 12565425
0.40599039 -0.024848755 0.035374396 14473424
0.41066667 -0.029029429 0.03138582 13091769
0.40608227 -0.016033987 0.034918621 15461349
0.41016671 -0.011069302 0.031348001 13948109
0.41150004 -0.0094999969 0.031289022 12764090
0.426 -0.0517218 0.049844455 12565424
0.435 -0.053361647 0.046125587 12565425
0.44157144 -0.055529054 0.043982502 12631218
0.40900001 -0.040081523 0.049770303 12893619
0.41666663 -0.042786628 0.046393823 12565425
0.42397436 -0.046593413 0.045096479 12631217
0.43057147 -0.048388161 0.04217172 12565424
0.40482193 -0.033656884 0.045759611 13091256
0.41338712 -0.038079895 0.042961217 12499377
0.39809307 -0.024254328 0.047812518 15131355
0.40121624 -0.025434401 0.043423474 14605267
0.39862502 -0.018183785 0.048974238 15527143
0.40174997 -0.016545966 0.044344272 15263970
0.42594451 -0.05254703 0.052273519 12499632
0.43000001 -0.05522579 0.051319107 12302254
0.40468574 -0.041879892 0.056242138 12631219
0.4146471 -0.044982336 0.052170422 12565168
0.42085716 -0.048563208 0.051914807 12565425
0.39655179 -0.03287942 0.056554452 13683908
0.40204921 -0.036921177 0.053668331 12894391
0.39459106 -0.024814613 0.054931808 15131868
0.39593333 -0.017870327 0.054283798 15198180
0.77000004 0.06874761 0.0594505 11645355
0.77537507 0.073994979 0.058502726 11579819
0.78624994 0.076946042 0.055023685 11579819
0.79150009 0.076225922 0.050918281 11448488
0.78766674 0.082619168 0.057739977 11645612
0.79343498 0.085782744 0.053985719 11711405
0.78900003 -0.16043893 0.068305716 11184036
0.78746164 -0.15403008 0.068170004 15856110
0.79261118 -0.15519339 0.063150883 13552839
0.78733331 -0.14535426 0.068158463 16514037
0.79347056 -0.14473723 0.063442387 14145745
0.78670007 -0.13584681 0.069210388 16579828
0.39500001 -0.041699018 0.068257421 13024951
0.40217069 -0.043345287 0.062966242 12630964
0.38879997 -0.032413743 0.068427853 14670804
0.39291567 -0.035163648 0.064338945 13815494
0.40000001 -0.039199535 0.060848404 12697012
0.38871875 -0.025865644 0.067647867 15131613
0.39095664 -0.02405306 0.062945127 15395041
0.38900003 -0.019908428 0.069192298 15593194
0.39394739 -0.017505681 0.065793902 14014164
0.76680005 0.068103723 0.064227723 11645355
0.76833338 0.070397489 0.064718656 11579819
0.77406251 0.075459749 0.063838996 11711405
0.78562516 0.083020873 0.064680949 11777198
0.79089993 0.088204026 0.064766712 11974320
0.79424149 0.11476365 0.064910278 12369333
0.79360002 0.12473349 0.064987443 12369077
0.78846163 -0.16231786 0.074648097 13289927
0.79142863 -0.16702177 0.074469507 11250087
0.77750003 -0.15173055 0.077319145 15921901
0.78333342 -0.15623458 0.074536324 15658475
0.77654165 -0.14533287 0.076464616 16645365
0.78175008 -0.14432484 0.071794748 16645622
0.77611542 -0.13489762 0.076830573 16645107
0.78175008 -0.13563058 0.072022997 16580085
0.77600002 -0.12792224 0.076662958 16579314
0.78200006 -0.1297247 0.071361065 16776950
0.38704547 -0.041802365 0.077609934 13223358
0.39175007 -0.042453375 0.0727553 12893623
0.38579512 -0.034944601 0.075317167 11776942
0.39050001 -0.038954467 0.071058601 13945797
0.3855454 -0.025143316 0.075252265 12237751
0.38759649 -0.018020624 0.075238444 15264229
0.39000002 -0.017677113 0.07028316 14672094
0.77780002 0.068715945 0.076805986 15264227
0.77720004 0.072664589 0.074199989 15461349
0.78221428 0.076381609 0.076612458 15198176
0.78700006 0.084860437 0.075425953 14671834
0.79033333 0.088448398 0.070887797 12105906
0.78839999 0.09475369 0.077850387 15856107
0.79141188 0.095071718 0.072653301 13553095
0.78887504 0.10482939 0.07868287 16381681
0.79134619 0.10521002 0.073493317 14408148
0.78900003 0.11107937 0.079388089 16447476
0.79193109 0.11532967 0.074885383 15066593
0.78800011 -0.16325551 0.085157044 13618896
0.79099995 -0.16743064 0.084733069 10657952
0.77715391 -0.15229422 0.085894316 16118513
0.78266662 -0.15768857 0.084615096 14803169
0.77548003 -0.14498323 0.085289374 16447474
0.77443326 -0.13481635 0.085173883 16513266
0.77358341 -0.12697069 0.085532397 16381935
0.38386968 -0.042859357 0.085638478 11645098
0.37827426 -0.033528917 0.08637879 2765101
0.38085702 -0.036023244 0.08306887 2765102
0.3782396 -0.026277764 0.086682566 2896176
0.38116169 -0.023716429 0.08316081 3356726
0.38527074 -0.016364262 0.085188679 15000541
0.78212506 0.068227738 0.08808089 13881804
0.77900004 0.071374804 0.081117392 14737369
0.78115374 0.075721063 0.085351557 14473941
0.78187889 0.08495158 0.08532431 15329250
0.78418183 0.095216282 0.085072793 15658474
0.78586209 0.10499284 0.085346945 16053489
0.78804547 0.11421707 0.085243985 16250870
0.79033333 0.11805135 0.081988901 15987442
0.78900003 0.12031468 0.088623412 15724527
0.79265392 0.12494406 0.084747143 12435128
0.7869584 -0.16478725 0.095454216 13026240
0.79000002 -0.16896458 0.093359239 11052449
0.77786666 -0.15271373 0.094657965 15724267
0.78150004 -0.15800016 0.095097832 14999777
0.77622253 -0.14491977 0.094861224 16184560
0.77516663 -0.13494433 0.095237345 16052716
0.77438474 -0.12706688 0.096047439 16316142
0.38360864 -0.051532943 0.097711429 13157052
0.37850001 -0.040991522 0.09824761 10461341
0.38228029 -0.044944953 0.094880149 13025980
0.37601453 -0.034860879 0.095078342 2699308
0.38000003 -0.039685924 0.092055082 2304553
0.37586266 -0.025038648 0.094965979 2962226
0.38000003 -0.020337408 0.090720698 4933951
0.37811112 -0.019055922 0.097939439 13554385
0.38362268 -0.014793892 0.094708733 14869215
0.38755557 -0.0087432805 0.097061664 13816784
0.78173345 0.067964986 0.095125683 13948110
0.78179985 0.075291201 0.095135793 14079183
0.78120005 0.085291699 0.09506321 14999772
0.78171998 0.0954156 0.095124647 15394788
0.78265381 0.10483193 0.095026657 15724266
0.78570002 0.11429811 0.094688274 16119283
0.78872734 0.12111266 0.095474727 13948113
0.7905556 0.12579669 0.094761223 12369079
0.7940371 0.1345111 0.094561294 12303542
0.78866673 -0.17226975 0.1056122 10789277
0.79192317 -0.1765793 0.10449267 10723741
0.78540009 -0.16522852 0.10476685 12762811
0.77890015 -0.1520033 0.10353545 15855340
0.78168428 -0.15654571 0.10561978 15263204
0.77753586 -0.14556238 0.10495437 16052718
0.77693343 -0.13525207 0.10545854 15657958
0.77600002 -0.1269132 0.10533153 15789543
0.38286421 -0.053858414 0.10602013 13749446
0.37752944 -0.042165309 0.10567167 9934226
0.38078946 -0.047218192 0.10448854 13551811
0.36877784 -0.03259081 0.10837666 2567467
0.37168756 -0.034979604 0.10405932 2764589
0.36890474 -0.026117185 0.10908626 2369576
0.37176117 -0.024595583 0.10429721 2764847
0.37716982 -0.017698053 0.10549888 13092803
0.3819114 -0.013033497 0.10453598 14868958
0.38559696 -0.0075615332 0.10571297 14079956
0.77800012 0.067943521 0.10438325 14210513
0.78000003 0.068727434 0.10039446 14079696
0.77858347 0.072855942 0.10643845 14342100
0.78088886 0.076626703 0.10396095 13947085
0.78172213 0.085348576 0.10519185 14539479
0.78126675 0.095359825 0.10512988 15066335
0.78236651 0.10465222 0.10527771 15461094
0.78561538 0.11414553 0.10500726 15921646
0.78900003 0.1208424 0.10445537 13948112
0.79147375 0.12576561 0.10557659 12369078
0.78875005 -0.17192872 0.11213836 10855070
0.79162502 -0.1754538 0.11544389 10789021
0.78658617 -0.16534947 0.1148953 12828094
0.77900004 -0.15141481 0.11546285 16250098
0.78184998 -0.15651745 0.1148162 15394792
0.7784999 -0.14463475 0.11478148 16447475
0.7788462 -0.1342511 0.11272879 15657957
0.78049999 -0.13541247 0.11736056 15920874
0.77800006 -0.12845404 0.11167279 15658212
0.78133339 -0.1296141 0.11702967 15592163
0.38154545 -0.061019544 0.11763744 13289151
0.37855262 -0.052210592 0.11709984 14276303
0.38121593 -0.055970624 0.11421013 14144460
0.37730554 -0.045072395 0.11479692 11578278
0.38000003 -0.049026582 0.11051401 13947081
0.367176 -0.03366055 0.11520497 2370344
0.37125 -0.038610056 0.11459283 2764331
0.3670342 -0.025154814 0.11513535 2501159
0.3764433 -0.015224644 0.11604414 13092286
0.38022736 -0.011690784 0.11246056 14671834
0.37900001 -0.0091045909 0.11922872 14671834
0.38253626 -0.0067977998 0.11491606 14342870
0.77616668 0.06838987 0.11352852 14144721
0.77800012 0.074421965 0.11470857 14407893
0.78000003 0.078405201 0.1139068 13881292
0.77900004 0.080493063 0.11667862 13552584
0.78185701 0.085365243 0.11508024 14539735
0.78207684 0.095245719 0.11545025 14869214
0.78195983 0.10459707 0.11529166 15197926
0.78541392 0.11438411 0.11503816 15789806
0.78857148 0.12156831 0.11560566 13092805
0.7908572 0.12668218 0.11461831 12434871
0.79363638 -0.17498387 0.12495292 10657436
0.78754526 -0.1651755 0.12491436 12959678
0.79000002 -0.16988929 0.12572381 10788765
0.7790001 -0.1520227 0.12488506 15723500
0.78188246 -0.15705572 0.12507848 15592429
0.77896863 -0.14529204 0.12488019 16513270
0.78000003 -0.14034888 0.12504537 16447477
0.7808333 -0.13501485 0.12517728 16118511
0.78120005 -0.12849475 0.12669878 15723753
0.37875 -0.06113122 0.12832648 14670032
0.38093939 -0.063464783 0.12538528 13551809
0.37748751 -0.054275874 0.12537071 14341326
0.38028577 -0.058697741 0.12169284 14341839
0.37582916 -0.045317303 0.12507372 11512228
0.36355639 -0.034452729 0.1248828 2633515
0.37066665 -0.039507125 0.12088826 2894376
0.36346036 -0.02508823 0.12492317 2895660
0.36753336 -0.019153146 0.12703045 10789533
0.37469837 -0.014311728 0.12480444 13355459
0.37788019 -0.0071655298 0.12538415 14540248
0.38033336 -0.0049211769 0.12117134 14145748
0.77842861 0.076009825 0.12127975 14210261
0.7815001 0.077550635 0.1257441 14078675
0.78276008 0.084549211 0.12457375 14342101
0.78406686 0.094782956 0.1247822 14934237
0.7837202 0.10483135 0.12472653 15065568
0.78483999 0.11417218 0.12490208 15855086
0.78835297 0.12238833 0.12491816 12894911
0.79035717 0.12765889 0.12445915 12303542
0.79331028 0.13512777 0.12497082 12171956
0.78786671 -0.16389917 0.13460684 13881293
0.7902 -0.16808243 0.13500594 10525593
0.77900004 -0.15141481 0.13430728 15657963
0.78265011 -0.15667908 0.13545553 15197924
0.77891314 -0.1458613 0.13450332 16250098
0.78000009 -0.14113145 0.13639262 16184304
0.7790001 -0.13378617 0.13309149 16250096
0.78013337 -0.135502 0.13632923 16118509
0.77900004 -0.12861915 0.13400333 15789544
0.78025001 -0.1280649 0.1365023 15789544
0.37730384 -0.06385722 0.13522947 14012873
0.38000003 -0.066151127 0.1311969 13222584
0.37525228 -0.055210911 0.13421048 14275789
0.36866668 -0.04044418 0.13116777 4866623
0.37378111 -0.045596197 0.13433793 11051421
0.36521572 -0.035210092 0.13318364 1711902
0.37068173 -0.034946889 0.13859087 1185812
0.36529416 -0.024236193 0.13430439 1974302
0.37062502 -0.027427878 0.13902275 857362
0.36741379 -0.018623905 0.13600431 8023918
0.3736445 -0.013565578 0.1350819 12039085
0.37729549 -0.0055387351 0.13472031 13948111
0.38000005 -0.00076649763 0.13564484 14145490
0.38110003 0.0011058537 0.13706508 14145490
0.78483343 0.078339852 0.13501067 13948114
0.78533334 0.084825367 0.1350951 14342617
0.78527772 0.094928905 0.13508312 15000287
0.78466666 0.10495736 0.13497685 14999775
0.78440011 0.1141073 0.1349317 15723754
0.78793752 0.12188353 0.13496393 12697788
0.79049999 0.127021 0.13505626 12237749
0.78820002 -0.1624918 0.14536458 14999774
0.7911818 -0.16728209 0.14493968 10986144
0.77900004 -0.15111086 0.14220977 15657191
0.78260005 -0.15529534 0.14497259 15920877
0.77900016 -0.14661251 0.14306082 16052718
0.78045005 -0.14380875 0.14640327 16250097
0.78179991 -0.13518177 0.14455214 16052717
0.78200006 -0.12880912 0.14458975 15855339
0.37500003 -0.061769195 0.14044414 7565938
0.37400001 -0.058977854 0.14006963 7434354
0.36184615 -0.041194379 0.14835289 4801083
0.37066671 -0.041531328 0.14142366 9013378
0.36359227 -0.035478875 0.14732726 1186067
0.37265429 -0.034234222 0.14336322 1054997
0.36474723 -0.024469357 0.14723073 1644819
0.37138897 -0.026558459 0.14425619 857361
0.36742857 -0.018187076 0.1405572 5844262
0.37487501 -0.012157211 0.14116372 8418675
0.37800011 -0.0060033095 0.14137098 11316136
0.38100004 -0.0056756227 0.14428701 9934485
0.38150001 0.0010174538 0.14064558 13553869
0.78666669 0.078216963 0.14238186 14342616
0.78587997 0.084883019 0.14530465 14276566
0.78450018 0.094832025 0.14504939 14868702
0.78256005 0.10467621 0.14469017 14802651
0.78392011 0.11403901 0.14494301 15592167
0.78831244 0.12205631 0.14483303 12434615
0.79066664 0.12673937 0.14526562 12237749
0.78821427 -0.16265312 0.15483227 14736346
0.79110003 -0.16753411 0.15460303 10920607
0.78296 -0.15510952 0.1551761 15920877
0.78125799 -0.14499825 0.15524752 16381683
0.78206879 -0.13535514 0.15463911 16250097
0.78208333 -0.128823 0.15467282 15986925
0.36061901 -0.041490942 0.15513782 1514774
0.35849118 -0.033336908 0.15725808 1712665
0.36065996 -0.035647754 0.15354045 1515287
0.3582927 -0.02709166 0.15769118 1646359
0.36076939 -0.024415076 0.15366925 1711640
0.38900003 -0.0080698999 0.15084778 10263699
0.77900004 0.078669414 0.15771082 14144721
0.78150004 0.078921884 0.15455735 14276307
0.78344446 0.084894404 0.15503965 14736858
0.7838614 0.094755739 0.15502341 14868187
0.78164506 0.10473118 0.1547332 14999773
0.78396434 0.11404631 0.15471719 15526630
0.78850007 0.12116197 0.15501937 12500152
0.791875 0.126433 0.15533511 12237492
0.78822219 -0.16397229 0.16511308 14407383
0.7902 -0.16808243 0.16460201 10196887
0.78346157 -0.15579163 0.16482165 15262692
0.78130013 -0.1451527 0.16457896 16249841
0.78247994 -0.13529983 0.16482778 16249840
0.78220004 -0.12939174 0.16330314 16118511
0.34354547 -0.041292675 0.16730174 1844252
0.35500002 -0.041021246 0.16503005 725516
0.3608667 -0.041560568 0.16195813 2369056
0.34374267 -0.03478393 0.16716202 1712410
0.35504621 -0.035031866 0.16332924 1252116
0.36020002 -0.039178245 0.16087253 1974037
0.34467453 -0.025407081 0.16683979 1712413
0.35553622 -0.027164549 0.16259728 1383959
0.36060005 -0.022674877 0.16493373 725259
0.77900004 0.080493063 0.16135812 13749706
0.78230774 0.086893052 0.16450836 15131616
0.78280026 0.094752423 0.16495422 15065567
0.78144825 0.10465366 0.16536555 14671064
0.78346145 0.11411424 0.16482037 15526886
0.78850001 0.12116197 0.1651718 12237236
0.79179996 0.12630516 0.16493626 12171699
0.79383332 -0.17466909 0.17465168 10328984
0.78821051 -0.16474776 0.17545426 13355465
0.79000002 -0.16914953 0.17491797 10197659
0.78380662 -0.15500695 0.17516822 15329511
0.78300023 -0.14526194 0.17445795 16250354
0.78331065 -0.13531786 0.17492992 16249841
0.78300005 -0.12989058 0.17501779 16118255
0.33729276 -0.04108512 0.17599714 1777948
0.33999994 -0.041857935 0.17125775 1777690
0.33755004 -0.035620641 0.17432804 1712411
0.34010813 -0.035503801 0.17086577 1778203
0.33774993 -0.025983412 0.17357036 1843998
0.34065709 -0.025633425 0.1707357 1974556
0.78138095 0.087359704 0.17530684 15000543
0.78100008 0.095389932 0.17472579 14868958
0.77900004 0.10146508 0.17868282 14540249
0.78059995 0.10470691 0.17480892 14737117
0.78388894 0.11396817 0.17491075 15329509
0.78866673 0.1205717 0.17474674 12237493
0.79290003 0.1256482 0.17528106 12040371
0.79344445 0.14472219 0.17477439 11974832
0.79122245 0.15492104 0.17500161 11974320
0.79309088 -0.17519985 0.18469721 10328470
0.78799993 -0.16468148 0.18493962 13487306
0.79000002 -0.16988929 0.18490474 10197402
0.78410733 -0.15577729 0.18483569 15198179
0.78309679 -0.14510173 0.18488303 16118767
0.7833463 -0.13559107 0.18496782 16052720
0.78300005 -0.12989059 0.18509938 15855084
0.3329286 -0.041683011 0.18337831 1909792
0.77900016 0.085964032 0.18606864 14737628
0.78000009 0.086987369 0.18187943 14868957
0.77900016 0.095783696 0.18401352 14868958
0.77999997 0.094667278 0.18610878 14935007
0.77900016 0.10250717 0.18389325 14802908
0.78018749 0.10584389 0.1863742 14737371
0.78474075 0.11436537 0.1851013 15724265
0.78885716 0.12055676 0.1859556 12302773
0.79352379 0.12596446 0.18501988 12040113
0.79350001 0.15472262 0.18537028 11842991
0.79421747 -0.17516762 0.19518906 10394263
0.78822219 -0.16448548 0.19473946 14013393
0.79000002 -0.1688325 0.19494437 10131094
0.78342861 -0.15544666 0.1949589 15657704
0.77888894 -0.14339073 0.19749889 16644597
0.78088468 -0.14571053 0.1933158 16250095
0.77780962 -0.13449325 0.19687569 16578803
0.78107697 -0.13505676 0.19167611 16052461
0.77724999 -0.12893674 0.19738412 16644596
0.78099996 -0.1295588 0.19193834 15920875
0.77900004 0.087787688 0.19327205 14935006
0.78000003 0.089117698 0.19473748 14868956
0.7790001 0.094170466 0.19691934 15461093
0.78013331 0.095829278 0.19416173 15329250
0.77900004 0.10146508 0.198743 15723751
0.78025007 0.10482553 0.19525677 15197665
0.78367865 0.11400399 0.19502075 15460581
0.78815395 0.12189008 0.1959683 11974321
0.79127276 0.12689327 0.19429368 11974833
0.78806257 -0.16382404 0.20508982 14078929
0.79100001 -0.16825259 0.20550799 10065300
0.77900004 -0.15111086 0.20694944 16315634
0.78312004 -0.15616903 0.204851 15591399
0.77820694 -0.14536764 0.20507286 16315376
0.78000003 -0.14947885 0.20082413 16446961
0.77637529 -0.13555191 0.20483184 16052205
0.77600002 -0.12812383 0.20403306 16381168
0.77858615 0.095158361 0.20485891 14868698
0.77900004 0.10169304 0.20261827 14605527
0.78099996 0.10589156 0.20524731 14934751
0.78382152 0.11487708 0.20501867 14737374
0.78800011 0.12318253 0.20372128 11908785
0.79028571 0.12844008 0.20505789 11908784
0.79224992 0.13524266 0.20507887 11908784
0.79307145 0.14487259 0.20478606 11843247
0.78782362 -0.16399889 0.21509683 14605017
0.79079998 -0.16821006 0.2147115 10526108
0.77887511 -0.1517705 0.21580464 15986925
0.78257895 -0.15682226 0.21479361 14999774
0.77772003 -0.14540033 0.21480213 16184048
0.77703351 -0.13526773 0.21461394 15986668
0.77700001 -0.12889525 0.21824142 15986412
0.77875006 0.094140537 0.21326436 14935008
0.78036368 0.097740218 0.21569894 14934753
0.78203338 0.10460918 0.21507904 15263718
0.78516012 0.11421957 0.21502073 15592685
0.78852624 0.12257521 0.21535848 11842992
0.79028571 0.12791136 0.21536638 11908782
0.79224133 0.13488041 0.2150397 11908783
0.78786671 -0.16389915 0.22498292 14868447
0.79033333 -0.1681108 0.22476329 12565436
0.77850008 -0.15192571 0.22504145 15986924
0.78312504 -0.15752873 0.22511716 14736861
0.77713358 -0.14529043 0.22464575 16184303
0.77748489 -0.13559525 0.22433415 16118510
0.77733332 -0.128647 0.22470416 15921131
0.78100008 0.098374404 0.2236373 14869215
0.77900004 0.10511239 0.2297451 15263972
0.78116661 0.105609 0.22469282 15395304
0.7858215 0.11411965 0.22498809 15461098
0.78900003 0.12100732 0.22461344 11842738
0.79068422 0.12583338 0.22549589 11908784
0.79237485 0.13451132 0.2247625 11908784
0.78794116 -0.16380578 0.2348773 14934239
0.79100001 -0.16825259 0.23513594 12828864
0.77880013 -0.15198392 0.23515639 15986669
0.78312498 -0.15729904 0.234972 14868444
0.77765393 -0.14517763 0.2349517 16118511
0.77776933 -0.13546571 0.23456612 16184304
0.77750003 -0.12897819 0.23203352 16118510
0.77900004 0.097817779 0.23886338 15132386
0.78233337 0.098235942 0.23438914 14737628
0.77788895 0.10425455 0.23615859 15263972
0.7806251 0.10624392 0.23273686 15329765
0.78523999 0.11482123 0.23481792 14868958
0.78900003 0.12031468 0.23454139 11908273
0.79170007 0.12536325 0.23534469 11908784
0.78742099 -0.16419578 0.24542065 14803423
0.79016668 -0.16869181 0.2450611 12303291
0.77883345 -0.15229413 0.24640846 15986925
0.78216672 -0.15701778 0.24420649 15000287
0.77885282 -0.14480737 0.24514551 16118511
0.78000003 -0.14308786 0.24647398 16184304
0.77900004 -0.13773741 0.24129491 16381683
0.78039998 -0.13786259 0.2462347 16184304
0.7741819 0.09762457 0.24512924 15000546
0.7753793 0.10534639 0.24444848 15395561
0.77900004 0.11149517 0.24706981 15527147
0.78416663 0.11540178 0.24432267 14145491
0.78900003 0.12031468 0.24470025 12040113
0.79266673 0.12538607 0.24517515 11908527
0.79285723 -0.17510436 0.25495324 10000534
0.78618515 -0.16505425 0.25510523 13948372
0.79000002 -0.16988929 0.25148329 9934745
0.77724999 -0.15365534 0.2557618 15724268
0.78066665 -0.15813573 0.25247124 14737117
0.77587098 -0.14487806 0.2550073 16184303
0.77833343 -0.13883401 0.25262782 16315890
0.78000003 -0.13852289 0.25012597 16250097
0.77400011 0.099649005 0.25467315 15263463
0.775069 0.10536779 0.25473911 15329769
0.77900004 0.11149517 0.25162897 15724527
0.78505003 0.1153083 0.25523335 13684687
0.78900003 0.12031468 0.25116497 11974320
0.77900004 -0.16022913 0.26986548 15394788
0.78568 -0.16499552 0.26496401 13684943
0.79000002 -0.16988929 0.26627851 9474707
0.77586222 -0.15413965 0.26514256 15329510
0.77331585 -0.14591219 0.26465631 16381682
0.77400005 0.099907853 0.26088557 15328742
0.77666676 0.10651949 0.26259229 15395562
0.78100002 0.10903892 0.26690164 15592942
0.78619051 0.11524814 0.26542982 13487567
0.78900003 -0.17152131 0.27794737 10000019
0.7782501 -0.16007487 0.27507252 15065565
0.78500009 -0.1660644 0.27469566 12499898
0.77512503 -0.15459616 0.27434525 15394788
0.77383345 -0.1473915 0.27351028 16250097
0.78300005 0.10840164 0.2712512 15658479
0.7880525 0.11434649 0.27436242 14013653
0.79050004 0.11823048 0.27801344 11579308
0.78900003 -0.17152131 0.28164151 10065042
0.792579 -0.17542842 0.28521258 9933712
0.78672731 -0.16533846 0.28501984 11380645
0.79000002 -0.16988929 0.28847137 9670284
0.77900004 -0.15840548 0.28080741 13617864
0.78366679 -0.15874265 0.28554854 14473430
0.78900003 0.11292643 0.280718 15065570
0.79104543 0.11549317 0.28557193 12566205
0.79100001 0.097472847 0.29994699 10856096
0.7919333 0.10543893 0.29634556 12631739
0.7932083 0.11523262 0.29506174 11316391
0.79178262 0.09511137 0.30604872 10921888
0.7930401 0.10452171 0.30480558 11053475
0.79157144 0.078218825 0.3353731 10658717
0.79289651 0.085578784 0.33484477 10790303
0.79230005 0.077972345 0.34384316 10592668
0.79368961 0.085216589 0.34556097 10855840
0.79318428 0.10511901 0.34504166 10987682
0.7932902 0.11521832 0.34430382 11119268
0.78833342 0.078996278 0.35860601 10330522
0.79200006 0.079054035 0.35409003 10461852
0.78850007 0.082859397 0.35898995 10396315
0.79244816 0.085465059 0.35461068 10724766
0.792 0.094813757 0.35501772 10921889
0.79096985 0.10479139 0.35498026 10987682
0.79273069 0.11517609 0.35463625 10987682
0.78466672 0.078629106 0.36122265 10461852
0.78752381 0.086117394 0.3644689 10659231
0.79000002 0.0890273 0.36059815 10659487
0.78900003 0.091582589 0.36609337 10725025
0.79073691 0.095737278 0.36444232 10790817
0.79275006 0.10441668 0.36487123 10921889
0.78770006 0.087663621 0.37448636 10593439
0.78900003 0.091685206 0.37491822 10659232
0.79113334 0.096441507 0.37518984 10790818
0.78850007 0.086705692 0.38575599 10527902
0.78900003 0.091377355 0.38384566 10659231
0.79068422 0.096022487 0.38497305 10725024
0.79288226 0.10485841 0.38533223 10790817
0.7932812 0.11504673 0.38507617 10725282
0.78900003 0.088298917 0.3964673 10462110
0.78899997 0.092872597 0.39615947 10593696
0.79014289 0.096574627 0.39342955 10593696
0.7907716 0.1047192 0.39506391 10659489
0.79270822 0.1151596 0.39508298 10856354
0.78900003 0.087991081 0.40424037 10593438
0.78899986 0.093483657 0.40408236 10659231
0.79000002 0.097657852 0.40621677 10725024
0.79139286 0.10480328 0.40510306 10659489
0.78900003 0.092608735 0.41370651 10658717
0.79000002 0.096533716 0.41488361 10724511
0.79190922 0.10497628 0.41500533 10790303
0.79077774 0.097136833 0.42492458 10659489
0.79168957 0.10513292 0.42451173 10659489
0.79263991 0.11530337 0.42489377 10790305
0.79304004 0.12464482 0.4251084 10921890
0.79100001 0.098398715 0.43049386 10659489
0.77473342 0.10665115 0.43403161 10724769
0.7851001 0.10630758 0.43333945 10659232
0.79166669 0.10496959 0.43085694 10659489
0.77499998 0.11483037 0.43573681 10725025
0.7862308 0.11437102 0.43419456 10790305
0.792 0.1152105 0.43196371 10790305
0.78654552 0.12454453 0.43660143 10855841
0.79238898 0.1251587 0.43289575 10856097
