# .PCD v0.7 - Point Cloud Data file format
VERSION 0.7
FIELDS x y z rgb
SIZE 4 4 4 4
TYPE F F F U
COUNT 1 1 1 1
WIDTH 749
HEIGHT 1
VIEWPOINT 0 0 0 1 0 0 0
POINTS 749
DATA ascii
0.45800003 0.0033649139 -0.060063113 15263458
0.46800002 -0.030525105 -0.050418567 13682624
0.46325001 -0.024022056 -0.052583866 13222330
0.45596617 -0.013955907 -0.054384027 13353917
0.45301321 -0.0053106975 -0.054978203 15262685
0.45502239 0.0027064877 -0.055063721 15197665
0.47720003 -0.041403644 -0.04157836 13419706
0.48100004 -0.044885382 -0.040558789 13353657
0.46768418 -0.031312775 -0.044049751 13485499
0.47356668 -0.036663555 -0.043106403 13485500
0.45731995 -0.021480158 -0.04409257 12893107
0.46336362 -0.02648388 -0.045531169 13090743
0.44842109 -0.012232326 -0.042398714 14209224
0.45351666 -0.015449778 -0.045944154 13222329
0.44779411 -0.0050475341 -0.044408973 15789286
0.4503077 -0.005369395 -0.048999291 15328734
0.44900003 0.00035566301 -0.042275179 15591657
0.45260015 0.0030467629 -0.046385862 14539737
0.48760003 -0.05075264 -0.032211483 12959412
0.47657895 -0.042537905 -0.033789348 13090998
0.48185712 -0.046260118 -0.03442093 13156791
0.45840001 -0.031401414 -0.03157153 13091000
0.46514636 -0.033771999 -0.034895547 13288378
0.47226089 -0.037919201 -0.036605835 13419707
0.44817644 -0.022136223 -0.032238565 12959414
0.45422453 -0.025708267 -0.03502728 12959413
0.46066669 -0.028609404 -0.038485285 13156791
0.43900001 -0.010648722 -0.030851027 15591906
0.44484153 -0.01477393 -0.034903169 14077895
0.45040002 -0.019044369 -0.038189702 12958899
0.44329491 -0.005213947 -0.035057686 15920872
0.44666675 0.0014366917 -0.035057791 14078670
0.48700002 -0.051145662 -0.029093921 12827826
0.46772727 -0.041060202 -0.022917552 12893620
0.47302863 -0.044147599 -0.024792474 13025206
0.4835 -0.048518226 -0.028885022 12959412
0.45537502 -0.032574445 -0.024937995 12827828
0.46382764 -0.037445784 -0.025187775 12959414
0.47000003 -0.039457783 -0.02972874 13222586
0.43900001 -0.020754507 -0.020916527 12762294
0.44546148 -0.024494095 -0.024924587 12762291
0.45122227 -0.028258191 -0.028424727 12959414
0.43746045 -0.013820493 -0.024282033 14868183
0.44094998 -0.017614609 -0.027582938 13486529
0.43777409 -0.0061872141 -0.024406904 15921387
0.44072726 -0.0032306472 -0.027969951 15263715
0.44437501 0.00105489 -0.028238403 13684683
0.4846364 -0.051621869 -0.017141959 12828596
0.45750004 -0.041086499 -0.010730814 13091256
0.46457148 -0.041489538 -0.014940284 13025462
0.47494119 -0.045699265 -0.017091734 13025719
0.48037502 -0.048903946 -0.016327467 13091511
0.44750002 -0.031480003 -0.012923164 12696754
0.45524248 -0.034901336 -0.016234163 12828340
0.46122223 -0.038601734 -0.016937541 12959670
0.43634894 -0.022240641 -0.013875914 12959673
0.44358543 -0.026963877 -0.015903382 12564913
0.42900002 -0.013921194 -0.010062338 15855589
0.43270957 -0.014849605 -0.014899027 15131611
0.43444321 -0.0056290869 -0.014694608 15526372
0.43900001 0.0001422004 -0.017490838 13224132
0.48153844 -0.057424959 -0.0013238885 12828596
0.45212501 -0.041930713 -0.0017410623 12893619
0.46250004 -0.046951469 -2.0882555e-05 13025975
0.43588889 -0.030925415 -0.0018396924 12630961
0.44596976 -0.034512609 -0.0066945204 12762805
0.45033333 -0.038773164 -0.0068746395 12894134
0.42725 -0.022367215 -0.0017728305 13486270
0.43333331 -0.025388967 -0.005188534 12762805
0.44087505 -0.029143911 -0.0081487987 12368047
0.4263615 -0.015089494 -0.0042754444 15460833
0.43000001 -0.01918816 -0.0082738446 14012360
0.42746156 -0.0078904498 -0.0033078913 15461350
0.43085304 -0.0050780172 -0.0061330907 14408664
0.50500005 -0.072464161 0.0077493777 12697010
0.48487505 -0.062467221 0.0047502718 12894390
0.49583337 -0.068134688 0.0063627386 12697010
0.46733335 -0.051085312 0.0070870095 12828083
0.47523531 -0.054694325 0.0051788385 12762546
0.48082358 -0.058509618 0.0036850851 12828596
0.44749999 -0.041686866 0.0058157854 12893619
0.45459998 -0.045407869 0.006436938 12959412
0.46340004 -0.048885096 0.0055045811 13025205
0.42900002 -0.030994238 0.0085171517 12696242
0.43391302 -0.03332445 0.0052792509 12762035
0.44355002 -0.038278051 0.0037635262 12959413
0.42478892 -0.024844734 0.0058293613 13223356
0.43000001 -0.028247898 0.0017925327 12696497
0.41900006 -0.017029794 0.0097899474 15461089
0.4217554 -0.015041626 0.0051212325 15592675
0.42316326 -0.0078065759 0.0055511789 14869469
0.49733338 -0.071248144 0.016857065 12697010
0.50419235 -0.075067461 0.015729405 12565425
0.47650003 -0.060638383 0.01391515 12762803
0.4837333 -0.063492626 0.013349118 12697010
0.49312496 -0.068242177 0.0144006 12631218
0.45820007 -0.051876374 0.017354932 12696753
0.46386668 -0.053854533 0.013794807 12630961
0.47381821 -0.057830557 0.011972704 12697010
0.43625 -0.041050266 0.016484089 12696754
0.44416669 -0.043533474 0.01454186 12762546
0.45522225 -0.048224874 0.014958318 12762290
0.42564109 -0.032390691 0.016297558 12630962
0.43254906 -0.036618229 0.014014229 12697012
0.41679662 -0.023534197 0.016547335 14013130
0.42212203 -0.026839903 0.013186452 13025977
0.41638145 -0.015096613 0.015207736 15790312
0.41999999 -0.0110072 0.011124282 15461351
0.41760001 -0.0087925931 0.016596442 14671836
0.42054549 -0.0083657168 0.01170483 14935265
0.46900001 -0.061332576 0.025780354 12499631
0.47100005 -0.062329989 0.024600782 12565425
0.48650002 -0.067039579 0.021048367 12565424
0.49000001 -0.068667203 0.020625653 12565424
0.44800004 -0.051244915 0.027875811 12631218
0.45574293 -0.053751569 0.023503039 12565425
0.46125004 -0.058296446 0.023063073 12565425
0.42900002 -0.040032905 0.029105235 12564656
0.43460521 -0.042787772 0.025657406 12630962
0.44386366 -0.047657367 0.025903862 12631218
0.45357147 -0.048999403 0.021515882 12631217
0.41569233 -0.031005032 0.025716402 12762292
0.42450011 -0.035316605 0.023971476 12696498
0.43036368 -0.038512077 0.021869725 12696499
0.40857697 -0.023191849 0.028160296 14736340
0.41240236 -0.025325276 0.024051504 13881029
0.40872002 -0.017855242 0.028111316 15921384
0.41207856 -0.014269172 0.024298264 15527142
0.41360003 -0.009257488 0.024849961 13355976
0.45400003 -0.060965218 0.039303925 12499633
0.44850004 -0.051827662 0.030428201 12565426
0.45261544 -0.056258239 0.034702443 12565426
0.42579493 -0.042575095 0.035985567 12434097
0.4328889 -0.046255372 0.034210302 12499633
0.44433334 -0.049439613 0.030492768 12565426
0.40764007 -0.031437147 0.036736514 12828598
0.41316667 -0.033567462 0.033841439 12499633
0.42421055 -0.039010573 0.03373475 12499633
0.40600923 -0.02502124 0.035182029 14407888
0.41000003 -0.029621534 0.030695643 13025977
0.40634343 -0.015889592 0.03496604 15461091
0.4101429 -0.011388635 0.031254806 14144975
0.41100001 -0.0094884532 0.031251587 12763323
0.45300001 -0.060300689 0.040277831 12565424
0.43515635 -0.05309299 0.047118794 12565426
0.44414285 -0.056398403 0.043193132 12565425
0.45075005 -0.058155291 0.040341139 12499631
0.40900001 -0.04056026 0.049291566 12631219
0.41556665 -0.042089321 0.046279632 12565426
0.42379493 -0.04566139 0.044523656 12565169
0.43000001 -0.048179325 0.042259369 12827828
0.39900002 -0.030694941 0.04948749 13881286
0.40513343 -0.033868905 0.045801081 12894391
0.41336671 -0.038157824 0.043325834 12499632
0.39800009 -0.024248758 0.047801394 15131612
0.40124321 -0.025437202 0.043426644 14605011
0.39861539 -0.017959027 0.048577759 15461350
0.40139613 -0.016603973 0.044263732 15329507
0.78880006 0.074489191 0.049453042 11514280
0.43200004 -0.051947132 0.050546482 12499631
0.4045001 -0.042691108 0.056148525 12630962
0.41100001 -0.042201839 0.050013676 12631219
0.39648145 -0.032653671 0.056540783 13683908
0.40209222 -0.036889888 0.053903162 12959927
0.39416927 -0.024852257 0.054796148 15066332
0.39558139 -0.017808089 0.053982612 15066851
0.40000001 -0.01391654 0.050547928 12369854
0.77600002 0.069283299 0.058095559 11711402
0.77672732 0.073647626 0.058315221 11645609
0.78513342 0.076961361 0.054117918 11580073
0.78707159 0.083435163 0.056290358 11777196
0.79213339 0.087291427 0.053118922 11777452
0.78753346 -0.15375096 0.067684315 15856109
0.79200006 -0.15573376 0.062876754 13223873
0.78661901 -0.14495899 0.06704133 16185327
0.79163641 -0.14479984 0.062130406 12895677
0.78528583 -0.13631243 0.067978963 16448499
0.792 -0.13475466 0.062327255 13355972
0.78200006 -0.1297247 0.069530383 16710900
0.3963334 -0.041675571 0.067549087 12762549
0.40216979 -0.043769289 0.063412398 12630706
0.38874999 -0.032238945 0.068692066 14671317
0.39309525 -0.035245292 0.064545825 13749958
0.40000001 -0.039199535 0.060848404 12697014
0.38859433 -0.025569813 0.067562506 15131870
0.39096791 -0.02434738 0.062749483 15329247
0.38900003 -0.019225437 0.06896463 15461350
0.39340627 -0.017853854 0.064872988 14079955
0.77425003 0.06912706 0.064310849 11645610
0.77618182 0.074671417 0.064553849 11711403
0.78100008 0.078262717 0.068832025 11711147
0.78564292 0.08466927 0.064928941 11908781
0.7881819 -0.16111194 0.075110666 14145748
0.7917369 -0.16636352 0.07478454 11316393
0.77866673 -0.1510462 0.076524712 16711160
0.78361112 -0.15537277 0.074560769 15921132
0.77644455 -0.14482658 0.075899683 16645110
0.78075004 -0.14688301 0.071246997 16579573
0.77582866 -0.13492832 0.075463727 16579573
0.77530009 -0.12788752 0.076009914 16644853
0.38748276 -0.042071819 0.077235937 13025978
0.39157891 -0.042140603 0.072009899 12894136
0.38562673 -0.034993 0.075231887 11777199
0.39033332 -0.038861658 0.070647568 13814981
0.3851828 -0.025154131 0.075227775 12171958
0.38760939 -0.017722437 0.07544744 15132644
0.39000002 -0.012655631 0.079413131 13290186
0.77716666 0.068478368 0.07637886 15527398
0.77875006 0.071807809 0.076078355 15132640
0.78235716 0.076656885 0.0762337 15132639
0.78725928 0.085241251 0.075114518 14671317
0.78805256 0.095021769 0.077252023 16052972
0.79107141 0.094970651 0.072055101 13026236
0.78815389 0.10499983 0.077740595 16382194
0.79257917 0.10523365 0.072810784 13816266
0.78880006 0.11252886 0.078629144 16316146
0.79250008 0.11549647 0.074169353 14737884
0.788077 -0.16323279 0.084971279 13421770
0.79087502 -0.16753221 0.084434651 10657950
0.77807701 -0.1520537 0.085013509 15723753
0.7828126 -0.15735094 0.085177265 15197666
0.77543992 -0.14497593 0.085284799 16447475
0.77443326 -0.13481642 0.085173972 16513267
0.77400011 -0.12658563 0.085773729 16381681
0.38390255 -0.043316241 0.085335776 11710891
0.37852836 -0.033283532 0.086789608 2765099
0.38077009 -0.035775125 0.083325617 2830893
0.37835601 -0.026313607 0.087204263 2961708
0.38113931 -0.023908131 0.08333125 3487538
0.38526532 -0.016162932 0.084956579 15000286
0.39000002 -0.012046966 0.080630459 12961476
0.78240001 0.069121972 0.088248685 13881548
0.77900004 0.071374804 0.08020556 14803421
0.7816785 0.075542256 0.08531864 14539735
0.78262496 0.084876046 0.085385099 15394786
0.78308827 0.094932899 0.084988296 15592936
0.78283334 0.1047148 0.085175909 16053490
0.78667998 0.11392538 0.08533822 16316404
0.79050004 0.11869284 0.082314298 16118511
0.7865417 -0.16454665 0.094789661 13026241
0.79000002 -0.16988929 0.096133351 10986145
0.77752638 -0.15341455 0.094807424 15921647
0.78200006 -0.15871081 0.094549626 14276565
0.77549994 -0.14498696 0.095276952 16184302
0.77455544 -0.13483772 0.095161043 16052716
0.77393347 -0.12657505 0.095990181 16250095
0.38338464 -0.051034436 0.097949073 13288895
0.37857145 -0.040898025 0.098481573 10131861
0.3820273 -0.044882193 0.09495578 12828602
0.37641343 -0.034834079 0.095226437 2764590
0.38000003 -0.039552487 0.092499867 2764586
0.3758561 -0.025039049 0.094963856 3093297
0.38000003 -0.020337408 0.090720698 5065024
0.37811112 -0.019154245 0.097447835 13750992
0.3842566 -0.014707454 0.094796829 14868957
0.38844445 -0.0094221486 0.095915943 13882319
0.39078572 -0.0071255569 0.096890137 13947853
0.78166676 0.068416618 0.09496478 14144721
0.78191984 0.075303599 0.095149375 14078929
0.78143334 0.08531557 0.095090501 14999773
0.77900004 0.098729603 0.098442093 15132386
0.7802918 0.095087297 0.094798736 15263715
0.77900004 0.1023769 0.0984421 15658476
0.78030431 0.1048527 0.094635651 15658477
0.78474075 0.11450087 0.094742507 16119286
0.78900003 0.12031468 0.095088132 15198185
0.79227281 0.125287 0.095059566 12237494
0.78686368 -0.16503367 0.10487901 12828860
0.79000002 -0.16988929 0.10599684 10855069
0.77814293 -0.15224655 0.10419084 15723754
0.78168762 -0.15735203 0.10564587 15263459
0.77656007 -0.14518438 0.10540703 15987181
0.77640015 -0.13515908 0.10538668 15592165
0.77520001 -0.12678221 0.10522387 15724007
0.38265821 -0.053742126 0.10603797 13749446
0.37780002 -0.042057939 0.10563996 10328984
0.38080487 -0.047072213 0.10448854 13354946
0.36876923 -0.032719266 0.10852546 2501674
0.37203521 -0.034984939 0.10417557 2699054
0.36863428 -0.025159933 0.10838102 2633260
0.37153283 -0.024739075 0.10344614 2699568
0.37651619 -0.018066769 0.10572023 12698816
0.38189659 -0.013302547 0.10462875 14803163
0.38532841 -0.0075302809 0.10591205 14079701
0.7783078 0.068087973 0.1045194 14078928
0.78000003 0.069640435 0.10039446 14342100
0.77899998 0.072416894 0.10703931 14407893
0.78113043 0.076024145 0.10443622 14013136
0.78174984 0.085350998 0.10519633 14539479
0.77900004 0.098000146 0.10172467 15263459
0.78056014 0.094687253 0.10565786 15065822
0.77900004 0.10359269 0.10490087 15460581
0.78025007 0.10832584 0.10484004 15789547
0.78427279 0.11484218 0.10511578 15921647
0.78883338 0.1205971 0.10583966 14342358
0.79271436 0.12583511 0.10503401 12303286
0.78731996 -0.16496739 0.11497539 13025982
0.79000002 -0.16988929 0.11401092 10855069
0.77900004 -0.15111086 0.11485497 16447732
0.78205001 -0.15628281 0.11530408 15394791
0.7784999 -0.14496033 0.11458721 16250611
0.78000003 -0.14034888 0.11774139 16052717
0.77877784 -0.13445772 0.11198645 15395557
0.78118747 -0.13518992 0.11677919 15789801
0.77775002 -0.12765485 0.11148512 15461603
0.78150004 -0.12964174 0.11613891 15526629
0.38166669 -0.061229512 0.11851813 13551810
0.37863642 -0.052041125 0.11728137 14275533
0.38129792 -0.055973124 0.11430142 14144460
0.37725213 -0.044997092 0.11504872 11512742
0.38000005 -0.048408814 0.11078583 13420992
0.3672303 -0.033821523 0.11522028 2501415
0.37103999 -0.038724981 0.11439592 2698024
0.36718953 -0.025165778 0.11518503 2501158
0.37626928 -0.015191212 0.11596389 13092287
0.38031587 -0.011872185 0.11188202 14671833
0.37879997 -0.008833332 0.11854468 14606297
0.38206244 -0.0066611334 0.11515047 14211541
0.39000002 -0.0035256597 0.11319402 14474713
0.77807701 0.067928702 0.11513881 13882064
0.77899998 0.072156362 0.1140734 14342870
0.78100002 0.076333731 0.11545391 14079441
0.78246677 0.085430391 0.1153656 14342870
0.78139991 0.095372885 0.1152088 14934492
0.77899992 0.10543806 0.1146596 15395044
0.78000003 0.10068233 0.11774139 15066336
0.78404343 0.11533464 0.11527705 15724524
0.78837502 0.12218114 0.11565986 12961216
0.79084617 0.12714799 0.11446384 12303542
0.78742856 -0.16486318 0.12505116 12959933
0.79000002 -0.16988929 0.1247991 10657179
0.77900004 -0.15111086 0.12123775 16249584
0.78192317 -0.1554127 0.12528361 15526632
0.7790001 -0.14600465 0.12142012 16447732
0.78007698 -0.14443609 0.12639226 16447731
0.77880013 -0.13320521 0.12776968 16053229
0.78104997 -0.13578297 0.12374888 16052973
0.77842861 -0.12783097 0.12752593 15592936
0.78175002 -0.12922615 0.1230367 15723751
0.3786957 -0.061935373 0.12802844 14341069
0.38086787 -0.063434325 0.12474023 13486016
0.37771413 -0.054308712 0.12536973 14406862
0.38025007 -0.05835063 0.12149088 14473168
0.36900002 -0.040480748 0.12955868 4538428
0.37605041 -0.045282423 0.12493983 11512484
0.36363649 -0.03444479 0.12495482 2699048
0.37050003 -0.03934487 0.12097879 2828581
0.36369538 -0.025118586 0.124964 2830121
0.36806253 -0.019213051 0.12701958 9868433
0.3746098 -0.014282976 0.12482396 13421252
0.37792119 -0.007128641 0.12537754 14540247
0.38025004 -0.0048830966 0.12093475 14277077
0.77900004 0.069551148 0.12032592 14145491
0.77900004 0.071374804 0.12123775 14277077
0.78150004 0.076727055 0.12492111 14079698
0.78199977 0.08537975 0.12536599 14408150
0.78166658 0.095406435 0.12531358 14868444
0.77900004 0.10565947 0.12105539 15394788
0.78074998 0.10476112 0.12555988 15000030
0.78355986 0.11442787 0.12521189 15724010
0.78829408 0.12303086 0.12447503 12632251
0.79045463 0.1276021 0.12529241 12303541
0.79334617 0.13526402 0.12447616 12237748
0.78794134 -0.1643489 0.13429382 13552327
0.79000002 -0.16850223 0.13543318 10525593
0.78285187 -0.15573215 0.1351756 15328997
0.77900016 -0.14401887 0.13602959 16184302
0.78000003 -0.14597905 0.13341451 16316145
0.77848005 -0.13460946 0.13482566 16118509
0.7773636 -0.12779826 0.13430253 15855080
0.37712654 -0.063354746 0.13459603 14144204
0.37543955 -0.055116337 0.13401102 14210253
0.36866668 -0.04044418 0.13116698 4932158
0.37388551 -0.045602966 0.1339462 11051932
0.36489365 -0.035200585 0.13286699 1581084
0.37066659 -0.034631792 0.13861521 1120532
0.36495245 -0.024168704 0.13423948 1711641
0.37080002 -0.028004881 0.13921858 988944
0.36759263 -0.018523932 0.13591193 7760746
0.37344128 -0.013790281 0.13495421 11908014
0.3772136 -0.0055160038 0.13478036 13948111
0.38000005 -0.00076649763 0.13685215 13882318
0.38050005 0.00076742121 0.13636896 14342613
0.78200006 0.07729426 0.13467254 13882063
0.78228569 0.085084543 0.13528882 14473943
0.78225911 0.09507224 0.135684 14934750
0.78207988 0.10461293 0.13544847 14869214
0.78485191 0.11424456 0.13517936 15592680
0.78883338 0.1205971 0.13415661 13026497
0.79336846 0.12577645 0.13525358 12237749
0.78811759 -0.16254008 0.14495894 14802138
0.79119998 -0.16736974 0.1453642 10920351
0.78245467 -0.15461744 0.14475462 15921131
0.77899981 -0.14499627 0.14505255 16184303
0.78000003 -0.14034888 0.14330532 16052717
0.77900004 -0.13287434 0.14038612 15986923
0.78025937 -0.13511819 0.14568765 16052717
0.77900004 -0.12831521 0.14038612 15855337
0.7804445 -0.12865432 0.145722 15855338
0.36226317 -0.041124981 0.1471855 4866618
0.37100002 -0.041568674 0.14068311 9145475
0.36282283 -0.035427604 0.14667749 1120275
0.37240914 -0.033997227 0.14282502 1186069
0.36399996 -0.02472046 0.14635564 1447954
0.37156415 -0.027605515 0.14328082 857362
0.36700001 -0.018435095 0.14053956 5778985
0.37362498 -0.012989407 0.14107409 7826026
0.3780953 -0.0060705231 0.1413085 11447721
0.38345459 -0.0065322639 0.14627255 9934996
0.38075003 0.00056929601 0.14036898 13750990
0.78150004 0.078921884 0.14540747 14210259
0.78316015 0.084591009 0.14480285 14342101
0.78326684 0.094684154 0.14482316 14868957
0.78143334 0.10507353 0.14533505 14934494
0.78440005 0.1144051 0.14466301 15461352
0.78883338 0.12028927 0.14492725 12895681
0.79317397 0.12555961 0.14503443 12106164
0.78800011 -0.16208188 0.15492108 14802138
0.79281825 -0.16779719 0.15536183 10920352
0.77900004 -0.15111086 0.15588716 16512756
0.78238094 -0.15491068 0.1547751 15986668
0.77814823 -0.14507669 0.15460177 16447218
0.7784546 -0.13576216 0.15594241 16315632
0.78000003 -0.13334922 0.15213095 16184046
0.77883339 -0.12859151 0.1564611 15986666
0.78100002 -0.12809567 0.15244646 15921130
0.36100003 -0.041534908 0.155302 1317395
0.35851166 -0.032714371 0.15759206 1647129
0.36078197 -0.035617836 0.15399712 1580567
0.35836366 -0.027034091 0.15754913 1581084
0.36071441 -0.024209989 0.15375039 1711641
0.36100003 -0.019320538 0.15632859 1448216
0.38900003 -0.0089805555 0.15024069 10527128
0.39000002 -0.0076341466 0.15153989 10066321
0.77775002 0.078088433 0.15563673 14210513
0.77900004 0.080493063 0.15679897 14013134
0.7818889 0.084861569 0.15432866 14802907
0.7837503 0.094743282 0.15500271 14737371
0.78131247 0.10519382 0.15509225 14868958
0.78399992 0.11484841 0.15485194 15592937
0.78854555 0.12142077 0.15536417 12500922
0.79212505 0.12658873 0.15480165 12237749
0.78826672 -0.16324338 0.16530737 14605272
0.79133338 -0.16750129 0.16442625 11249576
0.77900004 -0.15111086 0.16044629 15986412
0.78253841 -0.15539747 0.16540125 15328997
0.77811122 -0.14527266 0.16424564 16249840
0.78000003 -0.14473125 0.16978224 16512756
0.7777648 -0.13512708 0.16453107 16249840
0.77749997 -0.12806793 0.16468693 16249583
0.34386849 -0.041387349 0.16730464 1975581
0.35433334 -0.040896349 0.16457927 790795
0.3609286 -0.041466765 0.16203067 2501152
0.34370807 -0.03483187 0.16708601 1712410
0.35503224 -0.034979723 0.16317104 1252117
0.36037505 -0.03900753 0.16122457 2304032
0.34460324 -0.025617436 0.16652563 1712156
0.35520965 -0.027093876 0.16235077 1318169
0.36066672 -0.022398302 0.16406488 922642
0.34300002 -0.019963127 0.1670021 2040355
0.77900004 0.080493063 0.16044629 14210512
0.78250003 0.086717576 0.16391669 15066078
0.78360027 0.094725847 0.16506249 15000030
0.78126472 0.1056316 0.16521572 14737115
0.78334618 0.11557885 0.16514823 15066592
0.78822225 0.12327269 0.16511321 12171700
0.79057151 0.12742886 0.16388606 12171956
0.78770006 -0.16487969 0.17551491 13289157
0.79000002 -0.16896458 0.17380834 10328472
0.7832222 -0.15566835 0.17523676 15460327
0.78183329 -0.14525349 0.17567402 16315633
0.77900004 -0.1325096 0.1724824 16183791
0.78164995 -0.13570623 0.17627333 16249840
0.77900004 -0.12922704 0.17321187 16249583
0.78100002 -0.1295588 0.17822739 16052203
0.3378056 -0.041144714 0.17544991 1712156
0.33999997 -0.041597445 0.17111306 1581337
0.33785561 -0.035648022 0.1737539 1843483
0.34000006 -0.035053629 0.1708004 1647129
0.33774066 -0.026290908 0.17312129 1843742
0.34075004 -0.025286304 0.17069085 1843743
0.78268754 0.087058485 0.17631882 15065823
0.78264707 0.094879873 0.17472139 15000287
0.78133333 0.10487733 0.17501076 14737371
0.78326923 0.11500222 0.17486614 15066593
0.78814286 0.12295306 0.17524461 12105906
0.79077774 0.1273742 0.17583197 12171699
0.79366666 -0.17537333 0.1850532 10329240
0.78760713 -0.16549282 0.18493727 12960708
0.78362089 -0.1552362 0.18518282 15328741
0.78325945 -0.14500654 0.18502522 16052717
0.78320014 -0.13542545 0.18514675 16052717
0.78242862 -0.12927274 0.18470277 15921131
0.7787143 0.086583458 0.18681972 14803421
0.78066677 0.086452864 0.18241493 15000030
0.7789287 0.094422266 0.18778372 14869215
0.78068751 0.095859028 0.18306644 14934750
0.77900004 0.10192099 0.18916883 14737629
0.78080773 0.10479467 0.18486084 14671835
0.78459257 0.1143427 0.18506765 15395815
0.78845459 0.12107107 0.18504614 11908529
0.79100001 0.12617646 0.18513884 12106161
0.78820002 -0.16498354 0.19472365 13486279
0.79000002 -0.16914952 0.19600117 10262680
0.78390336 -0.1550258 0.19484323 15723495
0.78248495 -0.14495818 0.19530047 16315889
0.77883339 -0.13315023 0.19809259 16512754
0.7819584 -0.13559227 0.19392723 16250096
0.77840006 -0.12839898 0.19676629 16644597
0.7815001 -0.12918466 0.19206221 15855339
0.77650005 0.088414498 0.19446561 14935007
0.77623343 0.094744682 0.19530869 15132386
0.77716136 0.10424965 0.19562948 15000802
0.78033334 0.10925057 0.19238473 14935008
0.77900004 0.11149517 0.19783118 15461098
0.78377271 0.11485128 0.19462037 15395303
0.78837502 0.12206598 0.19525081 11974575
0.79033339 0.12717929 0.19485031 12040624
0.79307139 0.13519515 0.19484089 11974574
0.78793752 -0.16379835 0.2050578 14078417
0.79079998 -0.16821006 0.20545697 9999764
0.77900004 -0.15111086 0.20968492 16381681
0.78318518 -0.15579902 0.20490125 15723239
0.77900016 -0.14355573 0.20812179 16184302
0.78068179 -0.14578803 0.20365618 16315375
0.77774084 -0.1344147 0.20509656 16117996
0.78000003 -0.1376099 0.20082413 16446961
0.77666664 -0.12823403 0.20269202 16381168
0.77600002 0.089266233 0.20161088 14277077
0.77613068 0.095048383 0.20504351 14803421
0.77696884 0.10506746 0.2051612 14935008
0.77866673 0.11144745 0.2050388 15000545
0.78247064 0.11565957 0.20512128 15197411
0.78793752 0.12188353 0.20505781 11908527
0.79070002 0.12705339 0.20543078 11974832
0.78805882 -0.16404729 0.21516153 14605276
0.79100001 -0.16825259 0.21476674 10131348
0.77900004 -0.15111086 0.21150859 16381681
0.78250003 -0.15552896 0.21513517 15065567
0.7790001 -0.14530833 0.21250328 16118509
0.78031582 -0.14463517 0.21705793 16118509
0.77854174 -0.13446744 0.21487886 15986410
0.78000003 -0.13852289 0.21908407 16249582
0.77833337 -0.12911645 0.21679465 15920618
0.77899998 0.095603339 0.21202962 15132129
0.78116673 0.096413076 0.21697436 14934750
0.7790001 0.10453212 0.2125033 15198179
0.78087503 0.10490859 0.21715941 15132386
0.78327274 0.11427853 0.21558619 15527146
0.78838468 0.12164131 0.21476685 11842735
0.7913847 0.12652329 0.21529865 11842991
0.78791672 -0.1634475 0.22545831 14671580
0.79055554 -0.16754158 0.22451605 12566206
0.78281486 -0.15572655 0.22496372 15197152
0.77900016 -0.1464816 0.22792147 16184302
0.78031826 -0.14414166 0.2237398 16184302
0.77900004 -0.13424206 0.2254899 16184046
0.78000003 -0.1377925 0.22310126 16184302
0.77860004 -0.12843215 0.22507131 15986923
0.78000003 0.097943336 0.22091007 14869214
0.77900004 0.10055325 0.22062686 14935007
0.78055555 0.105627 0.22462159 15395558
0.78507698 0.11420973 0.22510394 15526889
0.78885716 0.12082063 0.22447436 11842736
0.79147619 0.12572391 0.22548312 11974320
0.78821427 -0.16344321 0.23470178 14868446
0.79062498 -0.16747931 0.23571798 13552844
0.77900004 -0.15111086 0.23521607 15789546
0.7827825 -0.15607332 0.23484357 15197154
0.77896661 -0.14472176 0.2352059 16184302
0.78000003 -0.14034888 0.23004003 16315888
0.77900016 -0.13553968 0.23367301 16184302
0.78010011 -0.13452277 0.23737466 16118509
0.77900004 -0.12849757 0.2330277 16118509
0.78600001 0.099001862 0.23242213 14803419
0.77754557 0.10524715 0.23692495 15395815
0.78092861 0.10484747 0.23227234 15329764
0.7847693 0.11472979 0.23490453 14868960
0.78875005 0.12073831 0.23585092 11908272
0.7910555 0.12556833 0.23484343 11908527
0.79294425 0.13484007 0.23478371 11777198
0.78752637 -0.16421743 0.24545343 14868959
0.79040003 -0.16849485 0.24457774 12566207
0.77853847 -0.1522837 0.24601108 15855339
0.78252941 -0.15729414 0.24436131 15000030
0.77844107 -0.14483693 0.24496149 16118509
0.78000003 -0.14217487 0.24464796 16250095
0.7787143 -0.13829422 0.24658741 16184302
0.78037506 -0.13653408 0.24408026 16118509
0.77450007 0.09876287 0.24594438 15066340
0.77544838 0.10510523 0.24447109 15461353
0.77900004 0.11149516 0.24433434 15592941
0.78443742 0.11594954 0.24512094 13750480
0.78870004 0.12119247 0.24460757 11908528
0.79143757 0.12601541 0.24487805 11842734
0.79226089 -0.17489445 0.2547808 10131092
0.78625935 -0.16506948 0.25512922 14079189
0.79000002 -0.16988929 0.25148329 10066074
0.77704173 -0.15353847 0.25546518 15789290
0.78100008 -0.15850784 0.25349271 14736605
0.7755999 -0.14500418 0.25506631 16184302
0.7772857 -0.13829969 0.25237378 16250095
0.77400005 0.099907853 0.25182584 15197926
0.77562064 0.1048794 0.25485799 15395305
0.78100002 0.10995308 0.25958833 15921906
0.78510529 0.11508469 0.2547617 13750737
0.78900003 0.12031468 0.25116497 11974322
0.78900003 -0.17152131 0.26778853 9803157
0.79235005 -0.17540714 0.26493725 9934482
0.77900004 -0.16114096 0.26804185 15131363
0.78533334 -0.1656253 0.26469997 13158087
0.77553344 -0.15467855 0.26509127 15460581
0.77295452 -0.14615549 0.26480916 16250608
0.77677786 0.10471564 0.2624279 15329510
0.78074998 0.10854723 0.26544616 15461353
0.78634608 0.11474875 0.26504499 13684943
0.78850007 -0.17210525 0.27569449 9933970
0.79223084 -0.17636326 0.27473205 9933969
0.77785724 -0.16233608 0.27467194 15197410
0.78399998 -0.16702934 0.27408496 10920612
0.77442306 -0.15587361 0.27462512 15131873
0.77300012 -0.14853951 0.27341685 16119281
0.78400004 0.10854009 0.27251646 15395815
0.78792858 0.11396115 0.27401385 14606042
0.79028571 0.11813227 0.27641883 11579564
0.78875005 -0.17192872 0.28201434 9933969
0.79188234 -0.17564029 0.28566927 10000017
0.77800006 -0.16002345 0.28044692 14473686
0.78590006 -0.16579314 0.28495339 11052194
0.79000002 -0.16988929 0.28847137 10197141
0.77775002 -0.15587643 0.28263342 15592680
0.78260005 -0.15767297 0.28687 14605785
0.78900003 0.11200289 0.28164151 15000545
0.79036373 0.11539355 0.28532395 12500668
0.78850007 -0.16249099 0.29223111 10592668
0.79264295 -0.16555557 0.29686144 10856095
0.78800005 -0.15549099 0.29274887 10263704
0.7912727 -0.15483804 0.2973572 10921887
0.78900003 -0.14935654 0.29180035 10854818
0.79257149 -0.14844105 0.29630297 10658204
0.79000002 0.096887268 0.29910547 10658460
0.7908262 0.10521998 0.29617906 12302775
0.79112023 0.11508234 0.29443809 11447975
0.79140007 0.087702259 0.30862141 10592923
0.79122728 0.095228195 0.30584499 10921631
0.79262954 0.1047885 0.30489597 11184804
0.79000002 0.077006176 0.31991127 10527131
0.79280961 0.086163014 0.31601119 10724510
0.7887646 0.076506175 0.3254931 10592925
0.79025 0.07934317 0.32186189 10658717
0.78900003 0.081526354 0.32874164 10921891
0.79155195 0.08562661 0.32500985 10790303
0.78884625 0.077675335 0.33379194 10592924
0.79000002 0.079780273 0.33840528 10658717
0.78900003 0.081526354 0.33335927 10856096
0.79023814 0.086059615 0.33498281 10856096
0.79258621 0.09501598 0.33503145 10921889
0.7904616 0.078119196 0.34387106 10592924
0.79100007 0.085437424 0.34439105 10790560
0.79199988 0.094816171 0.34482539 10921889
0.77600002 0.078366444 0.3587482 10592924
0.78800005 0.077733584 0.35784054 10592924
0.79200006 0.079982251 0.35038653 10592924
0.77750003 0.080338068 0.3594411 10658717
0.78785717 0.084043249 0.35909063 10592924
0.79173064 0.085871801 0.35432857 10724767
0.79123342 0.094722845 0.3546747 10922145
0.78900003 0.10369112 0.35829464 10987682
0.79162496 0.10490593 0.35456058 10921889
0.77366668 0.078734793 0.36159459 10592924
0.77725005 0.082815662 0.36387411 10658973
0.78482366 0.086826444 0.36363479 10790303
0.78870571 0.095127918 0.36435103 10856096
0.79000002 0.09827432 0.36984515 11053475
0.78896642 0.10553353 0.36474386 10921889
0.79000002 0.10012373 0.36984515 10987682
0.78887486 0.11437079 0.36570168 10987683
0.79016668 0.11648515 0.36129066 11053477
0.78899992 0.12351625 0.36740682 11119268
0.79095656 0.1257652 0.36312461 11119269
0.78685725 0.088147722 0.37600657 10658974
0.78850007 0.092089064 0.37421981 10790303
0.79041672 0.096630476 0.37574649 10790303
0.78900003 0.10830877 0.37122408 10987682
0.79122734 0.10457237 0.37530556 10856353
0.78900003 0.11477349 0.37122408 10987682
0.79099995 0.11506442 0.37587008 10856610
0.78900003 0.12216175 0.37122408 11119268
0.79079998 0.12540172 0.37512738 10987939
0.79235995 0.1355952 0.37495831 10988707
0.78900003 0.086913615 0.38677025 10527644
0.79000002 0.0890273 0.3846404 10658717
0.78900003 0.090761669 0.3804594 10790303
0.79080009 0.094969533 0.38495511 10724766
0.79248261 0.12468392 0.38476333 10922657
0.79000002 0.087409064 0.39573684 10527902
0.79036695 0.094620496 0.39499503 10593695
0.79168576 0.10494576 0.39552048 10725280
0.7924062 0.12460139 0.39595321 10987939
0.7920832 0.13495016 0.39554119 10922402
0.78900003 0.087991074 0.40631828 10659489
0.79000002 0.088564955 0.40267211 10593694
0.79037517 0.094775885 0.40502179 10593695
0.79161298 0.10499199 0.4056319 10659489
0.79084629 0.11511199 0.40520349 10725281
0.78900003 0.12626632 0.4073444 10725280
0.79014289 0.12454039 0.40382349 10791073
0.78900003 0.13139705 0.40816534 10856866
0.79008347 0.1354311 0.40487206 10922146
0.79166669 0.14481547 0.40491131 10922402
0.78600001 0.088576525 0.41121233 10462108
0.78862506 0.09302707 0.41443375 10527645
0.79015386 0.096870847 0.41431171 10659230
0.79183328 0.10499232 0.4151926 10724767
0.79148 0.115132 0.41500899 10790560
0.78900003 0.1274977 0.41144904 10791073
0.79013056 0.12442721 0.41566679 10790816
0.78900003 0.13139705 0.41093594 10791073
0.79000026 0.13552664 0.41541979 10922146
0.7905336 0.14460783 0.41543442 10856610
0.79160017 0.15459938 0.41538292 10856611
0.79255557 0.097562701 0.42464569 10659231
0.78900003 0.12908822 0.42709774 10725024
0.79106909 0.12458666 0.42468894 10790560
0.78806895 0.13543823 0.4261288 10856353
0.79000002 0.133413 0.42162848 10921889
0.78746331 0.14507991 0.42566356 10856353
0.78864986 0.15414019 0.42644531 10987682
0.79027271 0.1580144 0.42311862 10921889
0.78858322 0.12632675 0.4357177 10790818
0.79046154 0.12210261 0.43340322 10725281
0.78579998 0.13545847 0.43471649 10856353
0.77900004 0.14979188 0.43946519 10921889
0.78234488 0.14531775 0.43478331 10921889
0.77812505 0.15372217 0.43783182 10856096
0.78326464 0.15498185 0.43387899 10921889
0.7868889 0.16379581 0.4358578 10987681
0.79088897 0.16709663 0.43177 10922146
0.78900003 0.17110893 0.43864191 10724767
0.78900003 0.11785194 0.44572225 10725281
0.79063642 0.11450395 0.44341981 10659488
0.78841662 0.1248383 0.44385445 10725024
0.78724992 0.13488171 0.44338265 10856096
0.77900004 0.14979188 0.44128886 10921889
0.78385723 0.14403422 0.44259849 10856096
0.77825004 0.15420328 0.440864 10856096
0.78000003 0.15911414 0.44094235 10856096
0.78546166 0.16603398 0.44268256 10922146
0.78900003 0.17326383 0.44356737 10922145
