# .PCD v0.7 - Point Cloud Data file format
VERSION 0.7
FIELDS x y z rgb
SIZE 4 4 4 4
TYPE F F F U
COUNT 1 1 1 1
WIDTH 1022
HEIGHT 1
VIEWPOINT 0 0 0 1 0 0 0
POINTS 1022
DATA ascii
0.41641372 -0.14349109 -0.061873741 15329258
0.42093751 -0.14281134 -0.06585867 15000802
0.41749087 -0.1343476 -0.062821031 15790320
0.4204286 -0.13850024 -0.065822326 15132644
0.41821992 -0.12559313 -0.062700056 15855857
0.42007145 -0.12264732 -0.065274335 15395306
0.41860008 -0.11500925 -0.061266251 16053237
0.42043909 -0.11514073 -0.064500794 15724272
0.41900003 -0.10939661 -0.061160844 15921908
0.42148492 -0.10468791 -0.063424796 16053750
0.42515379 -0.094976649 -0.063773721 15987699
0.42825645 -0.084973082 -0.062539347 16185079
0.43012002 -0.085247427 -0.065952875 15855599
0.42856836 -0.074855968 -0.062680133 15921393
0.43000004 -0.072786026 -0.065115318 15855343
0.42883334 -0.065816857 -0.061391965 16053235
0.4300001 -0.06379845 -0.064184457 15724014
0.43022817 -0.054970559 -0.062853083 16184565
0.43236363 -0.045217663 -0.061946116 15987443
0.43450004 -0.034948148 -0.061675731 15592942
0.43668747 -0.02477159 -0.061486363 15263463
0.43706664 -0.014698298 -0.061411217 14671841
0.43748149 -0.0049727228 -0.06146913 14474718
0.43900001 0.0001422004 -0.06116838 14277083
0.44281822 0.0054924497 -0.061936226 13619407
0.44388902 0.015558218 -0.060752809 13882576
0.44461119 0.025127493 -0.060909688 13619406
0.44750002 0.034988664 -0.061305717 13685458
0.44900003 0.041839749 -0.061160251 14474716
0.45066664 0.047858007 -0.060742717 14475229
0.45244449 0.054928847 -0.060982745 14145749
0.45260006 0.064782895 -0.060838524 13487561
0.45300001 0.070668727 -0.060467876 12895166
0.40900001 -0.15067005 -0.052200928 13091782
0.41033337 -0.15132082 -0.053812783 12894403
0.40847069 -0.14437203 -0.051965687 15789807
0.41150787 -0.14477801 -0.056905843 15461100
0.40866664 -0.13699292 -0.051297676 16382457
0.41278571 -0.13445988 -0.055695422 16316664
0.41382688 -0.12485088 -0.05485091 16382457
0.41564766 -0.11493908 -0.055019345 16382712
0.41720685 -0.10571471 -0.054414671 16514298
0.4202778 -0.10240488 -0.058232035 16514043
0.4185001 -0.097344428 -0.051846337 16645883
0.42130494 -0.094362907 -0.055664785 16579836
0.4230856 -0.085083283 -0.055024646 16448250
0.4244298 -0.075144418 -0.054936506 16514043
0.42592284 -0.06510824 -0.054910913 16382457
0.42696109 -0.05559954 -0.054376815 16448250
0.42999995 -0.052620374 -0.058582045 16250614
0.42819047 -0.047927085 -0.052001864 16513785
0.43090239 -0.044070553 -0.055640243 16382454
0.43241805 -0.034864694 -0.055105813 16053236
0.43382215 -0.024738362 -0.0548684 15395561
0.43473324 -0.014615973 -0.054981988 15000548
0.43598765 -0.004957079 -0.055141401 14869219
0.43774191 0.0042074998 -0.053626414 14145495
0.44085711 0.0060062152 -0.057963364 14211286
0.43813154 0.014799653 -0.051737379 14145491
0.44173098 0.015298927 -0.056780174 14145748
0.43872005 0.024792001 -0.051167503 14474458
0.4425174 0.025185408 -0.056235265 14145751
0.43900004 0.033542674 -0.050377458 14869218
0.44371241 0.035088688 -0.055382855 14672097
0.44675672 0.044724524 -0.055137221 14869218
0.45025003 0.048895791 -0.05878339 14737886
0.44757992 0.054924559 -0.052791428 15395305
0.45054841 0.055332642 -0.057759959 15132390
0.44864875 0.064867139 -0.052138738 15724271
0.45086968 0.065197289 -0.057110749 15263975
0.44900003 0.07138782 -0.051641803 15922163
0.45141664 0.074444994 -0.054006148 15527148
0.40792862 -0.15102574 -0.044902753 12763071
0.40652549 -0.14513446 -0.045251653 15131620
0.40626314 -0.13490616 -0.045261685 16448248
0.40792972 -0.12524731 -0.043860786 16580089
0.41039136 -0.12375761 -0.048473131 16580090
0.40870836 -0.11747275 -0.041719403 16514040
0.41165158 -0.11431344 -0.045640469 16645882
0.41389099 -0.10498812 -0.045081723 16645882
0.41635305 -0.09521623 -0.045080483 16645882
0.42000002 -0.090320893 -0.04918034 16645882
0.41769996 -0.085410491 -0.043340329 16645882
0.42037511 -0.084003404 -0.047933191 16645628
0.41831824 -0.075468212 -0.041751314 16579834
0.42080006 -0.074713491 -0.046928212 16579836
0.41868007 -0.065493986 -0.040989257 16447991
0.42131168 -0.06490545 -0.046136547 16514042
0.41900009 -0.057736583 -0.040480487 16514042
0.42224506 -0.054770738 -0.045226365 16514299
0.42528081 -0.045125362 -0.044773459 16579835
0.42999998 -0.041132864 -0.049344663 16382200
0.427297 -0.03565155 -0.043803349 16382455
0.43000007 -0.03360172 -0.048300736 16250614
0.42808512 -0.02576674 -0.04234634 15658219
0.43046948 -0.024291523 -0.047302451 15592684
0.42854548 -0.015776491 -0.040787745 15329255
0.43097332 -0.01520793 -0.045923594 15263719
0.42876184 -0.0055954955 -0.040742807 14868961
0.43184617 -0.0053149285 -0.046103798 14935011
0.42888886 0.0025938728 -0.040404007 14079445
0.43265107 0.004769017 -0.045290083 14145495
0.43285564 0.014834234 -0.044617172 13882322
0.43382221 0.025025759 -0.044716544 14408667
0.43564278 0.035000518 -0.044806626 14869218
0.43767852 0.04451393 -0.043661226 15132647
0.44139999 0.046335388 -0.048140645 15066341
0.4390001 0.052001871 -0.041128099 15198183
0.44219458 0.055382356 -0.045260981 15461355
0.44451186 0.064963482 -0.044701573 15921649
0.44767207 0.07407593 -0.044591583 15922162
0.45075002 0.077969201 -0.047967765 16316666
0.45417312 0.084297344 -0.043652765 15922162
0.45875001 0.090359733 -0.042442299 12960191
0.40700001 -0.15040967 -0.039082941 12434622
0.40357444 -0.14430112 -0.03498343 14802656
0.40280324 -0.13475776 -0.034875885 16250614
0.40453491 -0.12510553 -0.035046574 16448504
0.40693712 -0.11537034 -0.034577914 16514296
0.41000003 -0.11096606 -0.039131068 16711675
0.40851882 -0.10618081 -0.032818932 16448503
0.41113552 -0.1040559 -0.037166227 16645882
0.40900001 -0.098328002 -0.030976867 16645882
0.41230381 -0.094793417 -0.035474733 16645882
0.41411889 -0.085173212 -0.035052646 16645626
0.41583523 -0.074950583 -0.035070937 16579832
0.41628852 -0.064971134 -0.034547228 16382453
0.41681632 -0.055173378 -0.034496397 16382968
0.42020002 -0.050818957 -0.038973514 16579836
0.41764003 -0.046576504 -0.032793816 16448248
0.42127588 -0.043542374 -0.036579911 16579835
0.42372993 -0.035073336 -0.03524356 16316406
0.42472041 -0.025327565 -0.034987636 15527144
0.42536637 -0.015296783 -0.034879755 15132388
0.42549986 -0.005340335 -0.034890685 14737375
0.42572194 0.0046244869 -0.034909073 14013652
0.42665064 0.014422891 -0.03465981 13816530
0.43000004 0.017108321 -0.039134476 13948116
0.4275426 0.02417995 -0.033357356 14540253
0.43011779 0.025964398 -0.037779007 14606046
0.42899999 0.030937394 -0.030817801 14803425
0.43156368 0.035248004 -0.035127211 14935012
0.43480691 0.044851601 -0.035036162 15066598
0.43797714 0.05490822 -0.034791037 15197926
0.44000003 0.059370279 -0.03916169 15395305
0.4390001 0.061804608 -0.033363201 15395046
0.44077781 0.066038094 -0.035565361 15789806
0.44423825 0.07491909 -0.034826651 15921649
0.44868183 0.08150167 -0.034254774 15592942
0.45318004 0.086297892 -0.035308968 15856370
0.45802498 0.093007416 -0.034575682 15329256
0.46000001 0.096349232 -0.035198465 10130326
0.40233335 -0.15056881 -0.022938294 13026756
0.40134415 -0.14486843 -0.024771459 14868448
0.39900008 -0.13471594 -0.021204337 16316407
0.40039092 -0.13481179 -0.025812807 16119029
0.39900002 -0.12923893 -0.020567471 16645372
0.4015232 -0.12483985 -0.024973018 16382456
0.40348643 -0.11504246 -0.025162531 16448247
0.40541589 -0.10497575 -0.025174491 16514041
0.40737742 -0.095052622 -0.025190324 16514041
0.40821281 -0.085789815 -0.023505744 16382711
0.41104871 -0.083534718 -0.027949702 16514296
0.40862077 -0.07550358 -0.021097139 16316917
0.41179058 -0.074924149 -0.026343413 16448246
0.40899995 -0.066669911 -0.020420082 16382453
0.41185558 -0.064807706 -0.025082149 16316660
0.41274309 -0.054983258 -0.024704935 16316660
0.41468754 -0.0447887 -0.024725357 16448245
0.4169873 -0.035621911 -0.023687378 16119282
0.42046681 -0.033493772 -0.02823692 16053234
0.41765994 -0.024797216 -0.022509722 15263975
0.4207001 -0.024977233 -0.027596842 15395561
0.41790697 -0.01526717 -0.022204103 14935010
0.421193 -0.014964446 -0.027267199 15132386
0.41806248 -0.0050021643 -0.021674173 14342874
0.42119122 -0.0054025557 -0.026732542 14474457
0.41820002 0.0047796406 -0.021670291 13882322
0.4213194 0.004986478 -0.02665366 13948113
0.41864294 0.013157184 -0.021230366 14079445
0.42200026 0.015511047 -0.025861146 14013652
0.42402196 0.024861488 -0.025191499 14737633
0.42773223 0.033204045 -0.024159849 15000805
0.43010536 0.037632875 -0.02590757 14869219
0.43264192 0.044978689 -0.024704097 14935012
0.43631592 0.055036873 -0.02518205 15461097
0.4387939 0.0642692 -0.024236474 15790317
0.44000003 0.067691982 -0.027993798 15855599
0.43900001 0.070368834 -0.020916527 15790064
0.44205004 0.074713089 -0.025129279 15921650
0.4475098 0.083344094 -0.024733501 15856113
0.45126086 0.088105142 -0.02588211 16316406
0.45495841 0.093034692 -0.025032714 14211802
0.40000001 -0.15063199 -0.014376305 13026758
0.39815098 -0.1434662 -0.01310409 15394535
0.40018353 -0.14651451 -0.016901299 14539483
0.39714026 -0.13505518 -0.014956474 16250358
0.39753354 -0.12525979 -0.014613736 16250613
0.40000004 -0.12253977 -0.019448509 16184821
0.39800003 -0.11546362 -0.012493897 16382456
0.40036666 -0.11455914 -0.01749951 16447736
0.39870843 -0.10619706 -0.010985573 16448246
0.40117016 -0.10466597 -0.016055491 16316404
0.39900002 -0.099815831 -0.010292743 16711673
0.4030163 -0.09498176 -0.015123767 16514039
0.40472969 -0.085078731 -0.014759391 16448245
0.40571961 -0.074943781 -0.014780226 16250868
0.40667948 -0.064901315 -0.014839195 16185074
0.40710875 -0.05512277 -0.014104619 16119279
0.41007695 -0.053847976 -0.018923135 16316658
0.4078145 -0.045487862 -0.013415822 16185329
0.41088885 -0.044138223 -0.018001931 16316658
0.40849996 -0.037161149 -0.011494348 15987951
0.41247559 -0.034672502 -0.015876647 15922159
0.41345716 -0.024982704 -0.015055723 15329765
0.41397023 -0.014886579 -0.015051007 14935008
0.41427994 -0.0051993486 -0.01506249 14539995
0.41467276 0.0049902513 -0.015075943 14013909
0.41630304 0.015200102 -0.01508765 14145239
0.42000002 0.019800596 -0.019683514 14869988
0.41777778 0.022468315 -0.013687159 14606047
0.42165625 0.026793648 -0.01617064 14803427
0.42592764 0.034887321 -0.01511276 15132391
0.43000001 0.039398156 -0.019145532 15066599
0.42843479 0.041566756 -0.012754278 15197926
0.43093419 0.046072025 -0.015260902 15132134
0.43395552 0.055002555 -0.014754583 15461098
0.43598998 0.064864866 -0.01474192 15790063
0.4384211 0.072338507 -0.014283985 15592942
0.44186366 0.077116281 -0.015632676 16184822
0.44664109 0.084565215 -0.015023002 15856627
0.45028573 0.089445651 -0.017338846 15264234
0.45208696 0.092685163 -0.014749283 14738919
0.39787501 -0.15064642 -0.0067764842 13618125
0.39593467 -0.14497218 -0.0046949903 15262950
0.39445308 -0.13494343 -0.0046836617 16184307
0.39468879 -0.12498537 -0.0046387995 16315894
0.39514187 -0.11495173 -0.0046595731 16315892
0.39545414 -0.10498544 -0.0046493895 16250611
0.39697045 -0.095705643 -0.0037955926 16382452
0.40015998 -0.092873499 -0.0079624522 16514294
0.39827278 -0.086069211 -0.0011209568 16381939
0.40084636 -0.084704585 -0.0060547851 16316659
0.39899999 -0.07506308 -1.8015435e-05 16119022
0.40141925 -0.075082302 -0.0051545636 16185073
0.39899999 -0.066990085 -1.8015437e-05 16316660
0.40165746 -0.064845324 -0.0051302058 16250610
0.40200013 -0.055064783 -0.0044697234 16053486
0.4036805 -0.045146395 -0.0046815546 15987694
0.40543798 -0.034982789 -0.0047754692 15921901
0.40683335 -0.025245275 -0.0044272402 15132386
0.41020003 -0.022816831 -0.0094294138 15066593
0.40727285 -0.015122809 -0.0038403491 14737629
0.41049999 -0.014762344 -0.0091485064 14868958
0.40723196 -0.0052852351 -0.0034786384 14408667
0.41067863 -0.0046389708 -0.0087064803 14408667
0.40807596 0.0042160894 -0.0025833645 14145496
0.41105458 0.0057855146 -0.0075094765 14079702
0.40900001 0.01130304 -0.00065678445 14342876
0.41250944 0.015319758 -0.0050950772 14342875
0.41615468 0.024478851 -0.0045228605 14803682
0.42038462 0.029054768 -0.0077414592 15132647
0.41875002 0.030770203 -0.0007545721 15132648
0.42275515 0.035208587 -0.0051958673 15132904
0.42642847 0.044470385 -0.0042926427 15132391
0.43000001 0.048457894 -0.0080725159 15263719
0.4280667 0.053186521 -0.0014905797 15395562
0.43105888 0.055703647 -0.00579589 15461355
0.43315351 0.064963348 -0.0047179288 15724527
0.43620738 0.074383639 -0.0042577679 15790577
0.44016671 0.079142958 -0.0080920933 16053492
0.43900001 0.080303341 -0.0015613817 15066340
0.44410536 0.085079946 -0.0048668217 15790577
0.44887498 0.091567278 -0.0039618104 14607333
0.45074999 0.093269363 -0.0052940799 13685975
0.39237499 -0.15086037 0.006755434 13223878
0.39239627 -0.14498684 0.0050898739 15328998
0.389 -0.13492428 0.0099996533 16447223
0.39125448 -0.13488142 0.0050143958 16315893
0.38899997 -0.12463388 0.0099996533 15986672
0.39139435 -0.1248961 0.0050126151 16118770
0.389 -0.11507199 0.0099996533 16184306
0.39146733 -0.11502505 0.005054587 16119026
0.39206132 -0.10504922 0.0049933675 16119282
0.39309117 -0.095022164 0.0050353166 16185074
0.39438879 -0.085216962 0.0049464526 16250867
0.39589083 -0.075124085 0.0050677503 16053486
0.39661804 -0.065049112 0.0050795102 15987438
0.39717218 -0.055086628 0.0057940604 15987694
0.40000007 -0.054347299 0.0012488435 15790573
0.39757577 -0.04547425 0.0067046029 15921901
0.40030941 -0.044025607 0.0023908888 15724780
0.39818513 -0.034877829 0.0084047429 15527144
0.40108112 -0.034861632 0.0037710804 15724267
0.39859262 -0.02558385 0.0085866293 15066850
0.40166652 -0.024967082 0.0040724892 14935264
0.39899999 -0.016580163 0.0092188613 14672092
0.40191096 -0.014764413 0.0047794348 14672092
0.40255988 -0.0050504631 0.0051554726 14277080
0.40424532 0.0048682485 0.0051785312 13948630
0.40737668 0.014385972 0.0057549421 14277082
0.41080004 0.018085865 0.0022246153 14606048
0.40877774 0.020973194 0.0084875021 14606048
0.41320869 0.025165319 0.0049707722 14869220
0.41706666 0.034024552 0.006277225 15000804
0.42060009 0.037435215 0.0025796329 15000803
0.41811541 0.043619577 0.008789381 14737629
0.42195946 0.0454599 0.0041927868 15066596
0.42402056 0.055096317 0.0055358484 15461099
0.42685944 0.064282164 0.0066575645 15658734
0.43042853 0.066825077 0.0025707346 15724527
0.42883334 0.071081899 0.0083462661 15592941
0.43341663 0.075217798 0.0048503014 15921907
0.43823081 0.08197853 0.0058956961 15790576
0.44272503 0.086199224 0.0041742949 15987441
0.4481667 0.091511391 0.0032131008 14605791
0.45100003 0.09411221 0.0042028334 11842742
0.38900003 -0.1504965 0.018377688 13618379
0.39162499 -0.15091592 0.012127812 13552331
0.38874325 -0.14400792 0.016656976 15526121
0.39068201 -0.14591962 0.011953846 15262949
0.3881866 -0.13489257 0.01535586 16315637
0.39000002 -0.13225824 0.010025358 16447223
0.38776883 -0.12491395 0.015496924 16118257
0.38763654 -0.11487457 0.015401412 16118769
0.39000002 -0.11034632 0.010025358 16250097
0.38756937 -0.10501169 0.015633091 15921645
0.39021426 -0.10453266 0.010226509 15987439
0.38803759 -0.094753474 0.016022542 15987438
0.39023072 -0.095339328 0.010698481 16250610
0.38851908 -0.085552774 0.017134655 16053486
0.39069656 -0.08403293 0.012148254 16250096
0.38865525 -0.076676942 0.018523475 15856108
0.39150548 -0.074786246 0.013422287 15921387
0.38899997 -0.066291176 0.018863371 15856107
0.39189729 -0.064907201 0.014079178 15856108
0.389 -0.057245322 0.019106211 15790314
0.39242333 -0.054776445 0.014496757 15790314
0.39305869 -0.045029067 0.014769855 15593193
0.39409241 -0.034858435 0.014808817 15329765
0.39470237 -0.024819314 0.014753249 14935007
0.39540824 -0.014717855 0.014740775 14672092
0.39653829 -0.0053670551 0.015724048 14343130
0.40005007 -0.003475701 0.011079651 14277081
0.39800006 0.0033295711 0.017661609 14211801
0.40063635 0.0056619341 0.013389372 14211545
0.40386602 0.014887095 0.015175244 14408667
0.4073481 0.024254942 0.016051605 14671839
0.41113046 0.027460283 0.012282672 15000805
0.40852383 0.033880107 0.018561656 14672097
0.41280776 0.035346378 0.014010098 14803682
0.41451013 0.045067858 0.015011346 15000803
0.41727421 0.053817458 0.016174324 15198183
0.42087108 0.057219483 0.013010197 15330282
0.42368352 0.065112248 0.015348602 15593197
0.42740005 0.072624989 0.015362388 15592685
0.43071431 0.076946251 0.014471921 15987443
0.43556139 0.083149932 0.015129964 15921391
0.44300005 0.088640995 0.010695618 15264229
0.44700003 0.091184638 0.010444168 15987695
0.38899997 -0.15131363 0.024520921 13683917
0.39000005 -0.15366293 0.027778076 13420745
0.38733661 -0.14495334 0.025132043 15131363
0.38511497 -0.13517518 0.025318863 15986672
0.38454962 -0.12504715 0.025146805 15855597
0.38391641 -0.11503678 0.025110077 15855854
0.38364205 -0.10504262 0.025186874 15724523
0.3840777 -0.094885647 0.025050774 15658730
0.38502485 -0.08493755 0.025201946 15790315
0.38572103 -0.075012155 0.025225772 15724522
0.38653752 -0.065107472 0.024921604 15658730
0.38663766 -0.0550934 0.024751509 15527143
0.39000002 -0.050545007 0.020068325 15790568
0.38664469 -0.045342769 0.02519447 15461350
0.39000002 -0.043012783 0.020068325 15593192
0.38709003 -0.035359349 0.02574357 15198179
0.39042312 -0.033900589 0.020792395 15395558
0.38761628 -0.025639795 0.026765868 14737884
0.39082989 -0.024068769 0.021705303 14803677
0.38823733 -0.015693216 0.027939372 14672093
0.39126098 -0.014859001 0.022824325 14540249
0.38871428 -0.0083233239 0.028906399 14474460
0.39207232 -0.0050939824 0.024348276 14342874
0.39455843 0.0048615327 0.024867872 14211031
0.39706662 0.014197763 0.026771681 14211289
0.4006086 0.016462641 0.022508461 14342875
0.39804554 0.023172958 0.028825499 14342875
0.40211371 0.025495261 0.024457449 14606047
0.40460864 0.03486241 0.024849957 14737376
0.40760589 0.043895055 0.026077449 14869218
0.41129732 0.046847228 0.022385415 14803426
0.40900001 0.05087873 0.0296633 14935783
0.41403776 0.054980088 0.024999414 15132905
0.41783875 0.062108506 0.026136043 15527407
0.42140687 0.066621333 0.024490802 15658735
0.4250921 0.074138902 0.025638115 15790321
0.43040004 0.078529105 0.02234829 15724528
0.42850003 0.080388896 0.028569166 16382200
0.43519157 0.084230021 0.023367424 15724528
0.38824242 -0.151685 0.034488078 13158343
0.39000002 -0.15371367 0.030567791 13223623
0.38536927 -0.14481091 0.035260729 14802912
0.38303584 -0.13487801 0.034989569 15591913
0.38188437 -0.12503676 0.03484514 15526631
0.37900001 -0.11122658 0.039908949 15395046
0.38114071 -0.11497931 0.034776878 15526630
0.37899998 -0.10433564 0.039169583 14935006
0.38085598 -0.10515309 0.033996444 15592936
0.37875605 -0.094493322 0.03864995 15395303
0.38086948 -0.095231056 0.033521961 15592936
0.37868568 -0.08521045 0.03888721 15592939
0.38102955 -0.084973834 0.033805024 15592937
0.3786563 -0.07536348 0.039013237 15264228
0.38129124 -0.074881315 0.034043681 15461351
0.37889481 -0.065887697 0.039570983 15461604
0.38145131 -0.064874396 0.034604289 15527143
0.37899998 -0.054797746 0.039908949 15395043
0.3819921 -0.055146046 0.034750041 15263971
0.37899998 -0.04512677 0.039908949 14935264
0.38188872 -0.044945721 0.03487552 15132385
0.37900007 -0.035278343 0.039554052 15001056
0.38193059 -0.034745019 0.034602612 14935264
0.37900001 -0.029156348 0.039908949 14671835
0.38259521 -0.02495289 0.034902226 14606300
0.3841818 -0.01516132 0.035048027 14671838
0.3859919 -0.0053739804 0.03510993 14211287
0.39000002 -0.0018518317 0.030415624 14079958
0.38746837 0.0040680789 0.036937155 13882581
0.39096239 0.0056036934 0.032152124 14014422
0.3888 0.011837428 0.038877212 13948373
0.39228427 0.015118564 0.0344241 13948887
0.39505035 0.025028843 0.035185315 14474717
0.39760426 0.03307711 0.036957841 14738147
0.4011015 0.036468118 0.033400122 14672096
0.40416351 0.045082226 0.034980781 14869475
0.40784103 0.052494086 0.036324088 15132647
0.41152737 0.057028711 0.034362838 15198698
0.41541311 0.064654343 0.035289492 15658736
0.42042857 0.068610616 0.031475734 15527150
0.41794744 0.072230726 0.037983369 15527149
0.42209524 0.075022027 0.033526432 15790322
0.4247143 0.081382938 0.035630517 16119284
0.38650003 -0.15143055 0.046582267 12632001
0.3844907 -0.14524655 0.044986073 14539740
0.38193595 -0.13480563 0.044857517 15526376
0.38102385 -0.12493107 0.044903584 15131874
0.3785696 -0.11363109 0.045930792 15197666
0.38027275 -0.1177109 0.043359861 15197921
0.37798333 -0.10513446 0.045071676 15198181
0.37725797 -0.095054939 0.044954348 15198180
0.37673128 -0.08502312 0.044946797 15329765
0.37650779 -0.075007871 0.045031827 15197923
0.37700772 -0.0649774 0.044881586 15263970
0.376623 -0.054926068 0.045329459 15197921
0.38000003 -0.05592088 0.040014252 15855337
0.37637579 -0.044724401 0.045106407 15001056
0.37634563 -0.035078324 0.045308467 14803422
0.37686187 -0.024919497 0.045266643 14474457
0.38000005 -0.024340549 0.040014256 14606045
0.37755182 -0.015500258 0.046253286 14474459
0.38088879 -0.013863583 0.041810699 14671838
0.37855557 -0.00653905 0.048690815 13948116
0.38178098 -0.0048885867 0.044084549 14079701
0.38334399 0.0047671418 0.04518602 13882324
0.38624394 0.014633713 0.044932768 14014167
0.39000002 0.018614519 0.040382508 14211288
0.38836369 0.022559348 0.046777152 14474462
0.39140573 0.026264932 0.043694425 14540254
0.39497378 0.034960389 0.045191158 14606561
0.40000001 0.03945867 0.040247448 14212060
0.39791182 0.042404924 0.046967026 14738404
0.40135196 0.045988526 0.044097278 14935526
0.40570471 0.054720655 0.045036443 15264490
0.41033337 0.05937003 0.040646516 15133931
0.40830961 0.063311927 0.047659069 15461356
0.41198462 0.065913312 0.043689489 15593455
0.4147262 0.073831357 0.044776995 15592942
0.42000002 0.078302637 0.040293366 15658734
0.38558337 -0.1507699 0.054437984 12763585
0.38355732 -0.14481333 0.054896727 14605275
0.38149601 -0.13491306 0.055301573 15460585
0.37900001 -0.12171385 0.057086028 14934241
0.3805528 -0.12588078 0.054598499 15196899
0.37802404 -0.11483955 0.05497716 14803168
0.3762958 -0.10495723 0.054912902 14934752
0.37477547 -0.094934322 0.054891597 15000543
0.37405282 -0.084858015 0.054742947 15131872
0.37378988 -0.075094797 0.05463174 15000800
0.37370253 -0.06505096 0.054683436 15066592
0.37323728 -0.054960076 0.055015553 15066592
0.37251481 -0.045073252 0.055247635 14869214
0.37224254 -0.035107613 0.05538585 14474458
0.37243295 -0.025062971 0.055035908 14474459
0.37342218 -0.01510388 0.055022076 14408667
0.37589383 -0.0051532821 0.054970492 14079703
0.37795249 0.0036332004 0.056584138 13817043
0.38071924 0.0070205769 0.052831437 13882323
0.37900001 0.010769716 0.059428353 13685714
0.38268295 0.015498796 0.055145688 14080217
0.38687614 0.024948023 0.055014402 14540511
0.39000002 0.0290379 0.050501559 14606048
0.38888887 0.031029098 0.057437915 14606048
0.39201882 0.035645969 0.05455251 14671841
0.39622757 0.044798125 0.055050638 14738147
0.40000001 0.049134877 0.051172201 14672611
0.39845464 0.051984534 0.05794083 14935783
0.40201092 0.055885937 0.054383863 15330027
0.40532106 0.065007642 0.055039823 15527405
0.40769032 0.074054614 0.056434039 15592941
0.41099998 0.075753659 0.051936097 15856114
0.38507697 -0.15062928 0.064958468 13092037
0.38295323 -0.14489008 0.064803749 14407896
0.38093573 -0.13490234 0.065103106 15395305
0.37889081 -0.12234697 0.064911269 14737118
0.38025853 -0.12725185 0.064981036 15131876
0.37784338 -0.11491801 0.065073051 14802654
0.37536359 -0.10489227 0.065008707 14539993
0.37368274 -0.095130928 0.064924918 14474201
0.37203732 -0.085156009 0.064800665 14802909
0.3713648 -0.074907795 0.064719208 14803421
0.36899999 -0.063242815 0.069349341 14868445
0.37092528 -0.065177582 0.064257793 15066338
0.36900011 -0.054273322 0.069032602 14934751
0.37075657 -0.055459451 0.064079739 14869213
0.36874616 -0.045039497 0.067907669 14671837
0.37042889 -0.045085557 0.063025557 14737371
0.36890537 -0.035089791 0.067636423 14145494
0.37018597 -0.034731492 0.062811732 14145494
0.36900002 -0.023016248 0.068752162 13750738
0.37010586 -0.025313737 0.06440606 13948116
0.36900017 -0.015765455 0.068994179 13816529
0.3706606 -0.014692144 0.064067729 14014165
0.36900002 -0.0093826661 0.069954023 13092807
0.37230009 -0.0050756382 0.064854264 13816530
0.37481701 0.0050343499 0.065084681 13685459
0.37732995 0.014423117 0.066044033 14014425
0.38059995 0.017282749 0.062275156 14277853
0.37866667 0.020807112 0.0686832 14277339
0.38311562 0.025379775 0.065046452 14606304
0.38742861 0.034507319 0.065458074 14737889
0.39073688 0.037824105 0.061604481 14869219
0.38862965 0.042246263 0.068181857 14803168
0.39264277 0.045622744 0.064316437 14935012
0.39605245 0.054714065 0.065328568 15330026
0.40000001 0.058374096 0.061222963 15330284
0.39767346 0.06413883 0.067825191 15526892
0.40097263 0.065442123 0.063011587 15461614
0.39850003 0.070562705 0.069482148 15395565
0.4032819 0.075036056 0.064818911 15461614
0.40333334 0.080388546 0.067646571 9670295
0.38530773 -0.15085879 0.07408537 12697279
0.38243693 -0.14504163 0.075062685 14079445
0.37899998 -0.13118963 0.075582355 15394278
0.38048387 -0.13633177 0.074525759 15328998
0.37900046 -0.1249175 0.075030185 15131619
0.38000003 -0.1293118 0.070260204 15460326
0.37808171 -0.1149794 0.075172424 14736860
0.37524346 -0.10476399 0.074881658 14276566
0.37332314 -0.095249027 0.07489498 14211030
0.37099972 -0.085056968 0.075126261 14539738
0.36888003 -0.072108604 0.077599153 14606043
0.37043631 -0.075848192 0.074221499 14605786
0.36822551 -0.064728826 0.075293273 14671578
0.37 -0.068741187 0.07057669 15131871
0.36794615 -0.055067647 0.075276859 14737372
0.36800003 -0.045109272 0.074933395 14540252
0.36808759 -0.034699988 0.075138427 9343120
0.36834705 -0.024930593 0.075236179 9211278
0.37000003 -0.027350323 0.070514821 13289929
0.36809847 -0.014959936 0.07495264 13158857
0.36892846 -0.0064316685 0.076392755 13421773
0.37027884 -0.0034316909 0.073079817 13421772
0.36900005 0.00040747129 0.079168268 13093577
0.37134477 0.0050940458 0.074924707 13553359
0.37348193 0.014863209 0.075013041 14079704
0.37714472 0.02379312 0.076312087 14606304
0.38095644 0.027151266 0.072897188 14671840
0.37877777 0.031552684 0.079295292 14474460
0.38277346 0.035196088 0.074647151 14671840
0.38589695 0.045004088 0.075500861 14737889
0.39016667 0.048840627 0.070921861 15132390
0.38731813 0.054132849 0.077431999 15001062
0.39186573 0.055870339 0.072901301 15263976
0.38866666 0.061618388 0.078989275 15329770
0.39345223 0.065198638 0.074616931 15395563
0.39605939 0.074434273 0.075771049 15592685
0.40027276 0.07756447 0.071622819 15658737
0.39675003 0.080468155 0.07776241 9078410
0.40162501 0.08122354 0.071553513 4867679
0.38119015 -0.14440627 0.084809884 14408151
0.37900001 -0.13207686 0.089594714 15592169
0.38022238 -0.13531631 0.084831811 15460327
0.37882018 -0.12376487 0.085186549 15131361
0.38000008 -0.12853339 0.085188583 15460326
0.37795007 -0.11490109 0.084922731 14868189
0.37574103 -0.1050132 0.084951662 14342358
0.37366694 -0.095167056 0.08492133 14144723
0.37117195 -0.085073754 0.085095264 14013652
0.36856517 -0.073588096 0.08535523 14210774
0.36999992 -0.078337513 0.084116429 14079188
0.36741745 -0.064932354 0.084875502 14474202
0.36701655 -0.054806326 0.084959321 14539996
0.36775011 -0.045076117 0.084782489 13684686
0.36714944 -0.035130721 0.085109659 2765101
0.366678 -0.025156936 0.085027076 2961713
0.36784729 -0.014950676 0.084804125 12303291
0.36762139 -0.005043841 0.084749125 13027271
0.36811665 0.0043218359 0.085575059 13290187
0.37020829 0.0075956653 0.081774242 13356238
0.36853999 0.014511533 0.088225365 13421774
0.37088776 0.015302092 0.083439961 14013910
0.36900005 0.021139525 0.089534305 13883093
0.37289575 0.025006069 0.084875368 14343388
0.37583065 0.034735847 0.085519761 14343130
0.38040006 0.037644584 0.080960512 14671839
0.37698862 0.044781741 0.086865336 14606046
0.38107261 0.045166802 0.082102343 14671582
0.37828264 0.054239899 0.087845385 15066597
0.38230431 0.055420067 0.083274849 14935011
0.37900001 0.060455479 0.089594714 15921908
0.38491803 0.064839222 0.085273854 15264234
0.39044449 0.068274289 0.080925144 15592942
0.38762504 0.074127704 0.087261751 15264234
0.39196959 0.075845361 0.082700849 15526893
0.38866672 0.080194958 0.089149483 14604250
0.39340001 0.080433711 0.082676366 12368314
0.38200003 -0.15011343 0.097010925 12895167
0.37894124 -0.14103183 0.097094648 15000291
0.38085267 -0.14522614 0.094613068 14342359
0.37829256 -0.13486901 0.095349528 15592170
0.38000003 -0.13865246 0.090943098 15723752
0.37797776 -0.12508516 0.095102206 15395046
0.37755603 -0.11496762 0.095018938 15197409
0.375563 -0.10501796 0.095043987 14802907
0.37323892 -0.095093362 0.095021687 14408407
0.37071943 -0.084933393 0.095013171 14342614
0.36847314 -0.074275173 0.095285013 14079187
0.36999995 -0.079262681 0.093734197 14211028
0.36696491 -0.064842641 0.094827361 14210775
0.36691147 -0.05496731 0.094981864 14539741
0.36737525 -0.045031168 0.095015213 12039606
0.36488977 -0.034998722 0.095057793 2699309
0.36440018 -0.025010951 0.095057018 2764590
0.36697954 -0.014946641 0.094950601 11250860
0.3667427 -0.0050331308 0.094850659 12632256
0.36667407 0.0048405915 0.094832532 12763842
0.36740997 0.015172783 0.095023081 13355980
0.36854237 0.022654731 0.095865577 13619151
0.37042689 0.027177416 0.094250396 13750994
0.3713026 0.034957543 0.095028639 13816530
0.37331602 0.044663336 0.094842911 14474459
0.37531093 0.054777164 0.094952404 14935010
0.37771431 0.064042389 0.096020162 15264234
0.38107133 0.067201756 0.092503749 15329514
0.37866664 0.070448786 0.099118382 15132393
0.38316026 0.07519412 0.095055208 15395564
0.38564706 0.080843903 0.094434686 12368573
0.37821928 -0.14349931 0.10585529 14210774
0.3804687 -0.1471744 0.10279976 13618894
0.37601578 -0.13481686 0.10505904 15329255
0.37545529 -0.12505558 0.10502189 15461097
0.37503675 -0.11504795 0.10499615 15395044
0.37343961 -0.10493736 0.10480337 14737373
0.37133321 -0.094892487 0.1049872 14605531
0.3690002 -0.082149446 0.10703077 14276823
0.37043637 -0.0860385 0.10449734 14671580
0.36821088 -0.075057186 0.10500298 14079445
0.36684874 -0.064905733 0.10514881 14079445
0.36676845 -0.05518429 0.10499683 14342618
0.36759272 -0.044975825 0.10508604 11052968
0.36255783 -0.034572702 0.10504533 2436395
0.36218533 -0.025039015 0.10499538 2435883
0.36661965 -0.014609059 0.10492256 10790052
0.36623502 -0.0050267149 0.1050123 11975097
0.36656979 0.0048415661 0.10510655 12435134
0.36728802 0.015060341 0.10514278 13158599
0.36859483 0.023451967 0.10500499 13487565
0.37024498 0.028245788 0.10538907 13750737
0.37095129 0.034772735 0.1051857 13750736
0.37158033 0.044954903 0.10483281 14145238
0.37250376 0.055093754 0.10501222 14803169
0.37409225 0.064875044 0.10512426 15132391
0.37569627 0.074604131 0.10528572 15264234
0.38036367 0.077349126 0.10100668 15330541
0.37544447 0.080691144 0.10740665 14868962
0.38200006 0.082994215 0.10401604 15395562
0.37761351 -0.14347696 0.11470021 13092294
0.38000003 -0.1493275 0.11073641 11974327
0.37434694 -0.13490504 0.11502281 14802911
0.37315378 -0.12499028 0.11496243 15263462
0.37243363 -0.11490175 0.11498877 15132131
0.37134048 -0.10512701 0.11503868 14539996
0.3709181 -0.09522935 0.11516231 14276823
0.36900017 -0.082376778 0.11292985 14079698
0.37033734 -0.086167008 0.11602285 14014164
0.36832926 -0.074898332 0.11301553 13947857
0.37045458 -0.075212151 0.11848094 13882578
0.36808407 -0.064662121 0.11437368 13882321
0.37007692 -0.067323051 0.11900748 13421513
0.36789194 -0.054967627 0.11484153 13552845
0.37 -0.050407123 0.11922695 13683659
0.36785185 -0.044660691 0.11408249 9802901
0.36999992 -0.046804331 0.11838587 10855589
0.35900003 -0.031399667 0.11932421 1120277
0.36135384 -0.034696791 0.11498787 2172966
0.359 -0.026777327 0.11932421 2041124
0.36086932 -0.024944428 0.11492591 2041637
0.36704811 -0.014887142 0.11516631 10395809
0.36729774 -0.0050409008 0.11520636 11645616
0.36691695 0.0048439307 0.11508697 12171961
0.36767897 0.015294486 0.11513581 13289928
0.36889872 0.024291269 0.1158222 13750735
0.36999992 0.027293056 0.11313071 13422286
0.36900017 0.033680458 0.11752014 14145492
0.3703106 0.035753958 0.11351609 14079701
0.36899999 0.042987369 0.11908468 14737118
0.37067145 0.045090459 0.11455642 14277079
0.36899999 0.055405006 0.11919264 14539996
0.3706505 0.054915488 0.11465453 14671582
0.36886957 0.064733513 0.11892486 14539739
0.37086758 0.065064676 0.11407392 14934754
0.36850011 0.074308105 0.11879063 14474458
0.37185588 0.075069502 0.11392418 15066598
0.37489581 0.082331508 0.11589515 14934754
0.38212904 0.087707601 0.11540701 15527405
0.38421434 0.091161132 0.1172939 13092296
0.37522227 -0.14247337 0.12485871 12960452
0.37313038 -0.13505732 0.12516162 14605789
0.37189519 -0.12502572 0.12489247 15066341
0.37131232 -0.11489908 0.12509635 14803425
0.37171519 -0.10490075 0.12495025 14342874
0.37181598 -0.094939224 0.12480295 13947860
0.37199968 -0.085083723 0.12503806 13290443
0.37210271 -0.075106636 0.12491377 12895429
0.36900002 -0.061385572 0.12022927 13158344
0.37136513 -0.065226994 0.12495235 12961222
0.36899999 -0.056802686 0.12073848 13421260
0.37092939 -0.05467061 0.12564428 12829380
0.36728129 -0.041611277 0.12400901 8488068
0.3710359 -0.046496026 0.12528011 10789537
0.35821167 -0.033072881 0.12495458 2041636
0.36171877 -0.037990801 0.12435296 2370601
0.35824582 -0.025925668 0.12498663 2173222
0.3606765 -0.021065459 0.12459809 2041383
0.3671284 -0.01563645 0.12434258 9672085
0.36999992 -0.011782059 0.12753581 10264222
0.36844155 -0.0050220368 0.1250159 11119531
0.37 -0.0094080931 0.12990978 10527652
0.36806059 0.0048576733 0.12492138 12171961
0.36800003 0.015195362 0.1249002 12895685
0.3680698 0.025154196 0.12460234 13487565
0.36877757 0.035085049 0.12473187 13750481
0.36840901 0.044966664 0.12460441 14342874
0.36827075 0.054863904 0.12455828 14605789
0.3679184 0.065231256 0.12476462 14671582
0.36758927 0.074894175 0.1250716 14408665
0.36900002 0.080456242 0.12437568 13685200
0.37470156 0.085616149 0.12645541 15000545
0.38016668 0.088972576 0.12279927 15395300
0.37814292 0.091344491 0.12728681 14736606
0.38121742 0.091850683 0.12251552 11972526
0.37451613 -0.1422814 0.13420694 12829124
0.37235966 -0.13495949 0.13490379 14671584
0.37172455 -0.1246808 0.13470788 15001063
0.37272462 -0.11479827 0.13524513 14934756
0.37367219 -0.10501898 0.13460298 14540253
0.37421241 -0.094926804 0.13489461 14474461
0.37503362 -0.085053422 0.13509898 14014424
0.37531859 -0.075059116 0.13482393 13487566
0.37465832 -0.065041512 0.13489786 13224394
0.37291297 -0.054623906 0.13422856 12105912
0.36790001 -0.041264877 0.13412943 8093054
0.37186417 -0.046044942 0.13479792 10658465
0.35900003 -0.03434116 0.13024974 1910820
0.36551666 -0.035663947 0.13529567 1450014
0.37050003 -0.032145068 0.13927969 792082
0.36445832 -0.023128698 0.1346627 1515294
0.37046152 -0.027498428 0.13907865 857362
0.36717147 -0.017090892 0.13350877 9606549
0.37068939 -0.01283737 0.13573526 9869721
0.3690002 -0.0037566607 0.13197298 11053482
0.3704271 -0.0057078344 0.13658662 10593188
0.36889523 0.005280375 0.1331377 11711925
0.36999997 0.0041117943 0.1380443 11514547
0.36881799 0.014893561 0.13354284 12304320
0.36999992 0.015770769 0.13857153 12369856
0.36884528 0.025709655 0.13451414 12764614
0.36999992 0.022150863 0.13827024 12501954
0.36897194 0.035102237 0.13516375 13356237
0.36827269 0.044948116 0.13490795 14079959
0.3679792 0.054820791 0.13479944 14408667
0.36726117 0.064916976 0.13474022 14342874
0.36702511 0.074863456 0.13487254 14408922
0.36750004 0.080344565 0.13430019 14145243
0.37544444 0.087479822 0.13186949 14540254
0.37768757 0.091524616 0.13155852 14934499
0.37399998 -0.14113276 0.14036147 13026244
0.37237495 -0.13515556 0.14155231 14013910
0.37171435 -0.12543291 0.14120212 13685203
0.37315387 -0.11521856 0.14109649 13750483
0.37400004 -0.10602133 0.14027168 14277854
0.37454548 -0.094969757 0.14027391 13027014
0.37600002 -0.087900482 0.14081867 11382446
0.377 -0.071542054 0.14048712 11842741
0.37618744 -0.066645443 0.14143917 12500925
0.35900006 -0.041624844 0.14929938 2106916
0.36200002 -0.040768232 0.14676411 3948092
0.3716 -0.045125891 0.14056018 9935000
0.36479861 -0.035672113 0.14627101 857360
0.3705909 -0.032530505 0.14287354 660495
0.36418995 -0.024659149 0.14758395 922382
0.37079382 -0.026335217 0.14337392 725518
0.36570007 -0.018451434 0.14402235 5918801
0.37095231 -0.01364915 0.14145054 9409170
0.37102139 -0.0045740581 0.14218812 10066844
0.37020984 0.0048426194 0.14220099 10856873
0.36900002 0.010485554 0.14251623 11843512
0.37003407 0.01511082 0.14229906 11646133
0.36899999 0.027138388 0.1419403 12106427
0.36999992 0.023578806 0.14246932 12040633
0.36878276 0.035269845 0.14194401 12830406
0.37 0.030724756 0.14405733 10921383
0.36802703 0.044570718 0.14153497 13817302
0.3679792 0.054820742 0.14169137 14145495
0.3671276 0.065051846 0.14137264 14079447
0.36713326 0.074120373 0.14093563 13224910
0.35900009 -0.040843397 0.15342779 2106654
0.36000001 -0.04084184 0.15673831 857102
0.35862941 -0.035147585 0.15687615 988945
0.36044297 -0.034152444 0.1526503 1252631
0.35852176 -0.026247857 0.15766276 792335
0.36030361 -0.024800794 0.15321065 1186068
0.36000001 -0.019267017 0.15252447 3287334
0.34641668 -0.041044254 0.16866191 2501668
0.35609096 -0.040806182 0.16665016 528395
0.36000001 -0.041178945 0.16364899 461834
0.34709266 -0.035304397 0.16871995 1843995
0.35528848 -0.034633882 0.16493712 1251862
0.36000001 -0.038931567 0.16207583 1185809
0.34673464 -0.025600145 0.16896406 1843739
0.35582966 -0.026207574 0.16498405 1317398
0.36075002 -0.020889686 0.1670932 857106
0.33794448 -0.041161511 0.17847058 2041377
0.34219056 -0.041372608 0.17334808 2238496
0.33819041 -0.038004011 0.17807868 1909789
0.34224209 -0.034900527 0.17319064 1975324
0.33900002 -0.022111133 0.17616503 1843995
0.34198394 -0.025829181 0.17310396 1909534
0.35900003 -0.020053925 0.17059016 1514262
0.36100003 -0.020165646 0.17069542 1119251
0.33480009 -0.041196164 0.18384962 1975582
0.33285931 -0.035345685 0.18667959 1843994
0.33284789 -0.026282987 0.18690833 1974811
0.75900006 -0.1116946 0.28958946 13684940
0.75900006 -0.10902935 0.28958946 13027010
0.76833338 -0.1514405 0.29674789 13355462
0.77149999 -0.1532682 0.29887456 11578795
0.75900006 -0.14012393 0.29491997 14342870
0.7608462 -0.14403011 0.29741809 13224132
0.75899994 -0.13439856 0.29580837 14013905
0.76000005 -0.13852938 0.29886687 13619147
0.75828558 -0.12465069 0.29489702 13487818
0.75852019 -0.11517435 0.29473424 13553611
0.75899994 -0.10628687 0.29476541 13553611
0.76000011 -0.1029459 0.29581687 13685197
0.759 -0.095489889 0.29541749 13816526
0.74700004 0.068442844 0.29900089 12566459
0.74699998 0.074821152 0.29735529 14079699
0.74814284 0.083060205 0.29820722 14013653
0.75350004 0.087564051 0.29895261 10460833
0.7853334 -0.16245379 0.30699179 8750465
0.79180002 -0.16768256 0.30803567 8750465
0.76900005 -0.15097131 0.30060583 11776171
0.77435726 -0.15448879 0.305547 9013123
0.78100002 -0.15881217 0.30895334 8553086
0.76313633 -0.14422381 0.30464828 14079440
0.75900006 -0.13212818 0.30025047 11776943
0.76050001 -0.13506018 0.3052963 13355717
0.75899994 -0.12426911 0.30148059 12171447
0.76047832 -0.12568995 0.30710611 13224388
0.75899994 -0.11499444 0.30190039 12632255
0.76052642 -0.11482444 0.30778933 13422026
0.75900006 -0.10715381 0.30123758 13422025
0.76045841 -0.10449151 0.30624366 13027267
0.759 -0.094459333 0.30096123 14014164
0.76047373 -0.09635812 0.30617556 12698046
0.75900006 -0.088595778 0.30113888 14342874
0.76000005 -0.088712506 0.3042044 11974328
0.74700004 0.067743346 0.30354762 12434620
0.74722207 0.074586526 0.30521286 13816530
0.74866664 0.082617469 0.30492589 14408668
0.75575 0.087603107 0.30471173 11118762
0.76000005 0.089204863 0.30776274 9867923
0.76200002 0.091223463 0.3014372 9934490
0.78800011 -0.1623445 0.31462234 8618879
0.79272741 -0.16676784 0.31645811 8618879
0.77627277 -0.15273196 0.31484765 9671313
0.78360003 -0.15860812 0.3147524 8618879
0.76737499 -0.14369301 0.31299573 13553354
0.77170002 -0.14662573 0.31629401 12368826
0.76445842 -0.13516787 0.31546333 13092803
0.76413637 -0.12497025 0.31570366 12763839
0.7641741 -0.11494481 0.31560215 12830145
0.76385719 -0.10500072 0.31571516 12830402
0.76315391 -0.097326428 0.31453961 13225417
0.74900001 0.068626091 0.3138288 11316139
0.75150001 0.068855152 0.31751698 12368055
0.74850005 0.074012384 0.31256849 12434879
0.75254554 0.07503929 0.31723782 12894914
0.74900001 0.080900043 0.31032196 14342876
0.75500005 0.083907276 0.31487343 13355981
0.76099998 0.088134564 0.31648219 11711155
0.76800007 0.091343246 0.31579438 9934230
0.77200001 0.092420623 0.31985119 9474445
0.78659999 0.099326208 0.31669015 10066580
0.79280001 0.10493527 0.31621981 10066323
0.78900003 -0.16043893 0.32227689 8684672
0.77900004 -0.15111086 0.3227514 7894905
0.78557158 -0.15528075 0.32520896 8420988
0.79000002 -0.15879287 0.32915828 8553343
0.77433336 -0.14428659 0.32396224 13421769
0.78000003 -0.14856586 0.32773072 10461083
0.76900005 -0.13206875 0.32220876 13290439
0.7725715 -0.13539603 0.32590407 13816783
0.76833344 -0.12475953 0.32192943 13290439
0.77163643 -0.12488491 0.32594234 13619147
0.76900005 -0.11496645 0.32220876 13224646
0.773 -0.11506987 0.32668269 13619148
0.76762509 -0.10398021 0.3220827 13093573
0.77244455 -0.10583692 0.32646611 13356487
0.76675004 -0.097578093 0.32216436 12962245
0.77283341 -0.09744776 0.32833931 13816524
0.75700003 0.069359079 0.32249725 9078660
0.75775003 0.074971326 0.3225961 11185065
0.76216674 0.0754833 0.32707876 9211787
0.75900006 0.080203325 0.32157245 13158345
0.76340008 0.083531342 0.32379526 10592675
0.77200001 0.087002337 0.32888636 9606032
0.77500004 0.091872633 0.32653701 9737617
0.78616673 0.098105304 0.32480025 10000787
0.79328001 0.10433338 0.32524845 10000787
0.78820008 -0.15326515 0.33357543 8947845
0.79099995 -0.1572978 0.33621132 9079687
0.77900004 -0.14381625 0.33004603 14078928
0.78568751 -0.14562824 0.33621755 9539726
0.77670002 -0.13448454 0.33161813 12039862
0.78337502 -0.13476534 0.33763221 9079178
0.77600002 -0.12509611 0.3315011 13619149
0.78320009 -0.12497111 0.33824477 8750470
0.7767778 -0.11613054 0.3315306 13750991
0.78311104 -0.11401922 0.33667842 10592674
0.77688897 -0.10482962 0.33178055 13816782
0.78339994 -0.10611226 0.33704692 10526880
0.77700001 -0.098882228 0.3328366 13816526
0.78300005 -0.098729298 0.3372398 10461083
0.76833338 0.075196572 0.33212146 9475214
0.77366668 0.077226005 0.33593822 9475213
0.77520007 0.084638722 0.33406338 9672080
0.78233337 0.088164099 0.33817387 9803921
0.778 0.092229441 0.33053184 9803921
0.78646153 0.095572181 0.33589825 9803665
0.79318511 0.10438576 0.33488372 9804178
0.78900003 -0.14289182 0.34167105 9474445
0.79277778 -0.14512263 0.34640428 9606030
0.78788894 -0.13562086 0.34221527 9474190
0.79160005 -0.13502538 0.347431 9540236
0.78840005 -0.12524942 0.34418041 9408651
0.79133326 -0.12478916 0.34823906 9474443
0.78800011 -0.11503774 0.34216118 9079690
0.7911818 -0.1150812 0.34716293 9474186
0.78850007 -0.10496046 0.34237814 9013639
0.79219997 -0.10545252 0.34769386 9408393
0.78750002 -0.098374933 0.34194505 9079175
0.792 -0.098010026 0.34760657 9342857
0.77850008 0.074063301 0.34076908 9540236
0.7853334 0.078390151 0.34560335 9474957
0.78694111 0.084892333 0.3452265 9606799
0.79000002 0.088102594 0.3495017 9738385
0.78828579 0.092526235 0.34241685 9738385
0.79086673 0.095544197 0.3460604 9804178
0.79320002 -0.11487124 0.35463393 9474444
0.78875005 0.077346385 0.35125697 9409420
0.79033333 0.079197466 0.35520133 9540751
0.78900003 0.082449883 0.35090637 9672592
0.79188895 0.086049736 0.35579741 9738129
0.78825003 0.078680016 0.36440885 9409678
0.79000002 0.078855574 0.36059815 9540236
0.78869236 0.083767503 0.36696005 9541265
0.79121053 0.086728193 0.36348724 9803666
0.78868413 0.085478999 0.37457421 9672850
0.79000002 0.0890273 0.37354398 9738386
0.792 0.094878688 0.37484381 9869458
0.78895438 0.086139321 0.38572636 9541520
0.78900003 0.090761669 0.38415352 9607569
0.79132009 0.095033005 0.3850615 9738642
0.79280657 0.10497024 0.38433257 9935764
0.79257143 0.11549117 0.38463479 10001557
0.7920332 0.1244854 0.38470349 10133143
0.79239988 0.13461503 0.38474876 10067350
0.78900003 0.085528322 0.39277312 9607056
0.7902 0.08775501 0.39694762 9672592
0.7925601 0.094590299 0.3952381 9738642
0.7933501 0.12469169 0.39463109 10067350
0.78900003 0.087991074 0.40816534 9672594
0.79057139 0.088298425 0.40421799 9737871
0.79234487 0.094988286 0.40502992 9803921
0.78671438 0.088131301 0.41328996 9606800
0.78849995 0.094581701 0.41565824 9738386
0.79087502 0.096764654 0.41167971 9804180
0.79297143 0.10464179 0.41488001 9869459
0.78847611 0.097119033 0.42503393 9738385
0.78900003 0.10295229 0.42737478 9869971
0.79066676 0.10645609 0.4242191 9869714
0.79230314 0.11542451 0.42504466 9935507
0.78825009 0.098748691 0.43222696 9738385
0.78874058 0.10516223 0.43524873 9869715
0.79000002 0.10875428 0.43149194 9869971
0.79016012 0.1149426 0.43466157 9935508
0.79090637 0.12494583 0.43454924 9935765
0.78900003 0.1141578 0.44418308 10066580
0.79000002 0.11511362 0.44352934 9934995
0.79000002 0.12525389 0.44229835 9803922
