# .PCD v0.7 - Point Cloud Data file format
VERSION 0.7
FIELDS x y z rgb
SIZE 4 4 4 4
TYPE F F F U
COUNT 1 1 1 1
WIDTH 657
HEIGHT 1
VIEWPOINT 0 0 0 1 0 0 0
POINTS 657
DATA ascii
0.42881244 -0.032361452 -0.071732938 14340554
0.42851362 -0.02588851 -0.072519042 15656671
0.43000001 -0.022510063 -0.074510604 16776435
0.42866662 -0.017790068 -0.071336433 15920356
0.42999998 -0.016721895 -0.072916768 14670806
0.43536845 -0.042133324 -0.062294796 12893621
0.42731822 -0.03283168 -0.064841598 14209226
0.43063891 -0.037387677 -0.064537905 13222331
0.42509049 -0.025193395 -0.065162703 15854307
0.42685726 -0.016875762 -0.064594105 15920873
0.43027276 -0.012084678 -0.065538995 14671321
0.43200001 -0.0097480072 -0.064632639 13421768
0.45820004 -0.051768802 -0.05708487 11841963
0.4664 -0.053495694 -0.05446174 11512998
0.47373083 -0.055176154 -0.051670823 11908011
0.48100004 -0.059523769 -0.050693054 11578792
0.43726668 -0.041419547 -0.054886181 12893619
0.4438858 -0.044903163 -0.055686038 12762036
0.45185715 -0.048966855 -0.056233592 12236208
0.42458731 -0.033397514 -0.054786678 14143688
0.43158826 -0.038196713 -0.056780364 13025207
0.42138028 -0.025017647 -0.054771826 15854821
0.42410588 -0.01591471 -0.054971483 15789544
0.43000001 -0.01093373 -0.058404401 14078926
0.43050003 -0.0094341449 -0.057967827 12960958
0.48550004 -0.060648337 -0.048892431 12631734
0.49540001 -0.062409211 -0.044894066 11842475
0.47420001 -0.052026749 -0.049308266 11513252
0.48569235 -0.056074645 -0.046189148 11579046
0.49215001 -0.057679646 -0.042879358 11776425
0.42800003 -0.040941548 -0.041099507 11973291
0.43000001 -0.041132864 -0.040284924 12170670
0.44000003 -0.044149537 -0.049462166 12104877
0.41860002 -0.030929253 -0.041569397 14735826
0.42285132 -0.034909461 -0.045379687 13880517
0.43000001 -0.039119583 -0.048338026 12893621
0.4179239 -0.024757236 -0.043578699 15920615
0.42009529 -0.025152603 -0.048395544 15788771
0.41866672 -0.018551327 -0.042033624 16184045
0.42092189 -0.015550341 -0.045534741 15723750
0.4946667 -0.0571713 -0.039008871 11776169
0.42900002 -0.040032905 -0.039186943 12039084
0.43000001 -0.041132864 -0.039278284 12236463
0.41735706 -0.032738853 -0.033954583 14275788
0.4217501 -0.0363979 -0.036925193 13354686
0.41567379 -0.024718292 -0.034658283 15723749
0.4174571 -0.01637789 -0.034422953 15658728
0.42009094 -0.012827205 -0.038373355 14408664
0.41900003 -0.040080629 -0.021598423 12433840
0.42033339 -0.040864434 -0.023307426 12236461
0.41626191 -0.034689028 -0.024721585 13683907
0.42000002 -0.03899641 -0.028335918 12565426
0.41245985 -0.02497166 -0.024786454 15723491
0.41527274 -0.016473446 -0.025049236 15527143
0.42033336 -0.011671941 -0.022651941 14277333
0.41900003 -0.040080629 -0.016203547 12499633
0.42079177 -0.041238163 -0.015410512 11973546
0.40888888 -0.031030403 -0.011930861 14605009
0.41378203 -0.034987338 -0.015509258 13420735
0.40858099 -0.025569087 -0.013148689 15724004
0.41054344 -0.023933545 -0.017381562 15855334
0.40900001 -0.019655362 -0.010869865 15790055
0.41234854 -0.016228482 -0.014929662 15263970
0.41900003 -0.040080629 -0.0098277843 11973802
0.42100003 -0.041257512 -0.009874695 11644837
0.40736678 -0.032596689 -0.0046186503 14210252
0.41214293 -0.036669143 -0.0065005533 12828855
0.40636355 -0.025075499 -0.0047833184 15724006
0.40832838 -0.017355543 -0.003948641 15527141
0.41073531 -0.013694525 -0.0066941651 14540247
0.40475854 -0.032661866 0.0053539574 14078665
0.41125003 -0.037174717 0.0056402576 12236717
0.40348503 -0.024949903 0.0052140714 15724005
0.40535939 -0.016708588 0.0056260382 15263970
0.40899998 -0.040320896 0.016019262 11841705
0.4104 -0.040987514 0.017276442 11512739
0.40423667 -0.03469355 0.015303032 13157565
0.39879176 -0.026438644 0.01861416 15461346
0.40057755 -0.024850739 0.014064417 15592676
0.40334177 -0.01648723 0.015264606 15000798
0.40900001 -0.040081523 0.020088537 11710117
0.41100001 -0.041239679 0.020186769 11710117
0.39791307 -0.032373797 0.026101535 13947337
0.40145001 -0.035169121 0.022343392 12960443
0.39725757 -0.025908532 0.024751158 15395296
0.40000001 -0.020705491 0.021285202 15724265
0.40144828 -0.016651267 0.02211499 15066593
0.40400001 -0.041483074 0.039704151 11841703
0.39638034 -0.033937711 0.035189975 13486784
0.40000001 -0.038263127 0.038374633 12104875
0.39497221 -0.02526236 0.035515115 15329760
0.39772007 -0.018155269 0.037409771 15330020
0.40120581 -0.013898318 0.036637135 13816526
0.39900002 -0.040502638 0.04808639 12170414
0.40170726 -0.042671226 0.045965057 11775912
0.39432696 -0.034305319 0.045413867 13552321
0.4005 -0.039248534 0.041703537 12170668
0.3925209 -0.024732746 0.044925526 15395297
0.39631671 -0.015574155 0.044681817 14342872
0.39606673 -0.042123098 0.056416258 12039082
0.40000001 -0.042945161 0.050547928 12104107
0.38871428 -0.03194068 0.057873815 14407888
0.39234686 -0.035656612 0.054301027 13355200
0.38867956 -0.02598062 0.056861494 15197920
0.39050004 -0.023705855 0.052326676 15460835
0.38900003 -0.019908428 0.059175078 15527144
0.39282194 -0.016797099 0.054796338 15000801
0.39640477 -0.042430859 0.064055093 11907496
0.40020004 -0.04521542 0.066406682 11512738
0.38778821 -0.033754848 0.065469205 14276302
0.39166671 -0.038323648 0.064040452 13025978
0.38728249 -0.025169453 0.065122463 15197920
0.38867751 -0.017660096 0.065963224 15132130
0.39190912 -0.015296957 0.063035071 14408664
0.40433335 -0.012802374 0.063705817 14211030
0.38812503 -0.041102827 0.078461297 12697014
0.39456254 -0.044102803 0.075500906 11841704
0.40008339 -0.047246948 0.072880648 11381410
0.38509431 -0.034857128 0.075316653 12236464
0.39000002 -0.039132543 0.070739657 13419965
0.3843407 -0.025065571 0.075103983 12828859
0.38689604 -0.016949518 0.074491009 14868958
0.78900003 -0.14104477 0.088623412 14406858
0.79425824 -0.14513028 0.084344089 12960440
0.78900003 -0.13827416 0.088623412 14998995
0.38452178 -0.041814923 0.085178234 11250852
0.39140001 -0.045321275 0.080796137 11512996
0.37872732 -0.032722339 0.088441461 2764845
0.38134584 -0.035105538 0.084221207 2962223
0.37857142 -0.026109014 0.088302419 2895919
0.38103029 -0.024454432 0.083944112 3093039
0.38463989 -0.016193828 0.085205495 14671834
0.38350004 -0.0093042273 0.087521538 13553615
0.79271424 0.087480769 0.085583761 11711145
0.78866673 -0.17206454 0.099047981 15591911
0.794182 -0.17518736 0.094608195 11776428
0.78756523 -0.16479777 0.096154638 15394788
0.79049999 -0.16583359 0.091567174 13618890
0.78660613 -0.15492892 0.095044419 16250350
0.78610021 -0.14512867 0.094730854 16250350
0.78532368 -0.13514157 0.09441904 16316142
0.78481239 -0.12502237 0.094801106 16315886
0.78542852 -0.11499029 0.095371388 16316142
0.79016668 -0.11535522 0.090604246 16119019
0.78492004 -0.10514587 0.09602093 16381936
0.79099995 -0.10449965 0.091228195 16053483
0.78450006 -0.098918431 0.096375309 16447728
0.79150003 -0.099801064 0.091681838 16579826
0.39199999 -0.050476465 0.095027626 11315106
0.38456631 -0.043480244 0.095088594 11382440
0.39109999 -0.048536878 0.093551442 11447204
0.37673727 -0.034444626 0.095360033 2764590
0.38042861 -0.038871773 0.092856526 2764846
0.37598667 -0.025048995 0.095025793 2765104
0.38000003 -0.020337408 0.090720698 3882040
0.37837502 -0.019253749 0.096753582 13818842
0.38448149 -0.014710749 0.094590597 14737628
0.38863155 -0.0093070632 0.095658749 14408663
0.39026663 -0.0069991755 0.097739853 14145492
0.78660005 0.086924434 0.094358712 14803162
0.78681254 0.094886288 0.095393866 15461093
0.79000002 0.096424915 0.090585135 15000282
0.7880525 0.10492699 0.096865438 15329766
0.79066664 0.10607032 0.091894709 15395042
0.78900003 0.11107937 0.099705793 11579568
0.79361546 0.11537994 0.094926313 12500665
0.78762496 -0.17341417 0.10563828 13420745
0.79119998 -0.17829782 0.10405717 10591645
0.78351736 -0.16470304 0.10527137 15657959
0.78352809 -0.15473841 0.10543283 16315888
0.78316689 -0.1445864 0.10538528 16118509
0.78190005 -0.13520077 0.10521685 16118509
0.77900004 -0.12557973 0.10391305 15986923
0.78085732 -0.12493882 0.10510439 15855337
0.77900004 -0.11372598 0.10026575 16118509
0.7814644 -0.11506491 0.1054868 15789543
0.77899998 -0.10213275 0.10156836 15855337
0.78155184 -0.10555109 0.10595972 15657958
0.77900004 -0.097130738 0.10172467 15789544
0.78049999 -0.097957574 0.10594147 15723751
0.38500011 -0.051371828 0.10735926 11446434
0.37773684 -0.041207451 0.10711692 10394777
0.38334036 -0.045719277 0.10489001 12235951
0.36893332 -0.032240074 0.10909475 2305067
0.37319991 -0.035084277 0.10462181 2633261
0.36899999 -0.025507597 0.10923799 2435880
0.37194589 -0.024749532 0.10436677 2699053
0.37552634 -0.018891124 0.10532874 13817037
0.38372827 -0.013663965 0.1047977 14737628
0.38794541 -0.0081774183 0.10557621 14474713
0.39143485 -0.0037729871 0.10574185 14079701
0.39700001 0.00012859581 0.10918471 13158601
0.77900016 0.085964032 0.10719564 14408663
0.78066677 0.087061726 0.10276277 14737371
0.77900004 0.091434985 0.10847218 14803678
0.78171438 0.095677875 0.10492741 15066595
0.78580767 0.10497467 0.10503239 15461354
0.78900003 0.11107937 0.10432345 11842481
0.79317391 0.11611369 0.10507559 11974320
0.78695655 -0.17372423 0.11490644 12828347
0.79079998 -0.17931771 0.11474393 10460057
0.77900004 -0.1609586 0.11704335 15262948
0.78171432 -0.16532151 0.1144697 15131361
0.77900004 -0.15779759 0.11789439 15855338
0.78158337 -0.15442999 0.11462417 15921130
0.78232145 -0.14501679 0.11553948 15789544
0.78300023 -0.13498178 0.11564864 15723751
0.7840358 -0.12514444 0.11540306 15460579
0.78479302 -0.11472876 0.11583859 15263455
0.78469241 -0.10466576 0.11555505 15526626
0.38791308 -0.051835787 0.11787738 11643556
0.39033332 -0.05332993 0.11648899 11775142
0.37617397 -0.041961767 0.11482466 10196882
0.382678 -0.046771105 0.11527435 12564656
0.3673923 -0.033501469 0.11527791 2370601
0.3713235 -0.038308151 0.11411013 2501674
0.36733842 -0.025378793 0.11483701 2632487
0.37364289 -0.018481201 0.11643825 12960439
0.38239026 -0.013364431 0.11503038 14605783
0.38687208 -0.0068486314 0.11512399 14408662
0.39115161 -0.0020635687 0.11499869 14277077
0.39547616 0.0021604402 0.11804403 13619149
0.77900016 0.08651112 0.1142167 14407894
0.78000003 0.084248379 0.1150024 14013135
0.77900004 0.091434985 0.11531088 14736859
0.7812857 0.096061029 0.11510446 14868704
0.78660721 0.10522361 0.11505555 15329770
0.79334629 0.1155568 0.11489744 12040113
0.78733325 -0.17405926 0.12503555 12697017
0.79066664 -0.17928748 0.12490325 10460313
0.7789287 -0.16151705 0.12435283 15460323
0.78160006 -0.16637707 0.125484 15197407
0.778889 -0.15757237 0.12355056 16250096
0.78085721 -0.15390722 0.12574919 16052716
0.78215617 -0.1455424 0.12481952 15657958
0.78320026 -0.1345052 0.12464195 15855337
0.7854799 -0.12478412 0.12500457 15657958
0.78619999 -0.11477625 0.12511934 15328993
0.78543997 -0.10455427 0.12499887 15460834
0.78500003 -0.098981477 0.12400924 15592419
0.37900001 -0.050450243 0.1241973 12170668
0.38557145 -0.051844202 0.12125417 11709349
0.37669894 -0.044829082 0.12546647 11578534
0.38115793 -0.047968067 0.1215675 12564913
0.36420134 -0.034214787 0.12506807 2567721
0.37115383 -0.039581098 0.1232283 2500647
0.36285529 -0.026582517 0.12615009 2436650
0.36650002 -0.019041346 0.12925173 13752791
0.37800002 -0.016690752 0.12077244 14539730
0.38159093 -0.013150605 0.12139147 14539733
0.38653848 -0.0058948109 0.12211856 14277332
0.39078575 -0.0013101333 0.12263431 14342869
0.39530149 0.0039555719 0.12366225 13487819
0.77900004 0.089611337 0.12123775 14605271
0.77900004 0.091434985 0.12032592 14539479
0.78215384 0.096738778 0.12306892 14934495
0.78661537 0.10536667 0.12497205 15395046
0.78900003 0.11107937 0.12741174 11908529
0.79242319 0.1155619 0.12468176 12040370
0.7941305 -0.18484665 0.13494582 10262934
0.78688002 -0.1740856 0.13532139 13091518
0.79000002 -0.17913632 0.13312143 10394007
0.77900004 -0.1609586 0.13272677 15723753
0.78161913 -0.16530171 0.13562915 15197150
0.78189665 -0.15457286 0.13554411 16315888
0.7840001 -0.14479963 0.13492748 15920874
0.78450018 -0.13472937 0.13495257 15657958
0.78543323 -0.12477732 0.13511105 15723751
0.78594422 -0.11473954 0.13519783 15723751
0.78607142 -0.10489973 0.13548309 15592164
0.37754548 -0.050577983 0.13360187 12039343
0.36900002 -0.040480748 0.13128635 5592401
0.37437713 -0.045141783 0.13475329 10986398
0.36559424 -0.034852691 0.13382861 1647134
0.37044996 -0.034958638 0.13921753 1252117
0.36531365 -0.024532018 0.13471322 1646364
0.37025002 -0.028700341 0.13931541 857360
0.36633334 -0.018841503 0.13443352 11974326
0.37652773 -0.01465675 0.13572758 14013905
0.38045457 -0.011454481 0.13649438 14145747
0.38308346 -0.0054347897 0.13700564 14145493
0.38716131 0.0022355723 0.13795057 14013908
0.39164704 0.0071964609 0.13853325 12763842
0.3961429 0.011523056 0.13948572 12500669
0.78343749 0.097688556 0.13476643 15000031
0.78671426 0.10503971 0.1350015 15526374
0.78900003 0.11107937 0.1320294 11842734
0.79275006 0.11578894 0.13544051 12040113
0.78900003 -0.18075661 0.14865297 10262421
0.79260868 -0.18505803 0.14501561 10262677
0.78711104 -0.17500545 0.14512293 13025470
0.78228003 -0.1645685 0.1446408 15262947
0.78273332 -0.15458021 0.14472407 16381681
0.7850399 -0.14493078 0.14515027 16381681
0.78599989 -0.13498834 0.14532766 15920873
0.78608 -0.12488075 0.14534283 15657957
0.78639996 -0.1148063 0.14540312 15789543
0.78647375 -0.1056598 0.14531964 15855336
0.36414289 -0.040673442 0.14633115 5988185
0.37276474 -0.044236869 0.14063139 10789276
0.36472896 -0.035409201 0.14630264 1120531
0.37063837 -0.033938859 0.14204089 1120531
0.36495769 -0.024525218 0.14595959 1513233
0.37049994 -0.0282501 0.14305837 923152
0.36483335 -0.019384844 0.14457415 5583145
0.37800002 -0.014033694 0.14023918 12829121
0.38111115 -0.011275747 0.14154494 12961218
0.38341025 -0.0050457343 0.1416374 11448237
0.38625005 0.0022785575 0.14103724 12632256
0.39250001 0.0088567939 0.14056626 12237243
0.78388894 0.098127715 0.14371429 14934494
0.78782612 0.10570502 0.14478378 15592681
0.79000002 0.10937075 0.14421786 15855339
0.79288888 0.11514004 0.14515665 12171700
0.78900003 -0.18075661 0.15511768 10197141
0.79213053 -0.18623491 0.15500578 10131605
0.78704 -0.17478466 0.15473253 13157315
0.78283328 -0.16468567 0.15482232 15131361
0.78272241 -0.15457921 0.1547994 16118254
0.78463328 -0.14485502 0.15517685 16315632
0.78534365 -0.13510461 0.15474269 15986666
0.78604007 -0.12487449 0.15453556 15591907
0.7870335 -0.11489771 0.15473071 15526114
0.78737509 -0.10780577 0.15410702 15657700
0.35885006 -0.040963594 0.15669961 1514776
0.36058831 -0.041246098 0.1522259 2699306
0.3584047 -0.034703929 0.15688106 1449239
0.36077797 -0.034932986 0.15242943 1712923
0.35855314 -0.026421491 0.1574287 1383702
0.3604317 -0.024424952 0.15316689 1777433
0.36015394 -0.018561963 0.15174583 4662564
0.78550005 0.099553406 0.1553496 14605789
0.78838891 0.10586819 0.15510017 15395305
0.79000002 0.10937075 0.15808839 15790320
0.79284626 0.11533903 0.15494443 12500922
0.78900003 -0.18075661 0.1615824 10263191
0.79226089 -0.18554083 0.16527551 10131346
0.78757137 -0.17463817 0.16471432 13289413
0.79000002 -0.17913631 0.16826011 9933456
0.78332001 -0.1647889 0.16500433 15065824
0.78303355 -0.15464067 0.16494383 15723496
0.78472 -0.14487161 0.16529813 15986667
0.78523517 -0.13463974 0.1647571 15986666
0.78566658 -0.12481557 0.16457675 15723494
0.77900004 -0.1109905 0.16956456 15657958
0.78414708 -0.11501881 0.16441445 15657701
0.77866673 -0.10790515 0.16888411 15723751
0.78250009 -0.10837398 0.16409203 15723494
0.34377417 -0.041241676 0.16739339 1844254
0.35526311 -0.040722504 0.16442098 1054225
0.34425917 -0.034765862 0.16679332 1580824
0.35532513 -0.035173465 0.16300541 1515289
0.34486315 -0.025074873 0.16634898 1646106
0.35583335 -0.02736962 0.1622403 1712668
0.34493339 -0.018890938 0.16605705 1448986
0.78890914 0.10686934 0.16500594 15461354
0.79000002 0.10937075 0.1645613 15329769
0.7927779 0.11553529 0.16472419 12500668
0.79404765 -0.18492757 0.17452359 10262419
0.78788894 -0.17374109 0.174881 14407383
0.79049999 -0.17878732 0.17576948 10196629
0.7840001 -0.16472703 0.17473175 15394790
0.78358865 -0.15496682 0.17487997 15921388
0.78392881 -0.14453004 0.17489731 16052460
0.78354579 -0.13498341 0.17505595 15986666
0.7832123 -0.12492671 0.17514721 15789288
0.77875012 -0.11232263 0.17497875 15657701
0.78120005 -0.11715729 0.17479773 15723495
0.77711105 -0.10809397 0.17420584 15723494
0.33708107 -0.041159425 0.17654304 1777693
0.3403044 -0.041662287 0.17174971 1777946
0.33755174 -0.036006212 0.17540078 1712154
0.34029859 -0.034941066 0.17133336 1777946
0.33834037 -0.025556732 0.17465784 1778205
0.34082499 -0.024622601 0.17180364 1843998
0.33900002 -0.019333517 0.17457782 1843488
0.34090006 -0.019202508 0.17196082 1908763
0.78800005 0.10827424 0.17562194 15461609
0.78892314 0.11291561 0.17641249 12829887
0.79070592 0.1164385 0.17341803 12040371
0.78741187 -0.17291319 0.18494919 15262691
0.79079998 -0.17839302 0.1850927 9999508
0.78432143 -0.16519488 0.18482073 15394788
0.7844063 -0.15468179 0.18508759 16316145
0.78499997 -0.14512806 0.18516438 16381424
0.78529996 -0.13486756 0.18564504 16117997
0.78487998 -0.12469244 0.18554594 15854825
0.77877784 -0.11156673 0.18410178 15789032
0.78152949 -0.1164112 0.18507577 15854825
0.77700001 -0.10888658 0.18459047 15789032
0.33278117 -0.041255213 0.18327437 1909536
0.3322244 -0.034893122 0.18391274 2041122
0.33194402 -0.026152207 0.18351889 1975584
0.78766674 0.10843358 0.18128563 15527146
0.78883338 0.11351866 0.18155403 13093058
0.78775007 -0.17321135 0.19509663 15196899
0.79090905 -0.1783337 0.19487958 10000023
0.78374094 -0.16467249 0.19485521 15262946
0.78382874 -0.15492815 0.19525485 16184304
0.78462082 -0.14485337 0.1954243 16250097
0.78586674 -0.13496414 0.19497508 16052717
0.78583997 -0.12484374 0.19496973 15920874
0.77900004 -0.1109905 0.19144839 15854824
0.78325009 -0.11694702 0.19295366 15920874
0.78782362 -0.17322059 0.20522475 14671580
0.79079998 -0.17857794 0.20452878 10000278
0.78403586 -0.1651351 0.2049439 15131359
0.7830326 -0.15449467 0.20509346 16052717
0.78326946 -0.14460379 0.20512134 16118510
0.78494442 -0.13480395 0.20485304 16052460
0.78700006 -0.125174 0.20520571 15986666
0.78725004 -0.11953782 0.20361429 16052203
0.79356515 -0.18471536 0.21473211 9934481
0.78769237 -0.17464429 0.21528633 13092550
0.79000002 -0.17913632 0.21264581 9605520
0.78392601 -0.16471165 0.21508858 15197407
0.78300041 -0.15463632 0.21534413 15789288
0.78373092 -0.14482911 0.2148405 15986924
0.78499997 -0.13481522 0.21497598 15855594
0.78662497 -0.12504263 0.21488261 15855337
0.78740007 -0.1195606 0.21378788 15920873
0.78900003 -0.18075661 0.22438255 10065553
0.7925455 -0.18536973 0.22505206 9934224
0.78677779 -0.1745223 0.22507963 12631743
0.78346449 -0.16501331 0.2249683 15657958
0.78296584 -0.15478766 0.22528926 16118509
0.78360021 -0.14472479 0.22498436 16118509
0.78486103 -0.13479182 0.22504105 15921130
0.78551853 -0.12513202 0.22540149 15526885
0.78549999 -0.11927209 0.22338602 15395555
0.79315794 -0.18445075 0.23509382 10000017
0.78708339 -0.17448683 0.23473877 13224392
0.79000002 -0.17913631 0.23761277 9473935
0.78328025 -0.16477776 0.23467526 15197408
0.78220683 -0.15526941 0.2351106 15526629
0.7815277 -0.145197 0.23506229 15790059
0.78350013 -0.13478452 0.23508334 15789544
0.78529996 -0.12567553 0.23528039 15657958
0.78764713 -0.17350748 0.24465962 14671835
0.79049999 -0.17850991 0.24590579 10132122
0.7832334 -0.16476996 0.24474412 15065565
0.78149992 -0.15539725 0.24490632 15526116
0.77900004 -0.14655173 0.24372643 15723752
0.78025007 -0.14450382 0.24487798 15789545
0.7821334 -0.13468799 0.24445924 15723753
0.77900004 -0.12466791 0.24980529 15263200
0.78288883 -0.12606981 0.24473381 15592167
0.79392004 -0.18486305 0.25517806 9803153
0.78711998 -0.1741385 0.25513497 13882319
0.79000002 -0.17913632 0.2533327 9408398
0.78183347 -0.16447538 0.25528821 15131614
0.78141367 -0.15536372 0.2549966 15789545
0.78112495 -0.14489429 0.25448993 16052716
0.7790001 -0.13232726 0.25509387 15723751
0.78034997 -0.13611948 0.25444105 15789545
0.77857906 -0.12637603 0.25532997 15460579
0.78000003 -0.1281756 0.25073466 15460579
0.79244459 -0.18519382 0.26490229 9737617
0.78639299 -0.17470945 0.26486328 12895684
0.78108007 -0.16431549 0.26509982 15197664
0.78271884 -0.15434958 0.26531312 15789545
0.78289306 -0.14473267 0.26512662 16184302
0.78076011 -0.13500427 0.26499206 15921130
0.77900004 -0.12521501 0.26257086 15460835
0.78015387 -0.12759171 0.2653487 15592165
0.78900003 0.14494219 0.26901993 11448233
0.79233342 0.14581646 0.26405615 11382440
0.79120016 0.15478387 0.26562133 11382440
0.786125 -0.17419989 0.27455482 13487819
0.79000002 -0.17913631 0.27829966 9473937
0.77900016 -0.16359586 0.27631843 14737118
0.78017646 -0.16433959 0.27338842 15000802
0.77900004 -0.15658183 0.27898374 15526375
0.78153342 -0.15452756 0.27458268 15724009
0.78196877 -0.14476523 0.27558309 16052716
0.78072423 -0.13512319 0.27487394 15921130
0.78215003 -0.12672627 0.27517065 15657958
0.787 0.12737922 0.27816403 11251368
0.78588241 0.13477498 0.2751728 11382694
0.78824991 0.14544344 0.275112 11382439
0.78900003 0.15245357 0.27739325 11316390
0.79009527 0.1565057 0.27476558 11316647
0.78662509 -0.1756137 0.28493425 12632256
0.77900016 -0.16250873 0.28472823 14670812
0.78115392 -0.16855095 0.28524068 15395048
0.77853328 -0.15466616 0.28519356 15460581
0.77833337 -0.1452871 0.2865628 15789801
0.78041673 -0.14422975 0.28207868 15855596
0.77866673 -0.13536905 0.2880995 15921130
0.78070593 -0.13445482 0.28335628 15790058
0.77900004 -0.12922704 0.28992566 15986923
0.78327787 -0.1253473 0.2850979 15724008
0.77900004 -0.1109905 0.28901383 15460580
0.78433335 -0.1164462 0.28700981 15592164
0.7762 -0.10732116 0.28815642 15197409
0.79062498 0.11709163 0.28708076 11250344
0.78852636 0.12626539 0.28356224 11316647
0.79012501 0.12326033 0.28759232 11316647
0.7881363 0.13477562 0.28359973 11316902
0.79000002 0.13649534 0.28847137 11316901
0.78860003 0.14462353 0.28205302 11382438
0.79058331 0.14507984 0.28729716 11251108
0.78900003 0.15171476 0.280718 11250854
0.79066688 0.15525691 0.28535789 11316647
0.78900003 -0.18075661 0.2954945 9474193
0.79300004 -0.18519512 0.29464343 9474191
0.78540903 -0.17534193 0.29506624 13882066
0.77900016 -0.16250871 0.2960805 14867931
0.78061116 -0.16756707 0.29417947 15855084
0.77711135 -0.15418221 0.29508367 15921389
0.77616692 -0.1451102 0.29522973 15921132
0.77600026 -0.13508773 0.29516524 15789546
0.77682167 -0.12522744 0.29586458 15855339
0.78144449 -0.12373604 0.29164776 15789545
0.77659386 -0.11479507 0.29590085 15723753
0.78133339 -0.11650675 0.29140314 15657959
0.77650011 -0.10531794 0.29535857 15328738
0.77850008 -0.099072546 0.29703069 15263201
0.78066665 -0.096606754 0.29907504 15394786
0.77400005 0.079976425 0.29893649 14211031
0.77499992 0.086056225 0.29697481 14145237
0.77626669 0.093661025 0.29690343 14737629
0.78200006 0.099109821 0.29836491 14803678
0.78600001 0.10330153 0.2989687 14474460
0.7906 0.10871404 0.29831439 10855075
0.79257149 0.11591139 0.29533133 11316650
0.79214811 0.12491407 0.29461721 11185061
0.79242861 0.13508329 0.29512614 11316646
0.78808337 -0.18146975 0.30529657 9211278
0.79270595 -0.18706737 0.30495715 9342605
0.78287506 -0.17477603 0.3046512 13092550
0.77883863 -0.16419615 0.30498144 15197666
0.78000003 -0.16956478 0.30490577 15789804
0.77660733 -0.15447888 0.30481353 15856365
0.7760002 -0.14507896 0.30515906 15856108
0.77542835 -0.13511819 0.30480582 15856107
0.77548003 -0.1250122 0.30495605 15790059
0.77529985 -0.11500062 0.30488428 15855595
0.77720606 -0.10414843 0.30499005 15394531
0.77900004 -0.09822493 0.30907401 15329765
0.78109521 -0.09517847 0.30507174 15263714
0.77400011 0.079458721 0.30411345 13882066
0.77455992 0.085475005 0.30459282 14408410
0.77672219 0.093696445 0.30463383 14934754
0.78200006 0.098848626 0.30542606 14868962
0.78699994 0.1041692 0.30450845 12632256
0.79083329 0.10917787 0.30605432 11185062
0.78838468 -0.18232027 0.31443065 9671568
0.7915715 -0.18717198 0.31564668 9803152
0.78542107 -0.17500344 0.31525445 10131864
0.7826317 -0.16550843 0.31442386 12236727
0.77812505 -0.15390193 0.31214315 15790830
0.78308338 -0.15526095 0.31757152 15066854
0.77788895 -0.14583743 0.31217527 15987952
0.78283334 -0.14483082 0.31731734 15198183
0.77733332 -0.13531812 0.31114236 15921648
0.78209096 -0.13473083 0.31587783 16119027
0.77840006 -0.12548348 0.31156936 15724525
0.7833637 -0.12494859 0.31622532 15987440
0.77750003 -0.11441676 0.311665 15790573
0.78277779 -0.11519297 0.31658137 15592939
0.77772731 -0.10484913 0.31229457 15658731
0.78166676 -0.10588309 0.31653666 15527146
0.77887511 -0.095473394 0.31221539 15461095
0.78066677 -0.095187306 0.31329128 15198179
0.77700001 0.076649405 0.31646633 9737358
0.78000003 0.076944403 0.31951374 10000787
0.77664709 0.084529862 0.31258076 12039602
0.78140002 0.085864142 0.31789273 9868949
0.77800006 0.091317616 0.31140924 13420745
0.78389472 0.095684282 0.31551027 12303033
0.78815389 0.10329719 0.314623 10790052
0.79116672 0.10814462 0.31529161 10921889
0.79330444 -0.18545887 0.32561359 10527131
0.78880006 -0.17517194 0.3212719 10132118
0.79193759 -0.17494085 0.32626045 10592668
0.78815389 -0.16466707 0.32242903 10657951
0.79111111 -0.1647785 0.32735875 10724253
0.78786671 -0.1547973 0.32421365 10526879
0.79066676 -0.15584335 0.32912782 10658717
0.78805554 -0.14466767 0.32455775 10329500
0.79000002 -0.14492233 0.32915828 10527131
0.7876876 -0.13527751 0.32243407 11185068
0.79077774 -0.13508902 0.32804337 10461339
0.78780007 -0.12515362 0.32178748 11250862
0.79090905 -0.12514172 0.32684487 10329753
0.78780001 -0.11482583 0.32258782 10987688
0.79128569 -0.11591369 0.32731315 10527132
0.78800005 -0.10489559 0.32410946 10263706
0.79100001 -0.10529325 0.32772318 10461338
0.78733343 -0.098660789 0.32374752 10132376
0.79050004 -0.098750271 0.32751602 10329752
0.78575003 0.077055126 0.32647216 9869201
0.78725004 0.085376903 0.32548153 10592667
0.79000002 0.0890273 0.32915828 10724253
0.7882942 0.094589412 0.32367206 10855839
0.79062504 0.096270613 0.32826251 10921632
0.78900003 0.10184405 0.32135338 10921632
0.792 0.10534915 0.32531995 10987425
0.79244447 -0.14485496 0.33553731 10592925
0.78885704 0.078346029 0.33501458 10264472
0.78900003 0.082218997 0.33428282 10527131
0.79000002 0.086561412 0.33501473 10658717
0.79136002 0.094740301 0.33528289 10855839
0.78900003 0.078201637 0.34425694 10330266
0.78900003 0.082449883 0.34351811 10527387
0.79018193 0.086021267 0.34521043 10658974
0.79167998 0.09477926 0.3446866 10790303
0.78900003 0.077832229 0.35829464 10461338
0.79000002 0.079780273 0.35874873 10461338
0.79150003 0.086234137 0.35563093 10592926
0.78525007 0.07930059 0.36302191 10461338
0.78752172 0.084502228 0.36491397 10527131
0.7908572 0.08833129 0.36230969 10658717
0.79338253 0.09498547 0.36491996 10724510
0.78883338 0.088280529 0.37514767 10527644
0.78900003 0.091131076 0.37380999 10527388
0.79060876 0.095615327 0.37519845 10527645
0.79216659 0.1050348 0.37456897 10593694
0.79331028 0.14453617 0.37440082 10921889
0.79299992 0.15475294 0.37516835 10921889
0.78900003 0.088298917 0.38384566 10264731
0.79000002 0.088102594 0.38833919 10396317
0.78900003 0.090761669 0.38138294 10396316
0.79034799 0.094940111 0.38505131 10462110
0.79268551 0.10497252 0.38488796 10593696
0.79296297 0.12483708 0.38463932 10594465
0.79213881 0.1347014 0.3847557 10660002
0.79243332 0.14495493 0.38489926 10856610
0.79294425 0.15525766 0.3851459 10921889
0.79229993 0.16533181 0.3848322 10987682
0.79209995 0.17456293 0.38473627 11053476
0.79185706 0.18457112 0.38475043 11053476
0.79055554 0.088267423 0.39478326 10330523
0.79114825 0.094508603 0.39487246 10462109
0.79293543 0.10528793 0.39517146 10527903
0.79299992 0.13484785 0.39538324 10659488
0.79271996 0.1450067 0.39524251 10725282
0.79229993 0.15513083 0.39503318 10725026
0.79219991 0.16531271 0.39498484 10922148
0.79312497 0.17463475 0.39529195 10922148
0.79114288 0.08836215 0.40371701 10330523
0.79188466 0.095017143 0.40502259 10462109
0.79309994 0.13486427 0.40471661 10725280
0.79175866 0.14495802 0.40479827 10725024
0.79130566 0.15493758 0.404726 10856096
0.79265374 0.16526522 0.40470296 10921890
0.7924583 0.1450343 0.41497961 10659488
0.79100019 0.15487678 0.41475534 10790560
0.79234481 0.16547078 0.41469148 10856097
0.792 0.17519347 0.41456893 10921890
0.79044467 0.18502609 0.41453111 10856355
0.79143339 0.15496115 0.42424724 10659232
0.79272002 0.16542198 0.42493686 10724768
0.79303718 0.17517993 0.42490345 10790561
0.79244459 0.18521895 0.42513579 10856355
0.79116678 0.15491003 0.43428755 10724767
