# .PCD v0.7 - Point Cloud Data file format
VERSION 0.7
FIELDS x y z rgb
SIZE 4 4 4 4
TYPE F F F U
COUNT 1 1 1 1
WIDTH 681
HEIGHT 1
VIEWPOINT 0 0 0 1 0 0 0
POINTS 681
DATA ascii
0.42826664 -0.032613058 -0.071603142 14209224
0.42783341 -0.025399895 -0.072132893 15590878
0.42872217 -0.018149162 -0.071669199 15854821
0.43000001 -0.014960282 -0.071239032 14999769
0.43446672 -0.041836686 -0.062529787 12828086
0.44200003 -0.045384947 -0.060034297 11973289
0.42737782 -0.032792665 -0.065054655 14275018
0.43052945 -0.037361305 -0.06419652 13156538
0.42522988 -0.025247112 -0.065227374 15788771
0.42707276 -0.017125517 -0.064351909 15986922
0.43042865 -0.01272815 -0.065833412 14868955
0.43200001 -0.009720142 -0.065124087 13290181
0.45675004 -0.05131143 -0.056021869 11908012
0.46563637 -0.052568253 -0.052931644 11381413
0.47407147 -0.055655967 -0.051701549 12039342
0.48050004 -0.057775192 -0.05064036 11908011
0.43700004 -0.041206282 -0.056020007 12697012
0.44459462 -0.04489914 -0.055317763 12631220
0.45200005 -0.048739895 -0.055252053 12105134
0.46250004 -0.049655348 -0.050364472 11710119
0.4246462 -0.033516861 -0.054746225 14077895
0.43129411 -0.038289204 -0.056859527 12959415
0.42137048 -0.025017673 -0.054772183 15920614
0.42328584 -0.015936263 -0.054907508 15723752
0.48733339 -0.060687542 -0.048697229 12171183
0.49595007 -0.062419564 -0.045352459 11776938
0.50460005 -0.065638229 -0.042487912 11644839
0.4854615 -0.057010047 -0.048094179 11578790
0.49235484 -0.056953732 -0.043630492 11710889
0.43700004 -0.042316321 -0.049124926 12301997
0.44400004 -0.044550899 -0.049911823 13223356
0.41833341 -0.03095868 -0.041886047 14736082
0.42292315 -0.034847535 -0.045758508 13814724
0.43000001 -0.039119583 -0.048338026 13091000
0.41792032 -0.024923151 -0.044149294 15855334
0.42000005 -0.023997722 -0.048286494 15657699
0.41887504 -0.018863143 -0.041326761 16184556
0.42077327 -0.015596032 -0.045055993 15657960
0.50627273 -0.062007058 -0.037516817 11710632
0.49672735 -0.056187823 -0.038184211 11578789
0.50375003 -0.059095599 -0.035987806 11973547
0.41718864 -0.032521144 -0.034055345 14472911
0.42157152 -0.036628969 -0.036609232 13485759
0.41562775 -0.024733784 -0.034574293 15789285
0.41728815 -0.016650449 -0.033980511 15724008
0.420353 -0.013003148 -0.037587363 14737116
0.42046669 -0.041074771 -0.022854989 12170668
0.41626832 -0.034599669 -0.024754567 13749443
0.4201667 -0.039044738 -0.02788879 12828341
0.41261792 -0.02498126 -0.0246557 15657956
0.41570005 -0.016274981 -0.024559161 15526629
0.42072734 -0.011368971 -0.025671659 13684943
0.41900003 -0.040080629 -0.01800184 12368047
0.42213047 -0.04253199 -0.014834193 11841960
0.40890905 -0.031196326 -0.012028098 14605010
0.4139041 -0.035028122 -0.015777459 13486271
0.40853658 -0.02530171 -0.013423692 15724261
0.41043249 -0.024302222 -0.017885501 15789542
0.40899998 -0.019376095 -0.011627868 15856107
0.41223538 -0.015813071 -0.014823556 15198178
0.42462507 -0.042424802 -0.0085325772 11776166
0.4074001 -0.032124832 -0.0046219598 14407375
0.41280001 -0.036110166 -0.0067864046 12894393
0.42033339 -0.039224159 -0.0052659805 12171183
0.40650913 -0.025084751 -0.0047843461 15724005
0.40833351 -0.017957861 -0.0041626459 15592936
0.41136843 -0.014056154 -0.0065596248 14671835
0.40462959 -0.032376699 0.0051161461 14209994
0.41242859 -0.037108991 0.0037062722 12236460
0.40361372 -0.024957515 0.0052161776 15658212
0.40585196 -0.017018316 0.0054999334 15395555
0.41520005 -0.041600708 0.015989134 11907753
0.40401214 -0.034237262 0.015223701 13354429
0.4114286 -0.039356362 0.016357178 11907497
0.39888242 -0.026401415 0.018932257 15395553
0.40072155 -0.024981448 0.014328495 15526883
0.40346056 -0.016589878 0.015750354 14935264
0.39780778 -0.032843526 0.02605423 13684164
0.40100002 -0.033953693 0.021475483 13420992
0.39741045 -0.025897674 0.024635561 15460833
0.40000001 -0.020845953 0.021332022 15790825
0.40162063 -0.016786102 0.022156389 15066592
0.40150002 -0.040756997 0.039458457 12104877
0.39644203 -0.034069888 0.035159055 13420992
0.40000001 -0.038887396 0.038686767 12302255
0.39486238 -0.025183428 0.035510454 15329761
0.39744449 -0.01823663 0.036955658 15330020
0.40169558 -0.013786012 0.036366273 13816527
0.39900002 -0.040035602 0.048086394 12236461
0.40117145 -0.042133328 0.045835134 11841703
0.39452472 -0.034193378 0.045360342 13552322
0.40000001 -0.038965434 0.042120263 12302255
0.39242002 -0.024742946 0.044914845 15329761
0.39628154 -0.015456703 0.044766061 14342871
0.40000001 -0.012043726 0.040247448 13027010
0.39657146 -0.041848253 0.056143858 12104364
0.40077782 -0.043968193 0.051583927 11578532
0.38868749 -0.031778809 0.058102898 14473425
0.39266342 -0.035538398 0.054397658 13420480
0.38865444 -0.025652267 0.056795496 15263711
0.39043751 -0.024131207 0.051966283 15330018
0.38900003 -0.019544166 0.058446549 15527142
0.39318836 -0.016738964 0.054293055 14935009
0.40300003 -0.013077485 0.059417911 13882323
0.39631581 -0.04262675 0.063703746 11972777
0.40033337 -0.045324311 0.067147687 11578276
0.38777274 -0.033847064 0.065482557 14276303
0.3916072 -0.038280901 0.063629664 13025979
0.38732296 -0.02517201 0.065130219 15197920
0.38873979 -0.0169282 0.06642653 14803421
0.39071432 -0.015682001 0.063028142 14474458
0.40662503 -0.012238812 0.061258659 13684687
0.41000003 -0.010905094 0.061409801 12895426
0.38800001 -0.0098657841 0.069922738 13092807
0.79242849 0.086301573 0.064982317 11382440
0.3881 -0.041668478 0.078934006 12302257
0.39412725 -0.04327818 0.074776284 11907242
0.40000001 -0.046456687 0.072787598 11183521
0.38515851 -0.034825638 0.075340793 12236464
0.39000002 -0.039132543 0.070739657 13156795
0.38449976 -0.025075609 0.075135663 12763324
0.38740581 -0.01585965 0.074955024 14277078
0.39000002 -0.011286134 0.078500137 13224393
0.38872728 -0.0088082599 0.074026503 13224393
0.3902728 -0.0082620895 0.077974461 13355979
0.79415393 -0.097419038 0.084479757 13026489
0.38360003 -0.041156005 0.083878055 10856353
0.39100003 -0.045640249 0.089685477 11776941
0.37850004 -0.033659928 0.087814197 2764846
0.38132972 -0.035400737 0.083685711 3027761
0.37838304 -0.026507057 0.087638468 2895919
0.38113475 -0.024125446 0.083719745 3224370
0.38603541 -0.01578526 0.085163839 14539992
0.39027274 -0.011501207 0.082042933 13290439
0.38825002 -0.0085096685 0.086212412 13158595
0.3911176 -0.0087591261 0.082278907 13290439
0.78866673 -0.17268021 0.098432682 14736600
0.79240006 -0.17550893 0.094381809 11381158
0.78726923 -0.16476606 0.09565454 15197667
0.79016668 -0.16653417 0.091220714 12960448
0.7864334 -0.15512878 0.095508233 16119279
0.79000002 -0.15324464 0.090585135 15592935
0.78700006 -0.14508042 0.095621422 16250606
0.79000002 -0.14492233 0.090585135 15527396
0.78660721 -0.13509177 0.095714688 16447727
0.79000002 -0.1347506 0.090585135 15921639
0.78661543 -0.12517658 0.095856734 16316141
0.79000002 -0.12550358 0.090585135 15592417
0.78723073 -0.11521112 0.096359126 16316141
0.79049999 -0.11466451 0.09138222 15987432
0.78676188 -0.10473 0.096435808 16250349
0.79055554 -0.10523409 0.091470793 16184811
0.78622228 -0.098317795 0.096076041 16381935
0.79050004 -0.098750271 0.091567174 16250347
0.39300001 -0.050882705 0.094948769 11643811
0.38394338 -0.043538619 0.096641921 12105906
0.3919678 -0.047796469 0.093929686 11512482
0.37647319 -0.034803055 0.095098458 2699053
0.38000005 -0.03990832 0.093389452 3489083
0.3759276 -0.02506349 0.094949014 2764848
0.38000003 -0.020337408 0.090720698 4079419
0.37850001 -0.0190755 0.097597502 14015705
0.38415596 -0.014826358 0.094589598 14737628
0.38871428 -0.0094286194 0.096833706 14605273
0.39024997 -0.0071243094 0.097793341 14276308
0.78449994 0.087183736 0.096681982 15131616
0.79000002 0.0890273 0.090585135 14867413
0.78677773 0.095009461 0.095872164 15526630
0.79016668 0.09521272 0.090912484 14999513
0.78777784 0.10506827 0.097090282 15395561
0.79107147 0.10541878 0.092029333 15328734
0.78885716 0.11343404 0.098896131 11908530
0.79134774 0.11551767 0.094199605 12631994
0.79330772 0.12454559 0.094890304 11908784
0.79244435 0.14515927 0.094985455 12106162
0.78900003 0.15408956 0.098914191 11974832
0.79121435 0.15485325 0.094557367 11974832
0.7938 -0.18483378 0.10506624 10854556
0.78704768 -0.17382082 0.10559788 12763070
0.79049999 -0.17894144 0.1032863 10855070
0.78270012 -0.16465677 0.10531974 15723752
0.78249985 -0.15480559 0.10507825 16250351
0.78268754 -0.14484078 0.10554735 16118508
0.78229988 -0.13526946 0.10526727 16052971
0.78183335 -0.12511997 0.10520434 15855591
0.78280014 -0.11519615 0.10533475 15789798
0.77900004 -0.10004859 0.10847218 15658212
0.78202951 -0.10528672 0.10501602 15658213
0.77900004 -0.097313106 0.1057367 15724005
0.78080004 -0.097720549 0.10195869 15855591
0.38465798 -0.0518189 0.10657004 11446434
0.37815788 -0.041066609 0.10635263 10986912
0.38316163 -0.045784939 0.10481804 12170672
0.36899999 -0.031842392 0.10947452 2436136
0.37305215 -0.034926821 0.10489345 2633258
0.36899999 -0.025603579 0.10935452 2566950
0.37202239 -0.024709344 0.10442302 2699052
0.37632352 -0.018476868 0.10460255 14079441
0.38348284 -0.013487592 0.10469446 14803163
0.38788676 -0.0081983982 0.10573991 14540249
0.3913959 -0.0041819606 0.10531669 14145493
0.39800003 0.00012891974 0.10992561 13355722
0.77842122 0.086186349 0.10661611 14539736
0.78070009 0.085968569 0.10194558 14737628
0.77854544 0.093039066 0.10683382 14868960
0.78136843 0.096528344 0.10393869 15263972
0.78496158 0.10486221 0.10491932 15461607
0.78856254 0.11321086 0.10461184 11908784
0.79044443 0.11765679 0.10646892 11974577
0.79418516 0.12475926 0.10483968 11974577
0.79432267 0.14451343 0.10517909 11974577
0.78900003 0.15408956 0.10234445 11974575
0.79056525 0.15491299 0.1063424 11908784
0.79318184 0.16484517 0.10496161 12040112
0.7942 -0.18474273 0.11524055 10394006
0.78662509 -0.17415601 0.11475122 12762555
0.79033333 -0.1792119 0.11652672 10722713
0.77900004 -0.16022913 0.11667863 15592165
0.78090912 -0.16477904 0.11488713 15262688
0.77900004 -0.15840548 0.11667862 15921130
0.78147829 -0.15453273 0.11514135 15855337
0.78227568 -0.14517823 0.11521266 15789544
0.78236002 -0.13527916 0.11535168 15723751
0.78230006 -0.12519567 0.11534338 15460577
0.7831924 -0.11504155 0.11561561 15329247
0.78310353 -0.1050024 0.11533533 15460833
0.78300005 -0.098729298 0.11819425 15592419
0.38757148 -0.052079912 0.117575 11578276
0.39000002 -0.053740494 0.116846 11644324
0.37640816 -0.041909952 0.11517747 9933966
0.38264069 -0.046756428 0.11524146 12433585
0.3675499 -0.033301219 0.11530116 2500902
0.37132353 -0.038001686 0.11398 2764587
0.36779338 -0.025600011 0.11463366 2500644
0.37326667 -0.018682307 0.11567766 12565426
0.38272157 -0.013299222 0.1151714 14671063
0.38696629 -0.0067473822 0.11528199 14474198
0.39118755 -0.002103765 0.1147103 14342870
0.39494288 0.0028794287 0.11766246 13421768
0.40160003 0.0016358286 0.11204688 12960964
0.77727783 0.086480446 0.11358973 14473943
0.77787513 0.093353376 0.11468939 14802911
0.78122228 0.098199427 0.11518286 14803168
0.78621429 0.10517158 0.1149982 15263976
0.78900003 0.11138722 0.1138666 11776947
0.79142112 0.11620092 0.115029 11974577
0.79399997 0.14436738 0.11464407 11909040
0.79200006 0.15436126 0.11477442 11908783
0.78694117 -0.17335263 0.12469377 13419457
0.79100001 -0.17862332 0.12569778 10524822
0.77900004 -0.1620528 0.12032592 14868442
0.78139299 -0.16431727 0.12526913 15459553
0.78191173 -0.15463372 0.12508301 16052715
0.78380018 -0.14470121 0.12473834 15592420
0.7842415 -0.13484363 0.12493587 15855336
0.78450006 -0.1248407 0.12470984 15526372
0.78540003 -0.11465967 0.12499349 15263712
0.78472 -0.10445841 0.12488502 15395297
0.78300005 -0.098363161 0.12314479 15461092
0.37800002 -0.050317131 0.12917905 12631221
0.38487506 -0.052136358 0.1212175 11446948
0.3768163 -0.044715606 0.12559213 11578533
0.38108698 -0.048285455 0.12208632 12433586
0.36387286 -0.034234483 0.12501262 2698794
0.37125 -0.039496984 0.12252597 2566180
0.36269337 -0.026688928 0.12598754 2698540
0.36600003 -0.019014977 0.12907539 13883861
0.38222224 -0.012794709 0.12057976 14473684
0.38700002 -0.0056489441 0.12134658 14407891
0.39077777 -0.0011940139 0.12185523 14408661
0.3955178 0.005064779 0.12269885 13224902
0.77700001 0.091200233 0.12001699 14737628
0.78212506 0.098439738 0.12447202 14934754
0.7862308 0.10531516 0.12491048 15329512
0.78900003 0.11107936 0.12464114 11973553
0.79147834 0.11594256 0.12483101 12105906
0.78899997 0.14749289 0.12464113 11909039
0.79070008 0.14352547 0.12491052 11909038
0.78900003 0.152823 0.12704232 11908783
0.79074097 0.15582241 0.12446883 11908782
0.78670835 -0.17386705 0.13525094 13287872
0.79025 -0.17919299 0.13408768 10590363
0.78165394 -0.16457798 0.13516329 15196895
0.78259391 -0.15432453 0.13519457 16315888
0.78470004 -0.14486717 0.13498481 15921130
0.78566653 -0.13493028 0.13515162 15723751
0.78599989 -0.12486815 0.13520743 15789544
0.78599977 -0.1147479 0.13520746 15723751
0.7863667 -0.10467596 0.13527152 15592163
0.37775001 -0.050578624 0.13336636 12104880
0.3747201 -0.045113772 0.13474093 11051935
0.36557147 -0.034666978 0.13351268 1712670
0.37072 -0.036052112 0.13891116 1383192
0.36579072 -0.024354596 0.1342869 1843744
0.37078571 -0.027099079 0.13923804 922895
0.36627275 -0.019056635 0.13464724 11580080
0.37757143 -0.014687868 0.13618271 13882317
0.3804138 -0.011944242 0.13648278 14145489
0.38318852 -0.005365361 0.13703483 14145747
0.38747501 0.0031485255 0.13806172 13750736
0.39036366 0.0078537213 0.13772382 12632256
0.77850008 0.093198784 0.13573921 14737115
0.78156257 0.097341195 0.13501453 15000287
0.7858929 0.10493093 0.1348604 15526374
0.78900003 0.11107937 0.13387647 11842479
0.79263645 0.11615109 0.13533731 12040114
0.79186213 0.15488477 0.13516572 11843245
0.79417396 0.1647568 0.13536263 11909038
0.78900003 -0.18075661 0.14772944 10394007
0.79257149 -0.18502569 0.14495103 10328212
0.78681481 -0.17494051 0.1450685 13091005
0.78223997 -0.16455935 0.14463294 15262945
0.78303337 -0.15463944 0.1447787 16381424
0.78472 -0.1448715 0.14509046 16381424
0.78599989 -0.13498782 0.14532776 15789544
0.78663987 -0.12497065 0.14544684 15592164
0.78606659 -0.11475834 0.14534038 15658212
0.78595251 -0.10532209 0.14531898 15789798
0.36500004 -0.040504817 0.14622883 5856344
0.37263161 -0.043731496 0.14084014 10789277
0.36493105 -0.035643127 0.14729263 1185810
0.37103859 -0.033953562 0.14305657 1120531
0.36462215 -0.024606504 0.14769992 1447697
0.37103808 -0.025963176 0.14408287 988690
0.36333337 -0.019163715 0.14708848 5250846
0.37866667 -0.014355759 0.14063518 12369336
0.38076925 -0.011668909 0.14137129 13092802
0.38306063 -0.0053018322 0.14128791 11184550
0.38554546 0.0016035576 0.14094634 12631997
0.77700001 0.093019202 0.14002568 14671835
0.78222227 0.097918831 0.14340898 14934493
0.78707695 0.10564009 0.14495991 15592424
0.79222232 0.11504149 0.14503461 12171700
0.78900003 -0.18075661 0.15511768 10328469
0.79271424 -0.18620797 0.15469813 10197139
0.78614819 -0.17438155 0.15496503 13288897
0.78260005 -0.16463564 0.15477619 15000289
0.78261119 -0.15455753 0.15477712 16052717
0.78470004 -0.14486739 0.15519066 16249839
0.78590316 -0.1351191 0.1546866 15921130
0.78672004 -0.12498184 0.15466954 15526371
0.78656662 -0.11483262 0.15463993 15460834
0.78546673 -0.10651863 0.15454556 15658212
0.35884213 -0.040958401 0.15685259 1448724
0.36080006 -0.041101437 0.15246685 3028012
0.35833743 -0.034791864 0.15705068 1449237
0.36098713 -0.034816623 0.15270948 1712152
0.3583889 -0.027220108 0.15720043 1449238
0.36046165 -0.024606086 0.15300535 1842968
0.36050004 -0.018871928 0.1518912 5122087
0.78333336 0.09866935 0.15400673 14671837
0.78805554 0.10582387 0.15503462 15330024
0.79000002 0.10937075 0.15808839 15461356
0.79261535 0.11530428 0.15490025 12435129
0.78900003 -0.18075661 0.16250594 10262934
0.79300016 -0.18508141 0.16518556 10197141
0.7869643 -0.17496502 0.1651804 12960190
0.78332001 -0.16478768 0.16500519 14934496
0.78293347 -0.15462206 0.16492262 15723753
0.78531998 -0.14498132 0.16542599 15986925
0.78625703 -0.13489984 0.16483377 15921131
0.7875002 -0.12510519 0.16496307 15723751
0.78683335 -0.11487276 0.16482218 15657958
0.78489995 -0.10723804 0.16404957 15592165
0.34375861 -0.04123329 0.16727364 1778202
0.35510522 -0.040747937 0.16430557 1119506
0.34422314 -0.034866549 0.16670516 1515287
0.3553189 -0.035079304 0.16291068 1515289
0.3449505 -0.025120847 0.166445 1515291
0.35586581 -0.027049871 0.16248609 1712924
0.34525001 -0.018949322 0.16600825 1383453
0.78866667 0.10635602 0.16428451 15461354
0.79000002 0.10937075 0.16502365 15461356
0.79311115 0.11558412 0.16479422 12500923
0.79356527 -0.18487686 0.17499679 10197140
0.78785002 -0.17403992 0.17518027 13946831
0.79020005 -0.17918167 0.17570314 10262678
0.7844075 -0.16481346 0.17482221 15328996
0.78377801 -0.15478803 0.17519179 15986924
0.78559995 -0.14503331 0.17467941 15986411
0.78676689 -0.1351192 0.17493865 15986667
0.78755999 -0.12511568 0.17511445 15789288
0.78646672 -0.11481854 0.17487131 15657958
0.78474998 -0.10859436 0.17448863 15723751
0.33705714 -0.041079696 0.17663157 1777950
0.34029171 -0.04171294 0.17172308 1646875
0.33761618 -0.035892058 0.17561078 1646618
0.34024334 -0.034871176 0.17152494 1712667
0.33807024 -0.025466772 0.17502691 1843484
0.34087938 -0.024703218 0.17184953 1909276
0.338 -0.019276487 0.17524622 1974819
0.34087503 -0.019390704 0.17209816 2039065
0.78780007 0.1079605 0.17590459 15527148
0.78892314 0.11263144 0.17584434 12895427
0.7909413 0.11669099 0.17390469 12040370
0.79429168 -0.18515007 0.18466841 10131348
0.78799993 -0.17325282 0.18494855 14933982
0.79055554 -0.1784403 0.18524025 10065555
0.78485715 -0.16530903 0.18494704 15394532
0.78366691 -0.15476641 0.18525697 16315889
0.78476679 -0.14487962 0.18459697 16315888
0.78552771 -0.1349069 0.18477468 16117996
0.78530008 -0.12475824 0.1847191 15920617
0.7837097 -0.1152145 0.18455105 15789031
0.77900004 -0.10916685 0.18780109 15789031
0.78225005 -0.1096223 0.1840044 15789031
0.33281252 -0.041259222 0.18321824 1843744
0.33222464 -0.034892563 0.18391259 1975330
0.32900003 -0.026850253 0.18637232 2106399
0.33199045 -0.026189005 0.18342839 2040864
0.78766674 0.10843358 0.18128563 15527145
0.78885716 0.11290631 0.18226314 12829631
0.7906 0.11661062 0.18578714 11777198
0.79239285 0.12474223 0.18486886 11777198
0.79351425 0.13480435 0.18492931 11777198
0.78806245 -0.1732793 0.19517416 15262689
0.79054546 -0.17825121 0.19479065 9999251
0.78438467 -0.16487063 0.1948193 15328480
0.78390628 -0.15504195 0.19483365 16249839
0.78508002 -0.14493787 0.19478238 16250096
0.78433347 -0.13521406 0.19480038 16052717
0.78270984 -0.12470178 0.19454747 15986666
0.78194112 -0.11679389 0.19432606 15920873
0.78793752 -0.17302123 0.2050578 15066079
0.79072726 -0.17846057 0.20493107 9934485
0.78420699 -0.1651025 0.20481828 15197152
0.78332365 -0.15448099 0.20469761 16184046
0.78659999 -0.14521752 0.20528585 16118510
0.78658617 -0.13550399 0.20436317 15986924
0.7863158 -0.12482072 0.20439067 15921130
0.78650004 -0.11881097 0.20434318 15855337
0.78811115 -0.17348221 0.21541728 14671324
0.79049999 -0.17832497 0.21463096 9802901
0.78403699 -0.16473676 0.21511905 15197151
0.78247225 -0.15453085 0.21519977 15723752
0.78538471 -0.14513308 0.21529149 15986924
0.787543 -0.1351728 0.21488054 15920874
0.78803456 -0.12512758 0.21504293 15920873
0.78850007 -0.11972761 0.21500914 16052202
0.78900003 0.13139705 0.2197649 11580073
0.79308343 -0.1844824 0.22507422 10000018
0.78770834 -0.17423993 0.22562687 13026757
0.79025006 -0.179193 0.22288717 9605523
0.78410715 -0.16515149 0.225152 15526117
0.78256691 -0.15454945 0.22530039 16052716
0.78437942 -0.14468084 0.22506131 16118509
0.78602779 -0.13499147 0.22537531 15921130
0.78663331 -0.12496898 0.22554876 15657701
0.78650004 -0.11942393 0.22551106 15657701
0.78900003 0.13201274 0.22376686 11579818
0.78900003 -0.18075661 0.23454142 10000533
0.79315799 -0.18621035 0.23509173 9803152
0.78677779 -0.17479418 0.23497112 12829632
0.78259271 -0.16443054 0.23487493 15065820
0.78199977 -0.15535417 0.23520656 15526629
0.78257155 -0.14552036 0.23524597 15855338
0.7846334 -0.13475122 0.23507915 15789800
0.78560877 -0.12512515 0.2351318 15657958
0.79357898 0.13744095 0.2352192 11645355
0.79304361 -0.18467532 0.24478325 9868692
0.78749996 -0.17473269 0.24469592 13290442
0.79000002 -0.17913631 0.24870919 9539986
0.78300011 -0.1649165 0.24499926 15066079
0.7818799 -0.15533061 0.2452374 15526372
0.77900004 -0.14290443 0.24889347 15855337
0.78081477 -0.14516479 0.24415667 15657958
0.77866673 -0.13443851 0.24888788 15789544
0.78214812 -0.13510519 0.24355395 15789544
0.77807707 -0.12529136 0.24796671 15526372
0.78247625 -0.12605262 0.2432397 15526373
0.7929092 0.13829134 0.24464549 11514026
0.7938571 -0.1846185 0.25527513 9803153
0.78688455 -0.17425403 0.25502443 13553357
0.79000002 -0.17913631 0.252408 9473935
0.78237927 -0.16446234 0.25530899 15131616
0.78196645 -0.15534772 0.25533316 15724265
0.7790001 -0.14253968 0.25308788 15921387
0.78077275 -0.14638793 0.25635698 15987181
0.77837515 -0.1344395 0.25492102 15789545
0.78000003 -0.13852289 0.25925595 15987695
0.777762 -0.12607364 0.25504643 15460836
0.79211116 0.13850826 0.25483453 11448233
0.79166663 0.14481407 0.25479198 11448233
0.7929545 -0.18436867 0.26499298 9737615
0.78653568 -0.17474034 0.26491219 12961219
0.78207684 -0.16466483 0.26522711 15197923
0.78199983 -0.15535417 0.26541272 15723753
0.78209978 -0.14530392 0.26544741 16118509
0.78151995 -0.13513394 0.26525202 15855337
0.77900004 -0.12740338 0.26074719 15592165
0.78147364 -0.12655686 0.26542878 15657702
0.79200006 0.13931303 0.26139042 11514026
0.79173678 0.14580224 0.26452279 11448233
0.79400009 -0.18469611 0.27505928 9671570
0.78620839 -0.174218 0.27458376 13421516
0.79000002 -0.17913631 0.27829966 9605521
0.77900004 -0.16022913 0.27898374 14145238
0.78100014 -0.16442473 0.27496949 14934497
0.78109998 -0.15517354 0.27516255 15527144
0.78243333 -0.14536458 0.2747184 15987693
0.78252006 -0.1353057 0.27474838 15921387
0.78300017 -0.12638281 0.27547592 15723751
0.79100001 0.12710077 0.27957779 11382184
0.79209095 0.13545229 0.27760345 11382440
0.79368186 0.14560632 0.27529114 11316647
0.78900003 -0.18075661 0.28995332 9539728
0.78622234 -0.17474118 0.28490874 13158343
0.79000002 -0.17913631 0.28107378 9276556
0.77900004 -0.16241752 0.28226632 14079445
0.78036362 -0.16499545 0.28570008 15000547
0.78044009 -0.15504284 0.28498071 15329765
0.78216672 -0.14531581 0.28469357 15790059
0.77900004 -0.13196251 0.28992566 15856109
0.78146672 -0.1351252 0.28443769 15790315
0.77900004 -0.12922704 0.28992566 15790316
0.78261119 -0.12524334 0.28485569 15592935
0.77900004 -0.1109905 0.28992566 15198179
0.78305 -0.11615382 0.28638834 15395299
0.77700001 -0.10655023 0.2884014 15132385
0.79287505 0.11742508 0.28789744 11053222
0.79220003 0.12517819 0.28564259 11382184
0.7932964 0.13527793 0.28499934 11382183
0.78862506 -0.18136336 0.29604581 9276814
0.79294741 -0.1861582 0.29511154 9474189
0.78456521 -0.17527255 0.29494718 13619152
0.77900004 -0.16022913 0.29904392 14538966
0.78100008 -0.16534275 0.29510981 15328741
0.77880013 -0.1539897 0.29787296 16053231
0.78055012 -0.15543154 0.29333368 15855852
0.77852643 -0.14459251 0.29675013 15921389
0.78031248 -0.14542878 0.29201186 15724523
0.77772743 -0.13497435 0.2960684 15855339
0.78000003 -0.13669689 0.29029784 15724523
0.77809536 -0.12604021 0.29652536 15855339
0.78106672 -0.1233518 0.29276571 15724266
0.77733344 -0.11439289 0.29664823 15657960
0.78122228 -0.11659028 0.29217398 15461351
0.77555174 -0.1051791 0.29515177 15263202
0.77500004 -0.09696462 0.29765961 15131873
0.77600002 0.086801298 0.29737273 14211287
0.77741671 0.093526751 0.2970705 14737633
0.78100002 0.098070085 0.29707035 14869220
0.78712505 0.1046 0.29824528 13421515
0.79033333 0.10941689 0.29784325 10920610
0.79390478 0.11575631 0.29591352 11382185
0.7877059 -0.1830653 0.30488083 9342603
0.79088885 -0.18797882 0.304223 9539724
0.78219235 -0.17504574 0.3047767 12960707
0.77875006 -0.16325469 0.30578405 14868188
0.78007144 -0.1671022 0.3037602 15789033
0.77639425 -0.15473811 0.30464986 15855853
0.77548277 -0.14510834 0.30420145 15921645
0.77516651 -0.13494246 0.3048299 15855594
0.77553558 -0.12482621 0.3043904 15789801
0.77480006 -0.11492775 0.30468559 15789802
0.77436668 -0.10489184 0.30542135 15460582
0.77470362 -0.096070245 0.30505124 15132386
0.77400005 0.079976425 0.3052783 14342874
0.77488452 0.085301712 0.30485937 14342874
0.77736849 0.093640551 0.30445138 14803682
0.78175008 0.098621346 0.30536106 14803683
0.78687996 0.10503978 0.30516225 12105910
0.79000002 0.10937075 0.30419132 11053218
0.79342872 0.11549187 0.30510944 11053473
0.78818738 -0.182763 0.31468105 9671566
0.79044449 -0.18746187 0.31577414 10000530
0.78550011 -0.17480819 0.31524265 10066327
0.77900004 -0.16114096 0.31272131 14869214
0.78252941 -0.16548096 0.31505784 11776433
0.77666664 -0.15441744 0.31245288 15856110
0.78116673 -0.1558004 0.31785858 14539739
0.77593327 -0.14506687 0.31240001 16053487
0.78033334 -0.14497501 0.3178235 13684176
0.77638894 -0.1351535 0.31258431 15921902
0.78200006 -0.13521487 0.31850234 13355724
0.7771818 -0.12478799 0.31207535 15790315
0.78299999 -0.12530552 0.31799483 14671582
0.77653855 -0.11427592 0.31208456 15987693
0.78237504 -0.11582302 0.31796944 14013908
0.77630776 -0.10487465 0.31422967 14868961
0.78000003 -0.10504633 0.31890509 10789797
0.77593756 -0.096477173 0.31376615 13816785
0.77672732 0.084391624 0.31172699 12566718
0.78222227 0.085911743 0.3173742 10264220
0.77900004 0.091434985 0.31180951 12698821
0.78431588 0.095638096 0.31558359 12040634
0.78805882 0.10422043 0.31456876 10790305
0.79014289 0.10833372 0.31653413 10987682
0.79280782 0.11540365 0.31490904 10987681
0.79227263 -0.1854708 0.32504949 10395545
0.78871435 -0.17436138 0.32176474 10198166
0.79157144 -0.17578663 0.32650587 10592924
0.78793341 -0.16489519 0.32350272 10263705
0.79074997 -0.16542268 0.3283146 10527132
0.78647375 -0.15440153 0.32449615 10329499
0.79000002 -0.15786818 0.32915828 10724510
0.78587508 -0.14473918 0.32387915 10263963
0.79000002 -0.14492233 0.32915828 10658717
0.78705877 -0.13489698 0.32414249 10198170
0.79039997 -0.13481744 0.32932496 10527131
0.78772736 -0.12547731 0.32385388 10000537
0.79087502 -0.12564319 0.32859814 10395545
0.78733343 -0.11475949 0.32423988 10066585
0.79071426 -0.1158336 0.32892749 10461338
0.7855882 -0.10500321 0.32472968 10263960
0.79000002 -0.10885895 0.32915828 10527131
0.78600007 -0.098187156 0.32565671 10395543
0.79050004 0.078906067 0.32936662 10000787
0.78781831 0.084758066 0.32389134 10329752
0.79088891 0.085836262 0.32870668 10592924
0.7881667 0.094664454 0.32239869 10724511
0.79100001 0.094694994 0.32753915 10856095
0.78900003 0.10184405 0.32135338 10987682
0.79209095 0.10527977 0.32505891 10921889
0.7934286 -0.14488743 0.33510071 10592924
0.79361916 -0.13510181 0.33544645 10527132
0.79266667 -0.098710157 0.33429551 10461336
0.79145449 0.078748353 0.33498734 10263959
0.79282612 0.085393421 0.33558172 10461338
0.7922858 0.077891484 0.34362468 10395800
0.79123342 0.17529489 0.34449148 11053989
0.79355997 0.14515905 0.3547914 10922146
0.79327583 0.15516236 0.35479197 10856610
0.79357129 0.184772 0.35460183 11053989
0.79100001 0.079881258 0.36429283 10264474
0.78900003 0.085220478 0.36937702 10461338
0.7912761 0.085849181 0.36392257 10527388
0.79119378 0.094420113 0.36448547 10658974
0.79103357 0.10488443 0.36477327 10724767
0.7913847 0.11526398 0.36472046 10790560
0.79159999 0.12489294 0.36487213 10856353
0.79273516 0.13507706 0.3644104 10856609
0.79343343 0.14513667 0.3649517 10791073
0.79255539 0.15518071 0.36454672 10856866
0.79366678 0.16562003 0.36505792 10922660
0.78900003 0.087991081 0.37307116 10396059
0.79000002 0.088410832 0.3784757 10527390
0.79095846 0.094769336 0.37453791 10527901
0.79246652 0.10507461 0.37471297 10659487
0.79251993 0.11528507 0.37473759 10659488
0.79110718 0.1253299 0.37466383 10725281
0.79165524 0.13541947 0.37509239 10791074
0.79271996 0.14500782 0.37482944 10856867
0.79293329 0.15525553 0.37493134 10856610
0.79155552 0.088173337 0.38642809 10395802
0.79296148 0.094860725 0.38479921 10593181
0.79360002 0.12472973 0.38453773 10856098
0.79247999 0.13494484 0.38473594 10856097
0.79251719 0.14509809 0.38478011 10856354
0.79294419 0.15525769 0.38514599 10856354
0.79303324 0.16548575 0.38518813 10922146
0.7930333 0.17476873 0.38518584 10987682
0.79072726 0.088267773 0.39525691 10461595
0.79239386 0.095033415 0.39541292 10527644
0.7932331 0.15531307 0.39549968 10725282
0.79296005 0.16547035 0.39536345 10856355
0.79179311 0.17526041 0.39465433 10921890
0.79100013 0.18521628 0.39452901 10987682
0.79317856 0.19542876 0.39487258 10922148
0.78900003 0.087991081 0.40354767 10395801
0.78900003 0.092300892 0.40601042 10527644
0.79016668 0.095520951 0.40434992 10527388
0.79350001 0.10428742 0.40473127 10527644
0.79236668 0.15514232 0.40434182 10725282
0.79234606 0.16548499 0.40454447 10790818
0.79267997 0.1746909 0.4045023 10922146
0.79246658 0.18484697 0.40439451 10922146
0.78900003 0.094455793 0.41001242 10659489
0.79038459 0.096757106 0.41443327 10462109
0.79328579 0.16520569 0.41482696 10725280
0.79293323 0.17474619 0.41484058 10791073
0.79258329 0.18487376 0.41465604 10791073
0.79299998 0.19518346 0.41487342 10987425
0.79329032 0.1648185 0.42433921 10790559
0.79219222 0.17479618 0.42486587 10790560
0.79174995 0.1845635 0.42476296 10790816
0.79200006 0.19493775 0.42455062 10791074
0.79340619 0.15574874 0.43499649 10724767
0.79199988 0.16527019 0.43474752 10725024
0.79193538 0.17470551 0.43468228 10725024
0.79199988 0.18514399 0.43521121 10658978
