# .PCD v0.7 - Point Cloud Data file format
VERSION 0.7
FIELDS x y z rgb
SIZE 4 4 4 4
TYPE F F F U
COUNT 1 1 1 1
WIDTH 637
HEIGHT 1
VIEWPOINT 0 0 0 1 0 0 0
POINTS 637
DATA ascii
0.79693753 -0.69492549 -0.39497298 11117485
0.79722226 -0.68457246 -0.39538607 11052205
0.79699999 -0.6751551 -0.39372104 11052205
0.79699999 -0.66508138 -0.39437458 11117484
0.7963202 -0.65452331 -0.39502513 11117999
0.78900003 -0.70162845 -0.38053063 13551572
0.7929166 -0.70557493 -0.38505307 11906496
0.78855562 -0.69487476 -0.38195759 13024970
0.7917273 -0.69478434 -0.38740805 11445681
0.78845459 -0.68503445 -0.38228169 11577781
0.79164284 -0.68398923 -0.38763171 10920107
0.78866673 -0.67456013 -0.38129342 11841210
0.79154551 -0.67474699 -0.38630792 11052207
0.78900003 -0.66530281 -0.38083848 11709622
0.79153335 -0.66484368 -0.38570774 11249070
0.78900003 -0.65545183 -0.38053063 11643571
0.79138893 -0.65486169 -0.38508183 11314607
0.79296297 -0.64498639 -0.38533366 11314861
0.79550004 -0.63516134 -0.3850669 11315118
0.79631251 -0.62540358 -0.38359448 11315374
0.79400003 -0.71565711 -0.37522125 10722478
0.7883637 -0.70408326 -0.37451953 13419477
0.79050004 -0.7085135 -0.37616646 11182519
0.78542864 -0.69477475 -0.37552759 13683156
0.78377271 -0.68471509 -0.37501231 12235454
0.78514278 -0.67482489 -0.37456009 11971769
0.78587508 -0.66481078 -0.37442806 12038845
0.7864092 -0.65471917 -0.37459871 11643574
0.78740907 -0.64533001 -0.37490672 11840692
0.79000002 -0.64241207 -0.37916353 11709618
0.78805882 -0.63535273 -0.37345818 12038327
0.79025 -0.6352154 -0.37835881 11841205
0.78812504 -0.62543398 -0.37249917 12104376
0.79087496 -0.62414479 -0.37726969 11709874
0.78850007 -0.61534923 -0.37179893 12170426
0.79185712 -0.61478961 -0.3768793 11775924
0.78900003 -0.60465759 -0.37129533 11973303
0.79241174 -0.60503167 -0.37672359 11644339
0.78900003 -0.59449881 -0.37129533 12039096
0.7926001 -0.59535491 -0.37633196 11710132
0.79227769 -0.58490741 -0.3746964 11710129
0.79383332 -0.57490551 -0.37543225 11907509
0.79476476 -0.56469047 -0.37587264 11710130
0.79504347 -0.55510396 -0.37503648 11710130
0.79585713 -0.5452739 -0.37514859 11710129
0.79653859 -0.53548157 -0.37340996 11710386
0.79272741 -0.71540451 -0.36427563 10327204
0.78775012 -0.70432281 -0.36494339 12958154
0.79000002 -0.70991522 -0.36529303 9865629
0.78241664 -0.69501257 -0.36514422 14011606
0.77862501 -0.68496042 -0.3644385 13683154
0.78000003 -0.68997312 -0.36888599 14142935
0.77886683 -0.67754388 -0.36373094 10919850
0.7808888 -0.67410278 -0.36646429 11379886
0.78193539 -0.66534775 -0.36425203 12433602
0.7818464 -0.65478832 -0.36441141 11841981
0.78256249 -0.64471877 -0.36477691 11841466
0.78414828 -0.63516915 -0.36479992 11972794
0.78405005 -0.62472498 -0.36438057 12235708
0.78412002 -0.61438674 -0.36452448 12038841
0.78612006 -0.60483932 -0.36486435 12039352
0.78678566 -0.5951308 -0.36492935 11973559
0.78671426 -0.58494645 -0.36450216 12236217
0.78732008 -0.57524216 -0.36438924 12038838
0.79000002 -0.57398409 -0.3699165 11973046
0.78786367 -0.56505269 -0.36430722 12235704
0.79000002 -0.56473708 -0.36991647 12235962
0.78805548 -0.55524975 -0.36367825 12104634
0.79000002 -0.55456537 -0.36806712 12039096
0.78835297 -0.54483223 -0.3635008 11973561
0.79033333 -0.54462177 -0.36822245 12236475
0.78854555 -0.53542018 -0.36302683 12105916
0.79154551 -0.53475899 -0.36794633 12039865
0.78885716 -0.52579767 -0.36225837 12368831
0.79169238 -0.52467036 -0.36614805 12105915
0.78900003 -0.51692212 -0.36205998 12237245
0.79230773 -0.51423645 -0.36572117 12368829
0.78900003 -0.50491625 -0.36021295 12696767
0.79288238 -0.50515723 -0.36581126 12302779
0.78900003 -0.49752796 -0.36021295 12237243
0.79325002 -0.49509472 -0.36447865 12171450
0.79466659 -0.48558727 -0.36466634 12105657
0.79564703 -0.47547132 -0.36500561 12105401
0.79287511 -0.71609825 -0.35490471 10196388
0.78788239 -0.7042166 -0.35481906 12959435
0.79000002 -0.70991528 -0.35512125 9801632
0.78343755 -0.69507909 -0.3544614 13946582
0.7788825 -0.68480182 -0.35688066 13618387
0.78045464 -0.68605751 -0.3523246 13487057
0.77900016 -0.67788601 -0.3566896 10197156
0.7807309 -0.67416871 -0.35446793 10920110
0.78219438 -0.6654129 -0.35466236 12236995
0.78251523 -0.65506065 -0.35425276 11841978
0.78261775 -0.64497524 -0.35465631 11775673
0.7829718 -0.63473254 -0.35484195 11841465
0.78233337 -0.62447792 -0.35493049 12235965
0.78207129 -0.61438638 -0.35469514 11842490
0.78355294 -0.60501707 -0.35492539 11907768
0.78468001 -0.59491897 -0.35456657 11907512
0.78400016 -0.58522528 -0.35425949 12301755
0.78467745 -0.57541859 -0.35468444 12038071
0.78544831 -0.56500101 -0.35478792 11973048
0.78600001 -0.55543745 -0.35516316 12170426
0.78543323 -0.5449239 -0.35490844 12368575
0.78565383 -0.53474885 -0.35515082 12039613
0.78585172 -0.52514672 -0.35516754 12170940
0.78624129 -0.51511329 -0.35527638 12171451
0.78609091 -0.50489354 -0.35428679 12499645
0.78704548 -0.49537182 -0.35471734 12434109
0.78745455 -0.48549166 -0.3549014 12433853
0.7877143 -0.47524542 -0.3543593 12434367
0.7906 -0.47354954 -0.35909259 12565438
0.78838468 -0.46526682 -0.35226643 12632002
0.79066664 -0.4647986 -0.35727295 12631489
0.78900003 -0.45750824 -0.35159335 12763589
0.79088891 -0.45407623 -0.35531679 12565954
0.79333335 -0.71652472 -0.34465072 10393765
0.78866667 -0.70502537 -0.34529054 12762058
0.79000002 -0.70991528 -0.34587425 10195877
0.7851364 -0.69560647 -0.34507978 14012118
0.78216666 -0.68487126 -0.34518987 12630978
0.78273708 -0.67493594 -0.3451511 11774391
0.7837503 -0.66513717 -0.34462607 12236480
0.78380781 -0.6550197 -0.3451387 11841978
0.78400022 -0.64487445 -0.34508267 11973306
0.78410029 -0.63455498 -0.34420699 11775928
0.78340018 -0.62481934 -0.34506047 11907258
0.78287905 -0.61471158 -0.34536573 11973818
0.7835387 -0.60484433 -0.34502122 11974332
0.7845152 -0.59534925 -0.34452984 12104889
0.78413814 -0.584948 -0.34444639 12170682
0.78505123 -0.57483959 -0.34469631 12104119
0.78645176 -0.56513911 -0.34538844 12104633
0.78653342 -0.55581504 -0.34527588 12302267
0.785972 -0.54529816 -0.3450309 12368061
0.78559989 -0.53492522 -0.34486601 11973563
0.78569698 -0.52529186 -0.34465656 12237249
0.78588581 -0.51503831 -0.34501573 11908541
0.78582329 -0.50445217 -0.34518057 12499904
0.7857666 -0.49456972 -0.34493998 12302008
0.78509992 -0.48496035 -0.34464851 12434108
0.78480554 -0.47467238 -0.34451899 12302782
0.78641927 -0.46474883 -0.34448567 12631746
0.78806901 -0.45466563 -0.34490231 12895173
0.79000002 -0.45099875 -0.34957305 12960968
0.7942425 -0.4468717 -0.34507829 11316141
0.79358828 -0.71489161 -0.33509225 10459046
0.78853858 -0.70420069 -0.33543667 13880024
0.79020005 -0.70824516 -0.33486167 10260899
0.78464997 -0.69500881 -0.33526477 14077912
0.78215986 -0.68455994 -0.3351182 12762307
0.78407711 -0.67512667 -0.33513778 11708595
0.78492588 -0.66472614 -0.33487296 12104894
0.78370023 -0.65471947 -0.33485919 11776443
0.78360629 -0.64463288 -0.33523753 12105150
0.78432161 -0.63477707 -0.33460197 11644598
0.78456259 -0.62461656 -0.33482668 12236222
0.78440011 -0.61490482 -0.33515707 11973561
0.78431261 -0.60531074 -0.33489016 12236733
0.78473336 -0.59581417 -0.33493334 12104890
0.78499991 -0.58513582 -0.33499676 12104630
0.78589988 -0.57468432 -0.33487973 12498361
0.78627998 -0.56483835 -0.3350431 12367548
0.78651983 -0.55580598 -0.33514509 12433341
0.78599989 -0.54531735 -0.33492282 12302268
0.78681839 -0.53458047 -0.33476722 12368062
0.78773344 -0.52531236 -0.33473811 12236989
0.78786117 -0.51525378 -0.33479279 12105917
0.78668004 -0.50435346 -0.33521187 12434624
0.78611994 -0.49479127 -0.33497348 12236730
0.78644824 -0.48522121 -0.33441269 12499901
0.78647214 -0.47506592 -0.3341991 12235961
0.78705883 -0.46470898 -0.33466703 12368574
0.78800005 -0.45446709 -0.3348521 12960197
0.79406261 -0.4467417 -0.33492637 11645107
0.79550004 -0.71579033 -0.32500163 10327205
0.78840005 -0.70201814 -0.32487106 14012119
0.79099995 -0.70803732 -0.32501602 12432323
0.78509539 -0.69448245 -0.32534423 14077912
0.78286219 -0.68504834 -0.32549468 12893636
0.78418934 -0.67556512 -0.32526904 11708081
0.78499991 -0.66499293 -0.32530823 12236738
0.78432012 -0.6552375 -0.32502648 11908030
0.78342885 -0.64512616 -0.3252466 11841978
0.78303361 -0.63491398 -0.32449335 11644600
0.78403354 -0.62470955 -0.32490826 12038844
0.7850399 -0.6154061 -0.32532483 12038840
0.78509367 -0.60510975 -0.32500187 12236217
0.78558803 -0.5949564 -0.32441449 12170424
0.78606051 -0.58508939 -0.3249096 12498878
0.78602833 -0.57464755 -0.32494557 12169913
0.78599989 -0.56463778 -0.32480267 12301498
0.78606439 -0.55530465 -0.32468045 12367805
0.78648585 -0.54552132 -0.32513398 12499391
0.78745472 -0.53551549 -0.32498449 12302525
0.78800005 -0.52549058 -0.32470667 12302271
0.78800005 -0.51534474 -0.32470664 12040638
0.78703344 -0.50457913 -0.32522932 12501191
0.7870627 -0.49503908 -0.32501104 12565697
0.78777432 -0.48565909 -0.32532671 12631747
0.78800005 -0.4747608 -0.32470664 12499391
0.78800005 -0.46461475 -0.32470673 12499647
0.78833324 -0.45465961 -0.3248437 12828612
0.79412508 -0.44689295 -0.32507479 11974073
0.79530007 -0.71561068 -0.31468299 10130084
0.78854555 -0.70223165 -0.31519768 13880278
0.79100001 -0.7080375 -0.31483239 12432580
0.78581816 -0.69403476 -0.31511128 14012632
0.78476661 -0.68500423 -0.31510606 12367036
0.78502774 -0.67512345 -0.31521094 11840440
0.78503329 -0.6650216 -0.31521365 12105407
0.78406686 -0.65502578 -0.31482539 11973821
0.78354579 -0.64491689 -0.31436473 12039098
0.78373563 -0.63488889 -0.31479815 11907770
0.7842859 -0.6247803 -0.31504357 12170426
0.78514695 -0.61484063 -0.31504318 12170169
0.78590602 -0.60521775 -0.31527609 12170683
0.78667849 -0.59518206 -0.31515056 12105405
0.78696442 -0.58500373 -0.31526604 12105405
0.78611118 -0.57432836 -0.3145228 12302785
0.78596002 -0.56460887 -0.31466639 12302781
0.7864666 -0.55484509 -0.31486943 12302782
0.78708005 -0.54514498 -0.31511441 12368319
0.78706676 -0.53500199 -0.31510964 12237503
0.78792006 -0.52543682 -0.31545126 12565955
0.78800005 -0.51534462 -0.31548312 12303551
0.78736001 -0.50478959 -0.31522664 12238013
0.78740013 -0.4946745 -0.3152422 12499644
0.78800005 -0.4849067 -0.31548303 13025475
0.78800005 -0.4747608 -0.31548306 13025476
0.78851712 -0.46479207 -0.31492469 12763076
0.78882128 -0.45606327 -0.31534949 12894660
0.7906363 -0.45136073 -0.31367719 13158345
0.79512501 -0.44833264 -0.31576997 11645106
0.79400003 -0.71523899 -0.30461016 10327459
0.78833336 -0.70263571 -0.30466652 13748949
0.79049999 -0.70820588 -0.30599815 12761543
0.78585714 -0.69436729 -0.30516317 13815252
0.78606045 -0.6849606 -0.30500215 11315376
0.78666687 -0.67511028 -0.30456778 12236225
0.78596294 -0.66499102 -0.30526263 12038585
0.78499991 -0.65453243 -0.3051638 12235705
0.78531021 -0.64465117 -0.30514935 12038839
0.7855556 -0.63460875 -0.30551225 12104890
0.78559989 -0.62504071 -0.30532524 12170682
0.78576648 -0.61505538 -0.30539057 12039356
0.78629994 -0.6044277 -0.30559891 11908281
0.78700012 -0.59463686 -0.3052786 12236734
0.78667748 -0.5852049 -0.30467528 12039095
0.78599989 -0.57484728 -0.30530378 12368317
0.78592306 -0.56472445 -0.30523926 12434369
0.78654283 -0.55476749 -0.30490318 12434110
0.78788584 -0.54491252 -0.30516049 12434623
0.78774208 -0.53471768 -0.30538464 12500162
0.78793341 -0.52544576 -0.30531102 12434368
0.78800005 -0.51534462 -0.30533707 12434365
0.78796673 -0.5051775 -0.30532405 12499901
0.78808337 -0.49510467 -0.30536896 12565439
0.78839993 -0.4851529 -0.30549046 12565695
0.78849989 -0.47506163 -0.30552915 12565696
0.78896135 -0.46532363 -0.30499899 12499903
0.78899997 -0.45767403 -0.30508524 12368573
0.79172409 -0.45248762 -0.30469981 12698308
0.79316676 -0.71585917 -0.29506209 10722730
0.78846675 -0.70361614 -0.29499608 13748433
0.79000002 -0.70859432 -0.29461935 13946070
0.78627998 -0.69486666 -0.2949881 14078169
0.78648484 -0.68583238 -0.29512575 11577264
0.78700012 -0.67497796 -0.29481655 12499139
0.78599989 -0.66387296 -0.2952033 12170427
0.78589988 -0.65471661 -0.29532376 12170171
0.78599977 -0.64467943 -0.29536191 12170682
0.78653336 -0.63498873 -0.29556131 12039097
0.7868185 -0.62550777 -0.29541728 12039096
0.78615129 -0.61493957 -0.29566911 12302268
0.78599989 -0.60511863 -0.29536197 12170680
0.7864545 -0.59559178 -0.29511404 12499389
0.78706682 -0.58475035 -0.29484144 12302009
0.7872414 -0.57461727 -0.29566756 12564411
0.78741926 -0.56518161 -0.29550627 12367806
0.78737938 -0.55533051 -0.29533899 12499904
0.78806674 -0.54490584 -0.2952162 12302779
0.78873312 -0.53521132 -0.29454163 12434369
0.78882837 -0.52525163 -0.29444534 12697025
0.78893518 -0.51521134 -0.29476669 12960195
0.78899974 -0.50491619 -0.2946423 12433853
0.7889998 -0.49534512 -0.29590154 12894406
0.79000002 -0.49376619 -0.29154801 12828354
0.78900003 -0.48552209 -0.29833636 12500159
0.79000014 -0.48521271 -0.29316619 12565695
0.78899986 -0.47391191 -0.29609349 12631487
0.79000002 -0.4770585 -0.29291406 12631744
0.78899974 -0.46520436 -0.29464218 12696512
0.78899986 -0.45744666 -0.29427281 12368318
0.79204005 -0.45208305 -0.29514402 12763844
0.79281265 -0.71615696 -0.28492993 10854316
0.78850007 -0.70476109 -0.2846494 13814995
0.79000002 -0.70991528 -0.28484392 14340827
0.78634614 -0.69572967 -0.285155 14013400
0.78615612 -0.68506569 -0.28495288 10920107
0.78700024 -0.67497802 -0.28468338 12893894
0.78633338 -0.66448718 -0.28495297 12301754
0.78600001 -0.65479964 -0.28524169 11973046
0.78606439 -0.64458364 -0.28508672 12236476
0.7869001 -0.63528526 -0.2846469 11973816
0.78700024 -0.62523341 -0.28468341 12105146
0.78693348 -0.61504865 -0.284659 12170683
0.7863124 -0.60501415 -0.28420326 12368061
0.78676492 -0.59530526 -0.28481436 12105147
0.78702801 -0.58472186 -0.2846933 12039869
0.78703582 -0.57479125 -0.2850256 12237247
0.78751534 -0.56522292 -0.28512278 12369088
0.7876364 -0.5552519 -0.28466353 12105916
0.78800005 -0.54486012 -0.28504512 12171454
0.78859985 -0.53512037 -0.28434005 12040383
0.78899974 -0.52523392 -0.28448331 11974588
0.7889998 -0.51507509 -0.28448334 12631745
0.78899974 -0.50501174 -0.28461072 12696765
0.79000002 -0.50278205 -0.2811451 12038579
0.78900003 -0.4984515 -0.28263628 13222594
0.79000002 -0.49488002 -0.28509614 12498873
0.78900003 -0.48182794 -0.28171277 12237244
0.7900002 -0.48578173 -0.28527075 12828609
0.7889998 -0.47443962 -0.28355983 12566208
0.79000002 -0.47726026 -0.28780299 12236216
0.7889998 -0.46520433 -0.28448331 12829381
0.78899986 -0.45689258 -0.28448337 12763330
0.7917223 -0.45146358 -0.2852599 12565951
0.791875 -0.71519458 -0.27474517 11905978
0.78837502 -0.70499545 -0.27479914 13880531
0.79000002 -0.70991528 -0.27652159 14998754
0.78620684 -0.69533771 -0.27503487 14276828
0.78672975 -0.68547028 -0.27490282 10789547
0.78718531 -0.67462528 -0.27481896 12368577
0.7863571 -0.66410559 -0.27491751 12039610
0.78559989 -0.65446663 -0.27498201 12104632
0.7862857 -0.64504397 -0.27508974 11973560
0.78710717 -0.6348601 -0.27458769 12105659
0.78759271 -0.62519252 -0.27475637 12105402
0.78700006 -0.61510038 -0.27455035 12302525
0.78700012 -0.60496724 -0.27455035 12368060
0.78700006 -0.59483427 -0.27455032 12302268
0.78713346 -0.58480018 -0.27459702 12039610
0.78681493 -0.5742287 -0.27489421 12236991
0.78700006 -0.56535614 -0.27455032 12697025
0.78703344 -0.55524647 -0.27456194 12499902
0.78800005 -0.54486012 -0.27489921 12631488
0.78800005 -0.53471422 -0.27489921 12500157
0.78879982 -0.52510029 -0.27517852 12434367
0.7889998 -0.51522905 -0.27540201 12565182
0.79000002 -0.51079607 -0.27220631 12499389
0.78900003 -0.507379 -0.27832648 12828095
0.79023087 -0.50442272 -0.27411112 12433854
0.79026693 -0.49555185 -0.27476361 12303037
0.78900003 -0.48182794 -0.27570981 12566209
0.79000014 -0.48687708 -0.27463523 12566207
0.7889331 -0.47532332 -0.27522513 12565694
0.78875983 -0.46506274 -0.27516538 12434620
0.78899986 -0.45703837 -0.27544248 13027014
0.79236007 -0.45174527 -0.27418923 11710898
0.79475009 -0.72488356 -0.2649295 10920109
0.78900003 -0.71132553 -0.26185682 14670048
0.79100001 -0.71551579 -0.26512092 12433090
0.78821748 -0.70566684 -0.26502773 13815253
0.7868669 -0.6951263 -0.26529294 13486798
0.78721434 -0.68470401 -0.26560861 11050923
0.78758627 -0.67500478 -0.26496381 12564929
0.78643996 -0.66437292 -0.26514941 11907255
0.78596002 -0.65476632 -0.26498789 12302012
0.78619987 -0.64484245 -0.26506886 12039096
0.78700006 -0.6353665 -0.26533851 12236475
0.78751528 -0.62538987 -0.26500878 12302268
0.78707695 -0.61530262 -0.26515135 12039097
0.78696567 -0.60509962 -0.26545408 12236731
0.78649992 -0.59466887 -0.26502967 12302524
0.78662056 -0.58457744 -0.26533881 12105402
0.78684622 -0.57466763 -0.2651456 12105916
0.78700006 -0.56535614 -0.26533845 12171195
0.78709394 -0.55505848 -0.26502404 12565439
0.78800005 -0.54486012 -0.26475316 12434110
0.78800005 -0.53471416 -0.26475319 12500673
0.78852773 -0.5249179 -0.26493108 12697282
0.78899992 -0.51703757 -0.26555094 12762818
0.79000002 -0.51264548 -0.26450047 12697024
0.79092008 -0.50521863 -0.26480865 12697022
0.7908802 -0.49593666 -0.26479557 12960707
0.78900003 -0.48264885 -0.2637552 13025729
0.79000002 -0.48744285 -0.26504439 12565689
0.78838879 -0.47499651 -0.26488447 12565694
0.78800005 -0.46461481 -0.26475319 12566208
0.78866661 -0.4576219 -0.26497719 12763841
0.79411119 -0.45326743 -0.26511508 11579824
0.79177785 -0.72490144 -0.25469688 10789294
0.78846669 -0.71432179 -0.25402063 14012375
0.79000002 -0.71823764 -0.25710285 10393509
0.78680772 -0.70506418 -0.25443655 14210265
0.78618503 -0.69530857 -0.25545314 13749712
0.78636104 -0.68547416 -0.25499946 11249071
0.78678125 -0.67507762 -0.2550779 12565187
0.78653115 -0.66479391 -0.25482464 12170686
0.78628117 -0.65468878 -0.25474125 12104892
0.78652942 -0.64484221 -0.25526795 12170685
0.78700012 -0.63536656 -0.2552053 12105404
0.78754562 -0.62591648 -0.25496304 12105147
0.78762072 -0.61545944 -0.25524676 11974075
0.78686672 -0.60578638 -0.25516149 12105661
0.78586197 -0.59594136 -0.25499496 12105404
0.78506655 -0.58510226 -0.2554976 12236990
0.78587878 -0.57441628 -0.25525978 12500161
0.78752959 -0.56508487 -0.25515869 12105661
0.78783345 -0.5554415 -0.25541314 12434626
0.78800005 -0.54486006 -0.25460723 12368573
0.78800005 -0.53471422 -0.2546072 12500416
0.78803855 -0.52530301 -0.25476176 12302779
0.78864276 -0.51576382 -0.25455189 12762819
0.79000002 -0.51110435 -0.25895226 12565182
0.78899986 -0.50528562 -0.25345269 12434110
0.79000002 -0.50422049 -0.25813028 12499129
0.78899992 -0.49452648 -0.25331414 12697794
0.79000002 -0.4957954 -0.25813028 12960449
0.78879148 -0.48524091 -0.25470951 12632000
0.79000002 -0.48983622 -0.25895226 12040115
0.78800005 -0.47476074 -0.2546072 12565950
0.7880401 -0.46463817 -0.25461999 12762816
0.78900003 -0.45873967 -0.25493032 13421517
0.79373348 -0.45497879 -0.25478232 11842998
0.79435718 -0.73455411 -0.24510598 10854826
0.78900003 -0.72171521 -0.2445406 11116720
0.79063642 -0.72613645 -0.24536373 10854573
0.7866317 -0.71425647 -0.24495913 14670307
0.78414279 -0.70465165 -0.24418527 13815508
0.78454298 -0.69530135 -0.24462332 13157575
0.78589988 -0.68507266 -0.24472989 11775158
0.78583997 -0.67490315 -0.24471158 12433600
0.78565496 -0.6647864 -0.24478148 12039099
0.78634489 -0.65470463 -0.24493279 12039353
0.78688896 -0.64489627 -0.24483337 12433341
0.78700006 -0.63536656 -0.24507222 12170681
0.78710014 -0.62531239 -0.24510369 12302524
0.78724009 -0.61528856 -0.24514788 12039609
0.78663993 -0.60561192 -0.24496113 12302782
0.78576922 -0.59560299 -0.24490094 12368061
0.78497213 -0.58503222 -0.24535942 12499647
0.78618175 -0.57513827 -0.24531801 12433853
0.78853118 -0.5653007 -0.24520244 12368831
0.78899974 -0.55478692 -0.24477151 12105661
0.78862059 -0.54449421 -0.24481165 12303039
0.78833324 -0.53494012 -0.24456319 12105918
0.78817862 -0.52574176 -0.24484518 12369089
0.78800005 -0.51534456 -0.24538361 12237502
0.78818518 -0.50490677 -0.24564697 12171964
0.78857136 -0.49508116 -0.24536492 12368571
0.78857684 -0.48533404 -0.24535026 12762817
0.78800005 -0.4747608 -0.24538359 12565439
0.78848147 -0.46469229 -0.24512281 12632002
0.78900003 -0.45966315 -0.2447715 12763844
0.79375011 -0.45671257 -0.24504671 11974585
0.79213333 -0.73408765 -0.23492743 10657192
0.78824997 -0.72402894 -0.23473537 12827590
0.79000002 -0.72840935 -0.2376841 11248816
0.78455567 -0.71482146 -0.23451672 14275803
0.7818749 -0.70459729 -0.23447806 14275543
0.78305721 -0.69487238 -0.23468007 11906997
0.78531033 -0.68509632 -0.2354186 12499652
0.78540725 -0.67494005 -0.23517968 12368574
0.78491998 -0.66492534 -0.23523733 12038839
0.78493327 -0.65482897 -0.23524235 12039096
0.78584367 -0.64432025 -0.2351695 12039351
0.7863332 -0.63482803 -0.23474161 12236732
0.78629011 -0.62541199 -0.23487714 12302266
0.78569221 -0.61535233 -0.23554049 12171451
0.78492594 -0.60504013 -0.23517273 12237502
0.78503835 -0.59540153 -0.23513165 12039610
0.7852186 -0.58498508 -0.23498136 12565183
0.78655553 -0.57516205 -0.2348067 12368061
0.78781813 -0.56538445 -0.23504484 12368575
0.78803849 -0.55524576 -0.2341861 12565953
0.78800005 -0.54471135 -0.23449382 12434623
0.78800011 -0.53471398 -0.23431565 12237245
0.78803706 -0.52537876 -0.23473644 12698309
0.78800005 -0.51534462 -0.2352377 12303036
0.78800005 -0.50519866 -0.23523764 12434366
0.78800005 -0.49505267 -0.23523766 12499645
0.78800005 -0.48484308 -0.23507865 12894660
0.78800005 -0.47476074 -0.23523763 12565951
0.78814286 -0.46489599 -0.23495091 12369086
0.78900003 -0.45966315 -0.23461266 13289931
0.7945556 -0.45717102 -0.23508908 11513777
0.78846663 -0.72330463 -0.22596209 10590630
0.79062498 -0.72667241 -0.22237037 10196386
0.78530008 -0.71424162 -0.22505093 12696516
0.78274071 -0.70474952 -0.2248072 12499647
0.78302884 -0.69526953 -0.22471704 10130589
0.78402805 -0.6852755 -0.22487433 12236991
0.78477776 -0.67490792 -0.22509032 12369086
0.78476661 -0.66479582 -0.22508596 12500160
0.78461766 -0.65483558 -0.22482535 12302781
0.78577769 -0.64505696 -0.2253229 12368830
0.78648013 -0.63494706 -0.22465606 12500160
0.78592002 -0.62529612 -0.2244973 12631746
0.78486657 -0.61527032 -0.22511528 12565953
0.78448498 -0.60528737 -0.22475365 12500160
0.78464717 -0.59521556 -0.22521299 12434368
0.78568554 -0.58527291 -0.22495432 12368574
0.78664285 -0.5748983 -0.2249002 12237502
0.78660005 -0.56506884 -0.22469312 12171709
0.78650016 -0.55519855 -0.22486186 12631745
0.78653568 -0.54496491 -0.2246097 12565438
0.78646171 -0.5349443 -0.22472461 12763586
0.78692865 -0.52536732 -0.22458887 13026242
0.7877 -0.51514727 -0.22500657 12499645
0.78800005 -0.5051986 -0.22509168 12697794
0.78762966 -0.49533269 -0.22519182 12697795
0.78683984 -0.4852984 -0.22476287 12631999
0.78577799 -0.47509018 -0.22439225 12697535
0.78680646 -0.46503642 -0.2246345 12894914
0.78900003 -0.45966315 -0.22537732 12697792
0.79432148 -0.4573068 -0.22490053 11645876
0.78900003 -0.72009909 -0.21983616 9999009
0.7930001 -0.7247718 -0.21472672 10130848
0.78831249 -0.71370494 -0.21629767 12763331
0.79042858 -0.71690911 -0.21283154 10920360
0.78696555 -0.70496482 -0.2146266 12171194
0.78654557 -0.69537097 -0.21473972 10526117
0.78632247 -0.68523282 -0.21433489 12171710
0.78588229 -0.67499143 -0.21452592 10987692
0.78614283 -0.66459203 -0.21451424 11249837
0.78720003 -0.65474486 -0.21485668 11447219
0.78790009 -0.64531529 -0.21491797 11250095
0.78790915 -0.63559777 -0.21466896 11184558
0.78689665 -0.62531078 -0.21467444 11513780
0.78634292 -0.61505878 -0.21456954 11908280
0.78662497 -0.60496646 -0.21445329 12369087
0.78652954 -0.59480238 -0.21464971 12566466
0.78685719 -0.5844627 -0.2147644 12566209
0.78651977 -0.57421798 -0.21546389 12763587
0.78600001 -0.56463772 -0.21532017 12632258
0.78575999 -0.55526751 -0.21525423 12763587
0.78574997 -0.54491389 -0.21490571 12763330
0.78612894 -0.53510642 -0.2142856 12697537
0.78642422 -0.52544296 -0.21493407 12697794
0.78679299 -0.5147137 -0.21566531 12763586
0.78696132 -0.50474524 -0.21544383 12631743
0.78586954 -0.49495569 -0.21552619 12763327
0.78333336 -0.48535493 -0.21450551 12697019
0.77900004 -0.47207379 -0.21157892 12433852
0.78180003 -0.47559971 -0.21545358 12697278
0.77900004 -0.46751469 -0.21157892 11842485
0.78411442 -0.46388611 -0.21480437 13158343
0.78900003 -0.45966315 -0.21521848 12632256
0.79437512 -0.45751604 -0.21513279 11053738
0.79345459 -0.71513075 -0.20511346 9868187
0.78900003 -0.70378333 -0.20813805 10987180
0.79145449 -0.70557928 -0.20367271 10658470
0.78873342 -0.69474411 -0.20695926 10131616
0.79094112 -0.69529372 -0.20207714 9276817
0.788625 -0.68502516 -0.20692289 10789802
0.79138893 -0.68491554 -0.20197301 9540505
0.78850007 -0.67499542 -0.20665941 11447731
0.79146671 -0.67479348 -0.20199274 8421770
0.78829408 -0.66474366 -0.20682941 11381938
0.79106683 -0.66519314 -0.20189123 9540505
0.788625 -0.65490919 -0.20657676 10987437
0.79071432 -0.65581852 -0.20166957 10658980
0.78879982 -0.6450184 -0.20545001 11448244
0.79025 -0.64770329 -0.20122159 11580341
0.78873056 -0.63513047 -0.20513056 12040121
0.78851849 -0.62510675 -0.20472795 11711156
0.78828567 -0.61485308 -0.20507053 11381935
0.78812003 -0.60490602 -0.20483036 11513777
0.78803343 -0.59469259 -0.20480826 11711157
0.78796005 -0.58449244 -0.20478882 11382193
0.78726685 -0.57476288 -0.20552802 11184814
0.78748488 -0.56520081 -0.20533302 11053741
0.78757572 -0.55515301 -0.2055798 11579828
0.78759384 -0.545039 -0.20538343 11842741
0.78761542 -0.534666 -0.20484026 12105400
0.78707415 -0.52466917 -0.20496666 12302521
0.78656238 -0.51498014 -0.20511478 12500414
0.78621203 -0.5048334 -0.20544942 12829379
0.78448004 -0.49486348 -0.20483918 12895171
0.77900004 -0.48119208 -0.20428431 12697279
0.78184205 -0.48603198 -0.20454663 12500156
0.77864283 -0.474657 -0.20575288 12565949
0.78025007 -0.47511554 -0.20095894 12763586
0.77885729 -0.46742845 -0.20580979 13158600
0.78390628 -0.46316382 -0.20465106 12830405
0.79000002 -0.46024573 -0.20347011 10791081
0.78900003 -0.45966315 -0.20783022 10856874
0.79495454 -0.4586415 -0.20525073 10791081
0.79544455 -0.65480196 -0.19472529 8948112
0.79310024 -0.64493054 -0.19497509 8817042
0.78900003 -0.63460642 -0.19899072 9013646
0.79195827 -0.63496274 -0.19415824 8290439
0.78900003 -0.62669045 -0.19899072 10921641
0.79285318 -0.62496591 -0.19393252 8356232
0.78900003 -0.61204588 -0.19951846 12961225
0.79156673 -0.61520952 -0.19509597 8685453
0.78900009 -0.60423785 -0.19867888 12632003
0.79216003 -0.60436475 -0.19311579 8224646
0.78900003 -0.59519142 -0.19882581 11513778
0.79324156 -0.59512651 -0.19360155 8554122
0.78900003 -0.58457077 -0.19882581 10790313
0.79285729 -0.58546776 -0.19359075 9079951
0.78878564 -0.57442093 -0.19814494 11317170
0.7910589 -0.57524371 -0.1932829 9869466
0.78899992 -0.56494576 -0.19742513 11317427
0.79022223 -0.5643819 -0.19294104 10264995
0.78899992 -0.55451536 -0.19778004 11185586
0.7902 -0.55470574 -0.19242196 10988717
0.78879988 -0.54449069 -0.19669756 11711928
0.79000002 -0.54531842 -0.191449 11251633
0.78858334 -0.53495616 -0.19587339 11514034
0.79000002 -0.53580707 -0.19078849 11186097
0.78859991 -0.52566904 -0.19594528 11119019
0.79000002 -0.52428138 -0.19121784 11908791
0.78836364 -0.51516306 -0.1967559 10197661
0.79027271 -0.51540154 -0.19143072 11974327
0.78819221 -0.50510937 -0.19548 10132124
0.79000002 -0.5046314 -0.19052429 12566464
0.78748274 -0.49475881 -0.19480751 10066330
0.79000002 -0.49815854 -0.19052429 12303291
0.78661764 -0.48513666 -0.1949524 9869723
0.78582507 -0.47505563 -0.19506994 10329762
0.78646868 -0.46577704 -0.19605157 11974585
0.79345846 -0.46186575 -0.19414015 10790310
0.79528582 -0.56505388 -0.18520723 9606294
0.79475766 -0.55524909 -0.18512182 9277586
0.7948485 -0.54504836 -0.18514077 8817807
0.79428142 -0.53472859 -0.18515486 8291464
0.79421884 -0.52475297 -0.18520081 8685193
0.79441947 -0.51501089 -0.18498395 9211535
0.79396892 -0.5049547 -0.18490888 9211536
0.79375005 -0.49500307 -0.18503222 9145744
0.79356259 -0.48489934 -0.1848132 9080207
0.79418212 -0.47518313 -0.18515481 9672087
0.79500002 -0.46640721 -0.18753704 11711414
