# .PCD v0.7 - Point Cloud Data file format
VERSION 0.7
FIELDS x y z rgb
SIZE 4 4 4 4
TYPE F F F U
COUNT 1 1 1 1
WIDTH 762
HEIGHT 1
VIEWPOINT 0 0 0 1 0 0 0
POINTS 762
DATA ascii
0.78900003 -0.15212713 0.12925881 10460053
0.79389662 -0.15521793 0.12505297 11842475
0.78845459 -0.1443876 0.12782633 11644325
0.79190004 -0.14517841 0.12333401 12105902
0.78780007 -0.13465196 0.12675454 11908270
0.79116672 -0.13541235 0.12174091 12303281
0.78809994 -0.12520118 0.1263418 11908783
0.79090905 -0.12514342 0.12115454 12303537
0.7881 -0.1154239 0.12689558 12040110
0.79126668 -0.11471264 0.12209533 11974830
0.7881819 -0.10525267 0.12794977 13684162
0.79290473 -0.10483705 0.12308725 11579814
0.78850007 -0.094808064 0.12825334 14802640
0.79322726 -0.094953224 0.12361386 11776679
0.78799999 -0.084601976 0.1272487 13749185
0.78792858 -0.075635388 0.12736897 13683394
0.78758335 -0.065197408 0.12810414 14802645
0.79320008 -0.064734101 0.12437088 11183003
0.78850007 -0.055121373 0.12825336 14671574
0.78845459 -0.044714496 0.12832986 14671314
0.788077 -0.034373067 0.12754521 13683390
0.79264706 -0.0353292 0.12286628 11314845
0.78728575 -0.024845043 0.12616606 12367529
0.79092312 -0.025097571 0.12145448 11578272
0.7872631 -0.015360197 0.12683727 12828080
0.79176933 -0.014142411 0.12201088 11248536
0.78820008 -0.0052790884 0.12820444 14143170
0.79319996 -0.0053132856 0.1234413 10984592
0.78788882 0.0053782705 0.12712801 13023403
0.79205561 0.0043753227 0.12244277 11050640
0.78690475 0.015166175 0.12636651 12432811
0.79049999 0.015060656 0.12117636 10789267
0.7871666 0.025131999 0.12619038 11052442
0.79058331 0.025241574 0.12118904 9934476
0.78627276 0.035476476 0.12646301 11512992
0.79069996 0.035425704 0.12120678 10461080
0.78532165 0.044967663 0.12700632 12040368
0.79100007 0.04469974 0.12125266 10724773
0.78600001 0.055045608 0.12671433 12171444
0.79200006 0.054952089 0.12140572 11514288
0.78584617 0.064854942 0.12703525 11974060
0.79100001 0.065067306 0.12125242 12039087
0.78676188 0.074366465 0.12687062 12498602
0.79140002 0.075473733 0.12211561 12038824
0.7874667 0.085055016 0.12716132 11973036
0.79218751 0.085216686 0.12224364 11447458
0.78789997 0.095616117 0.12686305 11908526
0.79157144 0.094497763 0.12213296 11711404
0.78879982 0.10580768 0.12545836 11645612
0.79014289 0.10304803 0.12072574 11645612
0.78880006 -0.16113707 0.13698137 12235693
0.79240912 -0.16577363 0.13436696 10986397
0.78655553 -0.15455742 0.13519548 13156536
0.79000002 -0.15879287 0.13127203 14078928
0.77828568 -0.14420609 0.13765417 11314840
0.78352171 -0.14528891 0.13361721 12828852
0.77813339 -0.13563998 0.13694984 11578268
0.7831111 -0.13479851 0.13226219 13223612
0.77875018 -0.12462702 0.13760616 12432808
0.78273916 -0.12506582 0.1329297 12828340
0.77870005 -0.11459389 0.13759726 12893104
0.78295237 -0.11495735 0.13271509 13353143
0.77871436 -0.10482921 0.13720903 12694958
0.78290474 -0.10473804 0.13270716 13616058
0.77900004 -0.094172366 0.13775194 13224387
0.7830953 -0.095248833 0.13308696 13090488
0.77880013 -0.085438125 0.13761505 12765375
0.78273922 -0.085152894 0.13268939 13354684
0.77857906 -0.075149037 0.13647218 12304825
0.78242862 -0.075107276 0.13171165 13355456
0.77840012 -0.065348342 0.13663253 12107702
0.78227764 -0.064757459 0.13181734 12566198
0.77785009 -0.054924659 0.13689911 12240058
0.78380001 -0.054791715 0.13207357 12500919
0.7772001 -0.045233995 0.13732986 12370615
0.7840001 -0.044983059 0.13199858 13618882
0.77794743 -0.035500281 0.1367439 11777193
0.78256255 -0.034898214 0.13197966 13420732
0.77765006 -0.024689894 0.13631724 11907497
0.7819168 -0.025830543 0.1312999 14078406
0.77700001 -0.015469088 0.13664483 11709090
0.78221428 -0.014787667 0.13128443 14011584
0.77761543 -0.005769935 0.13719429 11972521
0.78305548 -0.0049405522 0.13255732 12629164
0.77823097 0.0051575964 0.13730337 12302517
0.78252178 0.0046334164 0.13265328 12168872
0.77846682 0.014832175 0.13652252 10657946
0.78164285 0.014629214 0.13197239 12367534
0.7788825 0.02492098 0.13682514 10855067
0.7814737 0.024902081 0.13187468 12171181
0.77783346 0.035151854 0.13592574 10856094
0.78120005 0.033901904 0.13145384 10395028
0.77758616 0.045257941 0.13542065 11185829
0.78000003 0.043467849 0.13143636 9014662
0.77700019 0.054945771 0.13563143 11251111
0.78000003 0.051380493 0.13143636 8619906
0.77668774 0.064571552 0.13598873 11514282
0.78025001 0.06692376 0.13147849 9673362
0.77668017 0.07479848 0.13632755 11316646
0.78188896 0.075707659 0.13093998 11908782
0.77663332 0.084794231 0.13631903 12696756
0.78200001 0.084963687 0.13094017 13222845
0.77730006 0.092692032 0.13734779 13814978
0.78360862 0.096126765 0.13355707 12828856
0.78823805 0.10447177 0.13458054 11579819
0.7902 0.10902856 0.13648547 11514026
0.79123998 0.11510019 0.13518475 11579819
0.7884444 -0.16217251 0.14485677 10722195
0.79033333 -0.1671861 0.14520302 9999502
0.78429997 -0.15489811 0.14501393 12959669
0.77745849 -0.14444315 0.14465815 12761520
0.78000003 -0.14947885 0.1451313 12434096
0.7769447 -0.13525166 0.14456265 12759723
0.77706695 -0.12526783 0.14458512 12760238
0.77700025 -0.11525296 0.14457314 12498603
0.77745175 -0.10513234 0.14451097 12762548
0.77771431 -0.095202677 0.14483511 12302259
0.77720016 -0.085261814 0.14460921 11908015
0.7771669 -0.075251937 0.14460336 12500150
0.77706695 -0.065236948 0.14458512 12698045
0.77647084 -0.055404458 0.14474195 12172216
0.7760002 -0.045164391 0.14529537 11643821
0.7766574 -0.035071909 0.14463943 11973298
0.77639306 -0.02538985 0.14478466 11250084
0.77603364 -0.015190533 0.14530164 11117723
0.77620721 -0.0051371916 0.14458141 11512993
0.77675027 0.0047984459 0.14452472 12039080
0.77756673 0.014815344 0.1446777 11776167
0.7782777 0.02484742 0.1448106 11709859
0.77690023 0.034806635 0.14455314 10921886
0.77638268 0.044566672 0.144724 11120295
0.7760002 0.054750249 0.14529534 10264984
0.77506644 0.064663537 0.14512084 10592923
0.77442855 0.075163923 0.14519408 10723481
0.77451849 0.085066572 0.14481507 11907756
0.7759999 0.093571976 0.14529489 13487046
0.78187507 0.098409221 0.14388025 12829630
0.78757155 0.10324185 0.1444315 11711405
0.79116672 0.10783619 0.14504828 11579562
0.78900003 -0.16125984 0.15470722 10986397
0.79093748 -0.16615784 0.15573035 9933454
0.78518182 -0.15490545 0.15486823 12433843
0.77765024 -0.14447883 0.15470748 13418937
0.78100002 -0.14967048 0.15537322 12630708
0.77710021 -0.1352787 0.15459782 13222326
0.77700019 -0.12525734 0.15457743 12565426
0.77693355 -0.11524262 0.15456457 12170926
0.77757704 -0.10511609 0.15483385 11908525
0.77772415 -0.095176533 0.15459767 11778222
0.77772003 -0.08531931 0.15472265 11844271
0.77730012 -0.075265169 0.15463807 11910579
0.77700019 -0.065231271 0.15457743 12304053
0.77633351 -0.055180084 0.15444592 12172726
0.7760002 -0.045164391 0.1543785 11908787
0.77693355 -0.035214055 0.15456454 11842478
0.77748001 -0.025229389 0.15467475 11183518
0.77790004 -0.015227067 0.15475921 10920348
0.77704018 -0.0052064331 0.15458728 11642787
0.77673364 0.0047978549 0.15452544 11315107
0.77724016 0.014808868 0.15462464 10725023
0.77753347 0.024824433 0.15468317 10724508
0.77692014 0.034807235 0.15456152 10856611
0.77600044 0.044888545 0.1551571 11514287
0.77600032 0.054750245 0.15528682 11053736
0.77519429 0.064672537 0.15512511 11579050
0.77375019 0.075420983 0.15483618 11578019
0.77330023 0.08533556 0.15474533 12105135
0.7750001 0.093689747 0.15508623 12566200
0.78133339 0.099025331 0.15452224 12895425
0.78684622 0.10284387 0.15554349 11579562
0.79122227 0.10707124 0.15431955 11448231
0.78860009 -0.16109641 0.16593063 11117985
0.79141176 -0.16605423 0.16452929 9867919
0.78504562 -0.15521263 0.16486396 12170156
0.77879995 -0.1439254 0.16492715 12696756
0.78100008 -0.14914879 0.16581917 12695984
0.77815151 -0.13504884 0.16463307 12368305
0.77761298 -0.12517996 0.16486022 12235948
0.77785724 -0.11524985 0.16463634 12301742
0.7779355 -0.10519872 0.16492839 12105393
0.77837127 -0.095282391 0.1647424 11973550
0.77823335 -0.085375734 0.16484305 11974322
0.77758336 -0.075293571 0.16470431 12040373
0.77700025 -0.065231271 0.16458176 12040632
0.77702802 -0.055228803 0.16458777 12237497
0.77720016 -0.045233838 0.1646252 12236980
0.77741683 -0.035235744 0.1646702 12303539
0.77876663 -0.025271084 0.1649569 11643552
0.77899981 -0.015409627 0.16484451 11643808
0.78000003 -0.012529302 0.16795623 9801607
0.77896422 -0.0049580331 0.16499804 11446688
0.78000003 -0.0088773137 0.16521725 11841446
0.7786895 0.0047146971 0.16402951 11776939
0.78000009 0.0052089267 0.16899967 9472899
0.77823341 0.014826952 0.16484532 10791076
0.77836102 0.024851479 0.16487148 10462367
0.77750003 0.034833126 0.16468748 10595237
0.77680671 0.044658013 0.16527477 11120811
0.77640015 0.054777537 0.16536413 11185576
0.77549994 0.064698242 0.1651718 10987426
0.77373344 0.075419232 0.1647957 10986395
0.77304006 0.08530651 0.16464804 11249312
0.77576923 0.094833985 0.16501907 11908015
0.78650004 0.10401207 0.16539663 11382695
0.79112506 0.10883268 0.16409948 11514023
0.78900003 -0.16043893 0.17543539 10328467
0.79320002 -0.16594061 0.17497776 9868173
0.78533334 -0.15497069 0.17488216 12038057
0.77876478 -0.14302218 0.17487453 12763061
0.78091669 -0.14858936 0.174704 12301997
0.77844441 -0.13500699 0.17511262 12630961
0.77899992 -0.12466794 0.17503549 12697272
0.77900004 -0.11463783 0.17503552 12698303
0.77900016 -0.10497244 0.17357656 13094857
0.78000009 -0.1040116 0.17818178 10199710
0.77880967 -0.094381608 0.17429855 11911351
0.78000003 -0.095612027 0.17891219 9411731
0.77783996 -0.085333131 0.1747749 11385265
0.77706695 -0.075242445 0.17460114 11976887
0.77700019 -0.065231271 0.17458615 12436154
0.77763343 -0.055270966 0.17472854 12763320
0.77867997 -0.045319147 0.17496389 12762548
0.77883321 -0.035300992 0.17499873 12433071
0.7790001 -0.02577617 0.17478682 12432559
0.78000003 -0.021659272 0.17708619 10786966
0.7790001 -0.012695603 0.17412367 11117984
0.78015 -0.016549248 0.17575076 12103340
0.7790001 -0.0052186265 0.17495622 11775656
0.78000003 -0.005225325 0.17617321 13617346
0.7790001 0.0034022792 0.17652759 10658719
0.77999991 0.0056345342 0.17439528 11580075
0.77900016 0.01501524 0.17538285 10856357
0.78000003 0.013947612 0.17343423 13158339
0.77899998 0.025152214 0.17510563 10395806
0.78000003 0.023077581 0.17480372 10855845
0.77800006 0.034855533 0.1748113 11184552
0.77823341 0.044889368 0.17486458 11381928
0.77707702 0.054964449 0.17481357 11184033
0.77519441 0.064672343 0.17508699 11380638
0.77386123 0.075432204 0.17478685 11380383
0.77353352 0.085361555 0.17471328 11775399
0.77568173 0.093608387 0.1747856 12433843
0.78140008 0.09903378 0.17557712 12105390
0.78694999 0.10434745 0.17498049 11382693
0.79000002 0.10937075 0.17473303 11448486
0.78900003 0.11846761 0.17912951 11711659
0.79062092 0.11488162 0.1747084 11448487
0.78900003 0.12216175 0.17666675 11580073
0.78883338 -0.16040502 0.18555404 11512999
0.79356527 -0.16613887 0.18500891 9671053
0.78539133 -0.15523346 0.18494332 11972778
0.77816677 -0.14457472 0.18486588 12433842
0.78049999 -0.14957467 0.1854202 12235436
0.77766663 -0.13537683 0.1847468 12040370
0.77869433 -0.12461852 0.18499167 11974835
0.7790001 -0.11706936 0.18628138 12961214
0.77999997 -0.11316185 0.18449162 12697016
0.78096783 -0.10501724 0.18479556 13354689
0.78037941 -0.09487167 0.18523531 12763065
0.77892315 -0.085170709 0.18259287 12041141
0.77999997 -0.085061848 0.18712915 13157309
0.77869993 -0.074792847 0.18438788 12369077
0.78000003 -0.077808589 0.18849866 12038831
0.77873325 -0.065376632 0.18500349 12500406
0.7789427 -0.055495292 0.18492213 12763318
0.78000003 -0.050875176 0.18986815 9733758
0.77900016 -0.046311606 0.18281645 12498859
0.78033346 -0.044350263 0.18705694 13749182
0.77900004 -0.038044382 0.18050648 10261386
0.78111112 -0.035098609 0.18506077 13419961
0.7808401 -0.025339359 0.18459015 12892590
0.77900004 -0.010689585 0.18050648 9339004
0.78060025 -0.01540224 0.1848374 12695983
0.77900004 -0.0042054858 0.18151961 11510684
0.78058833 -0.0055519124 0.18624973 12893876
0.77900016 0.0049127801 0.18263407 11447463
0.7800625 0.0048176623 0.18748662 11776683
0.77900016 0.014841557 0.18415378 10462879
0.78000009 0.01486061 0.18688017 10330522
0.77899981 0.024871647 0.18506558 10593952
0.77809995 0.034860481 0.18485279 10331811
0.77819437 0.044885918 0.18487245 10660005
0.7768622 0.054683853 0.18471271 10725025
0.77470005 0.064630806 0.18495046 11710632
0.77374214 0.075566389 0.18489726 11710117
0.7737779 0.085187383 0.18513298 11776681
0.77652627 0.093635343 0.18509965 12105392
0.78175008 0.098393381 0.18480447 13092800
0.78748143 0.10499803 0.18486083 11316646
0.79000002 0.10937075 0.18675415 11514023
0.79028016 0.11496043 0.18497133 11448487
0.78838468 -0.16173427 0.1955995 10132116
0.79168755 -0.16677913 0.19502692 9539981
0.78347826 -0.15461613 0.19509783 12367280
0.77764016 -0.14538808 0.1947549 12631480
0.77703363 -0.13526726 0.19460312 12171699
0.77829993 -0.12455437 0.19492023 12303285
0.77900004 -0.11747461 0.19469042 12501178
0.78037506 -0.11324093 0.19566874 12830403
0.77900004 -0.10004859 0.19783118 14409946
0.78069717 -0.10497446 0.19452287 12501181
0.77900016 -0.094684906 0.19649029 14014675
0.7802223 -0.0941163 0.1921543 10986404
0.77899998 -0.085459366 0.19796143 13882573
0.78026092 -0.084725194 0.19414029 12763325
0.77900016 -0.073749594 0.19576761 13487047
0.78000009 -0.077482514 0.19404186 13223874
0.77859992 -0.06536606 0.1949943 13289670
0.77895015 -0.057188898 0.19508298 13486533
0.78030008 -0.051807743 0.19542196 13222844
0.78100008 -0.045028083 0.19498739 12894136
0.78158808 -0.035156384 0.19482757 12434100
0.78136665 -0.025356548 0.19477373 11908013
0.77900004 -0.010689585 0.19327204 11317419
0.78052956 -0.015441291 0.19472605 11777198
0.77900004 -0.0088659329 0.19327204 11579819
0.78028578 -0.0052269055 0.19469988 12106674
0.78128123 0.0047694077 0.19532531 11910065
0.77900004 0.018488863 0.19144839 8684927
0.78058338 0.014718386 0.19564527 11513511
0.7790001 0.025949264 0.19476414 10527133
0.78000009 0.021936337 0.19625914 12105909
0.77796006 0.034853742 0.19483578 11249571
0.77654576 0.045036983 0.19497578 11446177
0.77600032 0.054750245 0.19525269 11182491
0.77502769 0.064659014 0.19500972 11511453
0.77394301 0.075310625 0.19486478 11972262
0.77382147 0.085587621 0.19502851 11513255
0.77599996 0.092794277 0.19498539 12237234
0.78180003 0.098170996 0.19488136 11842733
0.78764999 0.10453121 0.19458801 11250854
0.79028571 0.10888191 0.19686568 11382440
0.79227996 0.11525457 0.19471541 11382696
0.78807151 -0.16222827 0.20487873 9671567
0.79059994 -0.16724283 0.20540455 9605517
0.78273916 -0.15478982 0.20503305 11908528
0.77766681 -0.14539297 0.20477469 12565945
0.77738905 -0.1353278 0.20470184 11975346
0.77852768 -0.12459043 0.20500101 11711407
0.77900004 -0.11828512 0.20603763 12960962
0.78075004 -0.11466592 0.20490098 12104371
0.77900004 -0.10096041 0.20603763 12894136
0.78061539 -0.10566937 0.20491837 12630710
0.77899992 -0.094577618 0.20512581 13025723
0.77899992 -0.085459359 0.20512578 13156539
0.77874982 -0.075406082 0.20505901 13090231
0.77750009 -0.065273799 0.20472994 13550779
0.77885735 -0.057572536 0.20478465 13156018
0.7802667 -0.052353363 0.2058849 13484469
0.78092605 -0.045383453 0.20512465 13352886
0.77900004 -0.035308905 0.20968492 14866899
0.78009111 -0.035220195 0.20499806 12892850
0.78040016 -0.025325252 0.20549366 12104361
0.7790001 -0.011684305 0.20471133 11579047
0.78008002 -0.016840586 0.2055923 11973546
0.77900016 -0.0054105897 0.20565364 12170927
0.78000009 -0.0048933262 0.2044761 11316391
0.77890927 0.0051420517 0.20717365 13093056
0.78042859 0.0042985766 0.20223872 9344398
0.77876014 0.015128676 0.20590019 11449005
0.7802 0.013402688 0.20124082 9674139
0.77844423 0.02485228 0.20497908 10330526
0.7779333 0.034851916 0.20484515 10396573
0.77693963 0.044564366 0.20499703 10987938
0.77652025 0.054786101 0.20538226 11709605
0.77573359 0.064718209 0.20517322 11775137
0.77420008 0.075465038 0.20476773 11972775
0.77424002 0.085439786 0.20477886 11842476
0.77720004 0.093045339 0.20495443 12237750
0.78333336 0.098211497 0.20534797 12105908
0.78791666 0.10308912 0.20424616 11119268
0.7912308 0.10797571 0.20599581 11382438
0.78853339 -0.16182156 0.21483567 9803413
0.79084617 -0.16665483 0.21515192 9474188
0.78314292 -0.15462595 0.21516316 12040630
0.77729642 -0.14512196 0.21508831 12698045
0.77716142 -0.13543554 0.21482314 12106166
0.7782141 -0.1248659 0.2147429 11250345
0.77888906 -0.1161404 0.21644187 12369078
0.78041673 -0.11301911 0.21265346 11250086
0.7790001 -0.10168988 0.21588533 12367536
0.78018171 -0.10642724 0.21465121 11972780
0.77892005 -0.094568282 0.21513407 12235693
0.77884001 -0.085442267 0.2151116 12301743
0.77783334 -0.075318068 0.21483247 12169385
0.77768004 -0.065287806 0.21479166 12432300
0.77891999 -0.056274757 0.21513405 12432813
0.78000003 -0.050875176 0.21543208 11709347
0.77900004 -0.048986297 0.2188032 14474965
0.7803334 -0.045348186 0.21477968 12761521
0.77900004 -0.034397077 0.21150859 10851732
0.78053582 -0.035640497 0.21577637 12104364
0.77900004 -0.022847272 0.2139401 10525081
0.78022724 -0.02565106 0.21566159 11578023
0.77900004 -0.011054317 0.21515588 9805207
0.78016007 -0.016112128 0.2154768 10856355
0.77900004 -0.0052186269 0.2151559 10857124
0.77829987 0.004806323 0.21496257 11185317
0.77844 0.014831264 0.21500236 11250598
0.7784 0.024851792 0.21499065 11380639
0.77788001 0.034850061 0.21484627 11840160
0.77687907 0.045056392 0.21506542 11445404
0.77620012 0.054763582 0.21528989 11445403
0.7749722 0.064654306 0.21494891 11710116
0.77402788 0.075449094 0.21468836 11710375
0.7748999 0.085513473 0.21493103 11842218
0.77675003 0.092232935 0.21529256 12698298
0.78286666 0.097512588 0.2150012 12632507
0.78825015 0.10267019 0.21494244 11119268
0.79133338 0.10770514 0.21485721 11382440
0.78820008 -0.16212253 0.22507781 9802383
0.79075003 -0.16727471 0.22488053 9539722
0.77900004 -0.15111086 0.22609782 12435130
0.78377783 -0.15560926 0.22483437 12039602
0.77660739 -0.14538945 0.22481807 12302774
0.77734292 -0.13518946 0.22483638 12368564
0.77891409 -0.12478404 0.225291 12104107
0.77896762 -0.11480934 0.22502968 12434098
0.77900016 -0.10622874 0.22457808 12565683
0.78000003 -0.10304643 0.22495334 12038825
0.7790001 -0.094163172 0.22410835 12630960
0.78000003 -0.096159831 0.22748366 12105128
0.77876657 -0.085434631 0.22511917 12893617
0.77816671 -0.075348064 0.22494701 12565166
0.77803332 -0.065317787 0.22490682 13091766
0.77888221 -0.05557486 0.22541948 12040107
0.78000003 -0.051788174 0.22091007 14540501
0.77900016 -0.046882086 0.2269395 12828855
0.78018755 -0.044266131 0.22381642 12105390
0.7790001 -0.034397073 0.22684385 11579561
0.78007144 -0.036792587 0.22288673 12039600
0.77900004 -0.025205866 0.22602481 10856097
0.78000003 -0.025676459 0.22127526 12895166
0.77895659 -0.014257006 0.22640213 9936284
0.78008342 -0.016792072 0.22275965 10658980
0.77816659 -0.0052149948 0.22494262 11251115
0.77694482 0.0047982493 0.22459027 11775657
0.77756679 0.014815421 0.22476962 11841447
0.77741683 0.024819698 0.2247275 11183516
0.77693367 0.034808595 0.22458757 11577246
0.77630335 0.044526767 0.22481829 11314334
0.77531999 0.054701533 0.22502846 11117209
0.77469987 0.064632758 0.22484872 11117210
0.77413803 0.075303711 0.22481109 10854297
0.77446151 0.085255019 0.22464019 11315872
0.77723545 0.093156718 0.22494198 12960699
0.78363633 0.098485082 0.2251078 13158593
0.78850007 0.10270305 0.22516331 11185061
0.79129416 0.1075906 0.22476289 11316647
0.78830779 -0.16157673 0.23433541 10196882
0.79115385 -0.16671954 0.23560844 9539464
0.77900004 -0.15111086 0.23156877 13685449
0.78331584 -0.15484829 0.23526332 12763065
0.77646446 -0.14497313 0.23503509 12631993
0.77627808 -0.13513495 0.23530149 12433327
0.7782414 -0.12470074 0.23511165 12301994
0.77895468 -0.11554265 0.234871 13025718
0.78000003 -0.11113297 0.236431 12892590
0.77900004 -0.10916685 0.23156877 14341835
0.78021228 -0.10446606 0.23502846 13089970
0.77900016 -0.093183085 0.23553792 12693674
0.78018188 -0.097045735 0.2335805 13023922
0.77852005 -0.085407726 0.23506962 12233126
0.77813333 -0.075345516 0.23495279 12167589
0.77784002 -0.065303199 0.23486419 12235437
0.77753335 -0.055264052 0.23477215 11710122
0.77856004 -0.045313291 0.23508227 11711404
0.78000003 -0.0435712 0.23004003 14145741
0.77754569 -0.034996271 0.23527002 11449262
0.77784002 -0.025239853 0.23486415 10726049
0.77853322 -0.015241069 0.23507477 10002585
0.78000003 -0.019833278 0.23004003 11714741
0.77684021 -0.005206591 0.23456368 10724508
0.77600044 0.0049226959 0.23508881 11512482
0.77616704 0.01478812 0.23526837 11183515
0.77693772 0.024578722 0.23493391 10328978
0.77624172 0.03483982 0.23513496 10921371
0.77544445 0.044725515 0.23504908 10855064
0.77489984 0.054672338 0.23488535 10526613
0.77402788 0.064577229 0.23462084 10790301
0.77397233 0.075443685 0.23460378 10658718
0.77410012 0.08542408 0.23464248 11316131
0.77641177 0.092844538 0.23507574 12894135
0.7833637 0.098284096 0.23519906 13091772
0.78783339 0.1026166 0.23511599 11644841
0.79156256 0.10785207 0.23495434 11382438
0.78854555 -0.16135401 0.24497853 9999504
0.791125 -0.16631332 0.24478075 9539209
0.77900004 -0.15111086 0.24798162 13685196
0.78340006 -0.15499492 0.2444299 12039601
0.77600008 -0.14528313 0.24480458 13025723
0.77546662 -0.13499357 0.24504092 13484985
0.77696687 -0.12525046 0.24460448 12959412
0.77836108 -0.11545328 0.24504349 12826801
0.77803111 -0.10504726 0.24470951 13221042
0.77700013 -0.094978236 0.24482721 12893878
0.77633351 -0.085166819 0.24440387 12960700
0.77658367 -0.075195104 0.24448305 12631735
0.77680016 -0.065214634 0.24455145 12763836
0.77694476 -0.055222839 0.2445987 12697789
0.77693355 -0.04521941 0.24459428 12566718
0.77612156 -0.035426635 0.24475211 12039861
0.77686691 -0.025208412 0.24457404 12040118
0.77747226 -0.015218975 0.24476311 11250087
0.77690023 -0.0052049481 0.24458413 11973037
0.77593565 0.004644223 0.24501318 11709605
0.77523977 0.01477067 0.24496923 11248539
0.77629435 0.025000561 0.24465984 10919572
0.77588463 0.034691479 0.24496368 10985625
0.7749998 0.044701114 0.24489401 10789017
0.77487981 0.054670867 0.24485581 10592152
0.77403235 0.064723119 0.24476321 10330010
0.77341694 0.075388752 0.2452978 10856353
0.77355188 0.085239284 0.24518487 11579047
0.77649993 0.093075521 0.24502549 13025721
0.7833637 0.098450519 0.24520117 13815237
0.78805882 0.10389489 0.24522187 11841704
0.79045463 0.10859282 0.244729 11316388
0.79208827 0.1153331 0.24488623 11382182
0.7882728 -0.16113062 0.25512621 10065810
0.79243755 -0.16670646 0.25504109 9473416
0.77750003 -0.15154937 0.2556937 13025978
0.78364289 -0.15620758 0.25456825 11579306
0.77503318 -0.14489904 0.25488278 13288123
0.7749998 -0.13491297 0.25487196 12892851
0.77550012 -0.12501496 0.25503549 13089201
0.7760281 -0.11510815 0.25520927 12432298
0.77576691 -0.10508212 0.2551237 12630960
0.77491647 -0.094989724 0.25484431 12960184
0.77466661 -0.08498428 0.25476158 12632248
0.77469426 -0.075012602 0.25477085 12500663
0.77493316 -0.065057069 0.25484928 12829627
0.77586144 -0.055144958 0.2551547 12370363
0.7761336 -0.045172531 0.25524461 12239547
0.77616704 -0.03517982 0.25525621 12501690
0.77666688 -0.025203092 0.25541914 12434869
0.77652806 -0.015201073 0.25537336 11776427
0.7755667 -0.0051964065 0.25505769 12170671
0.77488875 0.0047848374 0.25483453 11972263
0.77453327 0.014756848 0.25471753 12168100
0.77497214 0.02474393 0.25486192 11313559
0.77486652 0.034716405 0.25482759 11249823
0.77438885 0.0446647 0.25467065 11381924
0.77403343 0.054611426 0.25455454 11251623
0.77360022 0.064411059 0.25454035 11186343
0.77300018 0.075349092 0.25511977 10988449
0.77307701 0.085449949 0.25493589 11446947
0.77559096 0.093514398 0.25506604 13223100
0.78162503 0.098605499 0.25430548 12893878
0.78749996 0.10465014 0.25483379 11973804
0.79000002 0.10937075 0.25518212 11250851
0.79040015 0.11497827 0.25531247 11316645
0.7883637 -0.16265927 0.2652241 9342344
0.79238474 -0.1672655 0.26436961 9342601
0.77654552 -0.15162711 0.26488259 12696501
0.78320009 -0.15730773 0.26520622 11643558
0.77428573 -0.14456548 0.26518956 12631477
0.77402788 -0.13474414 0.26542473 13090486
0.77430004 -0.12482192 0.26551679 12958385
0.77447218 -0.11487787 0.26557556 12565170
0.77469993 -0.10493692 0.26565397 12039854
0.77455544 -0.094945937 0.26560524 12368817
0.77400011 -0.08491084 0.26541552 12500657
0.77386123 -0.074931838 0.26536691 12500401
0.77400011 -0.064979404 0.2654154 12500143
0.77472216 -0.055063736 0.26566139 12632245
0.77544445 -0.04533321 0.26540443 12895675
0.77528554 -0.035011556 0.26572421 12368562
0.77472407 -0.02507774 0.26562965 12169898
0.77461106 -0.015163001 0.26562253 12102822
0.77410012 -0.0051865028 0.26544756 12364968
0.7735557 0.0047775777 0.26526132 12102049
0.77344459 0.014400168 0.26565924 12103848
0.77339405 0.025049699 0.26550779 10790046
0.77336687 0.034649506 0.26519671 10724514
0.77347237 0.044612832 0.26523271 10790565
0.77297235 0.055440336 0.26506174 10790305
0.77249986 0.065354094 0.2648991 11117983
0.77219427 0.075269729 0.2647942 11117982
0.77196658 0.085188359 0.2647163 11315875
0.7750001 0.094474986 0.26522347 12894650
0.78000003 0.098856337 0.26108193 10855069
0.78647822 0.10432654 0.26484793 11711405
0.79000002 0.10937075 0.26535383 11185061
0.79220009 0.11524329 0.26516742 11316390
0.78775001 -0.16310595 0.27550733 9144966
0.79127276 -0.16746975 0.27462101 9276809
0.77652949 -0.15234511 0.275103 12829370
0.78307688 -0.15810865 0.27465969 12105393
0.77425927 -0.14495586 0.27506974 13289149
0.77350014 -0.13465352 0.2752023 13025464
0.77320015 -0.12464476 0.27509555 12565939
0.77285725 -0.11496186 0.27478006 12894392
0.77296305 -0.10510262 0.27521157 13090998
0.77353352 -0.094819345 0.27521369 13750213
0.77288902 -0.084589101 0.27538612 13487041
0.77257603 -0.074834362 0.27536565 13552580
0.77300012 -0.064895004 0.27502459 13683907
0.77326685 -0.054960951 0.27511865 13684420
0.77371424 -0.044836797 0.27469507 13355711
0.77351636 -0.035206951 0.27503204 13157562
0.77300012 -0.025084481 0.27502424 13024691
0.77290022 -0.015128962 0.27498835 13221811
0.77237928 -0.0050499574 0.27555025 12959154
0.77215165 0.0045228265 0.27521473 12499889
0.77211106 0.014509763 0.27510935 12237492
0.77243316 0.024662029 0.27482235 11975093
0.77196753 0.035168611 0.27553049 10988456
0.7717576 0.044924129 0.27523807 11645869
0.77136099 0.055324849 0.27534387 11382694
0.77096665 0.065224059 0.27520409 11645094
0.76900005 0.078859694 0.27840284 9276289
0.77033359 0.074733481 0.27462178 11447717
0.76900005 0.084860511 0.27785733 10197134
0.77031595 0.085005954 0.27302536 12763319
0.76900005 0.090261236 0.2790029 11052702
0.77332151 0.094524875 0.27494174 12236721
0.77866673 0.10051023 0.27704069 11579819
0.78530002 0.10440626 0.27443579 11185062
0.79000002 0.10937075 0.27552557 11053475
0.78776926 -0.16345294 0.28467762 9210503
0.79087496 -0.16753249 0.2857824 9211016
0.77666664 -0.15247911 0.28481436 11842993
0.78310001 -0.15832385 0.28503579 11184549
0.77408004 -0.14472036 0.28447071 13024695
0.77323353 -0.13460617 0.28416017 12433324
0.77282774 -0.12445991 0.28475949 12171437
0.77245158 -0.11530756 0.28492361 12105646
0.77208555 -0.10535751 0.28451246 12368559
0.77222222 -0.0946583 0.28468987 12238260
0.77142853 -0.084823541 0.28472048 12501433
0.77103031 -0.074629977 0.28466165 12895162
0.77146661 -0.064765647 0.28441226 12631477
0.77216649 -0.054882813 0.28467035 13092283
0.7725333 -0.044962622 0.28480509 13158589
0.77236098 -0.035008408 0.28474113 12763575
0.77136654 -0.025032433 0.28437504 12105134
0.77102762 -0.015092369 0.28424987 12038829
0.77126914 -0.0053057666 0.28503534 12170928
0.77160591 0.0050132712 0.28487518 11646126
0.77139276 0.014890092 0.28470817 11646128
0.77122217 0.024623455 0.28432161 11711151
0.77106243 0.03533569 0.2848275 12368052
0.77103996 0.04537541 0.28515828 12565942
0.77099997 0.055299569 0.28514341 12303798
0.77040017 0.06517534 0.28492072 11975346
0.76864296 0.07595139 0.28574866 11316647
0.77000004 0.071451485 0.28364688 11646380
0.76720011 0.084661245 0.28463405 11973804
0.76800007 0.090401039 0.28506052 11711144
0.77285719 0.09537103 0.28479585 12565941
0.77740002 0.10034672 0.28387231 13551810
0.78541183 0.10506316 0.2849555 11710634
0.79000002 0.10937075 0.28477257 10987682
0.7883001 -0.16232742 0.29523188 9210246
0.7914167 -0.16695379 0.29531804 9211016
0.77766675 -0.15146011 0.29185703 14473425
0.78350002 -0.15565579 0.29526925 11578279
0.77736372 -0.14483641 0.29213056 14736596
0.7833637 -0.14511858 0.29788685 11051933
0.77672732 -0.13480216 0.29172623 13815753
0.78420007 -0.13486251 0.29828826 10657436
0.7766 -0.12700947 0.29267034 11446955
0.78250003 -0.12660044 0.29764149 9933973
0.77635723 -0.11463834 0.2938776 10330777
0.78200006 -0.11691231 0.29836488 8751234
0.7750001 -0.10467663 0.29448798 9936015
0.78000003 -0.10748099 0.29942781 10197391
0.77370834 -0.09484183 0.2942982 9671822
0.77284992 -0.084785491 0.29397261 9671314
0.77255559 -0.074503057 0.29436457 10066067
0.77268183 -0.0651154 0.29432064 9934219
0.77425009 -0.055029999 0.29450554 9999753
0.77421057 -0.045061965 0.29434729 10262155
0.77321732 -0.035008632 0.29399392 9408647
0.77305001 -0.025085732 0.29404837 8751492
0.7733478 -0.015334367 0.29412222 8685446
0.77404994 -0.0051853489 0.29442871 8816520
0.77374989 0.0047781616 0.2943148 8684935
0.77313638 0.0150595 0.29457602 9078921
0.77306676 0.024681896 0.29496142 9274756
0.77304 0.034634903 0.29495072 9735303
0.77334481 0.044449572 0.29494181 9999500
0.77278268 0.054914214 0.29390731 10131600
0.77147627 0.0650068 0.29357859 10262931
0.76820004 0.075778037 0.29220065 10525593
0.77172732 0.07514552 0.29625461 10262419
0.7676667 0.084315658 0.29189807 10459798
0.77200007 0.085521646 0.29701579 10263449
0.77380002 0.09360607 0.29415116 11579562
0.78000003 0.098856337 0.2957758 11382694
0.78641671 0.10366354 0.29468092 10855839
0.79155558 0.10855787 0.29583487 10987425
0.78880006 -0.16113707 0.30243701 9934737
0.78771436 -0.15451388 0.30370823 10328982
0.78811115 -0.14549701 0.30315697 10131860
0.79127276 -0.14507112 0.30729291 9803410
0.78800011 -0.13502438 0.30219176 10263964
0.79150003 -0.13500647 0.30662355 10132889
0.78822231 -0.12481149 0.30340508 11119268
0.79128581 -0.12544431 0.30720082 10527645
0.78678566 -0.11460167 0.30361393 10790044
0.79100001 -0.11534692 0.30867729 9540750
0.77900004 -0.10004859 0.30086759 12302254
0.78573328 -0.10520507 0.30519038 10000015
0.7786001 -0.094529532 0.30071312 11842218
0.78527278 -0.094836086 0.30613372 9671049
0.77900004 -0.087283015 0.30086759 11316647
0.78511119 -0.085106999 0.30608934 9868943
0.77700001 -0.077964067 0.30009514 11645611
0.78453851 -0.074622616 0.30640185 10132371
0.77700001 -0.065231271 0.30009514 10592919
0.78581828 -0.066134818 0.30718422 9934736
0.78566676 -0.054462899 0.30544087 10329493
0.78546679 -0.044613529 0.30557618 10198165
0.77800006 -0.03162095 0.30048138 10660257
0.78557152 -0.034946758 0.30630013 9145734
0.77820003 -0.02525332 0.30055863 9936279
0.78546154 -0.025205044 0.30676144 9277321
0.77883339 -0.01524448 0.30080321 9145734
0.78541666 -0.01537286 0.3061057 9145734
0.77900004 -0.0088659329 0.30086759 8290169
0.78485721 -0.0049960045 0.30510354 9408649
0.77900004 0.0075469455 0.30086759 9934745
0.78452939 0.0046848455 0.30527779 9539981
0.78507698 0.015378358 0.30717847 8882568
0.77883339 0.024865353 0.30262646 8684675
0.78490919 0.025476374 0.30782902 8816517
0.77760005 0.03484042 0.30214724 9277066
0.7840001 0.035125755 0.30738944 8882308
0.77860004 0.044724055 0.30217201 9605774
0.78446156 0.045316178 0.30707735 8947589
0.77800006 0.054891367 0.30048138 9474182
0.78541666 0.054649141 0.30656707 9342345
0.77750003 0.077607274 0.30210838 9602690
0.78800005 0.079578303 0.30987775 10394768
0.77633333 0.084763773 0.30165505 8158330
0.783889 0.085074984 0.30744874 10329752
0.78646678 0.095873632 0.30584052 10329753
0.78850007 0.10177951 0.30176842 10921888
0.78900003 -0.093944646 0.31027099 9341830
0.78900003 -0.084709339 0.31027099 9276294
0.78900003 -0.075474016 0.31119454 9671565
0.78900003 -0.063468114 0.31027099 9671565
0.79258323 -0.045201447 0.31446809 9869199
0.78900003 -0.033915099 0.31027099 9276807
0.79250008 -0.035224929 0.3151302 9803407
0.78900003 -0.024987625 0.31027099 9276807
0.7922222 -0.024780441 0.31525099 9408907
0.78900003 -0.014520933 0.31027099 9079685
0.79273337 -0.014589331 0.31545445 9342857
0.78900003 -0.0057473835 0.31027099 8816514
0.78900003 0.0039496985 0.31027099 8619649
0.78900003 0.015032077 0.31211805 8816261
0.79200006 0.015089233 0.31608713 9145480
0.78883338 0.025184629 0.31205213 8816515
0.79141665 0.025267595 0.31585479 8948869
0.78800005 0.035304971 0.31172249 9013892
0.79100001 0.03543938 0.31568801 9212041
0.78880006 0.044574719 0.31203896 9277064
0.78900003 0.053204715 0.31088668 9079686
0.78900003 0.076908693 0.31027099 10263181
