# .PCD v0.7 - Point Cloud Data file format
VERSION 0.7
FIELDS x y z rgb
SIZE 4 4 4 4
TYPE F F F U
COUNT 1 1 1 1
WIDTH 630
HEIGHT 1
VIEWPOINT 0 0 0 1 0 0 0
POINTS 630
DATA ascii
0.47150001 -0.061384439 -0.051071286 15130583
0.47008708 -0.054249119 -0.051600672 16249834
0.47097135 -0.045116045 -0.052346434 16579569
0.47005272 -0.034916252 -0.052435268 16578799
0.47108343 -0.025205312 -0.052405525 15986919
0.47571799 -0.015489789 -0.052393239 15790571
0.47628573 -0.072961569 -0.041355353 13617856
0.46883333 -0.061859947 -0.041911151 15525596
0.47171929 -0.064948693 -0.045608077 15262426
0.4672969 -0.054563709 -0.04412875 16315627
0.47000015 -0.056035317 -0.048726879 16315370
0.46634871 -0.0448572 -0.043600041 16644592
0.47000015 -0.044959173 -0.048983607 16644848
0.46655092 -0.034656018 -0.044099022 16381420
0.47000012 -0.035881877 -0.04925869 16513006
0.46698242 -0.025606049 -0.043565534 16118761
0.47029182 -0.023700684 -0.048234787 15987176
0.46830767 -0.01797823 -0.041682258 15987691
0.47272599 -0.014905583 -0.045666702 15724521
0.47528008 -0.0082556382 -0.043324858 14606298
0.46900001 -0.070116073 -0.030763423 14143175
0.47330007 -0.07317175 -0.034821656 13552063
0.46632731 -0.063966364 -0.034305178 15064788
0.47123533 -0.068245709 -0.037466548 14472651
0.45888242 -0.052553326 -0.031174302 16118246
0.46257824 -0.055640321 -0.035543114 15986660
0.4584209 -0.045123402 -0.032612838 16447211
0.46155569 -0.04523243 -0.037301507 16513004
0.45827031 -0.035138421 -0.032816272 16447211
0.46144742 -0.03518635 -0.037377954 16512491
0.45842496 -0.025607213 -0.032754391 16118763
0.46176314 -0.024171077 -0.037091371 16118506
0.46486208 -0.015713172 -0.034568194 15856105
0.47073337 -0.011894867 -0.03763767 15658727
0.47506166 -0.0060652667 -0.034722794 14606041
0.46876919 -0.07117898 -0.025770025 13617857
0.47215158 -0.074679829 -0.024495598 12894390
0.4581666 -0.062061518 -0.023218811 14999252
0.46344006 -0.066254869 -0.025758214 14407116
0.45519739 -0.05496126 -0.024555281 15789281
0.46000001 -0.059078749 -0.029096212 15591902
0.44900006 -0.045052592 -0.021042615 16250345
0.45364496 -0.044791639 -0.025769491 16315881
0.44900003 -0.033385199 -0.021252839 16184811
0.45308226 -0.035159033 -0.025937486 16316140
0.44900003 -0.027183603 -0.021042615 15922154
0.45342359 -0.024676954 -0.025631189 16053483
0.45577589 -0.016275333 -0.02394478 15790828
0.46238458 -0.012502887 -0.027169121 15461607
0.46705559 -0.0079850508 -0.023289766 14409433
0.47218925 -0.0051292079 -0.026135884 14408662
0.46492863 -0.071452618 -0.015578396 12894905
0.4729231 -0.074964866 -0.016196169 12302768
0.48000002 -0.078502722 -0.019124379 12236974
0.44900003 -0.06081935 -0.010531444 14539729
0.45500004 -0.064190425 -0.014728162 14144714
0.46145457 -0.068889692 -0.016622271 13552064
0.4476935 -0.054069601 -0.014089921 15591902
0.45136842 -0.057304226 -0.017430037 15394523
0.44550553 -0.044978198 -0.015019832 16184552
0.44506329 -0.035005778 -0.015281017 16316140
0.44587111 -0.025261302 -0.014927657 16053484
0.4475455 -0.017694796 -0.01316843 15922157
0.45277566 -0.013713166 -0.015661834 15396328
0.45763996 -0.0081203301 -0.013649322 14146262
0.46493334 -0.0054275775 -0.018381128 14211541
0.50757146 -0.091499813 -0.0015485926 11974575
0.49552637 -0.083368123 -0.0059364005 12039853
0.50309527 -0.087050773 -0.0021505894 11974573
0.48650002 -0.078996912 -0.0091332085 11973804
0.44764107 -0.063108765 -0.0045129857 13749955
0.45170003 -0.06499391 -0.0081631569 13552833
0.46000001 -0.069847435 -0.0054051108 12434353
0.43871436 -0.05194404 -0.00097394065 15197658
0.44305348 -0.055235215 -0.0053392351 15000022
0.43798 -0.044543024 -0.0024434782 15921381
0.44073814 -0.04552843 -0.0074898088 15987173
0.43681258 -0.035139225 -0.0036080934 16184810
0.44000003 -0.034879107 -0.0087752743 16250603
0.43719384 -0.025396129 -0.0030354252 15922155
0.44096965 -0.024192046 -0.0079360968 15987947
0.43887502 -0.018736394 -0.001175986 16053486
0.44337884 -0.015450114 -0.0049716989 15658729
0.45000002 -0.012495734 -0.0095014405 15724523
0.45750001 -0.0078814989 -0.0093024028 14277334
0.50642854 -0.08604528 0.0033675968 11908781
0.43883336 -0.061497245 0.0087121828 13289662
0.44332147 -0.06294442 0.00323843 13289406
0.43628559 -0.054523088 0.0055172113 14605521
0.44040003 -0.058624148 0.0024541032 14078664
0.42900002 -0.040535055 0.0090193003 16052968
0.43263644 -0.045026354 0.0049418821 15658466
0.42829996 -0.034003727 0.0089531988 15987432
0.43175337 -0.034876291 0.0041824095 16053482
0.42821738 -0.026402939 0.0089579606 15790568
0.43220839 -0.02460511 0.0041458397 15856363
0.42860001 -0.01170157 0.0086096404 13619147
0.43274468 -0.016101707 0.0058487956 15395813
0.42533338 -0.0087440489 0.0083608599 13224646
0.43000001 -0.0094237728 0.0060204114 13487818
0.43669236 -0.061749216 0.013302295 12828855
0.42770591 -0.051692422 0.017528133 14408142
0.43244743 -0.05568251 0.01419138 13947335
0.42550001 -0.044869561 0.015326473 15395038
0.43000004 -0.048011553 0.010382508 15197659
0.42389503 -0.035211921 0.015087781 15856103
0.42446142 -0.025080906 0.015159681 15790568
0.42736149 -0.016046435 0.015014779 15198690
0.43000004 -0.016092749 0.01067611 15527142
0.4263334 -0.0093434155 0.012124781 13947857
0.43400002 -0.061545577 0.021460917 12368817
0.42462808 -0.054034691 0.025754714 13420992
0.43083337 -0.058079999 0.021943716 12960441
0.41765115 -0.043568913 0.026900126 15066073
0.42092001 -0.046001092 0.023174589 14934487
0.41618097 -0.034825549 0.025997724 15658466
0.4200556 -0.035210449 0.021068532 15855846
0.41646349 -0.025448345 0.026284616 15724775
0.42054176 -0.023817463 0.021557687 15790569
0.41771436 -0.017813781 0.028338896 15461605
0.42276084 -0.015395002 0.023704331 14869726
0.41694123 -0.052344371 0.036147632 12960441
0.42166668 -0.0541615 0.031566884 13025977
0.40885714 -0.041298233 0.038540449 15066072
0.41380388 -0.045175005 0.034511287 14539729
0.40826684 -0.034699503 0.03814631 15395552
0.41164616 -0.035316695 0.033171318 15526625
0.4086667 -0.026733832 0.038169112 15593190
0.41209775 -0.024264097 0.033981077 15659239
0.4143379 -0.016470628 0.034862388 15067361
0.41415918 -0.052335516 0.04466356 12565682
0.40633765 -0.043786585 0.045774415 14211020
0.41112003 -0.047720894 0.043251313 13618370
0.40380335 -0.035024997 0.044998657 15198430
0.40425014 -0.025110535 0.045035526 15527654
0.41000003 -0.020023359 0.040293816 15462376
0.40555111 -0.017769873 0.046237186 15133155
0.41100007 -0.016350914 0.041417304 14804705
0.78828579 -0.13393281 0.057433724 12764090
0.40850002 -0.051029459 0.051143333 12368560
0.41100001 -0.051502705 0.050333619 12631732
0.39808705 -0.042092126 0.057597131 14210764
0.40151998 -0.045017932 0.054253355 13552577
0.39650902 -0.034527954 0.055734582 15132124
0.40007147 -0.037333719 0.05129271 14935258
0.39651993 -0.02549726 0.056049258 15461349
0.40018517 -0.023567891 0.051611964 15527399
0.39650002 -0.018551718 0.058574852 15264227
0.40108335 -0.018099686 0.052716047 15132899
0.79325002 -0.14475058 0.064956203 12698297
0.78723079 -0.1339273 0.065033227 12698553
0.79000002 -0.13844942 0.060994666 12830140
0.78480005 -0.12835196 0.065737344 12829883
0.39505261 -0.043090355 0.064960659 13420993
0.40056252 -0.048281625 0.06245739 11973803
0.38847619 -0.034000691 0.068231374 15066588
0.39209303 -0.035343569 0.063427657 15066331
0.38846299 -0.025942398 0.068067655 15264226
0.3922857 -0.024171779 0.063253872 15395813
0.38900003 -0.019225437 0.06896463 15461351
0.39330441 -0.01864543 0.064177439 15461864
0.79256666 -0.14447108 0.075108871 12829881
0.78804159 -0.13457255 0.074372999 12829881
0.79000002 -0.13844942 0.078564003 12830138
0.78500003 -0.12838466 0.072553672 12895674
0.3866061 -0.041781619 0.076791704 13223874
0.39140743 -0.043926928 0.072402231 11776172
0.38488865 -0.035100367 0.0750743 11843506
0.38485682 -0.02506501 0.075155497 12171959
0.38636547 -0.018312884 0.075475976 15329509
0.78875005 0.065344565 0.078208819 11316901
0.79120004 0.067677602 0.074048132 11185574
0.79267997 0.075081319 0.07574679 11250854
0.79244006 -0.18525824 0.085297607 12237492
0.78900003 -0.17152131 0.088623412 12105908
0.79164279 -0.17513792 0.084945537 12435127
0.79162967 -0.1447088 0.085414618 12961210
0.78900003 -0.13396434 0.08616066 13092283
0.79006249 -0.13614862 0.085043654 13092283
0.38350597 -0.043303385 0.085259706 11514025
0.37779471 -0.033850472 0.086760767 2765101
0.38078341 -0.035846397 0.082734115 2830894
0.37789693 -0.025785644 0.086502358 3093038
0.3807959 -0.023708262 0.082194611 3816761
0.37900001 -0.019396642 0.089594714 14539729
0.38347158 -0.015865954 0.085421242 14869213
0.38500002 -0.0097895022 0.087407932 14211282
0.78778952 0.065484442 0.085184522 11316902
0.78800005 0.071277052 0.088511087 11382694
0.79127276 0.07452298 0.082647964 11316901
0.78877783 -0.18173186 0.097009987 12170673
0.79095238 -0.18605539 0.09448456 11381415
0.78736657 -0.17485492 0.094886273 14605270
0.78631252 -0.16506808 0.094640687 16185327
0.79000002 -0.16064227 0.090585135 15921382
0.78653568 -0.15500423 0.095903337 16382708
0.79000002 -0.15509406 0.090585135 15395038
0.78683347 -0.14495502 0.094819531 16119278
0.79000002 -0.14954583 0.090585135 14473936
0.78599995 -0.13571206 0.09498065 16053485
0.78333336 -0.12841798 0.09683948 16119535
0.38400003 -0.05055397 0.098305419 12368562
0.37841177 -0.041148882 0.09727025 10395801
0.38221502 -0.045158729 0.094844081 12631735
0.37505186 -0.035047241 0.094954446 2634029
0.37454075 -0.024789486 0.094882488 3225141
0.37804553 -0.017918335 0.096265964 13290181
0.38206521 -0.013646112 0.094582319 14606298
0.38453853 -0.0078902775 0.09610942 14211540
0.77825004 0.064019665 0.097891398 11579816
0.78226662 0.066913404 0.095434509 11579816
0.78642857 0.075479791 0.096311331 11514023
0.78900003 0.081526354 0.098782256 11579304
0.7920801 0.085927993 0.095344432 11711146
0.79316002 0.12466198 0.094658546 11974832
0.78833336 -0.18245032 0.10515788 12367281
0.79049999 -0.18757786 0.10544707 10920862
0.78416687 -0.17452817 0.10482963 15066078
0.7817058 -0.16509138 0.10540333 16184816
0.78285748 -0.15473841 0.10526478 16053743
0.78235483 -0.14461316 0.1053635 16185072
0.78130001 -0.13509661 0.10513284 16119279
0.78078568 -0.12593289 0.10578235 15987950
0.38426328 -0.05260605 0.1061308 12565686
0.37724006 -0.042077087 0.10522909 10131603
0.38122857 -0.047077674 0.10490767 12894652
0.3683556 -0.032898396 0.10746618 2501930
0.37173191 -0.035341606 0.10360818 2699565
0.36837268 -0.025430048 0.10784567 2370857
0.37163636 -0.024453055 0.10317506 2765360
0.37716061 -0.015098735 0.10535531 13027007
0.38030773 -0.011861203 0.1014773 14408661
0.37859097 -0.0081353085 0.10818966 14408659
0.38139325 -0.0055729966 0.10478279 14540504
0.38342857 0.00089573237 0.10923398 13487816
0.77350008 0.058195431 0.10408419 15001055
0.77676475 0.063579306 0.10393491 15001054
0.78141671 0.068852939 0.10514959 15395812
0.78492594 0.075393736 0.10510915 15001055
0.78840905 0.084738038 0.10558624 15330280
0.79075003 0.088649467 0.10177693 14408661
0.78880006 0.092955135 0.10854407 15725040
0.79232001 0.095151588 0.10390384 14869726
0.79334289 0.10505759 0.10502301 12764092
0.7924515 0.11509481 0.10462881 11909039
0.79358613 0.1246041 0.10477269 11974576
0.78794128 -0.1822516 0.11497933 13092290
0.79100001 -0.1876971 0.11477248 10526363
0.78336358 -0.17505106 0.11499769 14671578
0.78110003 -0.16523255 0.11516428 15790316
0.78211093 -0.15496883 0.11510983 15724523
0.78192842 -0.1449457 0.11548315 15921902
0.78140008 -0.13511299 0.11521023 15790316
0.78220004 -0.12517846 0.11532781 15724522
0.78300005 -0.11889249 0.11819425 15592935
0.38500002 -0.060261857 0.11895315 12302255
0.37899998 -0.050957236 0.11887382 13420483
0.38290098 -0.054713763 0.11521111 12828600
0.37688237 -0.044781264 0.11529677 11578536
0.38036847 -0.048664588 0.11217859 13158080
0.36666667 -0.034276929 0.11509783 2501417
0.37078944 -0.039169572 0.11437833 2763560
0.36662447 -0.025301786 0.11485761 2501672
0.37562469 -0.014536182 0.11543 12434355
0.37769014 -0.0057817693 0.1154312 14211281
0.38075003 -0.0018370363 0.11242425 14606296
0.37887499 0.00045544197 0.1182798 14540763
0.38198394 0.002938655 0.11576631 13948368
0.77266675 0.058132727 0.11482912 14211283
0.77645457 0.063377909 0.11695731 14737884
0.78100008 0.068816021 0.11514844 15132386
0.78310734 0.075616226 0.11486893 14671835
0.78466684 0.084753446 0.11476722 15198438
0.78697222 0.095137611 0.11510556 15527919
0.78872734 0.10315216 0.1161206 12172215
0.7902 0.10717897 0.11379256 12040369
0.79203993 0.11521768 0.11492357 11974575
0.78806257 -0.18250361 0.12506916 13027529
0.79091662 -0.18767703 0.12494266 10264734
0.78395009 -0.17501561 0.12476124 15131617
0.78191644 -0.16540536 0.12535316 15790060
0.78199977 -0.15535417 0.12536602 15395558
0.78202921 -0.14550613 0.1251016 15789802
0.78242302 -0.13507758 0.12466025 15790058
0.78372425 -0.12526363 0.12460087 15790315
0.78480005 -0.11824717 0.12489861 15527143
0.384 -0.060328312 0.12357085 12499892
0.37833345 -0.052983396 0.12570032 13223615
0.38121429 -0.057226766 0.12393773 13092028
0.37577119 -0.045248132 0.12504771 11381155
0.36316538 -0.03442901 0.1248401 2633515
0.37050003 -0.039777957 0.12097762 2434335
0.36295253 -0.025181895 0.12480263 2764330
0.36811113 -0.019317456 0.12704317 10198165
0.37365055 -0.014458332 0.12482227 11842476
0.37500021 -0.0050460394 0.12482491 13619145
0.37731037 0.0020282913 0.12656009 14474711
0.3819367 0.0061053727 0.12464731 14146004
0.38766164 0.013563055 0.12652898 14606299
0.77800012 0.063356906 0.12435184 14211283
0.78050005 0.068250187 0.12590949 14474713
0.78261542 0.075230733 0.12476002 14343128
0.78308022 0.08458142 0.12462281 14737885
0.78590006 0.095009461 0.12507156 15462126
0.78870583 0.10376179 0.12486595 12040632
0.79016668 0.10846911 0.12482622 11908785
0.79263324 0.1153035 0.12521578 11908784
0.79279983 0.12460621 0.1252404 11908784
0.79348469 0.13456698 0.12520565 11974575
0.78833336 -0.18245016 0.13468608 13553873
0.79070002 -0.18762556 0.13509114 10461088
0.78437513 -0.1751108 0.13492759 15197669
0.78166652 -0.16535278 0.13537583 15987439
0.78199983 -0.15535417 0.13543476 15395557
0.78300017 -0.14523968 0.13526571 15658728
0.7845279 -0.13473366 0.134957 15658728
0.78559983 -0.12480357 0.13513997 15790314
0.78640002 -0.11793578 0.13558452 15658728
0.37866667 -0.060452744 0.13945295 13619401
0.38233897 -0.062870137 0.13580415 12631734
0.37749985 -0.054109883 0.13503876 13092286
0.38042861 -0.059101518 0.13280734 13289664
0.3682 -0.040910117 0.1362578 5722958
0.37492949 -0.045746297 0.13399981 11447204
0.36530688 -0.03514212 0.13450307 1449241
0.37 -0.032361772 0.13943774 923408
0.36463106 -0.024646387 0.13460644 1908505
0.37 -0.029330157 0.13943774 988688
0.36700001 -0.018462822 0.13575909 7166034
0.37379077 -0.013691607 0.13431501 10328982
0.3737376 -0.0052718399 0.1338637 11776942
0.37559047 0.0042016897 0.13333967 13553611
0.38066673 0.0093915509 0.13240579 14079954
0.38271156 0.013222774 0.13340209 13553354
0.77900004 0.060432881 0.13126785 12894654
0.78149998 0.066848315 0.13479997 14211284
0.7826553 0.075501345 0.13478905 14079956
0.78353369 0.084631577 0.13478377 14474458
0.78563887 0.0949765 0.13514405 15330024
0.78866667 0.10364808 0.13474305 11974836
0.79049999 0.10851526 0.13505626 11974578
0.79267997 0.11531002 0.13542841 11908784
0.79351991 0.12472026 0.13557392 11908784
0.78849995 -0.18248874 0.14486678 13882839
0.79154551 -0.18774223 0.14500628 10197916
0.78449994 -0.17513882 0.14505103 15395048
0.78123343 -0.16526036 0.14444861 16185074
0.78283334 -0.15460071 0.14474429 15592679
0.7850399 -0.14492926 0.14515215 15658728
0.78653312 -0.13507923 0.14542755 15724521
0.78657895 -0.12583171 0.14601767 15658728
0.78737497 -0.11667571 0.14650427 15658729
0.3784 -0.060823958 0.14065376 12894651
0.38166669 -0.063913353 0.14025734 12565941
0.37733331 -0.055237383 0.14058216 12697015
0.36208701 -0.041046869 0.14619938 5328197
0.36359704 -0.035309322 0.14615794 1120275
0.37072343 -0.03348567 0.1424426 989204
0.36533073 -0.024665363 0.14640279 1382416
0.37048566 -0.027486408 0.14370908 857359
0.36185718 -0.019004222 0.14784838 6173229
0.39800003 0.0085144462 0.14719461 7236456
0.40082353 0.0043195672 0.14901139 6447457
0.39669231 0.014198015 0.14585488 11514028
0.78100002 0.067379117 0.14527206 14014162
0.78162956 0.07507316 0.14492472 13816525
0.78308016 0.084582463 0.14478733 14079956
0.78520012 0.094925195 0.14518023 14935781
0.78864706 0.1035369 0.14462237 11909043
0.79066664 0.10822991 0.14526543 11843248
0.79343992 0.11542153 0.14484745 11843248
0.78812504 -0.18263337 0.15517625 13948374
0.79100001 -0.18788204 0.15458407 10132378
0.7845 -0.17428984 0.15508088 15527149
0.78350013 -0.16537133 0.15440689 16250613
0.7858668 -0.15519972 0.15450424 15724524
0.78744006 -0.14537367 0.15481266 15592936
0.7877667 -0.13529196 0.1548762 15724521
0.78716004 -0.12505306 0.15475641 15658728
0.7872631 -0.11536849 0.15458143 15527143
0.35900006 -0.040644348 0.15572514 1515288
0.36015388 -0.041196544 0.15245892 2107167
0.35853314 -0.03488576 0.15671362 1515032
0.36043951 -0.034669921 0.15209548 1581084
0.35859382 -0.027244568 0.15783031 1515290
0.36071065 -0.024377741 0.15402387 1580566
0.36100003 -0.019060504 0.15366325 3811366
0.39900002 -0.010145484 0.15597104 3279884
0.40000001 -0.010170911 0.15448911 6635836
0.39900002 -0.0081216739 0.15737213 5850945
0.40261531 -0.0046111681 0.15441629 6248274
0.40221211 0.0028329541 0.15254891 7105383
0.78049999 0.067858286 0.15253319 14079955
0.78187996 0.075886123 0.15452434 13750476
0.78224236 0.084990226 0.1549536 14013649
0.78519374 0.095132999 0.15472421 15000804
0.78890002 0.10275467 0.15509848 11908787
0.79200006 0.10791177 0.15536128 11909041
0.78836352 -0.18312892 0.16497573 13553357
0.79000002 -0.18785493 0.16535389 10263448
0.78581476 -0.17471485 0.16512014 15592681
0.7856552 -0.16470367 0.16479774 16250353
0.78620577 -0.15499866 0.16490456 16052973
0.78710014 -0.14531127 0.16487473 15724008
0.78755569 -0.13525577 0.16497222 15658728
0.78759998 -0.12512161 0.16498414 15724521
0.78661108 -0.11483889 0.16477537 15724521
0.78474998 -0.10767698 0.16507219 15724521
0.34465003 -0.041076932 0.16606113 1844252
0.35478264 -0.041228574 0.16430919 790797
0.34481254 -0.034762893 0.16589765 1581081
0.35542494 -0.034935929 0.16295555 1448984
0.3458463 -0.025505222 0.1658337 1515292
0.35597917 -0.027727542 0.16221352 1646621
0.78270006 0.076843686 0.16304091 13684940
0.7818749 0.085537799 0.16509824 13882576
0.78574097 0.096115552 0.16510384 14474971
0.78900003 0.10276759 0.16527653 11711663
0.79219997 0.10782312 0.16501893 11777968
0.78837502 -0.18269065 0.17506553 14342871
0.79030001 -0.1877151 0.17554019 10065557
0.78557688 -0.17431632 0.17488588 15724522
0.78478569 -0.16489737 0.17508785 16251123
0.78331274 -0.15527284 0.17485659 16053743
0.78345466 -0.14541356 0.1752007 15724265
0.78636658 -0.13504846 0.17484973 15658215
0.78788012 -0.12516661 0.17518617 15724007
0.7856428 -0.11522516 0.17494962 15724008
0.77900004 -0.10551954 0.17685919 15724008
0.78245455 -0.10865241 0.17531182 15724264
0.33680552 -0.041219033 0.17691763 1712413
0.34 -0.041438255 0.17381927 1778205
0.33761749 -0.035841346 0.17511466 1712413
0.34 -0.039289199 0.1735009 1777953
0.33798078 -0.025865287 0.17421788 1909275
0.34 -0.02376825 0.1735009 2106397
0.77813351 0.085384257 0.17653972 13948369
0.78116673 0.08696571 0.17247356 13948112
0.78507417 0.095626161 0.17496763 14409175
0.78885716 0.10393655 0.17632665 11645869
0.79071432 0.10775182 0.1736996 11712175
0.78900003 0.11107937 0.17912951 11777198
0.79241389 0.11539882 0.1750994 11711918
0.78858346 -0.18204625 0.18411219 14803421
0.79115385 -0.18709287 0.1856034 11052706
0.78586203 -0.17464951 0.18501529 15263974
0.78388906 -0.16510899 0.18490069 15987695
0.78380024 -0.15479521 0.18528993 15987951
0.78492314 -0.14476685 0.18534347 15856109
0.7867223 -0.13511065 0.18505979 15790059
0.78726679 -0.12506966 0.18518646 15658472
0.78533334 -0.1159123 0.1849027 15724264
0.78250003 -0.10851432 0.18338022 15724521
0.33204877 -0.041356955 0.18337269 1777951
0.77778578 0.087783597 0.18386707 14343126
0.78346437 0.095829368 0.18461643 14540246
0.78740001 0.10532581 0.18521419 11711662
0.78853565 0.11450939 0.18515377 11777455
0.78900003 0.12169997 0.18451677 11777198
0.79022223 0.12728469 0.18505992 11711662
0.79166669 0.13575597 0.18488319 11712175
0.78891677 -0.18166105 0.19480848 14803424
0.79152948 -0.18678847 0.19518022 11908017
0.78615999 -0.17458868 0.19504866 15263973
0.78487998 -0.16511324 0.194732 15790314
0.78430015 -0.15489534 0.19458805 15856107
0.78487998 -0.14489973 0.19473054 15856107
0.78766686 -0.13527311 0.19542257 15790059
0.78836 -0.12524325 0.19559589 15790058
0.78777277 -0.11609736 0.19545104 15790057
0.77850008 0.087731332 0.19223735 13947859
0.78100008 0.089841396 0.19376981 14408410
0.78265524 0.095655978 0.1949375 14540250
0.78568006 0.10509793 0.19493021 11711405
0.78831255 0.11340613 0.19431379 11777198
0.79036367 0.11732712 0.19693309 11711662
0.7924 0.12454676 0.19474567 11646125
0.7884286 -0.18234034 0.20510331 14605789
0.79091668 -0.1875229 0.20471305 11447982
0.7857666 -0.1744999 0.20506719 15395558
0.78566653 -0.16527788 0.20504111 15856107
0.78563863 -0.15515853 0.20503582 15921900
0.7858333 -0.14507625 0.20508687 15856107
0.78768766 -0.13579494 0.20522197 15790314
0.78878933 -0.12569954 0.20541854 15724008
0.79000002 -0.1232843 0.20339879 15724521
0.78900009 -0.11762064 0.20330924 15592935
0.78500003 0.097487189 0.20428562 14145748
0.78745824 0.10518125 0.20443664 11711406
0.79000002 0.10937075 0.20894699 11777968
0.78900003 0.11154113 0.20267956 11711405
0.79155004 0.11560982 0.20592995 11645869
0.78847057 -0.18237334 0.21473187 14606556
0.79059994 -0.1876017 0.21465857 12105912
0.78503859 -0.174199 0.21519731 15395814
0.78370023 -0.16486439 0.21553387 15856106
0.78493541 -0.1551657 0.21513319 15790057
0.78560007 -0.14503406 0.21513851 15724522
0.78573328 -0.13494262 0.21517505 15658729
0.78629178 -0.12537272 0.21394439 15592936
0.78900003 0.099996991 0.21145311 12699072
0.78900003 0.10369111 0.21052958 11580589
0.79159093 0.10613811 0.21543527 11514797
0.78850007 -0.18156561 0.22516331 14342870
0.79111767 -0.18669082 0.22471301 13224392
0.78582138 -0.17451373 0.2253177 15527144
0.78336024 -0.164793 0.22553071 15921901
0.7843715 -0.1547745 0.22503467 15856363
0.78548276 -0.14513908 0.22506376 16053742
0.78596765 -0.13513117 0.22461964 15987692
0.78605276 -0.12584481 0.22475672 15987693
0.78845459 -0.18147124 0.23488235 13619404
0.79125005 -0.18694684 0.23486173 12895685
0.78623074 -0.17474407 0.23534673 15395558
0.78577775 -0.16489217 0.23562981 15658729
0.78603566 -0.15490654 0.23530459 15592680
0.78665382 -0.14508657 0.23547341 15461350
0.78696889 -0.13538522 0.235204 15658215
0.78675008 -0.127443 0.23448513 15526885
0.78852934 -0.18260409 0.24482498 14343126
0.79083341 -0.18765716 0.24526747 12434876
0.78676009 -0.17471825 0.24492618 15395557
0.78690022 -0.16461676 0.24497038 15724521
0.7858929 -0.15409268 0.24524567 15658728
0.78493321 -0.14491126 0.24527219 15592936
0.78546661 -0.13544697 0.24470402 15658728
0.78600001 -0.1285482 0.24192978 15527142
0.7883684 -0.18294445 0.25523764 14606044
0.79042858 -0.18795712 0.25452694 11645361
0.78656667 -0.17467485 0.2549943 15526887
0.78709692 -0.1648069 0.25442311 15724521
0.78544438 -0.15440701 0.25514191 15856107
0.78280014 -0.14451921 0.25468999 15724521
0.78206241 -0.13728705 0.25490642 15724521
0.78813046 -0.18344684 0.26492572 14606044
0.79000002 -0.18838333 0.26535383 11711411
0.7858215 -0.17431305 0.26545841 15724266
0.7868529 -0.16487661 0.26440081 15921901
0.78633338 -0.15478414 0.26524657 15921901
0.78385729 -0.14464976 0.26492926 15856108
0.78237504 -0.13825789 0.26531205 15921643
0.7877 -0.18322739 0.27472278 14803168
0.79000002 -0.18838333 0.27552557 12697793
0.78340006 -0.17485458 0.27454233 15395046
0.78278112 -0.16507173 0.27432135 15856109
0.78318906 -0.15504463 0.27453041 15856109
0.77900004 -0.14928721 0.27898374 15790316
0.78197074 -0.14495811 0.27535835 16053487
0.78200006 -0.1381458 0.2723693 15856107
0.79307157 -0.19469096 0.2849476 10263449
0.78723997 -0.18492788 0.28532293 14211029
0.79000002 -0.18838333 0.28107378 12829378
0.7816667 -0.17541936 0.28451023 14935008
0.77881831 -0.16267854 0.28820035 15658731
0.78106898 -0.16576166 0.2833789 15658987
0.77737045 -0.15409906 0.28520456 15724523
0.78100002 -0.15835567 0.28152716 15790573
0.77675003 -0.1454138 0.28434232 15790315
0.79272729 -0.19553414 0.29503408 9671825
0.78638458 -0.18561615 0.29507977 13421771
0.77900004 -0.17481835 0.29357296 15592684
0.78042859 -0.17501035 0.29489437 14671838
0.77870601 -0.16402996 0.29560649 15658731
0.78000009 -0.16840279 0.29394984 15592682
0.77608836 -0.15482289 0.29520056 15658730
0.7749998 -0.14501721 0.29494342 15724523
0.77512503 -0.13856456 0.29687631 15724523
0.78661537 -0.18574087 0.30472857 12763842
0.77900004 -0.17322268 0.30269122 15593196
0.78141183 -0.17611396 0.30578208 14868962
0.77800012 -0.16548939 0.30321389 15658988
0.78083342 -0.16517824 0.30888742 15724527
0.77626324 -0.15536268 0.30325484 15790317
0.78100002 -0.15515408 0.30895337 15856113
0.77662498 -0.14485306 0.30370235 15790317
0.78133339 -0.14516002 0.30908522 15856113
0.7766667 -0.1362641 0.30314979 15724781
0.78200006 -0.13796274 0.30934897 15724527
0.78812504 -0.18390174 0.31407931 11251117
0.79016668 -0.18595719 0.3178207 10198169
0.78687501 -0.17508824 0.31473523 14013653
0.79000002 -0.17728691 0.31991127 10328988
0.78682351 -0.16487119 0.31505311 14605789
0.79000002 -0.16064227 0.31991127 10000279
0.78643769 -0.15473893 0.31467503 15198183
0.79000002 -0.15509406 0.31991127 10000279
0.7865625 -0.14486536 0.31495515 15461355
0.79000002 -0.14492233 0.31991127 9802900
0.78770006 -0.13638328 0.31529373 15790320
0.79025 -0.13432972 0.31862485 13948116
0.792 -0.12714401 0.31807348 15921906
0.78600001 0.079376325 0.36367679 10396315
0.78833336 0.084798329 0.36440626 10527901
0.79020005 0.088679962 0.36290872 10659487
0.79196876 0.094639875 0.36468071 10659487
0.7925666 0.11529147 0.36455017 10856865
0.79141682 0.12526101 0.36458528 10922658
0.79053599 0.1349576 0.36480671 10988450
0.78846157 0.087293021 0.37423739 10527901
0.78900003 0.091377355 0.37799665 10593694
0.79120833 0.095186226 0.3747313 10593694
0.79169232 0.12471613 0.37441686 10856866
0.79183996 0.13535523 0.37493479 10791587
0.78871429 0.087300546 0.38599238 10462108
0.78900003 0.091685206 0.38507703 10527901
0.79043752 0.096594781 0.38450515 10659487
0.79246652 0.11527739 0.38491195 10725280
0.78900003 0.087760195 0.39546677 10462109
0.78900003 0.091377355 0.39492807 10396316
0.79000002 0.096055046 0.39518198 10593695
0.79082376 0.10464056 0.39495081 10659488
0.79229164 0.11509839 0.39487648 10659488
0.78900003 0.088298917 0.40354767 10396574
0.78899992 0.092608728 0.40447125 10396574
0.79000002 0.097349621 0.40498385 10528160
0.7917037 0.1045997 0.40496445 10593695
0.78900003 0.0938401 0.41339865 10331294
0.79008335 0.097051747 0.4150455 10462879
0.79203439 0.10466886 0.41510403 10462622
0.79080003 0.097078085 0.42390814 10331294
0.7912001 0.10490642 0.42412138 10397087
0.7907002 0.11502092 0.42477721 10528416
0.79196787 0.12447728 0.42452928 10659489
0.79193097 0.10586502 0.43403783 10462623
0.79048014 0.11498877 0.43483707 10594209
0.79100007 0.12472088 0.43485838 10528416
0.79219979 0.13484481 0.43472388 10594209
0.79022223 0.10755107 0.44209602 10593696
0.79000002 0.11491895 0.44197193 10593696
0.79034638 0.12564471 0.44351724 10659487
