# .PCD v0.7 - Point Cloud Data file format
VERSION 0.7
FIELDS x y z rgb
SIZE 4 4 4 4
TYPE F F F U
COUNT 1 1 1 1
WIDTH 619
HEIGHT 1
VIEWPOINT 0 0 0 1 0 0 0
POINTS 619
DATA ascii
0.47166669 -0.061682086 -0.050813586 15394526
0.47017401 -0.053925324 -0.051705919 16118762
0.46900001 -0.041020736 -0.050526299 16645105
0.47018194 -0.04527764 -0.052355256 16513776
0.46899995 -0.035557192 -0.051415097 16513776
0.47000015 -0.034021113 -0.053546533 16513521
0.46900001 -0.029492391 -0.050526299 15987177
0.47140008 -0.025095453 -0.052488115 15921385
0.47531718 -0.01550356 -0.052510466 15789801
0.476625 -0.073003307 -0.041653741 13617599
0.46845454 -0.061461087 -0.042093929 15525854
0.47238716 -0.065297313 -0.045487069 15196632
0.46693444 -0.054469079 -0.043968156 16381419
0.47000015 -0.056350298 -0.048692361 16315883
0.46651855 -0.044758771 -0.044458967 16644848
0.47000003 -0.047709875 -0.049533755 16645105
0.46695068 -0.034828927 -0.044850618 16381677
0.46711671 -0.025544876 -0.043733347 16118762
0.47042871 -0.02360215 -0.048425805 15987178
0.46846154 -0.017984664 -0.04169577 15856108
0.47258079 -0.014901365 -0.045652799 15724523
0.47526678 -0.0080773048 -0.043411605 14671834
0.46900001 -0.070482053 -0.031129403 14077893
0.47375673 -0.073378496 -0.035343684 13617600
0.46596298 -0.063951522 -0.034165263 15130581
0.47146675 -0.068131804 -0.037623033 14538445
0.45885712 -0.052129202 -0.031888887 16184039
0.46233332 -0.055937339 -0.03554517 16052454
0.45795241 -0.045110613 -0.033104721 16447468
0.46136668 -0.044887997 -0.037609614 16578798
0.45755559 -0.035199858 -0.033229914 16381933
0.46176672 -0.034983948 -0.037858259 16447213
0.45856088 -0.025692532 -0.032357585 16119020
0.46204764 -0.024005348 -0.036801998 16118764
0.45900002 -0.018834636 -0.030465662 16119022
0.46518746 -0.015630746 -0.034518685 15790315
0.47071436 -0.011889055 -0.037803613 15527147
0.46900001 -0.0097295186 -0.030763423 15263970
0.4752335 -0.0063085989 -0.034996428 14671836
0.48014286 -0.0014500767 -0.036151279 13553354
0.46795836 -0.072061904 -0.025312223 13420733
0.47185713 -0.07575433 -0.023608565 12631219
0.45793542 -0.062654004 -0.023263661 14868179
0.46297723 -0.066561811 -0.026183426 14341580
0.45523092 -0.054985292 -0.024517061 15855074
0.46000001 -0.059078749 -0.029096212 15591132
0.44900006 -0.044001479 -0.021042615 16250346
0.45325977 -0.044999108 -0.025881479 16315882
0.449 -0.035066985 -0.021217801 16250347
0.45273611 -0.034959912 -0.026010307 16381931
0.44900003 -0.028234722 -0.021042615 15987175
0.4536387 -0.024788084 -0.025224838 16053482
0.45637932 -0.016221579 -0.023882644 15856363
0.46211767 -0.012511638 -0.026944499 15461349
0.46630001 -0.0082498165 -0.023606341 14540504
0.47164288 -0.0052068192 -0.026364772 14474711
0.45800003 -0.07061594 -0.010742542 12894904
0.46466669 -0.071428299 -0.016782045 13157819
0.472 -0.075355083 -0.016588695 12236974
0.45497015 -0.064420484 -0.014713924 14144457
0.461 -0.068920068 -0.017470764 13486528
0.44778681 -0.054128237 -0.013996212 15591903
0.45121059 -0.057284325 -0.017423749 15394523
0.4450317 -0.044931557 -0.01500444 16184553
0.4448317 -0.034985725 -0.015273687 16316139
0.44599995 -0.025345281 -0.014835155 16053482
0.45000002 -0.020923398 -0.018982563 16053740
0.44758624 -0.017519694 -0.012596482 15922411
0.45364451 -0.013439752 -0.015695052 15527398
0.45829415 -0.0084334463 -0.013464196 14474711
0.46342856 -0.0066590724 -0.017621201 14343382
0.47050002 -0.003151943 -0.019297186 14343638
0.50749999 -0.091465689 -0.0023952434 11974574
0.51057142 -0.094260581 -0.00087652128 11974574
0.48900002 -0.081119411 -0.0091801416 12106160
0.49569231 -0.0826796 -0.0061729555 11974575
0.50314283 -0.086668119 -0.0030497208 11974574
0.48833337 -0.078721642 -0.0080236485 11908781
0.4477317 -0.063385464 -0.0038347614 13684420
0.45162499 -0.065538868 -0.0078865057 13618114
0.43876478 -0.052001566 -0.0015308688 15328732
0.44314498 -0.055401962 -0.005411102 15065560
0.43758446 -0.044664945 -0.0031781867 15986919
0.44059262 -0.045892972 -0.0081958557 16052968
0.43705684 -0.035252068 -0.0040291254 16184811
0.44000003 -0.03422362 -0.0091030169 16250604
0.43738228 -0.025468236 -0.003127553 15922410
0.44090623 -0.024013489 -0.0078920918 15922155
0.43817651 -0.0152526 -0.00086475402 15198692
0.44320005 -0.015984531 -0.0055824658 15724779
0.45000002 -0.012495734 -0.0095014405 15264229
0.433 -0.0086463643 -0.00035821786 13094856
0.45760003 -0.0082049947 -0.0092330351 14474711
0.509 -0.090395063 0.001168596 11908781
0.51393336 -0.093315601 0.0050785756 11974317
0.50500005 -0.08407113 0.0036262602 11974317
0.51193762 -0.087921277 0.0069469744 11973804
0.43900001 -0.060835075 0.0088869715 13355713
0.44327024 -0.062935024 0.0043185875 13223869
0.43628782 -0.054307282 0.0055762916 14605522
0.44042858 -0.05862809 0.0030727661 14079178
0.42900002 -0.041539352 0.008768226 15658467
0.43257636 -0.045124102 0.004808282 15724260
0.42812002 -0.035859812 0.0089593157 15987946
0.43194446 -0.034634277 0.0041299518 16053481
0.42900002 -0.028483495 0.0090193003 15922154
0.43237653 -0.024637917 0.0048052063 15922154
0.42800003 -0.010882876 0.0079963217 13158853
0.43303841 -0.016292462 0.0053874785 15461606
0.41525003 -0.0030252817 0.0048429603 13027524
0.42511773 -0.0084159626 0.0074756434 13093575
0.43071431 -0.0089359414 0.0025717248 13028553
0.50300002 -0.07990925 0.019995334 11644839
0.43790001 -0.061828762 0.012634953 12829369
0.42735004 -0.052085239 0.017834244 14342350
0.43206257 -0.055103276 0.013851683 14013129
0.42544886 -0.044776361 0.015374847 15460831
0.43000004 -0.048179325 0.010622184 15329245
0.4239513 -0.034993418 0.01519186 15856360
0.42499983 -0.0252699 0.014934613 15790569
0.43000001 -0.021000106 0.010046963 16053486
0.4273333 -0.016565852 0.016154513 15264227
0.4300001 -0.015265322 0.012029732 15263971
0.42688888 -0.0088595552 0.011976362 13027266
0.43340006 -0.061141841 0.022806996 12368560
0.42444453 -0.053665604 0.025614593 13487041
0.43073684 -0.058293518 0.022427956 12828855
0.41760463 -0.043701176 0.027010975 15066329
0.42082357 -0.045762051 0.023081984 15000537
0.41630104 -0.034782115 0.02603366 15658724
0.42022225 -0.035225481 0.021076716 15790568
0.41677636 -0.025613675 0.026330544 15790311
0.42072427 -0.023499366 0.022022249 15856105
0.41833338 -0.018062787 0.028462524 15658983
0.42262322 -0.015488044 0.024062723 14869726
0.41670966 -0.052072674 0.036037616 13025976
0.42155561 -0.053873595 0.031339683 13158076
0.40887499 -0.041265827 0.038388282 14935001
0.41387999 -0.045179382 0.034530733 14539728
0.40812272 -0.034692641 0.038138062 15395807
0.41168252 -0.035205878 0.033065867 15461599
0.40848145 -0.0268187 0.038266305 15527653
0.41240856 -0.024320457 0.033878703 15724776
0.41460568 -0.016609453 0.034772757 15132898
0.40900001 -0.051092502 0.049770303 12434355
0.41321951 -0.052082509 0.04452179 12565682
0.4065178 -0.044010144 0.045619041 14210764
0.41109526 -0.048032612 0.042919945 13618370
0.40369982 -0.035091337 0.045077384 15263965
0.4041065 -0.025040993 0.045107327 15593190
0.41000003 -0.020023359 0.040293816 15594216
0.40611121 -0.01782432 0.045794778 15198948
0.4108462 -0.016364252 0.041189853 14936288
0.78900003 -0.13458005 0.057223335 12895676
0.79025 -0.13756853 0.056388412 12895675
0.40728572 -0.050674856 0.052145846 12368306
0.39792863 -0.042858135 0.057869978 14078408
0.40247294 -0.045128912 0.053524584 13618115
0.39650479 -0.034721076 0.055942953 15132125
0.4000589 -0.036120664 0.05105111 15132123
0.39662135 -0.025478965 0.056015875 15461605
0.40015998 -0.023438906 0.051579561 15527654
0.39785716 -0.018698262 0.057459034 15265255
0.40109521 -0.018066587 0.052426942 15133411
0.79308009 -0.1445653 0.064945236 12764091
0.78857893 -0.13412061 0.064868003 12829883
0.79000002 -0.13844942 0.064693481 12829884
0.78700006 -0.12871176 0.068132572 13027262
0.39468354 -0.043200191 0.064690031 13420994
0.40000001 -0.048563611 0.061784815 12038828
0.388643 -0.034361046 0.068434425 15132124
0.39194229 -0.035122849 0.06347622 15132124
0.38859573 -0.025964268 0.068325669 15263970
0.39213783 -0.024327138 0.063496836 15461349
0.38900003 -0.019453101 0.069192298 15593193
0.39303571 -0.018535536 0.064830378 15395558
0.78856242 -0.13335262 0.072998598 12829883
0.79079998 -0.13766469 0.076053694 12895675
0.78766674 -0.12882079 0.073722892 12895676
0.38670275 -0.04183571 0.076258294 13158078
0.39111766 -0.044148576 0.071937799 11644583
0.38477585 -0.035070088 0.075094163 11909041
0.38478336 -0.025032889 0.075096682 12172214
0.38630769 -0.0183102 0.075464815 15263970
0.39000002 -0.017220616 0.07028316 15132643
0.78866673 0.063953005 0.078738861 11316901
0.79253852 -0.18542418 0.085092001 12237746
0.78900003 -0.17336838 0.088623412 12368308
0.79239315 -0.17503692 0.084360771 12566710
0.78900003 -0.1687507 0.088623412 12500918
0.79272228 -0.13645358 0.085432425 12961468
0.38391757 -0.04368959 0.085230514 11579048
0.37829417 -0.033765282 0.08619602 2765357
0.38069636 -0.03606819 0.082832508 2831149
0.37817401 -0.025732672 0.086164393 2896175
0.38062489 -0.023655258 0.082217626 4014398
0.38354117 -0.015790453 0.085366853 14803676
0.78728002 0.064469889 0.084962234 11382694
0.78875005 0.071806952 0.088133566 11382694
0.79287511 0.075087763 0.083369404 11382439
0.78883332 -0.18194981 0.096298642 11776429
0.79049999 -0.18644714 0.094445065 11316137
0.78759998 -0.17490688 0.094915427 14605272
0.78593946 -0.16483344 0.09445864 16185330
0.78620696 -0.15504523 0.095665142 16382452
0.79000002 -0.15416935 0.090585135 15131869
0.78720003 -0.14510807 0.095787741 16448500
0.79000002 -0.14452602 0.090849333 15001052
0.7863636 -0.13530384 0.096774958 16514037
0.79000002 -0.13567531 0.090585135 14211281
0.78433341 -0.12766463 0.098502725 16448244
0.38400003 -0.050602127 0.098610416 12434097
0.37847066 -0.041259579 0.097546756 10789790
0.38209578 -0.045100782 0.094777502 12565687
0.37543887 -0.034922492 0.094887182 2699309
0.38000003 -0.03990832 0.091165498 2370088
0.3747547 -0.024972176 0.0948397 3159347
0.37805265 -0.017809615 0.096750878 13224644
0.38210416 -0.013781901 0.09445966 14737626
0.38421166 -0.0079189697 0.096166052 14277335
0.78376925 0.065884493 0.096643977 11580071
0.7872414 0.074674435 0.09547805 11514022
0.78900003 0.081988119 0.098320492 11710633
0.79169577 0.086319901 0.09480641 11776939
0.79327595 -0.19486827 0.10504919 10987427
0.78847361 -0.18326023 0.10498235 11907757
0.79000002 -0.18807511 0.10599684 10724255
0.78457147 -0.17403951 0.10524434 15197665
0.78196645 -0.16450094 0.10522349 16119537
0.78242427 -0.15493777 0.1050344 16053488
0.78278798 -0.1450147 0.10558153 16119280
0.78253353 -0.13530998 0.10529707 16119280
0.77900004 -0.12375608 0.10938401 15987695
0.78172004 -0.12645945 0.10580925 16053487
0.38412291 -0.052776746 0.10624968 12631478
0.37740818 -0.042037629 0.10558625 10262932
0.38112161 -0.04703375 0.10477875 12960186
0.36844742 -0.032930028 0.10786801 2436394
0.37184176 -0.035085529 0.10368618 2699308
0.36843756 -0.025396341 0.10797676 2436138
0.37152535 -0.024339847 0.10340811 2765360
0.37749124 -0.015022499 0.10513411 13092801
0.38011116 -0.011345782 0.10142513 14737626
0.37870839 -0.0081514632 0.10803171 14343126
0.38106972 -0.0055390508 0.1046968 14540507
0.38249999 0.00090813998 0.10911396 13093320
0.77883339 0.064370811 0.10632197 14935260
0.78211105 0.067694031 0.10432715 15132639
0.78471434 0.075379454 0.10526215 15001056
0.78817391 0.084811762 0.105376 15395558
0.79000002 0.0890273 0.10260627 15329764
0.78875005 0.092118204 0.10844482 15724782
0.79200017 0.095173836 0.10407382 15066336
0.78794122 -0.18225165 0.11497933 13027011
0.79049999 -0.18757784 0.11469994 10526877
0.78377271 -0.17514221 0.11505716 14737115
0.7816 -0.16533938 0.1152386 15658987
0.78156 -0.15526637 0.11523333 15724522
0.7816332 -0.14521807 0.1152433 15922158
0.78064013 -0.13498259 0.1150964 15790573
0.77900016 -0.12614085 0.11569664 15724779
0.78017652 -0.12372857 0.11438423 15790572
0.78100002 -0.1185888 0.11789234 15658730
0.3854 -0.060505189 0.11871529 12105388
0.37888888 -0.050928369 0.11844439 13223870
0.38287869 -0.054849893 0.11520647 12828600
0.37704697 -0.044845935 0.11517496 11578790
0.38025007 -0.048614334 0.1117546 13354690
0.36705115 -0.034116276 0.11518425 2370600
0.37089998 -0.038953088 0.1142481 2698281
0.36698031 -0.025197631 0.11509068 2501673
0.37573326 -0.014496663 0.11555722 12368820
0.37769631 -0.0058276886 0.11553203 14145746
0.38068187 -0.0019415744 0.11247353 14540506
0.37875 0.0006772129 0.11868421 14606298
0.38179028 0.0028508415 0.11575167 14014162
0.77440006 0.058263142 0.11454101 14145489
0.77778578 0.063463271 0.11545616 14671835
0.78140008 0.068851493 0.1152093 15197922
0.78311133 0.075622752 0.11505291 14737627
0.78473341 0.084761731 0.11477853 15133413
0.78748572 0.095068134 0.11531375 15659247
0.78900003 0.10184405 0.11632935 12698306
0.79117399 0.10607354 0.11439466 12106420
0.78806257 -0.18250361 0.12506916 13158599
0.79099995 -0.1876971 0.12495708 10329756
0.78404772 -0.17481817 0.12495178 15000800
0.78219354 -0.16531561 0.12471828 15724780
0.78235984 -0.15542588 0.12450927 15461607
0.78194422 -0.14527543 0.12535737 15658728
0.78141385 -0.13524178 0.12511641 15724523
0.77900004 -0.12557973 0.12032592 15922157
0.78244835 -0.12518558 0.12465117 15724779
0.78340006 -0.11895323 0.12467768 15527400
0.38433337 -0.060606588 0.1227827 12368305
0.37809649 -0.053286426 0.12578675 13223616
0.38145712 -0.057335459 0.12333663 12960442
0.37560162 -0.045227196 0.12499088 11381667
0.36330298 -0.034421001 0.12481409 2633514
0.37066665 -0.039795849 0.12146571 2696737
0.36328164 -0.025153067 0.12480155 2698795
0.36783335 -0.019398699 0.12706614 10066067
0.37346417 -0.014523632 0.12478512 11842221
0.37487602 -0.0050449567 0.12482438 13619401
0.37696731 0.0020047845 0.12624179 14474969
0.382218 0.0063708457 0.12483571 14211542
0.38678387 0.012585956 0.1262306 14408920
0.77600002 0.058383521 0.12167916 12961215
0.77866673 0.063445665 0.12179375 14342869
0.7814545 0.066944376 0.12602788 14408920
0.78274089 0.075383231 0.12497535 14408920
0.78332019 0.08460819 0.12466046 14738398
0.78636658 0.095065951 0.12514518 15396588
0.78900003 0.10184405 0.12464114 12896198
0.79143482 0.10667262 0.1248246 11843249
0.78839999 -0.18246558 0.13469781 13553359
0.79100001 -0.18769708 0.1351417 10263452
0.78444844 -0.17433581 0.13478285 15395305
0.7826553 -0.16477098 0.13510533 15856109
0.78300035 -0.15505292 0.13494135 15395557
0.78259271 -0.1448859 0.13533507 15658728
0.78353351 -0.1346238 0.13564058 15658728
0.78528124 -0.12509587 0.13485709 15790314
0.78680009 -0.11817912 0.13534741 15855850
0.37900001 -0.060209952 0.13928048 14276559
0.38220003 -0.062826499 0.13584621 12697271
0.37724131 -0.054134641 0.13510545 13157822
0.38050005 -0.059186831 0.13270508 13289662
0.36900002 -0.040480748 0.13128635 5590346
0.37476346 -0.045435138 0.13418937 11183775
0.36542854 -0.035243858 0.13374627 1580828
0.37066665 -0.034126058 0.13905284 1120788
0.36519095 -0.024184372 0.13442674 1776664
0.37075001 -0.027654624 0.13928641 922896
0.36686963 -0.01847587 0.1360139 6901321
0.3736707 -0.013665024 0.13438842 10328724
0.37344909 -0.005331479 0.13373373 11711407
0.3755385 0.0041123894 0.13343944 13422284
0.38070005 0.0093479808 0.13335331 13422540
0.38257778 0.013144613 0.13400428 13356487
0.78257132 0.066817328 0.13518578 14145748
0.7828216 0.075389631 0.13498814 14079955
0.78243339 0.084511057 0.13459279 14474714
0.78497159 0.094767593 0.13489716 15198952
0.78900003 0.10184405 0.13479999 11909302
0.79149997 0.10649348 0.13460754 11909298
0.78855556 -0.18250158 0.14487666 13948373
0.79163641 -0.18776371 0.14502096 10197916
0.7848261 -0.17461281 0.14535023 15526632
0.78281492 -0.16508509 0.14453603 16250611
0.78363359 -0.15475979 0.14489129 15592679
0.78424001 -0.1447828 0.14500378 15658472
0.78489995 -0.13479924 0.14512461 15658472
0.78555 -0.12553068 0.14579661 15724008
0.78764999 -0.11701629 0.14535558 15789544
0.37900001 -0.06091975 0.14052263 13749958
0.3806667 -0.063445479 0.14048681 12697270
0.37800002 -0.059166182 0.1406828 14407378
0.3626667 -0.041077867 0.14651944 5525577
0.37033334 -0.040915746 0.14071904 6447450
0.36393127 -0.035362329 0.14646117 1120277
0.37125874 -0.033773437 0.14235277 1054740
0.36464968 -0.024437182 0.14648274 1579026
0.3710233 -0.027392877 0.14337651 922642
0.36222225 -0.018915925 0.14770736 5581095
0.37500003 -0.013046757 0.14044414 5656389
0.40300003 -0.00081289094 0.14904378 5986908
0.40146157 0.0030181371 0.148981 6315873
0.7840668 0.067310408 0.14448236 13948369
0.78396314 0.075090639 0.14515689 13882576
0.78292012 0.084562846 0.14475904 14145748
0.78493565 0.095043577 0.14495327 15067365
0.78877783 0.10243106 0.14399552 11843508
0.79166669 0.10692753 0.14555047 11909554
0.78833336 -0.18245016 0.15498661 14277080
0.79100001 -0.18778116 0.1550048 10197659
0.78503573 -0.17414211 0.15492965 15658473
0.78413808 -0.16508234 0.15492329 16251123
0.78535485 -0.15524849 0.15458022 15790315
0.78575999 -0.14506406 0.15448289 15527142
0.78589988 -0.13497175 0.15450981 15921130
0.78608 -0.12488028 0.154544 15789545
0.78716666 -0.11583883 0.15475649 15723751
0.41228572 -0.05681305 0.15778641 7763056
0.35875005 -0.040994294 0.15606838 1186323
0.36053851 -0.041110519 0.15197197 2764075
0.35829899 -0.03473296 0.15637667 1449752
0.36061022 -0.034853 0.15190881 1581338
0.35855886 -0.027360661 0.15756652 1383961
0.36078387 -0.02428388 0.15398173 1645845
0.36100003 -0.019090055 0.15356278 3417633
0.39850003 -0.010132771 0.15530854 3346446
0.40000001 -0.010170911 0.15448913 8608856
0.39845458 -0.0077569713 0.15668975 6048583
0.40245438 -0.0045727785 0.15417436 6314324
0.40231255 0.0026858307 0.15241115 6776675
0.7852 0.067531452 0.15216537 14408920
0.78425008 0.075328231 0.15411639 13750733
0.78266692 0.084536031 0.15478678 13882321
0.7850911 0.094663367 0.15484989 14869216
0.78900003 0.1021519 0.15573336 11777969
0.79195243 0.10717283 0.15499145 11843761
0.78833336 -0.18245019 0.16513687 14474203
0.79049999 -0.18757786 0.16466543 10131864
0.78600007 -0.17475623 0.16515881 15527144
0.78542298 -0.16508475 0.16523503 16185074
0.78605694 -0.15510838 0.16479141 15921902
0.78720015 -0.14532863 0.16490017 15592936
0.78777778 -0.13529393 0.16502166 15724522
0.78724152 -0.12512943 0.16481429 15790058
0.7861715 -0.1149065 0.16455136 15789801
0.78369999 -0.10762469 0.16544697 15790057
0.41223535 -0.056635603 0.16091754 7829358
0.344125 -0.041325569 0.1669319 1975837
0.35413641 -0.041184153 0.16442008 1054738
0.34383422 -0.034921136 0.1669202 1712666
0.35507819 -0.034956507 0.16309205 1252374
0.34499994 -0.025672892 0.16681248 1646874
0.35623401 -0.027772313 0.1624473 1581086
0.36066666 -0.024086958 0.16462831 1515292
0.78125006 0.077066548 0.16273746 13619404
0.77900004 0.081860811 0.16682908 13684940
0.7812857 0.086087003 0.16476998 13948114
0.78592861 0.096130557 0.16496091 14606043
0.78900009 0.10268363 0.16485673 11842992
0.79193336 0.10778681 0.16496496 11909041
0.78846675 -0.18248104 0.17531726 14606042
0.79075003 -0.18763749 0.17489982 10197401
0.78628004 -0.17461343 0.17483126 15790059
0.78600001 -0.16534901 0.17476833 16250867
0.78599989 -0.15522879 0.17476836 16119281
0.78744006 -0.14537266 0.17508909 15658730
0.78803337 -0.13533768 0.17522052 15658730
0.78780007 -0.12515502 0.17516857 15658472
0.78511548 -0.11540087 0.17478277 15724264
0.77900004 -0.10551954 0.17321187 15789544
0.78193748 -0.10797798 0.17512362 15724264
0.33824995 -0.041215111 0.17522909 1777690
0.34023815 -0.041535724 0.17180075 1778460
0.33833346 -0.035194393 0.17411511 1712413
0.34018749 -0.034992311 0.1713559 1778459
0.33819517 -0.025902016 0.17387183 1843739
0.34072226 -0.025442323 0.17137076 1909532
0.77759272 0.084664114 0.17599609 14014161
0.78133339 0.088661633 0.17251062 14145491
0.78503716 0.095622063 0.17495997 14474456
0.78900003 0.10184405 0.17543539 11514283
0.79141188 0.10575407 0.1747729 11712176
0.78880006 -0.18181904 0.18388578 15000544
0.79113334 -0.18668008 0.18566427 11579053
0.78689998 -0.17475165 0.18510062 15395302
0.78609365 -0.16502315 0.1851411 15987696
0.78655887 -0.15506722 0.18480456 16053488
0.7876001 -0.14540264 0.18526472 15921902
0.78800005 -0.13533184 0.18535896 15790059
0.78770006 -0.12513939 0.18528813 15724266
0.78572404 -0.11575656 0.18498187 15658473
0.78300005 -0.10774261 0.18372519 15658730
0.33211622 -0.041479737 0.18324977 1778461
0.3308695 -0.035008699 0.18571293 1975584
0.3307437 -0.026614571 0.18565159 1909794
0.77547073 0.086539328 0.18428035 14211541
0.77900004 0.091434985 0.18324196 14541276
0.78476936 0.096288353 0.18495019 14343640
0.78870004 0.10272887 0.18607673 11514284
0.79135299 0.10738022 0.18434711 11646382
0.78881818 -0.18155456 0.19520356 14803166
0.79111123 -0.18648972 0.19483569 12105396
0.78644007 -0.17465 0.1951168 15395302
0.78580767 -0.16509508 0.19481888 15921900
0.78631037 -0.15513134 0.19521289 15921900
0.78660011 -0.14521785 0.19515707 15921900
0.78776675 -0.13529116 0.19544663 15790058
0.78768003 -0.12513626 0.19542612 15790058
0.78622723 -0.11603782 0.1947318 15724521
0.78366667 -0.10920981 0.19504166 15724522
0.77750003 0.088984624 0.19244692 14474460
0.78496009 0.0958165 0.19475235 14672095
0.78866661 0.10405828 0.19464487 11842991
0.79012501 0.10823218 0.19557014 11711662
0.79116678 0.11524493 0.19444007 11777198
0.79243994 0.12454994 0.19475162 11711662
0.7881875 -0.18230152 0.20512202 14671579
0.79081821 -0.18773779 0.20495445 11119016
0.78503323 -0.17433737 0.20487478 15460838
0.78499991 -0.16513687 0.2048658 15921900
0.78630555 -0.15528812 0.20520653 15987693
0.78696686 -0.14528662 0.20538065 15921900
0.78765523 -0.13587587 0.20470196 15790316
0.78799999 -0.12465881 0.20420152 15658730
0.78761542 -0.11718348 0.20321107 15658730
0.78845459 0.098753519 0.20518337 14277595
0.78900003 0.10230581 0.20267956 11514797
0.79128575 0.10646497 0.20558189 11646382
0.78841174 -0.18257701 0.21525888 14803164
0.79069996 -0.18762556 0.21468599 12040117
0.78422219 -0.1739545 0.21516979 15592679
0.78203332 -0.1645152 0.21507518 15855594
0.7825883 -0.15482272 0.21501134 15921387
0.78456676 -0.14539167 0.21570946 15856107
0.78669715 -0.13507937 0.21493515 15724523
0.78740919 -0.12584527 0.21420814 15592937
0.78900003 0.099073455 0.21191487 13948114
0.79119241 0.10526551 0.21496154 11777455
0.78850007 -0.18156561 0.22516331 14474198
0.79123539 -0.18693645 0.22529042 12829633
0.78525925 -0.17445771 0.22532664 15592938
0.78183997 -0.16447519 0.22509311 15921900
0.78196561 -0.15458745 0.22525603 15790314
0.78428566 -0.14478932 0.22527273 15987693
0.78533322 -0.13487297 0.22517723 16053486
0.78539991 -0.12536153 0.22560054 15987693
0.78839999 -0.18209635 0.23546986 13882320
0.79083329 -0.1871946 0.23462288 12632255
0.78504163 -0.1748004 0.23474252 15526631
0.78143752 -0.16473381 0.23514989 15658730
0.77900004 -0.15658183 0.23886338 15724523
0.78141946 -0.15482429 0.23464526 15592936
0.78332269 -0.14549842 0.23539492 15527143
0.78420836 -0.13559927 0.2352566 15592936
0.78314286 -0.12781824 0.23580818 15461349
0.78823537 -0.18275376 0.24527664 14539736
0.79036367 -0.1876294 0.24470195 12302776
0.78429639 -0.17431031 0.24504274 15461095
0.78174067 -0.16486114 0.24499215 15790316
0.78044009 -0.15504546 0.24478728 15724523
0.77900016 -0.14446756 0.24798159 15724521
0.78104353 -0.14490722 0.24298519 15658729
0.77818185 -0.13637826 0.24771968 15724521
0.78169996 -0.13516475 0.24243355 15724521
0.78133339 -0.12900466 0.24201739 15461350
0.78793752 -0.18224409 0.25486133 14540250
0.79049999 -0.18757784 0.25534362 12763840
0.7847693 -0.17441998 0.25511765 15395558
0.78412008 -0.16495371 0.25512028 15724522
0.7822594 -0.15520424 0.25492114 15790315
0.77858835 -0.14427714 0.25428411 15790315
0.78050011 -0.14793082 0.25704786 15856108
0.77738893 -0.13714927 0.25434548 15724521
0.78784221 -0.18282327 0.26525933 14671582
0.79055554 -0.18769385 0.26420408 13355980
0.78373092 -0.17432953 0.26458645 15592680
0.78309101 -0.1652358 0.26511315 15856107
0.78246433 -0.15564363 0.26498026 15856108
0.77900016 -0.14187102 0.26633975 15987693
0.78057903 -0.14689849 0.26454526 15921901
0.7790001 -0.13743348 0.26530635 15856107
0.78742862 -0.18303308 0.27489156 14737631
0.79033333 -0.18846281 0.27471516 12500670
0.78285706 -0.17490083 0.2746045 15263717
0.78193313 -0.16540881 0.27454272 15921900
0.77900004 -0.15171875 0.27837586 15856108
0.780963 -0.15548809 0.27467448 15856108
0.77819997 -0.14512758 0.27505246 15987693
0.78000003 -0.14887019 0.27082059 15921900
0.7772857 -0.13882008 0.27394962 15921900
0.7876364 -0.1848052 0.28517655 14277077
0.79000002 -0.18838333 0.28199846 13027010
0.77900004 -0.17238683 0.28870991 15593194
0.78211111 -0.17585808 0.28423208 14934751
0.77840918 -0.16466342 0.28721926 15724523
0.78094995 -0.16520105 0.28187418 15724523
0.77816677 -0.15398611 0.28589392 15790316
0.78016669 -0.15742539 0.28244528 15790316
0.77728587 -0.14551495 0.28441265 15790316
0.77700001 -0.13980907 0.28008643 16053488
0.79226094 -0.1948943 0.29518357 9737360
0.78688461 -0.18544994 0.29498404 13224390
0.77847373 -0.1736463 0.29538903 15395559
0.78142864 -0.17850032 0.29370564 13355975
0.7769261 -0.16505708 0.29501379 15658731
0.77640033 -0.15502182 0.29518867 15724523
0.77596575 -0.14519797 0.29531062 15724523
0.77575004 -0.13867642 0.29711479 15724523
0.787 -0.18495257 0.30509707 13553360
0.77854544 -0.17306 0.30284682 15527660
0.78171432 -0.17673579 0.30609941 14540510
0.77726322 -0.16533178 0.30335835 15659244
0.78016669 -0.16503604 0.3086237 15791343
0.7765556 -0.15518151 0.30325726 15724779
0.78039998 -0.1550349 0.308716 15725550
0.77646667 -0.14516626 0.30352572 15790316
0.78049999 -0.14500579 0.30875555 15856879
0.77618182 -0.13718443 0.30324936 15856109
0.78200006 -0.13796274 0.30934897 15790573
0.78827775 -0.1836683 0.31470382 11250605
0.79020005 -0.18732138 0.3174026 10066328
0.78676188 -0.17498162 0.31562296 13027269
0.78586364 -0.16481817 0.31564963 13224647
0.78572732 -0.15475449 0.31526026 13948627
0.78633338 -0.14490524 0.31580216 13816785
0.7876364 -0.13702685 0.31560367 15659245
0.79040003 -0.13481697 0.31933254 11908792
0.78900003 -0.16136247 0.32135338 10395294
0.7924211 -0.16543046 0.32568005 10659233
0.78900003 -0.15582126 0.32135338 10066330
0.79216677 -0.15469435 0.32625115 10593439
0.79254538 -0.14496523 0.32541654 10527391
0.79100001 0.078029521 0.35920286 10396315
0.78866673 0.07902994 0.36337313 10330523
0.79000002 0.079780273 0.36059815 10330524
0.78875005 0.083346412 0.36648941 10396314
0.78855562 0.087224513 0.37511823 10528157
0.79033333 0.089064859 0.37185061 10725021
0.78900003 0.090761669 0.37861234 10331292
0.78794128 0.086518027 0.38591513 10462109
0.78900003 0.091787815 0.38620582 10528159
0.7906667 0.095890611 0.38434601 10593695
0.78766674 0.08738178 0.39441487 10462109
0.78866655 0.095340215 0.39506847 10593695
0.79000002 0.096424915 0.3901886 10725282
0.78899986 0.10502511 0.39636472 10528416
0.79000002 0.10595647 0.39161128 10593696
0.79043353 0.11498284 0.39502722 10594208
0.7912814 0.12471494 0.39568087 10726051
0.78874058 0.094904326 0.403997 10527901
0.78900003 0.10369112 0.40216237 10593694
0.79042107 0.10592391 0.40646678 10659487
0.79056013 0.11499985 0.40527278 10659487
