# .PCD v0.7 - Point Cloud Data file format
VERSION 0.7
FIELDS x y z rgb
SIZE 4 4 4 4
TYPE F F F U
COUNT 1 1 1 1
WIDTH 879
HEIGHT 1
VIEWPOINT 0 0 0 1 0 0 0
POINTS 879
DATA ascii
0.78800005 -0.6715315 -0.41571298 9210005
0.79000002 -0.67477661 -0.4143022 9209750
0.77900004 -0.66173369 -0.41947538 9210517
0.78242862 -0.66490901 -0.4153015 9210262
0.7743333 -0.65515286 -0.41373783 10657197
0.76666671 -0.6452772 -0.41223404 12433352
0.77000004 -0.64868075 -0.41102386 12170180
0.76200002 -0.5420453 -0.41032121 14144992
0.76316667 -0.53483301 -0.41094944 14013406
0.76400006 -0.52558267 -0.41139823 14013663
0.76300001 -0.51596367 -0.41085967 14079456
0.76233339 -0.50569582 -0.41050068 14013663
0.76600003 -0.4103992 -0.4106819 15132914
0.76833338 -0.40865049 -0.41133282 14869742
0.77460009 -0.40557006 -0.41299337 13684954
0.78800005 -0.67214674 -0.40587369 9406873
0.79116672 -0.67762566 -0.40472829 9341335
0.78316671 -0.66588569 -0.40429914 9209495
0.77520007 -0.65578496 -0.40563208 12235204
0.76533335 -0.64295769 -0.40584183 12630988
0.7705 -0.64910197 -0.40497708 12498889
0.75900006 -0.63141817 -0.4087058 12367559
0.76031822 -0.63445735 -0.40456069 13420759
0.75900006 -0.62519926 -0.4087058 12894159
0.76000017 -0.6251334 -0.40390667 13486552
0.75900006 -0.61453825 -0.40826157 13092052
0.76000017 -0.61513442 -0.40355086 13355223
0.75900012 -0.60444838 -0.40534252 13223894
0.759 -0.59499311 -0.4051522 13421272
0.75900012 -0.58522052 -0.40515214 13356249
0.75899994 -0.57736146 -0.40446872 13553371
0.76000017 -0.57304311 -0.40588361 13552857
0.76036114 -0.56490916 -0.40499002 13947359
0.76094425 -0.55465436 -0.40529951 14013408
0.76145434 -0.54457253 -0.40516552 14013151
0.7633431 -0.53482985 -0.40491748 13947613
0.7641471 -0.52505219 -0.40500498 13881819
0.76353139 -0.51487088 -0.40511063 13882076
0.76323354 -0.50540131 -0.40473071 13816283
0.76300031 -0.49542251 -0.40460813 13816283
0.76281279 -0.48514485 -0.40428469 13816283
0.76199985 -0.47469336 -0.40477479 14013662
0.76099992 -0.44513223 -0.40443814 14144990
0.76099986 -0.43533388 -0.40443808 14145247
0.76103318 -0.42466307 -0.40445593 14211298
0.76261103 -0.41393435 -0.40469813 15001327
0.76783341 -0.40898308 -0.40537155 15066606
0.77389288 -0.40549722 -0.40514094 13750490
0.78496003 -0.40202418 -0.40503764 14409188
0.79300004 -0.68476689 -0.3950845 9802400
0.78689998 -0.67452556 -0.3946237 9472153
0.79000002 -0.67847544 -0.3976576 9604251
0.778 -0.66234171 -0.39416751 10525100
0.78200006 -0.66702813 -0.39546138 9340824
0.77370012 -0.65506011 -0.39579171 13288918
0.7664445 -0.64489055 -0.39456999 13683931
0.77000004 -0.64868075 -0.39840579 12433350
0.75900006 -0.63112205 -0.39152971 13420759
0.76055557 -0.63498867 -0.39549771 13683931
0.75899994 -0.62472546 -0.39283273 13683931
0.76000017 -0.62618476 -0.39759874 13683931
0.75866675 -0.61486059 -0.39392433 13552344
0.76000005 -0.61801666 -0.3985692 13486808
0.75853336 -0.60510415 -0.39567062 13552858
0.75817871 -0.59491956 -0.39564973 13684444
0.75823325 -0.58462918 -0.39586869 13618651
0.75858831 -0.57450825 -0.39516643 13750237
0.75895226 -0.56534344 -0.39353588 13816031
0.76000011 -0.56263989 -0.3976796 13881566
0.75900006 -0.55886418 -0.39152971 13750750
0.76025009 -0.55414754 -0.39539552 14079201
0.76109076 -0.54452926 -0.39498457 14013406
0.7625882 -0.53510928 -0.39457187 14079456
0.76536363 -0.5253787 -0.39551914 13947870
0.76594472 -0.51526541 -0.39541054 14013921
0.76510352 -0.50497365 -0.39482033 13882590
0.76319247 -0.49486086 -0.39502028 13882590
0.76330024 -0.48489493 -0.39493835 14013663
0.76406252 -0.47470304 -0.39449239 14013662
0.76332271 -0.46511009 -0.39517888 14013662
0.76215619 -0.45506492 -0.3954607 14013662
0.7619164 -0.44477642 -0.39511478 14013662
0.76159984 -0.43478647 -0.39495003 13882075
0.76099986 -0.42464459 -0.39463994 13882075
0.76199985 -0.41434661 -0.3948113 14671592
0.76726669 -0.40903917 -0.3950741 14803437
0.77390915 -0.40435922 -0.39487979 14079713
0.78430009 -0.40091872 -0.39698896 14869736
0.78600007 -0.39902779 -0.39270005 14869992
0.79452175 -0.39623353 -0.39491281 10988717
0.78900003 -0.68131083 -0.38237771 9670300
0.79233336 -0.68635529 -0.38553786 9868447
0.7854445 -0.67558712 -0.38474253 9407388
0.77614295 -0.66320175 -0.38445258 9538207
0.78100002 -0.66891766 -0.38764226 9669279
0.76900005 -0.65323907 -0.38168621 13617624
0.77187502 -0.65590888 -0.38604796 12959952
0.76400006 -0.64470279 -0.38492665 13289430
0.75893325 -0.63308024 -0.3849811 13552601
0.76028579 -0.6377005 -0.38549733 13684444
0.75807422 -0.62483191 -0.38494074 13552344
0.75736016 -0.6149838 -0.38477492 13486808
0.7569375 -0.60467261 -0.38489166 13487064
0.75700003 -0.59519744 -0.38547692 13552856
0.75700003 -0.58545059 -0.38547683 13552344
0.75735486 -0.57522845 -0.38494304 13750237
0.7585938 -0.56514895 -0.3850677 14013409
0.75899994 -0.55803496 -0.38525161 14013409
0.76000017 -0.55358517 -0.38484415 14145251
0.76068741 -0.54578483 -0.38501698 14145249
0.7619164 -0.53469986 -0.38515633 14210785
0.76346892 -0.5247128 -0.38491815 14079200
0.76522577 -0.51498139 -0.38507384 14211041
0.76596987 -0.50465912 -0.38458338 14276833
0.76437038 -0.49502072 -0.38594773 14145248
0.76394439 -0.48530498 -0.38543597 14211041
0.76421875 -0.47496814 -0.38501647 14079455
0.76400006 -0.46458167 -0.38514605 14013919
0.76303363 -0.45525324 -0.38497654 14145761
0.7625556 -0.44514984 -0.38473392 14276833
0.76234484 -0.43521127 -0.38478181 14079453
0.76199996 -0.42528453 -0.38485917 14013404
0.7630769 -0.41391152 -0.38506487 14606057
0.76790911 -0.40880603 -0.3852298 14935279
0.77236378 -0.40388554 -0.38472468 14277349
0.77670002 -0.3988573 -0.38460016 14541028
0.78599995 -0.39806312 -0.38477606 13751767
0.79515004 -0.39622691 -0.38507506 10791340
0.78880006 -0.68113804 -0.37489533 9472919
0.79175001 -0.68553889 -0.37537056 9802397
0.78466672 -0.67542714 -0.3756822 9472153
0.77515388 -0.66349494 -0.37426761 10590637
0.78000003 -0.66988719 -0.37527698 9669535
0.76750004 -0.65286434 -0.37464905 13814748
0.77033335 -0.65617508 -0.37693867 14406375
0.75900006 -0.64119077 -0.37228072 13552601
0.76172733 -0.64479417 -0.37547988 13091538
0.75803846 -0.63471484 -0.37474489 13486808
0.75693107 -0.62508452 -0.37551361 13486808
0.75596178 -0.61473298 -0.37521559 13421015
0.75582159 -0.6050753 -0.37508321 13618651
0.75681823 -0.59559035 -0.37488839 13552858
0.75700003 -0.58545059 -0.3748441 13552602
0.75700003 -0.57481766 -0.37484407 13815773
0.75826478 -0.56533462 -0.37520918 14079202
0.759 -0.558568 -0.37494597 14342372
0.76014829 -0.55331582 -0.37478817 14276580
0.76108319 -0.54465842 -0.37508419 14211042
0.76216644 -0.53472793 -0.37561804 14079199
0.76296175 -0.52507406 -0.37497962 14144992
0.76319373 -0.5149985 -0.37534696 14210785
0.76396012 -0.50509393 -0.37489426 14276578
0.76435715 -0.49515349 -0.37490982 14211041
0.76371878 -0.48538661 -0.37515441 14539749
0.76300025 -0.47488117 -0.37513569 14211039
0.76300031 -0.46505696 -0.37513572 14211039
0.76300025 -0.45523292 -0.37513572 14079197
0.76300031 -0.44540903 -0.37513569 14145246
0.76262075 -0.43481532 -0.37550315 14211039
0.76216662 -0.42476085 -0.37490505 14145246
0.76328194 -0.41448036 -0.37531847 14671593
0.76809096 -0.40873936 -0.37534964 14868972
0.77233344 -0.403815 -0.37473646 14145761
0.78600007 -0.40013298 -0.37208927 14147040
0.77663636 -0.39890689 -0.37506059 14014941
0.78566664 -0.39901295 -0.37615904 14212577
0.7941668 -0.39790699 -0.37495989 10659754
0.79530001 -0.69587511 -0.36495325 9934239
0.78850007 -0.68226373 -0.3650606 9538711
0.79100001 -0.68651068 -0.36552423 9539225
0.77900004 -0.67085195 -0.36111847 9669531
0.78416675 -0.67622137 -0.36534658 9538200
0.77500004 -0.6645869 -0.36430469 11774908
0.76660001 -0.653355 -0.36434194 13748954
0.77066666 -0.65826315 -0.36627689 14143714
0.75900006 -0.64119077 -0.36517343 13749724
0.76130003 -0.6458081 -0.36539072 12959951
0.75757134 -0.63485473 -0.36480242 13421015
0.75617886 -0.6244567 -0.3652699 13355222
0.75539398 -0.61467272 -0.36496431 13486808
0.7560001 -0.60502774 -0.36549762 13684187
0.75708568 -0.59521222 -0.36483279 13684444
0.75759447 -0.58487904 -0.3645196 13684445
0.75756246 -0.57469028 -0.36470178 13684444
0.75799984 -0.56492972 -0.36469221 14079203
0.75880021 -0.55551869 -0.36442652 14276580
0.76000005 -0.55189073 -0.36773023 14210788
0.75900006 -0.54746282 -0.36117554 14211042
0.76034617 -0.54483879 -0.36541107 14079458
0.7610665 -0.53514475 -0.36527774 13948128
0.76155162 -0.5249427 -0.36563393 14145506
0.76206422 -0.51498479 -0.36529624 14408421
0.76264727 -0.50564152 -0.36493364 14210785
0.76353133 -0.49598902 -0.36500698 14276578
0.764 -0.48504272 -0.36475596 14473956
0.76397365 -0.47506326 -0.36459723 14408419
0.76325738 -0.46503559 -0.36545876 14408419
0.76263338 -0.4550153 -0.36513689 14211041
0.76189274 -0.44540039 -0.36567435 14144990
0.76132125 -0.43519932 -0.36520949 14013661
0.76113319 -0.42471936 -0.36530951 14211040
0.76321948 -0.41413191 -0.36500102 14803433
0.76792312 -0.40838587 -0.36469471 14803433
0.77323538 -0.40351132 -0.36509645 13948636
0.78555 -0.40100574 -0.36488533 14080476
0.77700001 -0.39992189 -0.36837667 13620440
0.79491669 -0.39890018 -0.36523315 11777720
0.79423535 -0.69545823 -0.35505566 10065824
0.78787506 -0.68333733 -0.35554928 9473177
0.79040003 -0.68807065 -0.35530248 9736348
0.77900004 -0.67176378 -0.35473567 9472411
0.78283334 -0.67659789 -0.35464692 9669788
0.7743637 -0.66537893 -0.35484666 10853550
0.76640004 -0.65461874 -0.35528082 13682904
0.77000004 -0.65949631 -0.35243991 14143455
0.75870007 -0.6418258 -0.35437259 13684187
0.76108336 -0.64710915 -0.35548654 13486551
0.75770372 -0.63457817 -0.35518715 13421016
0.75708562 -0.62463528 -0.35526249 13684188
0.75720596 -0.61454433 -0.3553403 13749980
0.75751501 -0.60495228 -0.35583225 13750237
0.75793743 -0.59526885 -0.35523552 13816285
0.75799996 -0.58444947 -0.35493249 13684699
0.75800002 -0.57468975 -0.35493255 13684443
0.75732142 -0.56474048 -0.35480556 14145249
0.75803322 -0.5550158 -0.354949 14210786
0.75889665 -0.54547322 -0.35449508 14079456
0.76000005 -0.54121566 -0.35883436 14013663
0.759 -0.53813446 -0.35184717 14145249
0.76011556 -0.53440768 -0.35606039 14145507
0.76052934 -0.52560294 -0.35501879 14474471
0.7610907 -0.51580596 -0.35508445 14474470
0.76224977 -0.50541776 -0.35480332 14342627
0.7632705 -0.49542767 -0.35479361 14211040
0.76403236 -0.48515779 -0.35435605 14474213
0.76433331 -0.47498173 -0.3543888 14342627
0.76332015 -0.46507418 -0.35513741 14474212
0.76170355 -0.45485711 -0.35468653 14474212
0.76099986 -0.44500935 -0.35529304 14276834
0.76099986 -0.43533388 -0.35544664 14079454
0.76099986 -0.42464465 -0.35544664 14211040
0.76307887 -0.41428128 -0.35491177 14803432
0.76784617 -0.40848351 -0.35525608 14672103
0.77374297 -0.40444648 -0.35489932 14080478
0.7857917 -0.40198669 -0.354835 14277853
0.79200006 -0.40022609 -0.35138512 9869210
0.79547358 -0.39903361 -0.35532117 11185325
0.79412508 -0.69503456 -0.34489095 9933727
0.78762507 -0.68450379 -0.34414324 9406872
0.79000002 -0.68772244 -0.34864837 9472665
0.77700001 -0.67094857 -0.34473184 9406363
0.78220004 -0.67727005 -0.34429279 9670045
0.77290004 -0.66469544 -0.34472194 12695499
0.76500005 -0.65422148 -0.34447917 13354196
0.77000004 -0.65949631 -0.34973603 13880283
0.75846678 -0.64227974 -0.344616 13618137
0.76050001 -0.64750236 -0.34601533 13551574
0.75799996 -0.63502246 -0.34517282 13684444
0.75799984 -0.62526292 -0.34517276 14013409
0.75838894 -0.6149317 -0.34534955 13947359
0.75799996 -0.60485613 -0.34517279 13816029
0.75799984 -0.59509635 -0.34517285 13881820
0.75799984 -0.58444953 -0.34517276 13684698
0.75786662 -0.57458919 -0.34511179 13816028
0.75700003 -0.56507087 -0.34471747 14013663
0.75755554 -0.55572993 -0.34497046 14211043
0.75845462 -0.54597807 -0.34497583 14079458
0.75900012 -0.53546917 -0.34473982 14342372
0.75899994 -0.52747345 -0.34378305 14540007
0.76000017 -0.52345884 -0.34592664 14605800
0.76079404 -0.51515156 -0.34492561 14605799
0.76247054 -0.50599688 -0.34516016 14276834
0.76251847 -0.49560696 -0.34475198 14145248
0.76132143 -0.48510283 -0.34382215 14342626
0.76127577 -0.47460678 -0.34411529 14408420
0.76129156 -0.46483266 -0.34526205 14408419
0.7607407 -0.45527026 -0.34572944 14473955
0.7603572 -0.44532806 -0.34516689 14473955
0.76097131 -0.43519017 -0.34487179 14605798
0.7613886 -0.42486161 -0.34493268 14343139
0.76299989 -0.41428125 -0.34504458 14541032
0.76816672 -0.40946165 -0.34590682 14541032
0.77360618 -0.4061788 -0.34484062 13949406
0.78526932 -0.40232962 -0.34507033 13751255
0.79513645 -0.3986727 -0.34473389 10922411
0.79407698 -0.69527882 -0.33550122 9801884
0.78700006 -0.68449855 -0.33534709 9406873
0.79000002 -0.68957186 -0.33200371 9604251
0.77775007 -0.67296278 -0.33504534 9603997
0.78150004 -0.67758048 -0.33482778 9669789
0.76900005 -0.66044009 -0.33668014 14078177
0.77310008 -0.66631633 -0.33503503 12038083
0.76400006 -0.65453994 -0.33430609 13157075
0.75787503 -0.64356762 -0.33502638 13683931
0.76000005 -0.64870745 -0.33451897 13946590
0.75713795 -0.63503307 -0.33491027 13684444
0.75769997 -0.62501454 -0.33528137 13947359
0.7578215 -0.61478794 -0.33552498 14013152
0.75744438 -0.60480684 -0.33497164 13881822
0.75757134 -0.59507596 -0.33541495 13882078
0.75755167 -0.58499026 -0.33521619 13816029
0.75728565 -0.57471812 -0.33490831 13816030
0.75700003 -0.56507087 -0.33497062 14013408
0.75777423 -0.55574769 -0.33514178 14079456
0.75847232 -0.54574925 -0.33473533 14013407
0.75897247 -0.53544945 -0.33495513 14342373
0.75899994 -0.52688116 -0.3350096 14605800
0.76000017 -0.52259368 -0.33534923 14605800
0.76093924 -0.51548547 -0.33531031 14540006
0.7624138 -0.50559664 -0.33552143 14342627
0.76115996 -0.49512005 -0.33503091 14408163
0.75900006 -0.48334882 -0.33111742 14474211
0.76018196 -0.48526144 -0.33565107 14408419
0.75899994 -0.47479558 -0.33219752 14474212
0.76000017 -0.4749549 -0.33743033 14540005
0.75899994 -0.46528432 -0.332302 14474211
0.76000017 -0.46482983 -0.33795869 14408418
0.75899994 -0.45563871 -0.33280969 14342625
0.76000017 -0.45522228 -0.33835104 14276831
0.75899994 -0.44624683 -0.33217505 14671333
0.76000017 -0.44454727 -0.33718774 14605541
0.76061291 -0.43525493 -0.3349615 14868713
0.76116651 -0.42473799 -0.33503312 14737641
0.76190889 -0.41393229 -0.33525178 14738411
0.76680005 -0.40938997 -0.33410162 14804203
0.77390623 -0.40618929 -0.33502892 14080480
0.78556001 -0.4032166 -0.33531636 14015198
0.79100007 -0.40074819 -0.33396477 10264482
0.79605001 -0.39881909 -0.33556476 11251376
0.79536366 -0.69713265 -0.32536954 9736093
0.78800005 -0.68598139 -0.3247067 9472410
0.79000002 -0.68957186 -0.32553083 9538201
0.77700001 -0.67276758 -0.32472143 9472413
0.78300005 -0.67979574 -0.32539588 9472156
0.77236366 -0.66612524 -0.32500246 11971776
0.76320004 -0.65456808 -0.32431227 12959695
0.75727272 -0.64400488 -0.32493812 13421274
0.75650012 -0.63464952 -0.32500902 13816029
0.75711113 -0.624529 -0.32527101 13882077
0.75735474 -0.61480743 -0.32523164 13816285
0.75708568 -0.60488611 -0.32538673 13750237
0.75700003 -0.59519744 -0.3252238 13816030
0.75700003 -0.58545059 -0.32522386 13947616
0.75677425 -0.57536137 -0.32527038 14013409
0.75609702 -0.56536716 -0.32526505 14013663
0.75655895 -0.55499989 -0.32503578 14079455
0.75723338 -0.54485852 -0.32443866 13947870
0.75806659 -0.53480923 -0.32479617 14276835
0.7588622 -0.52486551 -0.32501352 14474213
0.76000005 -0.5210517 -0.32918143 14474212
0.759 -0.51535869 -0.3227717 14474212
0.76022238 -0.51447999 -0.32739955 14474213
0.75900012 -0.50462848 -0.32189482 14474212
0.76050007 -0.5052824 -0.32699567 14342628
0.75899994 -0.49399421 -0.32369843 14276834
0.76010013 -0.4960309 -0.32815725 14342628
0.759 -0.4848294 -0.32519466 14408419
0.75874072 -0.47538859 -0.32528177 14408418
0.75821429 -0.46537322 -0.32466874 14474212
0.75786668 -0.4548313 -0.32471025 14408675
0.7585668 -0.44459549 -0.3250097 14671847
0.75899994 -0.43571278 -0.32341784 14737125
0.76000017 -0.43387222 -0.32778352 14802919
0.75900006 -0.42832622 -0.32235175 14605796
0.76021749 -0.42447853 -0.32625875 14671847
0.76077491 -0.41472125 -0.32484248 15132399
0.76575011 -0.40921712 -0.3252492 15066606
0.77364284 -0.40704781 -0.32506078 14014173
0.78550005 -0.40513203 -0.32543328 14015197
0.79268438 -0.40154296 -0.32467845 11974843
0.78783339 -0.68614417 -0.31449398 9473179
0.79000002 -0.68957186 -0.31628376 9472920
0.7762 -0.67207491 -0.31439394 9471900
0.78260005 -0.67944843 -0.31515461 9340827
0.77170008 -0.66547072 -0.31527892 12366791
0.76250005 -0.6539669 -0.31508979 13552346
0.75729173 -0.64418095 -0.31471232 13750237
0.75686115 -0.63495368 -0.31453276 13750237
0.75752771 -0.62487155 -0.31481013 13684444
0.75808328 -0.61468303 -0.31504059 13618651
0.75803334 -0.60488278 -0.31502014 13618651
0.75749999 -0.5955916 -0.31479797 13881822
0.75700003 -0.58545053 -0.31459087 13947871
0.75683337 -0.5755778 -0.31452143 13947870
0.75552964 -0.5646506 -0.31548721 14013663
0.75583893 -0.55461401 -0.31516376 14013663
0.75658071 -0.544245 -0.31513104 14013663
0.75706452 -0.53481805 -0.31476104 14145505
0.75771421 -0.52556515 -0.31476167 14211042
0.75819445 -0.51537603 -0.3150883 14342884
0.75883359 -0.50515127 -0.31535348 14342882
0.75900024 -0.49460205 -0.31542212 14276833
0.75900012 -0.48482946 -0.31542203 14276833
0.7584002 -0.47557047 -0.31517273 14211040
0.75761104 -0.46532118 -0.31484544 14342883
0.75700003 -0.45519745 -0.3145909 14408932
0.75759447 -0.44563088 -0.31495851 14606310
0.75857145 -0.43559206 -0.31511793 14671589
0.75900018 -0.42586082 -0.31564417 14605796
0.76000005 -0.42141798 -0.31405848 14671589
0.76163638 -0.41404864 -0.31448606 15000812
0.77000004 -0.41073969 -0.31007919 14211040
0.7661429 -0.40944937 -0.31697965 14803947
0.77455181 -0.40771869 -0.31515753 13751259
0.78638107 -0.40579668 -0.31544554 14409700
0.79470974 -0.40230536 -0.31510395 11909307
0.78700006 -0.6860339 -0.30495009 9276058
0.77675003 -0.67323494 -0.30415702 9407394
0.78150004 -0.67849344 -0.30830756 9341856
0.76840007 -0.66172355 -0.30583954 13223384
0.77266669 -0.66720676 -0.30482373 12894165
0.75900006 -0.65007496 -0.30120742 14276324
0.76155567 -0.65325576 -0.30608243 13881567
0.75725001 -0.64414501 -0.30494472 13815773
0.75700003 -0.6350708 -0.30484402 13947616
0.75773335 -0.62504143 -0.30513918 13750750
0.75888914 -0.61533594 -0.30471599 13685211
0.7589708 -0.6050036 -0.30453995 13553370
0.75811547 -0.59532428 -0.3048825 13684955
0.75700003 -0.58513415 -0.30503395 13816539
0.75700003 -0.57481766 -0.30484411 13948126
0.75645173 -0.56483316 -0.30564979 14014432
0.75622249 -0.55475366 -0.30541497 13948383
0.75634307 -0.54434377 -0.30533719 14079456
0.75700003 -0.5349443 -0.30484408 14277092
0.75746655 -0.52551973 -0.3050321 14343141
0.75799996 -0.51524425 -0.3052468 14277348
0.75887901 -0.50493932 -0.30511627 14277605
0.75900024 -0.49460208 -0.30476111 14277603
0.75900012 -0.48482949 -0.30476108 14211810
0.7586897 -0.47587433 -0.30478889 14211297
0.75733334 -0.46515062 -0.30497834 14342626
0.75696009 -0.45517331 -0.30482805 14540261
0.75716668 -0.44554809 -0.3049106 14540261
0.75851429 -0.43555921 -0.30469209 14474211
0.75900024 -0.42556691 -0.30455208 14540003
0.76000005 -0.42141798 -0.30872095 14868968
0.75900006 -0.41849443 -0.30091128 14737382
0.76223242 -0.41421962 -0.30512011 14671845
0.77085721 -0.41067988 -0.30371803 13553879
0.7747727 -0.40849927 -0.30548355 13423065
0.78552169 -0.40717888 -0.30513006 13818335
0.794963 -0.40364376 -0.30489546 11317941
0.78500009 -0.68429172 -0.29498452 9275801
0.77550006 -0.67237824 -0.29504639 10459311
0.76700002 -0.66051793 -0.29899549 12763092
0.77060002 -0.66542214 -0.29408631 13748706
0.75900006 -0.65007496 -0.29498848 14210788
0.76310009 -0.65609014 -0.29425475 13617887
0.75725007 -0.64414507 -0.29519472 13881566
0.75700003 -0.63507086 -0.29509729 14013408
0.75749993 -0.6248489 -0.29529297 13948126
0.75866669 -0.61515528 -0.29485971 13882077
0.75900012 -0.60476571 -0.29498848 13750748
0.75857162 -0.59446806 -0.29539183 13751004
0.75746655 -0.58492601 -0.29527834 13882590
0.75700003 -0.57481766 -0.29509729 13816541
0.75751513 -0.56497109 -0.29505527 14014176
0.75749999 -0.55511647 -0.29539448 14079456
0.75788581 -0.545201 -0.29556644 14013662
0.75799996 -0.53476375 -0.29548603 14145249
0.75793326 -0.5249576 -0.29546067 14276834
0.75799984 -0.51524431 -0.29548705 14342626
0.75833344 -0.50505978 -0.29521352 14408420
0.75900012 -0.49460208 -0.29498854 14276833
0.759 -0.48482949 -0.29498845 14343139
0.75888896 -0.47554716 -0.29501054 14211555
0.75765711 -0.46522233 -0.29547918 14277090
0.75747055 -0.45485395 -0.29507053 14540005
0.75808334 -0.44490349 -0.29551867 14605796
0.75892603 -0.43543002 -0.29528829 14408417
0.75900012 -0.42530555 -0.29498851 14474211
0.759 -0.41819826 -0.29498845 14671590
0.76306057 -0.41368607 -0.29493934 14277089
0.77282363 -0.4112823 -0.29407597 13094355
0.7762 -0.40913877 -0.29676566 13291991
0.78576005 -0.40854341 -0.29515722 14147553
0.79472417 -0.40454322 -0.29501277 11646389
0.78508347 -0.68436432 -0.28490517 9276056
0.77508336 -0.67201656 -0.28490725 10985396
0.77020001 -0.66507679 -0.28491607 13814753
0.75900006 -0.65007496 -0.28521591 14276579
0.76350009 -0.65661305 -0.28511661 13617884
0.75762504 -0.64446408 -0.28469858 14013406
0.75700003 -0.6350708 -0.28446442 14145249
0.75700003 -0.62443793 -0.2844643 14079456
0.75788885 -0.61452413 -0.2847985 13947870
0.75900024 -0.60476565 -0.28521588 13882077
0.75900012 -0.59499317 -0.28521594 13947870
0.75835299 -0.58498359 -0.28476247 14013663
0.75731242 -0.57450128 -0.28480208 13948126
0.75761098 -0.56463867 -0.28469363 14145505
0.75819999 -0.55455518 -0.28504208 14145505
0.75896794 -0.54539037 -0.28506076 14145247
0.75897247 -0.53544974 -0.28520539 14079454
0.75873524 -0.52488631 -0.28490612 14211041
0.75867736 -0.51527458 -0.28546566 14276834
0.76000005 -0.5109697 -0.28173682 14277348
0.75895834 -0.50523508 -0.28697693 14211042
0.76000011 -0.5050391 -0.28203335 14211297
0.759 -0.49460208 -0.28699282 14408420
0.76000017 -0.49525368 -0.28203335 14474468
0.75899994 -0.48535213 -0.28735852 14342627
0.76000017 -0.48368907 -0.28302759 14342627
0.75899994 -0.47444907 -0.28760067 14145249
0.76000017 -0.47520378 -0.28264922 14276833
0.75890023 -0.46522325 -0.28517774 14145247
0.75816655 -0.45501247 -0.28490227 14474211
0.75812107 -0.44473833 -0.28480479 14605797
0.75890923 -0.43551001 -0.28526241 14342624
0.75900024 -0.42530563 -0.28521591 14408675
0.75900006 -0.41879055 -0.28669664 14671848
0.76358837 -0.41577297 -0.28477961 14277603
0.7748825 -0.41216022 -0.28488544 13817308
0.78433347 -0.41022313 -0.28422797 14607849
0.78769231 -0.40882587 -0.28542492 14541798
0.79495662 -0.40640548 -0.28500861 11384246
0.78900003 -0.6905461 -0.27432451 9276309
0.78474998 -0.68430275 -0.27513927 9407127
0.77557147 -0.67282856 -0.27548954 10525354
0.78050005 -0.67945242 -0.27136976 9537945
0.76900005 -0.66404051 -0.27007115 12500170
0.77137506 -0.66677004 -0.27496633 13749212
0.75900006 -0.65007496 -0.27544335 14145250
0.76316667 -0.656326 -0.27516767 13552602
0.75725001 -0.64414489 -0.2748087 13816028
0.75642884 -0.63490736 -0.27470109 14210785
0.75690627 -0.62474751 -0.27451769 14145249
0.75816685 -0.61474973 -0.27514136 14013663
0.7589668 -0.60473895 -0.27543136 13948126
0.759 -0.59499311 -0.27544338 13882590
0.75870013 -0.58499044 -0.27533504 13948639
0.75800002 -0.57468975 -0.27508044 13882846
0.7579 -0.56485558 -0.27504393 14080224
0.75836372 -0.55430549 -0.27472743 14211811
0.75900006 -0.5454393 -0.27504849 14079968
0.76000005 -0.54418099 -0.27046871 14014433
0.75900018 -0.53561252 -0.27527139 13948384
0.76000005 -0.53528512 -0.27046871 13882593
0.75900012 -0.52514523 -0.27550459 14014433
0.76000011 -0.52410167 -0.27097705 14211811
0.75900006 -0.51747882 -0.27699804 14146019
0.76000017 -0.51387149 -0.27421767 14146019
0.76029426 -0.50460529 -0.27481323 14146018
0.76000017 -0.49469775 -0.27513903 14277602
0.76016682 -0.48468575 -0.27497643 14211809
0.75900006 -0.47061482 -0.27011284 14671589
0.76000017 -0.47491586 -0.27507004 14211039
0.75900012 -0.46503043 -0.27430111 14145247
0.76000005 -0.46945569 -0.27847499 13947868
0.75862497 -0.45551008 -0.27497366 14474212
0.75863647 -0.44450179 -0.27482617 14605798
0.75900012 -0.43507817 -0.27455494 14342882
0.75900018 -0.42596474 -0.2749275 14672104
0.76037508 -0.42118025 -0.27260464 14738412
0.76411545 -0.41798055 -0.27564231 14738154
0.7743333 -0.41404796 -0.27476266 13883100
0.78364706 -0.41056901 -0.2745645 14410212
0.78842866 -0.40896794 -0.27583963 14278881
0.79488009 -0.40703067 -0.27469218 11317681
0.78900003 -0.6905461 -0.26601273 9276053
0.79242861 -0.69513768 -0.26398754 9210515
0.78600001 -0.68608034 -0.26500127 9406869
0.77500004 -0.67285019 -0.26492119 10985389
0.78000003 -0.67901713 -0.26480436 9208980
0.76800001 -0.66317701 -0.26432905 12499911
0.77266669 -0.66901559 -0.26502955 13420499
0.75900006 -0.65185177 -0.26122868 13355479
0.76133341 -0.6548472 -0.26500094 13092307
0.75683343 -0.644678 -0.26491252 13552856
0.75576019 -0.63491571 -0.26542217 13947613
0.75616235 -0.62463009 -0.26522872 14013664
0.75711775 -0.61478513 -0.2650134 14079456
0.75721878 -0.60511887 -0.26504925 14013663
0.7568621 -0.59539425 -0.26544461 14014433
0.75696969 -0.58470082 -0.26558024 13948385
0.75755864 -0.57498008 -0.26495916 13948386
0.75799984 -0.56493002 -0.26532069 14146019
0.75872731 -0.55505586 -0.26517111 14277605
0.75900006 -0.54879546 -0.26478237 14277605
0.76000017 -0.54418105 -0.26513118 14014433
0.76013809 -0.53482944 -0.26450357 13948384
0.76047051 -0.52556247 -0.26461309 14146019
0.76066661 -0.5152759 -0.26447189 14211811
0.76077765 -0.50466508 -0.26451093 14080225
0.76069993 -0.49481902 -0.26448375 14277603
0.76019365 -0.4848465 -0.2650266 14343396
0.75900006 -0.47160196 -0.26379523 14145502
0.76000017 -0.47623879 -0.26568717 14408417
0.75896001 -0.46525997 -0.2647686 14079709
0.75802934 -0.45472065 -0.2650702 14342882
0.75764292 -0.44500548 -0.26488048 14408418
0.75783336 -0.43529522 -0.26437715 14343139
0.75883335 -0.42728433 -0.26442873 14475238
0.76068425 -0.42188931 -0.26508677 14738667
0.7661764 -0.4193522 -0.26538238 14541288
0.77470595 -0.41617435 -0.26524395 13620184
0.7851482 -0.41288933 -0.26470765 14015454
0.79080003 -0.41035604 -0.26328507 13949916
0.78900003 -0.40979245 -0.26878333 13686488
0.79560876 -0.40811655 -0.26540139 10988718
0.79341674 -0.69534272 -0.25449416 9210770
0.78654552 -0.68572134 -0.25463545 9210260
0.77562505 -0.67293984 -0.25423828 11907774
0.78133339 -0.67956764 -0.25610909 10394021
0.76759994 -0.6628316 -0.2552014 12434118
0.77240002 -0.66842413 -0.25499421 12697290
0.75900006 -0.65185171 -0.25500977 13421272
0.76183337 -0.65606856 -0.25417647 12565705
0.7570371 -0.64504826 -0.25484145 13092562
0.75550002 -0.63469762 -0.25560126 13618906
0.75524235 -0.62499601 -0.25511369 13816544
0.75606698 -0.6148178 -0.25490952 13948384
0.75600028 -0.60503 -0.25488672 14013920
0.754857 -0.5950923 -0.25506967 14013664
0.75402761 -0.58486718 -0.25505596 14079714
0.75629413 -0.57500726 -0.25488281 14079970
0.75784373 -0.56459111 -0.25517616 14146019
0.75880569 -0.55487102 -0.25494444 14277604
0.75900006 -0.54808474 -0.25803038 14146018
0.76009691 -0.54453701 -0.25488985 14211810
0.76081806 -0.53521311 -0.25521493 14211811
0.76099992 -0.5253002 -0.2547909 14277603
0.76099986 -0.51550204 -0.25479087 14343395
0.76096541 -0.50494391 -0.25490251 14211809
0.76057696 -0.49494505 -0.25451377 14211808
0.76002872 -0.48447004 -0.25522831 14277601
0.759 -0.47179937 -0.25500977 14211808
0.76000017 -0.47637469 -0.25534573 14211808
0.75900012 -0.46528432 -0.2550098 13948637
0.75817639 -0.45527938 -0.25452369 14080224
0.7571035 -0.44517574 -0.25507477 14211810
0.75696778 -0.43465555 -0.25504106 14146531
0.75831032 -0.42592779 -0.25462526 14409959
0.76120007 -0.42089266 -0.25592765 14738152
0.76645464 -0.41961038 -0.2533538 14211551
0.77428007 -0.41787228 -0.25553572 13224913
0.78514284 -0.41513154 -0.25499335 14212577
0.79194444 -0.41131917 -0.25495338 14146525
0.78788888 -0.68362999 -0.24657467 9276050
0.79122221 -0.6869337 -0.24370892 9276048
0.77725005 -0.67207396 -0.24658291 11513272
0.78433341 -0.67728066 -0.2439328 10592169
0.76900005 -0.66224027 -0.246668 11513529
0.77359998 -0.66601998 -0.24433351 11579322
0.75900006 -0.65007496 -0.24790244 13289687
0.76292861 -0.65420586 -0.24471566 12697549
0.75800002 -0.64381838 -0.24576086 13027026
0.76025003 -0.64758599 -0.24163617 12369097
0.75693327 -0.63501489 -0.24545285 13093075
0.75622857 -0.62483799 -0.24524978 13488089
0.75635308 -0.61479002 -0.24547403 13553883
0.75641954 -0.60519421 -0.24514426 13751261
0.75572747 -0.59521627 -0.24498266 13816797
0.75502789 -0.58451313 -0.24483435 13948384
0.75618434 -0.57452178 -0.24539767 14079969
0.7573235 -0.56463301 -0.2453208 14211811
0.75877267 -0.55621982 -0.24540606 14343140
0.76000011 -0.55200928 -0.24395904 14277603
0.76080543 -0.54564732 -0.24492997 14277090
0.76099986 -0.53509885 -0.2449926 14277603
0.76069993 -0.52509362 -0.24489744 14211810
0.75900006 -0.51148194 -0.24168353 14474982
0.76035708 -0.51563871 -0.2458041 14277603
0.75899994 -0.50475544 -0.24295272 14343139
0.76000017 -0.50544971 -0.24761321 14277603
0.759 -0.49460208 -0.24434878 14277089
0.76000005 -0.49525371 -0.24911864 14343394
0.75899994 -0.4866063 -0.24469049 14277088
0.76000017 -0.48258764 -0.24488251 14277344
0.76000017 -0.47479326 -0.24467069 14211551
0.75899994 -0.46465719 -0.24628238 13948636
0.76000017 -0.46671849 -0.2421388 14080222
0.7589668 -0.45549196 -0.24522625 14014430
0.76000005 -0.45611191 -0.24022277 14014429
0.75824147 -0.44492665 -0.24541835 13948636
0.75779408 -0.4352732 -0.24573295 14014429
0.75872725 -0.42652461 -0.24539052 14409444
0.76114291 -0.42179385 -0.2440622 14540774
0.76676929 -0.41936904 -0.24498415 14211809
0.77448148 -0.41694883 -0.24486481 13554136
0.7860952 -0.41458642 -0.2449636 15001579
0.79173344 -0.41121 -0.24469306 14277855
0.7936843 -0.68506449 -0.23443839 9079438
0.78750008 -0.67448443 -0.23554447 9144977
0.79066676 -0.67843074 -0.2332565 9079441
0.77580005 -0.66228259 -0.23649564 10855853
0.78357142 -0.6671868 -0.23351613 9474199
0.76800007 -0.65328854 -0.23705649 11448505
0.77370012 -0.65668601 -0.23386261 11579834
0.75900006 -0.64178306 -0.23931439 12566733
0.76319993 -0.64473623 -0.23479232 12040386
0.77100003 -0.6495232 -0.23106518 11909055
0.75876474 -0.63461864 -0.23763755 12698319
0.76100004 -0.6355319 -0.23251997 12237767
0.75834644 -0.62493396 -0.23648913 12698319
0.76000005 -0.62513345 -0.23162343 12764113
0.75823516 -0.61480665 -0.23522498 12698833
0.75800014 -0.6048556 -0.23515105 12961747
0.75768763 -0.59512794 -0.23494381 13488090
0.75749993 -0.58494925 -0.23499608 13619675
0.75788569 -0.57475388 -0.2351412 13619675
0.75829411 -0.56488705 -0.23545231 13882589
0.75896794 -0.55559236 -0.23496725 14014431
0.76000005 -0.55189073 -0.23785053 14277603
0.75900006 -0.54746282 -0.23146673 13752029
0.76015401 -0.54470116 -0.23541234 14014688
0.76036 -0.53553945 -0.2349975 14146530
0.75900006 -0.52036613 -0.23457618 14080479
0.76000017 -0.5263893 -0.23488522 14080737
0.75900012 -0.51491314 -0.2353114 14211809
0.75900018 -0.50565165 -0.23596434 14277345
0.76000005 -0.50281519 -0.23177168 14277601
0.75899988 -0.49492511 -0.23748372 14342881
0.76000017 -0.49474531 -0.23259772 14277088
0.75900006 -0.48779085 -0.23931439 14342880
0.76000017 -0.48442531 -0.23476253 14146014
0.76029634 -0.47458199 -0.23477846 13883100
0.7603572 -0.46490812 -0.23518495 14080480
0.75900006 -0.45551175 -0.23990668 14211808
0.76046151 -0.45529312 -0.23488945 14014686
0.75899994 -0.44431767 -0.23848523 13882843
0.76020014 -0.44573197 -0.23378964 14080224
0.75899994 -0.43548819 -0.23840319 13751257
0.76047832 -0.43429905 -0.23379341 13751772
0.75900006 -0.42885923 -0.23990668 13685466
0.76317763 -0.42451957 -0.23467033 14344164
0.77050006 -0.42092648 -0.23091534 14081505
0.76799995 -0.41956016 -0.23735772 14607847
0.77400005 -0.4168517 -0.23467931 13620183
0.78530425 -0.41442105 -0.23470806 14409185
0.79156262 -0.4110052 -0.23502699 12962250
0.7948001 -0.68539107 -0.22517359 9342356
0.78900003 -0.67022836 -0.22907145 9079956
0.79196143 -0.67509907 -0.22479519 9210770
0.78741664 -0.66381162 -0.22630216 8948371
0.79036367 -0.66617244 -0.22240196 9145234
0.77614295 -0.65307683 -0.22819065 10133416
0.7852 -0.65584457 -0.22379431 9014421
0.79000002 -0.65998143 -0.22011478 9079954
0.76800001 -0.64249998 -0.22926599 11909312
0.7740556 -0.64484501 -0.22563168 10725553
0.7828334 -0.64696807 -0.22147499 9146005
0.7652666 -0.63454002 -0.22778846 11777985
0.77400005 -0.63504672 -0.22229297 10133672
0.76396662 -0.62475091 -0.2262034 11712192
0.77375007 -0.62557465 -0.22147126 10660272
0.76254833 -0.61475557 -0.22616133 12173000
0.77220005 -0.61528265 -0.22148089 10791859
0.75900006 -0.60298884 -0.22924569 12501195
0.76272404 -0.60498536 -0.22506653 11975366
0.77166671 -0.6061244 -0.22122724 11055031
0.75900006 -0.59499311 -0.22924569 12830159
0.76300001 -0.59493917 -0.22430246 11909314
0.77180004 -0.59599417 -0.22046416 10857137
0.75900006 -0.58522052 -0.22924568 13290710
0.76266658 -0.58498442 -0.22417617 12106949
0.77100003 -0.58725327 -0.22023565 11317688
0.75900006 -0.57544792 -0.22924569 13159124
0.76285297 -0.57510757 -0.22425385 12435914
0.75900006 -0.56301016 -0.22924571 13159124
0.76154554 -0.56521994 -0.22460546 12699086
0.759 -0.55364138 -0.22811495 13619931
0.76072729 -0.55571133 -0.22337009 12962002
0.75899994 -0.54545087 -0.2265282 13422809
0.76027793 -0.54398453 -0.22379664 13225686
0.7606858 -0.53495187 -0.22471438 13093844
0.76141465 -0.52532226 -0.22462027 13225685
0.75900006 -0.51237035 -0.22924569 14080222
0.76176327 -0.51526469 -0.22434689 13423063
0.75900006 -0.50881672 -0.22924569 13948636
0.76108819 -0.50487113 -0.22484151 13620442
0.76081812 -0.49505743 -0.2254211 13686235
0.76097125 -0.48507053 -0.22551283 13554135
0.76108313 -0.47457886 -0.22541915 13422550
0.76129979 -0.46491158 -0.22548355 13685978
0.76158309 -0.4552792 -0.22556703 13619929
0.76232481 -0.4447442 -0.22471197 13685721
0.76374429 -0.43492383 -0.22522339 13357270
0.76683342 -0.42610011 -0.22568393 13489112
0.77205884 -0.42161652 -0.22436321 13686747
0.77580005 -0.41782457 -0.22568965 13817819
0.78569233 -0.41584703 -0.22506656 14081502
0.79263645 -0.41159037 -0.22430307 12370884
0.79382759 -0.67509794 -0.21464099 9474970
0.79346877 -0.66531628 -0.21445876 9277847
0.78880006 -0.65380895 -0.21941105 8948367
0.79264301 -0.65516287 -0.21402018 9343125
0.78675002 -0.64452809 -0.21874571 7960703
0.7926296 -0.64506298 -0.21335186 8422280
0.78552938 -0.63482237 -0.21853924 7632767
0.79482377 -0.63505054 -0.21373488 7633023
0.77600002 -0.62285268 -0.21984726 10002342
0.78541195 -0.62488103 -0.21883035 8554642
0.79520005 -0.62503779 -0.21531954 6317421
0.77600002 -0.61558622 -0.21984725 10463151
0.7851429 -0.61495304 -0.2186245 8687253
0.79450011 -0.61490953 -0.21566583 5594210
0.77611113 -0.60456836 -0.21906953 10199978
0.78571433 -0.6043607 -0.21760119 7962758
0.79514277 -0.60469788 -0.21502613 5725026
0.77510011 -0.59491032 -0.21868376 10923186
0.78599995 -0.59468406 -0.21715492 8751761
0.77361542 -0.58429855 -0.21875051 10725551
0.7852667 -0.58493614 -0.21695122 9277591
0.76900005 -0.57132804 -0.21966435 10659760
0.77435303 -0.57481253 -0.21830694 10791344
0.7863636 -0.57577044 -0.21658754 9541274
0.76775002 -0.56500942 -0.21930727 10857138
0.77392858 -0.56489128 -0.21757337 10462378
0.78649998 -0.56499296 -0.21637522 7830915
0.79427278 -0.5653348 -0.21470998 5528162
0.76592314 -0.5544852 -0.21878092 11778240
0.77523082 -0.55563873 -0.21711329 10133671
0.78727269 -0.55482525 -0.21650438 7962758
0.79418176 -0.5553 -0.21485449 5396577
0.76529408 -0.54511881 -0.21870576 11778499
0.77566671 -0.5448032 -0.21717656 10199978
0.78645456 -0.544375 -0.2164471 9213082
0.79474998 -0.54471207 -0.21383482 5659748
0.76530004 -0.53596741 -0.21932194 11844290
0.77399999 -0.53501266 -0.21756981 10923700
0.78636366 -0.53443784 -0.21558347 9212824
0.79307693 -0.53601307 -0.21225484 5791334
0.76733333 -0.52517968 -0.21918826 12305096
0.77417654 -0.52458113 -0.2170859 11055027
0.78605556 -0.52510679 -0.21318063 8159879
0.79050004 -0.52808356 -0.21100122 5527902
0.76785719 -0.51436818 -0.21882355 11976131
0.77384996 -0.51477963 -0.21569781 11383993
0.78512508 -0.51483768 -0.21162906 7436669
0.76646668 -0.50395066 -0.21786013 12502218
0.77400005 -0.50527835 -0.21426591 10726577
0.78543752 -0.50515968 -0.21171395 7700101
0.79000002 -0.50185734 -0.21086775 5463396
0.76456261 -0.49531674 -0.21850517 12765392
0.7736522 -0.49528611 -0.21460766 11187129
0.78616673 -0.49481627 -0.21214128 9476511
0.79100001 -0.49739856 -0.21066998 6186861
0.76500005 -0.48489779 -0.21815903 12765135
0.77378958 -0.48502085 -0.21377937 11581630
0.78510004 -0.48587513 -0.21102627 10068388
0.76491314 -0.47443217 -0.21708851 12238790
0.77333331 -0.47497097 -0.21244846 11450043
0.78125006 -0.47618276 -0.21036111 9936802
0.76510715 -0.46499425 -0.21694659 12041667
0.77280003 -0.46469519 -0.21170051 11055028
0.76560736 -0.45512146 -0.21676899 12370632
0.7725293 -0.4549582 -0.21173263 11384249
0.76657689 -0.44528335 -0.21662053 12108229
0.77294111 -0.44487631 -0.21173909 11121590
0.76788896 -0.43547818 -0.21754766 12963025
0.77287513 -0.43466067 -0.21284921 12107460
0.7802 -0.43444434 -0.21007839 12041923
0.76866674 -0.4280223 -0.21956913 13226196
0.77330011 -0.42498487 -0.21527326 12502730
0.7855714 -0.42420578 -0.2120464 12107969
0.79200006 -0.4206171 -0.21078122 10265252
0.77650005 -0.41905367 -0.21726085 12898001
0.78552943 -0.417824 -0.21745864 13029329
0.79458833 -0.41492775 -0.21487863 10594218
0.78900003 -0.51415151 -0.20875375 5791589
0.78900003 -0.48275146 -0.20875375 5199452
0.77900004 -0.47025013 -0.20975526 9870753
0.78675002 -0.47492814 -0.2090777 7633792
0.79421431 -0.4755775 -0.20667483 6054506
0.77900004 -0.4647792 -0.20975526 9936546
0.7865001 -0.46464914 -0.20901117 8029063
0.7944001 -0.46465698 -0.20658012 6120556
0.77900004 -0.45474911 -0.20975526 10529197
0.78650004 -0.45544314 -0.20901117 9805218
0.79536837 -0.45493728 -0.20592229 6580334
0.77900004 -0.44471899 -0.20975526 10989491
0.78650004 -0.44531652 -0.20901118 9541790
0.79490471 -0.44510484 -0.20561075 6449003
0.77900004 -0.43924803 -0.20975526 10528685
0.78683335 -0.4344517 -0.20909975 9344410
0.79447377 -0.43543363 -0.20637779 6514798
0.79519051 -0.42523104 -0.20834716 7633277
