# .PCD v0.7 - Point Cloud Data file format
VERSION 0.7
FIELDS x y z rgb
SIZE 4 4 4 4
TYPE F F F U
COUNT 1 1 1 1
WIDTH 1039
HEIGHT 1
VIEWPOINT 0 0 0 1 0 0 0
POINTS 1039
DATA ascii
0.78866673 -0.044980023 0.099663667 11053729
0.78800005 -0.034794472 0.099579424 10921886
0.78800005 -0.024648502 0.099579424 10461335
0.78800005 -0.013711934 0.099051692 10132626
0.78729999 -0.0052763363 0.098567888 11054242
0.78666663 0.0048595988 0.098488569 11119267
0.78790009 0.015011588 0.098643243 12829882
0.78800005 0.025159001 0.098655887 12961471
0.78800011 0.035304971 0.098655879 12369333
0.78638458 0.045565847 0.098239884 12566711
0.77644449 0.055185057 0.09912733 13948110
0.78581256 0.055095963 0.095963821 11316902
0.79264295 0.054463021 0.092211179 10658971
0.77600002 0.064741723 0.098970115 14079695
0.78539991 0.065065369 0.0949222 11710889
0.7911666 0.06446337 0.091027141 10921629
0.77670002 0.074802712 0.099059045 14079696
0.78600001 0.074643239 0.094851777 11710633
0.79075003 0.076153994 0.091133483 10921116
0.77600002 0.080183074 0.099879615 14079698
0.78573686 0.084675573 0.096672714 12895164
0.7918182 0.085863471 0.091971368 11184545
0.78766668 0.094666988 0.098060422 13420995
0.78900003 0.10184405 0.099705793 11973550
0.78766668 -0.13271469 0.1079348 13223359
0.77700001 -0.12343834 0.10873844 13881286
0.78560001 -0.12541778 0.10674945 13881543
0.76800007 -0.1130206 0.10963733 16184039
0.77454549 -0.11513619 0.10809643 14276300
0.78573328 -0.11452403 0.10492874 13355713
0.76583338 -0.10463227 0.10932803 15723488
0.77442849 -0.10502673 0.10731276 15066073
0.78591663 -0.10522663 0.10437059 13092284
0.76660001 -0.094865367 0.10943748 14670802
0.77527773 -0.095033117 0.10704135 15000537
0.78646153 -0.094348304 0.10348881 12960439
0.79124999 -0.096064001 0.10091484 11908007
0.76533341 -0.084860183 0.10925665 14473680
0.77380013 -0.084889375 0.10683719 15066073
0.78620011 -0.085021287 0.10327364 13289404
0.7647143 -0.074169576 0.10865391 14671315
0.77400011 -0.075487308 0.10650336 14802901
0.78626668 -0.075213484 0.10303656 13421248
0.76525015 -0.065142609 0.1083458 14802901
0.77410007 -0.064988747 0.10597618 14672085
0.78522217 -0.065003477 0.1028982 12829625
0.76480007 -0.055255692 0.10828273 14935000
0.77470601 -0.054797679 0.10525548 14474706
0.78650004 -0.054983664 0.10214946 12764089
0.76430768 -0.045032758 0.10800581 15132636
0.77350003 -0.045278072 0.10485674 14606035
0.78354549 -0.045104697 0.10168185 13355970
0.76472223 -0.034662202 0.10737307 14935258
0.7756111 -0.035155624 0.10345618 14276814
0.78460008 -0.034642942 0.10098653 12435382
0.76457149 -0.025065601 0.10748041 14277329
0.77518743 -0.024929332 0.10362513 14145485
0.78480005 -0.025467023 0.10101227 13290691
0.76475 -0.014968898 0.10827618 14145743
0.77412516 -0.015153927 0.10416073 13882827
0.78350002 -0.01533856 0.10084495 13159361
0.76492864 -0.0048698573 0.10753223 14277073
0.77343762 -0.0054090261 0.10339271 13619655
0.78140008 -0.0052384497 0.10057466 13093567
0.76383334 0.0047175945 0.10725123 14343123
0.77294445 0.0047743889 0.10310073 13882827
0.78000003 0.0048176418 0.10039447 13027518
0.76607144 0.014597082 0.10795056 14211537
0.77400005 0.015065916 0.10366705 14014157
0.78260005 0.01491155 0.10072911 13290691
0.76763636 0.024916383 0.10860348 14145744
0.77454162 0.024729254 0.10421798 13750986
0.78300005 0.024999358 0.1007806 13553863
0.76671427 0.035759926 0.10816942 14145743
0.77350008 0.034744281 0.10398821 13685193
0.78280002 0.035071526 0.10075486 13619399
0.76610523 0.04527308 0.10681356 14277073
0.77418751 0.044994213 0.1020207 14013903
0.78133339 0.042321187 0.10056607 13750985
0.76658326 0.054985415 0.1067398 14540245
0.77191669 0.055365801 0.10206339 14079696
0.7676667 0.064945802 0.10779107 14671574
0.77166671 0.06528344 0.10293249 14211280
0.76800007 0.073964097 0.1082237 14737110
0.77195239 0.075634062 0.1038301 14276560
0.76900005 0.081260026 0.1097801 15329247
0.77400005 0.084990494 0.10456665 14473941
0.78050005 0.088870883 0.10045882 14539734
0.77552384 0.094227016 0.10586583 14276819
0.78300005 0.096590161 0.10179711 14539477
0.77800006 0.10103206 0.1086357 15131870
0.78642857 0.10476034 0.10542625 12500662
0.79133338 0.10893809 0.10215985 11185058
0.7865715 -0.14337504 0.11596644 10065553
0.76383334 -0.13237359 0.11768087 13354688
0.77442855 -0.13520312 0.1153416 12762807
0.78528577 -0.13709851 0.11157759 12105389
0.75540006 -0.12451742 0.11764677 15196893
0.76407152 -0.12495817 0.11354233 14539219
0.77275008 -0.12525108 0.11099228 15460318
0.7486667 -0.11455633 0.11914586 15196892
0.75494736 -0.11463168 0.11613867 16052714
0.76238465 -0.115077 0.1119905 15131354
0.77200001 -0.11902948 0.11020836 15789281
0.74900001 -0.10846957 0.1191989 15986664
0.75524253 -0.10481812 0.11562733 16052455
0.76100004 -0.10486287 0.11041955 14933459
0.75634378 -0.095033713 0.11648621 15855077
0.76080006 -0.094326951 0.1111022 15065561
0.7566666 -0.08483959 0.1162787 15657441
0.76066667 -0.085822694 0.11066771 14868183
0.7571516 -0.075326212 0.11533482 15592162
0.76000005 -0.07519079 0.11027446 14737110
0.75803339 -0.064525671 0.11531053 15395552
0.76050001 -0.064734466 0.110347 14868694
0.7580002 -0.054763902 0.11530569 15329502
0.76060009 -0.05495296 0.11036152 14868694
0.75831026 -0.045174956 0.11547537 15460831
0.76057154 -0.04452059 0.11061154 14934487
0.75864995 -0.035274409 0.11629363 15263967
0.76045471 -0.034872349 0.11114912 14868952
0.75895447 -0.026404841 0.11617962 15066331
0.76007706 -0.023706373 0.11233851 14474195
0.76052779 -0.01488599 0.11480035 13948365
0.76093322 -0.005097908 0.11486209 13882572
0.76099986 0.0047002886 0.11487301 13948109
0.76116663 0.015393008 0.11489533 13816524
0.75900006 0.025121514 0.11901353 13882574
0.76131994 0.025197551 0.11402671 13355974
0.75900006 0.035116199 0.11856931 14014160
0.7608214 0.034913577 0.11369882 13619146
0.75900006 0.042889845 0.11901352 14671833
0.76066655 0.044962615 0.11432587 14013648
0.76158321 0.054626718 0.11495817 14211283
0.7632727 0.065061383 0.11545449 14276820
0.76478797 0.074956842 0.11519626 14408148
0.76704544 0.08391314 0.11602738 14342099
0.77074999 0.087083876 0.11160747 15066076
0.76900005 0.090261236 0.11788118 14210513
0.77221876 0.095161445 0.11475651 14934491
0.77653843 0.10247442 0.11518859 14605271
0.78415388 0.10743392 0.11447909 11250084
0.78822231 0.1115853 0.11621286 11119011
0.79300004 0.11672783 0.11447275 11119011
0.77600002 -0.14144577 0.12440059 9867148
0.78590912 -0.14609842 0.12456668 9867918
0.79099995 -0.14973514 0.12495708 9999760
0.75749999 -0.1309804 0.12498241 13420483
0.76418191 -0.13490368 0.12470111 12301745
0.77220005 -0.13894539 0.12469785 9867147
0.74777776 -0.12229799 0.12513176 14539477
0.75109094 -0.1271562 0.12528548 13946827
0.74663335 -0.11511893 0.12493952 14868442
0.747361 -0.10560653 0.12505953 15066078
0.74823809 -0.096012935 0.12716801 15198177
0.75060004 -0.094408751 0.12284958 14934235
0.74900001 -0.088597454 0.12913497 15263970
0.75168771 -0.084881984 0.12528647 14934749
0.75355887 -0.074520245 0.12459011 14803161
0.75509679 -0.064987577 0.12444105 14671831
0.75568593 -0.055353794 0.12480906 14408917
0.75611126 -0.04489205 0.12475356 14606039
0.75676674 -0.035185631 0.1248625 14671833
0.75844443 -0.025497328 0.12514029 14474454
0.75899994 -0.017776305 0.1257401 13684938
0.76000017 -0.013016754 0.12507394 13816267
0.75900006 -0.0024193947 0.12967452 13224387
0.76000017 -0.0052819694 0.12507972 13356229
0.75899994 0.0055763531 0.12827846 12895422
0.76000017 0.0041280123 0.12345653 13553352
0.75866687 0.015814843 0.125946 13158594
0.76000005 0.012996923 0.12154255 14013903
0.75786662 0.025083374 0.12504271 13290180
0.75750011 0.034825325 0.12498132 13356230
0.75802785 0.045497674 0.12506878 13948111
0.75843477 0.05505522 0.12633421 14013904
0.76000011 0.056163069 0.12145782 14869212
0.75886661 0.06396427 0.12799352 13816526
0.76042861 0.066028148 0.12347499 14606041
0.75900006 0.073984414 0.12967452 14013905
0.76092309 0.075200014 0.12486202 14540248
0.76241672 0.084781654 0.12514408 14802649
0.76654178 0.094087325 0.1252006 14868443
0.771375 0.098441817 0.12298507 14210772
0.77500004 0.10457819 0.12547667 12434101
0.78100008 0.10873342 0.12367895 11119266
0.78645009 0.11376288 0.12580016 11185059
0.79100001 0.11761145 0.12240976 11184804
0.78900003 0.12123821 0.12925881 11053218
0.79314286 0.12486119 0.12495746 11053474
0.77600002 -0.14144577 0.13394143 9407367
0.78627276 -0.14599825 0.13483693 9736331
0.79150003 -0.14982979 0.13244833 9670795
0.75600004 -0.13072103 0.13535435 13157311
0.76336378 -0.1345975 0.13447872 12236466
0.77280003 -0.13905336 0.13456616 9473160
0.74885714 -0.12122148 0.13420318 14342099
0.75142115 -0.12595116 0.13541603 13749705
0.74742305 -0.11503938 0.13483095 14605271
0.74734473 -0.10545392 0.13456188 14868442
0.7480666 -0.095198728 0.13481189 15065821
0.74900001 -0.08830522 0.13497972 15066591
0.75023812 -0.083056085 0.13495144 14934749
0.75111443 -0.074612238 0.13435461 14803419
0.7519356 -0.065056108 0.13476706 14606041
0.75341672 -0.055313643 0.13489223 14342869
0.75466657 -0.044804145 0.1351174 14211284
0.75672418 -0.03530566 0.13533391 14408662
0.75860006 -0.025503132 0.1349341 14540247
0.75900006 -0.019299306 0.13322818 14145489
0.76003462 -0.014723895 0.13525052 13684682
0.75900006 -0.0019751864 0.13278398 12895423
0.76000017 -0.0056844004 0.1356065 12895424
0.75900006 0.0051156916 0.13467599 12763837
0.76000005 0.00083923625 0.13814819 12763838
0.75787103 0.015466785 0.1349756 12895423
0.75656682 0.025039645 0.13545813 12763838
0.75602806 0.034757417 0.13536224 12895681
0.75655568 0.045409545 0.1354568 13421768
0.75746155 0.055080548 0.13493611 13816526
0.75816661 0.065029591 0.13485672 14013648
0.7588799 0.074861266 0.13498369 14210514
0.75899994 0.083008848 0.13575317 14276307
0.76015401 0.087717295 0.13329314 13947342
0.76179999 0.094770819 0.13460737 14013392
0.76744449 0.10145808 0.13590488 14407892
0.77319044 0.10652965 0.13442414 11514023
0.77711111 0.11183165 0.1357978 11185315
0.78331584 0.11684456 0.13469295 11119266
0.78790909 0.12409093 0.1354502 11119265
0.79014289 0.12868084 0.13314517 11053472
0.77649999 -0.14153691 0.14357001 10460054
0.786125 -0.14582428 0.14534932 9604745
0.79000002 -0.14769644 0.14421785 9736331
0.75572723 -0.1314811 0.14551741 13355204
0.7638889 -0.13566375 0.14481133 12565688
0.77100003 -0.13872947 0.14616176 12236722
0.74884611 -0.12206753 0.14573957 14013391
0.75082362 -0.12620881 0.1440957 14144977
0.74836105 -0.11450811 0.14450091 14408148
0.74879986 -0.10519713 0.14292023 14934234
0.75000006 -0.10457615 0.14815259 13750731
0.74879992 -0.095293291 0.14370932 14802648
0.75000006 -0.095446169 0.14920604 13816524
0.74899983 -0.086690217 0.14356227 14670805
0.75000006 -0.082794346 0.14600433 14342098
0.75029415 -0.07466314 0.14508115 14473941
0.75190628 -0.065212183 0.14496762 14605784
0.75332266 -0.055334464 0.14474754 14474198
0.75566667 -0.04486258 0.14502801 14605527
0.75749999 -0.035083201 0.14517424 14474454
0.75886691 -0.026342224 0.14493039 14277075
0.76000005 -0.021400435 0.14407875 14539731
0.76033336 -0.014881828 0.14503212 14144975
0.76049995 -0.0050957063 0.14506383 13026753
0.75888467 0.0060534324 0.14516506 12698045
0.76000011 0.0011357652 0.14390084 12566459
0.75760001 0.0151924 0.14463584 12698045
0.75664008 0.025042556 0.14521226 12632252
0.75696665 0.034800805 0.14527592 12698302
0.75700003 0.045435056 0.14528218 13224388
0.75772417 0.055357762 0.14468613 13816524
0.7583611 0.06504634 0.14465448 14013390
0.75863349 0.074836649 0.14470603 14276306
0.75900012 0.083634451 0.14474699 14407635
0.76000011 0.088950694 0.14509544 13881291
0.76096553 0.094542518 0.14499994 13749706
0.76722217 0.10162864 0.14425035 14210513
0.7731176 0.10661154 0.14528875 11316389
0.77716666 0.11214343 0.14278495 11119522
0.78406674 0.11650659 0.14521728 11053729
0.78822219 0.12388786 0.14440653 10987936
0.79036367 0.12758762 0.14663972 11053729
0.76900005 -0.14016984 0.15478617 12236211
0.77414286 -0.14240317 0.15426154 10262677
0.7856667 -0.14750144 0.15487021 9604490
0.79150003 -0.14982979 0.15282923 9736075
0.75578952 -0.13292412 0.15538506 12697019
0.76350003 -0.13805154 0.15501672 12302517
0.74900001 -0.12214627 0.15146187 13487561
0.75070012 -0.12506101 0.15532169 13289925
0.74890006 -0.11651944 0.15196779 13487560
0.75050002 -0.11432397 0.15640776 13553096
0.75179327 -0.10462293 0.15496609 13882318
0.75196171 -0.095019013 0.15474543 13816525
0.75193352 -0.08513017 0.15487462 14013904
0.75266677 -0.074640766 0.15502375 14079698
0.7530002 -0.064979196 0.15509121 14342868
0.75408554 -0.055337187 0.15455836 14211026
0.75652784 -0.044914611 0.15493265 14408663
0.75783324 -0.035235845 0.15519947 14540249
0.75883353 -0.025511837 0.15540388 14211284
0.75899994 -0.016253306 0.15823077 14145234
0.76000017 -0.013987211 0.15386419 14276307
0.75899994 -0.0045910794 0.15741284 13487304
0.76000017 -0.0058326651 0.15267809 13749963
0.75791669 0.0046790019 0.1552154 12961217
0.75669456 0.015301297 0.15496546 12829631
0.75596702 0.025020955 0.15481718 12632252
0.75611132 0.034761608 0.15484527 12632252
0.75608355 0.045380645 0.15483978 12895424
0.7567001 0.055160861 0.15496659 13289926
0.75713891 0.064941287 0.15505713 13421768
0.75809997 0.07478451 0.15525466 13355975
0.75890905 0.082616672 0.15509731 13882320
0.76000017 0.088072665 0.15507728 13619149
0.76261532 0.095011182 0.15508024 13750732
0.76900005 0.10106269 0.15358602 14144720
0.77452636 0.10523039 0.15503727 12894652
0.78100002 0.10995308 0.15354487 11184804
0.78650004 0.1136089 0.1547406 11119266
0.79128581 0.11801755 0.15689173 11053474
0.78672731 -0.15160678 0.16521375 9539210
0.79329419 -0.15716369 0.16458952 9539209
0.76880008 -0.14193317 0.16554363 12499895
0.77460009 -0.14554629 0.16497989 9671053
0.78100002 -0.14784215 0.16085821 9605002
0.75720006 -0.13359037 0.16482079 13552584
0.76216674 -0.13892429 0.16500813 12499895
0.75413787 -0.12498268 0.16488698 14078928
0.75309396 -0.11501358 0.16536032 13947340
0.75316685 -0.10466368 0.16482393 14210769
0.7536667 -0.095030859 0.16493276 14342356
0.7532779 -0.085283771 0.16484745 14276307
0.75341666 -0.074714966 0.16487867 14342100
0.75376666 -0.065045126 0.16495551 14473686
0.75408316 -0.055362914 0.16502337 14342613
0.75569457 -0.044865403 0.16537525 14540249
0.75688463 -0.035327859 0.16495445 14671579
0.75783324 -0.025478095 0.16495696 14342614
0.75823343 -0.014841709 0.16504332 14210516
0.75812012 -0.0050790291 0.16501904 13420742
0.7573334 0.0046760822 0.16484836 12763838
0.75638252 0.015502864 0.16526568 13026755
0.75550014 0.025003713 0.16533323 12895169
0.7542221 0.034674302 0.16505286 12763839
0.75472206 0.045299709 0.16516174 12829631
0.75606912 0.054993246 0.16530502 13487561
0.75730008 0.064955644 0.16484159 13553354
0.75836009 0.074811004 0.16507195 13619404
0.75899994 0.082202263 0.16543327 13750990
0.76000017 0.087530352 0.16427761 14277335
0.76199991 0.094794922 0.16497055 14408665
0.76787502 0.10136491 0.16534305 14737628
0.77393335 0.10558011 0.16519909 13816526
0.78000003 0.1098123 0.16795623 11119268
0.78668761 0.1128297 0.16478986 11119266
0.79240006 0.11805179 0.16505983 10987936
0.78718185 -0.15387295 0.17536503 9407882
0.7914167 -0.15799764 0.17427023 9408138
0.76749998 -0.14169316 0.17514838 12104883
0.77640003 -0.14751989 0.174817 9473420
0.78100002 -0.1496705 0.17091289 9605004
0.75757152 -0.13327459 0.17478135 13947343
0.76125008 -0.13809001 0.17461143 12368054
0.75584626 -0.12552419 0.1749368 14474455
0.75409985 -0.11538672 0.17473719 14211283
0.75399989 -0.10478076 0.17471413 14145233
0.75419992 -0.09509825 0.17476077 14276821
0.75373334 -0.085335024 0.17465264 14211027
0.75416648 -0.074789166 0.17475297 14144721
0.75491989 -0.065144978 0.17492886 14342100
0.75453317 -0.055396751 0.17483872 14078672
0.75580019 -0.044871747 0.17513162 14145491
0.75696552 -0.035073824 0.17466758 14408407
0.75741655 -0.025464172 0.17461839 14211030
0.75747222 -0.014826115 0.17463079 13947345
0.75783336 -0.0050774519 0.17471419 13092548
0.7569167 0.004673671 0.17450194 12698045
0.75609398 0.015068532 0.17486589 12829631
0.75564009 0.025009086 0.17509377 12698046
0.75469983 0.034695663 0.1748767 12829377
0.75466651 0.045295317 0.17486899 12895427
0.75557709 0.055215452 0.17487381 13290183
0.75683343 0.06491527 0.17448261 13619404
0.75766659 0.074742071 0.17467478 13948112
0.75868583 0.084484614 0.17503731 14145491
0.76000005 0.089204863 0.17076637 14211031
0.75900006 0.090864323 0.17853743 14408920
0.76099998 0.094801329 0.17501527 14540506
0.76733345 0.10174379 0.17510821 14803934
0.77400005 0.10715917 0.17492922 12040114
0.7849375 0.11407353 0.17487226 10987679
0.79099995 0.11850371 0.17429154 11053472
0.79040015 -0.16442491 0.18499878 9342600
0.78772217 -0.15485588 0.18426694 9342344
0.79000002 -0.15740581 0.18814121 9342601
0.76900005 -0.1419701 0.18178982 12039345
0.77444446 -0.14499576 0.18609704 10197653
0.78100002 -0.14967048 0.18371417 9473930
0.75758827 -0.13266562 0.18503964 14144723
0.76270002 -0.13813099 0.1847662 12895167
0.75543332 -0.12532011 0.18477336 14803163
0.75508332 -0.11553499 0.18468799 14408149
0.75586122 -0.10503933 0.18487808 14144978
0.75566673 -0.095283493 0.18483046 14276820
0.75441635 -0.085412502 0.18452454 14145492
0.75522208 -0.074892625 0.18472192 14079698
0.75680006 -0.064547405 0.18523423 13816526
0.75664514 -0.054837089 0.18492757 13750476
0.7568056 -0.044932533 0.18510896 13684686
0.75743318 -0.035217095 0.18526272 13684941
0.75797206 -0.025483757 0.18539354 13750733
0.75799984 -0.014837651 0.18540017 13882062
0.75739998 -0.005075641 0.18525286 13289926
0.75477779 0.0046583461 0.18461066 12698302
0.75419432 0.015253603 0.18446739 12632254
0.75503325 0.024989907 0.18467197 12698048
0.75427759 0.034675688 0.18448833 12895683
0.75394434 0.045250684 0.18440655 13027013
0.7536667 0.054938827 0.18433778 13224393
0.75422215 0.064691879 0.18447296 13355978
0.75633341 0.075497478 0.18499093 14013907
0.75855571 0.085287869 0.18504246 14408408
0.75900006 0.090864323 0.18297951 14803421
0.76091301 0.095278159 0.18522198 14737628
0.76722229 0.10162917 0.18456218 14803419
0.77376485 0.10680772 0.18536445 12697786
0.78516662 0.11452813 0.18510097 11053472
0.79000002 0.11861777 0.18398005 11185058
0.79316008 -0.16499929 0.1949316 9276807
0.78733337 -0.15170486 0.19493195 9342602
0.791875 -0.15708551 0.19496155 9276809
0.76900005 -0.14016984 0.19169115 12960704
0.77377784 -0.14285709 0.19559796 10526363
0.78150004 -0.14793681 0.19480999 9408395
0.75818175 -0.13222814 0.19472165 14341844
0.76260006 -0.13632797 0.19545111 13486534
0.7555517 -0.12521753 0.19526078 14868444
0.75516665 -0.11554917 0.19531372 14868700
0.75583357 -0.10503537 0.19548592 14342357
0.75597095 -0.09469647 0.19573033 14276820
0.75565636 -0.084998719 0.19522151 14408408
0.75600016 -0.074970469 0.19464616 14276821
0.75710005 -0.064446226 0.19492836 14079696
0.7578401 -0.054752056 0.1951194 13684938
0.75783336 -0.044994149 0.19511761 13750990
0.75800002 -0.035244297 0.19515979 13619147
0.75799996 -0.025484594 0.19515987 13421768
0.75796664 -0.014837193 0.19515106 13684940
0.75704008 -0.0050730109 0.19491231 13487561
0.75528586 0.0047896374 0.19522081 12698558
0.7541666 0.01525054 0.1950573 12303547
0.75399983 0.024956021 0.1950126 12369085
0.75408316 0.034668341 0.19503464 12829635
0.753389 0.045216817 0.19485499 13027268
0.7528668 0.054880574 0.19471976 13158599
0.75338894 0.064620011 0.19485551 13027014
0.75522214 0.075388245 0.19532797 13487565
0.7585001 0.085410848 0.1948781 14277080
0.76000005 0.089204863 0.19300604 14540249
0.75900006 0.090864323 0.198971 14539996
0.76100004 0.09479247 0.19488785 14671578
0.76719999 0.10154624 0.1955546 15131355
0.77394748 0.10686681 0.19478358 12763064
0.78550005 0.11491561 0.19460437 10987424
0.79000002 0.11861777 0.19877528 10987681
0.79192317 0.12432812 0.19483939 10987680
0.78800005 -0.15101197 0.20472857 9276808
0.79230434 -0.15659694 0.20512018 9145222
0.77445453 -0.14331377 0.20449954 10460570
0.78416675 -0.1484416 0.20464797 9211016
0.75682354 -0.13253245 0.20486002 14013136
0.76300007 -0.1376173 0.20553736 13223364
0.75406665 -0.12509261 0.20526567 14736858
0.7539705 -0.11557405 0.20533429 14934494
0.75476664 -0.10488494 0.20492789 14539736
0.7559337 -0.094431281 0.20524552 14473942
0.75652009 -0.08476302 0.20540562 14408406
0.75700003 -0.075071201 0.2046492 14540248
0.7570278 -0.064440489 0.20465656 14474456
0.75786662 -0.054753456 0.20488323 14277077
0.75799984 -0.045003999 0.20491953 14276821
0.75756657 -0.03522478 0.20480111 13882319
0.75736105 -0.025463019 0.20474535 13619147
0.75711107 -0.014820508 0.20467862 13553098
0.75700003 -0.0050712456 0.20464924 13421768
0.756742 0.0045300168 0.20529418 12895424
0.75533336 0.01527229 0.20508285 12566205
0.75399989 0.02495602 0.20472077 12105912
0.75523311 0.034722682 0.20505653 12566463
0.75506681 0.045318071 0.20501269 12895942
0.75436002 0.054989435 0.20482187 13224649
0.75503325 0.064760834 0.2050038 13027014
0.75549996 0.07541208 0.20512889 13026757
0.75683337 0.085291386 0.2046013 14013652
0.75861108 0.092988931 0.20616886 14276825
0.76050013 0.096682429 0.20396274 14803423
0.76469231 0.10160118 0.20514148 15132386
0.77356261 0.10709858 0.20493756 13223874
0.78417647 0.11396979 0.20502606 10856093
0.79000002 0.11861776 0.20524819 10987936
0.7871111 -0.15145729 0.21555349 9211014
0.79181248 -0.15695782 0.21463999 9145221
0.76900005 -0.1419701 0.21419419 9539211
0.77577788 -0.14564875 0.21507357 9341831
0.78100002 -0.14784215 0.21022326 9276807
0.75599998 -0.13238975 0.21473803 14341845
0.7624445 -0.1379852 0.21474774 12763068
0.7517001 -0.12470109 0.21517847 15065569
0.75228584 -0.11513098 0.21496959 15065824
0.75480545 -0.1048899 0.21465908 14802651
0.75644463 -0.094494462 0.21512535 14474456
0.75693333 -0.084810227 0.2152635 14342870
0.75700003 -0.075071201 0.2152821 14474456
0.75700003 -0.064438283 0.21528214 14342870
0.75766671 -0.054739151 0.21547037 14211027
0.75736099 -0.044966623 0.21538337 14145235
0.75700003 -0.035197802 0.21528207 14079443
0.75675011 -0.025442863 0.21521044 13553355
0.75700003 -0.014818074 0.21528213 13487818
0.75703335 -0.005071546 0.2152915 13618891
0.75666672 0.0046720942 0.21518743 13027011
0.7557224 0.015281934 0.21491928 12698302
0.75446659 0.02497053 0.21456356 12237751
0.75488889 0.034707036 0.21467981 12698047
0.75622243 0.045389533 0.21506034 12895942
0.75676668 0.055165101 0.21521635 13159114
0.75686121 0.064916946 0.21524343 13027527
0.75580561 0.075438634 0.21494228 13092805
0.75449985 0.085028499 0.21457082 13750736
0.75744444 0.093898907 0.21517788 14211544
0.76000005 0.098100737 0.21346653 14343644
0.76333332 0.10210989 0.21469539 14738146
0.7735455 0.10808169 0.2149642 12566463
0.77900004 0.11149517 0.21424405 10658464
0.78675002 0.11521736 0.21484065 10921887
0.79079998 0.11873788 0.21471336 10987679
0.78750002 -0.15091616 0.22211301 9276037
0.79304546 -0.15611814 0.22528197 9276550
0.77533334 -0.14314088 0.22593917 9670282
0.78483337 -0.1479564 0.2262622 9407110
0.75516671 -0.13161148 0.22448047 13749964
0.76288897 -0.1362808 0.22558635 12434360
0.75060719 -0.12458213 0.22507335 14671321
0.75163645 -0.11476527 0.2247137 15000030
0.75488889 -0.10490087 0.22528383 14868957
0.75673336 -0.094530515 0.22494906 14474457
0.75700003 -0.084818013 0.22502895 14342870
0.75696671 -0.075067781 0.22501889 14474200
0.75696665 -0.064435259 0.22501907 14277077
0.75711995 -0.054700222 0.2250651 14277077
0.75700003 -0.044944637 0.22502895 14079698
0.75700003 -0.035197806 0.22502893 13816270
0.75663346 -0.025438923 0.22491945 13355975
0.75700003 -0.014818074 0.22502893 13553611
0.75700003 -0.0050712456 0.22502898 13487818
0.75656682 0.004671386 0.22489974 13158853
0.75570023 0.015281067 0.22464295 12829631
0.75538468 0.025135826 0.22475336 12237238
0.75402761 0.034665331 0.22502814 12829632
0.75444436 0.045283943 0.22515075 13158598
0.75603873 0.054976456 0.22494647 13290186
0.75693333 0.064923376 0.22500892 13158600
0.75620013 0.075479023 0.22479171 12961220
0.7551924 0.084970914 0.22469623 13488078
0.75788885 0.09447936 0.2248987 13948886
0.76000005 0.099879913 0.22769992 13750994
0.7632857 0.10248552 0.2243444 14606302
0.77227283 0.10773969 0.22463647 13093065
0.77600002 0.11106579 0.22886033 10658466
0.78560007 0.11501726 0.22488229 10856095
0.79100001 0.11876792 0.22402312 10856350
0.77583337 -0.14262843 0.23577105 9867918
0.78671426 -0.14760987 0.23438498 9341830
0.79000002 -0.14954583 0.23668808 9144709
0.75525004 -0.13147761 0.23511589 13487560
0.76436371 -0.13672601 0.23469511 12763067
0.75242871 -0.12488328 0.23543492 14408664
0.75252795 -0.11514437 0.23515102 14737629
0.75347233 -0.1047065 0.23544401 14869214
0.75491172 -0.094822422 0.23407272 14606042
0.7555455 -0.085136384 0.23456407 14474199
0.75625026 -0.074995548 0.23454329 14408407
0.75741655 -0.064472415 0.23490585 14013905
0.75799996 -0.054763712 0.23508589 14079698
0.75727773 -0.044962492 0.23486191 14079698
0.75693333 -0.035194471 0.23475471 13947599
0.75694448 -0.025449108 0.23475885 13224646
0.75694442 -0.014817246 0.23475821 13422025
0.75643343 -0.0050679953 0.23459826 13356232
0.75613922 0.0046698423 0.23450814 13158853
0.75600034 0.015288267 0.23446563 12895681
0.75600034 0.024900161 0.23461819 12566459
0.7543999 0.034680817 0.2348531 12698045
0.75449985 0.045287542 0.23488437 13224134
0.75596577 0.055228684 0.23460767 13290183
0.75636137 0.064874977 0.23457654 13487562
0.75633359 0.075493962 0.23456809 13158599
0.75596571 0.085314162 0.23460665 13816274
0.75769699 0.094742768 0.23523299 14013910
0.76000005 0.099879913 0.23303743 14277081
0.76330769 0.10320468 0.23514995 14408924
0.77209091 0.10787904 0.23444194 12961221
0.77583337 0.11104193 0.23516707 10526880
0.78547072 0.11599628 0.23532677 10856096
0.79000002 0.11861777 0.23113987 10987936
0.77474999 -0.14235361 0.24571456 9079174
0.78630006 -0.14774354 0.24570116 9144965
0.79000002 -0.14954583 0.24131158 9342602
0.75587499 -0.13202854 0.24460195 13553100
0.76358342 -0.13650478 0.24485572 12303033
0.74900001 -0.12512708 0.2482508 14408664
0.75062507 -0.12503254 0.24385256 14803422
0.74900001 -0.11197642 0.24895218 14671835
0.75097066 -0.11506151 0.24495001 14737629
0.74900001 -0.10759286 0.24895218 15132386
0.75174999 -0.10452238 0.24496736 14868958
0.7531516 -0.095336974 0.24498633 14803165
0.75477755 -0.085451327 0.24468824 14605529
0.75641692 -0.075011685 0.24521931 14539993
0.75736111 -0.064468339 0.24552435 14342870
0.75713336 -0.054701943 0.24544948 14277077
0.75636131 -0.044907387 0.2452001 14144978
0.75603366 -0.035152707 0.24509515 13882319
0.75672227 -0.025440663 0.24531773 13158853
0.75658345 -0.014811511 0.24527325 13093060
0.75550002 -0.0050626015 0.2449223 13290182
0.75502759 0.0046631745 0.24476841 13290182
0.75525004 0.01527391 0.24483936 13158853
0.75563353 0.025010081 0.24496438 12566718
0.75474989 0.034697369 0.24467999 12895683
0.75472206 0.045300547 0.24466991 13290185
0.7554003 0.055065706 0.24488761 13158854
0.75577796 0.064824402 0.2450116 13027268
0.75600034 0.075461775 0.24508446 13290184
0.75593358 0.085188158 0.24506329 13816274
0.75694126 0.094842054 0.24512863 14211032
0.75900006 0.10152532 0.24516864 14474205
0.76346153 0.10460052 0.24454246 14606047
0.77183336 0.10866255 0.24479233 11316396
0.77670002 0.11225877 0.24451914 10724256
0.78545457 0.1169346 0.24501739 10856351
0.78900003 0.12068409 0.24710143 10856094
0.79134488 0.12565619 0.2450718 10790558
0.7731539 -0.14204438 0.25530717 9013123
0.78436369 -0.14764804 0.25469244 9144964
0.75650007 -0.13287461 0.25469086 13421512
0.76209092 -0.13631772 0.25508443 12763325
0.74883348 -0.1250997 0.25503206 14408407
0.74811769 -0.11472946 0.2545805 14737628
0.74825799 -0.10530899 0.25520214 14803422
0.75000006 -0.10159135 0.25104031 14803421
0.74900001 -0.099702463 0.258596 14802909
0.75164717 -0.095392488 0.25485 14868957
0.75399989 -0.085363276 0.25502598 14934494
0.75596797 -0.075110309 0.254978 14803421
0.75659269 -0.06489557 0.25481999 14342870
0.75572431 -0.055027694 0.25509089 14211284
0.7544443 -0.044794071 0.2551752 14013905
0.75436652 -0.035074819 0.25514862 13816525
0.75578797 -0.025648972 0.25522786 13356230
0.75683337 -0.014815476 0.255099 13158851
0.75608015 -0.0050657378 0.2548461 13224390
0.75512493 0.0048832539 0.25485563 13224646
0.75436091 0.015254244 0.25514922 13092803
0.75436664 0.024968941 0.25515109 12829889
0.75491637 0.034706336 0.25533736 12829634
0.75438863 0.045277361 0.25515819 13224648
0.75403321 0.054965783 0.25503793 13290184
0.75458318 0.064722687 0.25522211 13158854
0.75560015 0.075296186 0.25543982 13224392
0.75628018 0.085228436 0.25491309 13750736
0.75771868 0.095369786 0.25506544 14013652
0.75900006 0.10152533 0.25227597 14342617
0.76284623 0.10410456 0.25547343 14474203
0.77079999 0.10851707 0.25439453 11250601
0.77575004 0.11239307 0.25693327 10790047
0.78408337 0.11681444 0.25510433 10856094
0.78899992 0.12270498 0.25540239 10790302
0.79000002 0.12800707 0.25447077 10790302
0.79153585 0.13572687 0.25508088 10724766
0.77400005 -0.1423531 0.26432404 9078660
0.7842223 -0.14763953 0.26555204 9144708
0.75600004 -0.13249084 0.26455083 13749964
0.76260006 -0.13632843 0.26507413 12302264
0.74771416 -0.12478904 0.26522693 14342357
0.75000006 -0.12968357 0.26333067 13947342
0.74703324 -0.11518021 0.2649121 14868957
0.74741656 -0.10561392 0.26504752 14934494
0.748842 -0.096728429 0.26735249 15000029
0.75040001 -0.09373945 0.26346985 15065822
0.75244457 -0.085185796 0.26506692 14934493
0.75489193 -0.07493107 0.26461533 14737114
0.75606698 -0.065243743 0.26457539 14474199
0.75562882 -0.055604834 0.26454759 14211284
0.75325012 -0.044723831 0.26535195 14145491
0.75321442 -0.035209734 0.26502603 13948112
0.75566679 -0.025162507 0.26483774 13290439
0.75613916 -0.014801968 0.26460025 13092803
0.75583351 -0.0050638989 0.26449329 13224390
0.75541168 0.004456528 0.26460508 13158596
0.75446659 0.015256632 0.26489773 13158853
0.75467986 0.024979463 0.264972 13224646
0.75536662 0.034725532 0.26521453 13224390
0.75433314 0.04527352 0.26485223 13422025
0.75427991 0.054984353 0.26483423 13224904
0.75439984 0.064704522 0.2648764 13356234
0.7546773 0.075473741 0.26480135 13355722
0.75626689 0.085227139 0.26464519 13553101
0.75785303 0.094956748 0.26493919 13882323
0.76418751 0.10401389 0.26506338 14342617
0.77266669 0.10877988 0.26495937 11645102
0.77650005 0.11222967 0.26518166 10724254
0.7851001 0.11696576 0.26554391 10790302
0.78900003 0.12175128 0.2647101 10724765
0.7900002 0.1261524 0.26545659 10724509
0.78900003 0.13509119 0.26894298 10724510
0.79045463 0.13534109 0.26407543 10658717
0.78900003 0.14063238 0.26963562 10592924
0.79120708 0.14485838 0.26559579 10658717
0.77377772 -0.14204943 0.27489471 8947332
0.78530008 -0.1477401 0.2748031 9144451
0.75633341 -0.13343768 0.27440438 13157828
0.76366669 -0.13740994 0.274382 12105142
0.74702847 -0.12467301 0.27527857 14342613
0.74699986 -0.1151749 0.27539289 14606043
0.74708319 -0.10556819 0.27542323 14737629
0.74774969 -0.095159218 0.27566791 14803165
0.74843472 -0.086066507 0.27626321 14934750
0.75040001 -0.083374821 0.27248809 14934494
0.74900001 -0.078661397 0.27876034 15001057
0.75233334 -0.074311845 0.27484766 15000286
0.75409997 -0.065074429 0.27447695 14671322
0.75328225 -0.055102643 0.27465379 14342869
0.75158352 -0.044625025 0.27532202 14408662
0.75245172 -0.034926742 0.27509868 14277076
0.75527787 -0.025391383 0.27490589 13750732
0.75483328 -0.014777808 0.27474436 13290439
0.75413322 -0.0050527425 0.27449048 13355976
0.75352621 0.0048383898 0.27459332 13158596
0.75257158 0.015218929 0.27479979 13290439
0.75302857 0.024924604 0.27496791 13487818
0.75397205 0.034663107 0.27443114 13553611
0.75399983 0.045254994 0.27444291 13750736
0.75499988 0.055037878 0.27480808 13487566
0.75522226 0.064773731 0.27488875 13421771
0.75405538 0.075267702 0.27446321 13158599
0.75520009 0.085107781 0.274878 13618893
0.75752783 0.09512496 0.2751343 14145237
0.76341182 0.10390865 0.27454945 14408409
0.77200001 0.10868602 0.27557123 12500411
0.77600002 0.11189365 0.27476874 10592669
0.78520006 0.11698031 0.27476755 10790302
0.78893334 0.12424491 0.27503008 10658717
0.79000002 0.12576881 0.27564886 10658716
0.7889998 0.13509119 0.27517679 10592924
0.78899986 0.14406264 0.27596843 10592924
0.79000002 0.14672871 0.2725665 10592924
0.77450007 -0.14268504 0.28432536 8750724
0.7853334 -0.14774632 0.2849265 9013638
0.75650007 -0.13235958 0.28553259 13355462
0.76322228 -0.13653845 0.28524536 11447467
0.74742305 -0.12419247 0.28497082 14145491
0.75050008 -0.12977001 0.28371155 13355975
0.74699992 -0.11517491 0.28501093 14342615
0.74699986 -0.10555684 0.28501093 14474457
0.74743313 -0.095119901 0.28517541 14408663
0.74755859 -0.08442799 0.28460515 14606299
0.74845839 -0.075683415 0.28549322 14737885
0.75037503 -0.072217599 0.2821264 15066593
0.74900001 -0.067848623 0.28869641 15198436
0.75124264 -0.064880505 0.28433353 14803421
0.75117946 -0.055353995 0.28524899 14474713
0.74900001 -0.042190205 0.28893021 14606299
0.75058067 -0.044932332 0.28484502 14408920
0.74900001 -0.035215482 0.28850159 14145491
0.75059092 -0.034579195 0.2837435 14277076
0.74900001 -0.028688855 0.28928089 14014162
0.7518 -0.025099227 0.28481227 14211283
0.75217515 -0.014899758 0.28495458 13684940
0.75200009 -0.0048737312 0.28465968 13487561
0.75117505 0.0044618929 0.28510517 13355975
0.74900001 0.014269995 0.28928089 12895681
0.75025719 0.015197381 0.28524894 13158596
0.74900001 0.026543951 0.28928089 13356235
0.75048155 0.02464474 0.28497079 13421769
0.74900001 0.034434352 0.28928089 13619918
0.75113893 0.034532655 0.28394827 13685198
0.75169063 0.045117691 0.28503519 14014163
0.75293547 0.054772776 0.28482646 14079700
0.7539165 0.064664848 0.28500095 13816786
0.75413871 0.075275786 0.28508693 13421772
0.75416648 0.084989764 0.28509623 13553100
0.75662863 0.094988473 0.28529069 14013906
0.75900006 0.10152532 0.28958946 13948112
0.76250005 0.1038823 0.28467146 14474456
0.77100003 0.10854523 0.28514332 14144721
0.77558345 0.11191583 0.28502136 10723996
0.78500009 0.11695051 0.28480563 10658715
0.78871435 0.12053497 0.284574 10592921
0.79114294 0.12584619 0.28509891 10658714
0.79165226 0.13481899 0.2848075 10592921
0.79152185 0.14502932 0.28500253 10527131
0.7753334 -0.14193135 0.29490793 8750211
0.78462505 -0.14623739 0.29591167 8816515
0.75687498 -0.13153863 0.29475677 12565689
0.76257145 -0.13491936 0.2955412 12039345
0.74726677 -0.12396496 0.29473361 13816528
0.74666661 -0.11512352 0.29449597 14013908
0.74686104 -0.10553665 0.29457358 14013908
0.74699986 -0.095064402 0.29462901 14277079
0.74699986 -0.084571943 0.29462904 14342870
0.7471332 -0.074966878 0.29468095 14408920
0.74774981 -0.065400593 0.29492235 14277334
0.74809104 -0.055162411 0.2954548 14277079
0.75000006 -0.05242997 0.29142287 14211541
0.74820566 -0.044216126 0.29536065 14277078
0.75000006 -0.048040561 0.29142287 14540506
0.74849999 -0.034802195 0.29521915 14079699
0.74897152 -0.025155833 0.29548159 13816527
0.75000006 -0.026093515 0.29317865 14277077
0.74900001 -0.017817635 0.29611924 13750990
0.75008696 -0.013193764 0.29405189 13684940
0.75024998 -0.0052147289 0.29446819 13355977
0.74900001 0.0078939134 0.29597574 13026754
0.75000006 0.0030521606 0.29440767 13092803
0.74882853 0.015067358 0.29547489 12961218
0.75000006 0.017800575 0.29142287 12764095
0.74826658 0.024766026 0.29512733 12895429
0.74855548 0.034414828 0.29524121 13225163
0.74900007 0.044870049 0.29612488 13488077
0.75000006 0.045541637 0.29142287 13487308
0.74900001 0.051091868 0.29454115 13685200
0.7501539 0.055223241 0.29418346 13948114
0.75258344 0.064553089 0.29506898 13948115
0.75366664 0.075228557 0.29549247 13553358
0.75330001 0.084891781 0.29534903 13553358
0.75530297 0.09508837 0.2947678 13948115
0.75900006 0.10152532 0.29491997 13947857
0.76323086 0.10525736 0.29504797 14276565
0.77000004 0.10840445 0.29333577 14276822
0.77457148 0.11138103 0.29526973 10724001
0.7859 0.11708448 0.29525167 10592923
0.78900003 0.12031468 0.29180035 10592921
0.77500004 -0.1412635 0.30476555 8486781
0.78481823 -0.14589661 0.30528077 8684417
0.75720006 -0.13092853 0.30485997 13026245
0.76340008 -0.13468455 0.3046715 12697022
0.77200001 -0.13890941 0.30539587 9342090
0.74754548 -0.1228971 0.30256093 13553358
0.7525 -0.12593272 0.30671018 13289930
0.74699998 -0.11473714 0.30337542 13421772
0.75000006 -0.11914898 0.30722475 13289929
0.74739134 -0.10542027 0.3034195 13355979
0.75075006 -0.10433009 0.30928949 13290186
0.74774081 -0.09493205 0.30416214 13290186
0.75000006 -0.097494565 0.30898052 12632256
0.74716121 -0.084449671 0.30448404 13092807
0.74733317 -0.074987322 0.30525923 12961476
0.74719423 -0.065352961 0.30520195 13619149
0.74731404 -0.054991309 0.30512634 13421772
0.74789274 -0.044653285 0.3043623 13619150
0.75000006 -0.041017503 0.30898052 14013905
0.74865216 -0.034580749 0.30461594 13618893
0.75000006 -0.037505977 0.30898052 14079698
0.74899989 -0.026471296 0.30372086 13421772
0.75030774 -0.023536123 0.30735132 13421772
0.75079322 -0.014543642 0.30415779 13224393
0.75086206 -0.0049100881 0.3047902 12961477
0.74900001 0.0085713714 0.30330825 12895429
0.75000006 0.003981017 0.30484593 12632513
0.74882758 0.015293449 0.30487087 12369085
0.75000006 0.01077752 0.30898052 12369854
0.74819994 0.024764052 0.30473679 12172220
0.74869561 0.033620957 0.3041763 12369856
0.75014293 0.037121382 0.30803609 12106169
0.74900001 0.044467822 0.30233416 12632770
0.75014293 0.045232005 0.30669835 12501441
0.75063336 0.054719258 0.30484989 12764869
0.75283343 0.064573079 0.30486163 13355979
0.75360006 0.075223081 0.30517289 13224393
0.75395995 0.08496622 0.30531868 13092807
0.75524235 0.094597891 0.30455124 13224137
0.75875002 0.10149188 0.30281562 13355720
0.76233345 0.1042055 0.30513582 13487050
0.77040005 0.10846076 0.30476156 13026496
0.77485722 0.11142258 0.30549127 10526362
0.78645462 0.11725095 0.30508426 10461338
0.77700007 -0.14162806 0.31191963 8487040
0.78572732 -0.14506353 0.31600192 8618626
0.76575005 -0.13240574 0.31457597 11907765
0.77280003 -0.13688558 0.31547862 10723233
0.75766677 -0.12480279 0.31213936 12632001
0.76283336 -0.12594821 0.31605604 12302779
0.75581831 -0.11524887 0.31218424 12698051
0.76283336 -0.11494581 0.31783912 11842742
0.75607693 -0.10472976 0.3140741 12368827
0.76133341 -0.10491113 0.31899643 11316909
0.75445002 -0.094689392 0.31523621 11711411
0.74900001 -0.084798373 0.31032196 12303292
0.75316679 -0.085268736 0.31528643 11776947
0.74900001 -0.073401131 0.31207538 11842742
0.75369233 -0.075623758 0.31634232 11053482
0.74883336 -0.065495946 0.31200594 12304061
0.7519092 -0.065364324 0.31585029 11382959
0.74900001 -0.055516221 0.31172469 12895686
0.75414288 -0.054860108 0.31649202 11711411
0.754125 -0.045215365 0.31399593 12369342
0.76000005 -0.041564405 0.31843778 12764614
0.75416666 -0.034623418 0.31379175 13093318
0.76000005 -0.037116468 0.31843778 13093577
0.75468755 -0.025814144 0.31422976 12764099
0.76000005 -0.021993492 0.31843778 12566465
0.75460017 -0.014416315 0.31299961 12961221
0.76025003 -0.016662328 0.31854254 12566465
0.75457895 -0.0049624946 0.31477776 12304062
0.75258332 0.0046472307 0.31445575 11580084
0.74900001 0.019530261 0.31032196 12171705
0.75344998 0.014619896 0.31455362 11645364
0.74900001 0.023037108 0.31032196 11974583
0.75500005 0.025147242 0.3149018 11448754
0.76000005 0.028712958 0.31843778 11778489
0.75516677 0.034720782 0.31376356 11580082
0.76150006 0.035010781 0.31906626 10987946
0.75542867 0.045845889 0.31425229 11711667
0.76050007 0.043863602 0.31864727 11514033
0.7559334 0.055105213 0.31496939 11448752
0.75555557 0.064806625 0.31304148 11974840
0.76066679 0.065244757 0.31871712 10856617
0.75664711 0.075266048 0.31338942 12171705
0.76180005 0.075149976 0.31919196 11185067
0.7573126 0.085010499 0.31387952 12171192
0.76233339 0.085017532 0.31941542 11974069
0.7575385 0.094511516 0.31249586 12303293
0.76233339 0.095430382 0.31763157 12434365
0.76300001 0.10251043 0.31254822 12105914
0.77225006 0.10691687 0.31452948 11842740
0.7766667 0.11116121 0.31269684 10263450
0.78609091 0.11619461 0.31464669 10263959
0.78783339 -0.14298896 0.32456723 8618370
0.77557141 -0.13280857 0.32314888 11513520
0.78500009 -0.13757551 0.32799387 11118762
0.77544457 -0.12419396 0.32531628 11316911
0.78200006 -0.12789558 0.3294864 10987433
0.77377778 -0.11507804 0.32521909 11317170
0.76433343 -0.10174277 0.32264051 11250860
0.77333337 -0.10596617 0.32764518 10987945
0.76340008 -0.094648935 0.3239767 10725029
0.77100003 -0.099021129 0.32846153 10067352
0.76354545 -0.085060865 0.32447681 10329757
0.75900006 -0.071715876 0.32157245 10790824
0.76233345 -0.075896762 0.3239786 10725030
0.75883341 -0.064594544 0.32150182 10790822
0.76380008 -0.065737456 0.32611308 9343633
0.75900006 -0.058389626 0.32157245 10921638
0.76300001 -0.055122312 0.3241626 10526879
0.77200001 -0.050353378 0.32888752 11250607
0.7626667 -0.045273662 0.3213405 11053228
0.77219999 -0.04494556 0.32788929 10526627
0.76450008 -0.03465499 0.32211298 12238270
0.77200001 -0.034087986 0.32708025 10856104
0.76520008 -0.024828654 0.3224079 12303806
0.77200001 -0.026858922 0.32708025 10067101
0.76514292 -0.014340376 0.32264099 11908534
0.77200007 -0.01375566 0.32753325 10592930
0.76375008 -0.0053403238 0.32336426 11250604
0.77150005 -0.0051718946 0.32867455 10330016
0.75900006 0.0064647691 0.32157245 10000540
0.76350009 0.004358374 0.3245545 10658468
0.76288903 0.015327952 0.32282603 10987435
0.77300006 0.018346459 0.32931358 11052969
0.76520002 0.024253128 0.32276794 10791081
0.77220011 0.022664441 0.32788977 9606036
0.76900005 0.031753346 0.324009 10594215
0.77225006 0.036405124 0.32628489 10396579
0.76660007 0.045107841 0.32299781 10724518
0.77399999 0.042829737 0.32792762 9803673
0.76371431 0.055162646 0.3220391 10132893
0.77188897 0.055062622 0.32783851 9343120
0.76560003 0.06477347 0.32257643 10922409
0.77262503 0.064007014 0.32802454 9474448
0.76800001 0.07396625 0.32358766 10856359
0.77300006 0.075349085 0.32750395 10790821
0.76900005 0.084860504 0.324009 10592673
0.77340007 0.085346535 0.32767341 10330013
0.76700002 0.09451656 0.32137075 12631999
0.77200001 0.094232105 0.32527581 11052965
0.78466672 0.10801826 0.32694158 10198168
0.78737503 0.11338826 0.32368627 10000788
0.78900003 -0.14012124 0.3305887 8947591
0.78800005 -0.13414662 0.33280605 10724261
0.78800005 -0.12518588 0.33385915 10790312
0.79200006 -0.12489624 0.33740795 10461604
0.77900004 -0.1109905 0.33004603 12172477
0.78662503 -0.11483753 0.3344301 10330273
0.79050004 -0.1154031 0.33769476 10132382
0.77600002 -0.10420603 0.33059162 10856615
0.78512502 -0.10634804 0.33655059 9606033
0.77542865 -0.094920568 0.33320218 8948614
0.78433341 -0.093389779 0.33965018 9145480
0.77450001 -0.084739782 0.33290112 8882052
0.78316671 -0.085000731 0.33914503 9145480
0.77463633 -0.075084321 0.33347642 8816515
0.78099996 -0.07653866 0.33820668 9145223
0.7755 -0.065105811 0.33491972 9013894
0.78000003 -0.060005147 0.33777368 9145480
0.7751112 -0.055392582 0.33283541 8553343
0.78300005 -0.054737471 0.33815688 8947843
0.7762 -0.045179773 0.33140534 9737365
0.78530008 -0.044051968 0.33749816 8355710
0.77516669 -0.035135347 0.33023658 10330018
0.78550005 -0.034684084 0.33740005 8488070
0.77600002 -0.025181457 0.33059162 10660008
0.78654552 -0.025019281 0.33793303 8948877
0.7762 -0.01573679 0.3310411 10198431
0.78490007 -0.015364794 0.33714259 8817805
0.7761429 -0.0044212644 0.33299017 9277328
0.78266668 -0.007077768 0.33709621 8487554
0.77450001 0.0045574703 0.33267459 8947849
0.78450006 0.0048456313 0.33972239 8224382
0.77616668 0.014183204 0.33308673 8158333
0.78333336 0.016760254 0.33738336 7895412
0.77720004 0.025360104 0.33146757 9408912
0.78555554 0.024774799 0.33732137 8224636
0.77900004 0.031254437 0.33186969 10527650
0.78488898 0.035571881 0.33540332 8817546
0.77720004 0.04573258 0.33110285 10197917
0.78544444 0.045200143 0.33666092 8487811
0.77775007 0.055333156 0.33270431 8618883
0.78525007 0.054024328 0.33775207 8553344
0.77680004 0.064983577 0.33166188 8619136
0.78455561 0.065759204 0.33709666 8619135
0.77600002 0.07473319 0.33059162 9145480
0.78572732 0.075166881 0.33758128 9013894
0.7766667 0.084799014 0.33087566 9013894
0.78570002 0.084864512 0.33748573 9474444
0.77850008 0.092288129 0.33165669 9737616
0.78627282 0.095129974 0.33631065 9803408
0.78850007 -0.10219222 0.34145454 9277066
0.7881667 -0.09476427 0.34254158 9408652
0.78800005 -0.084601976 0.34308276 9342859
0.78720009 -0.075303711 0.34273443 9211272
0.78616667 -0.065079637 0.34228453 9342857
0.78800011 -0.05482322 0.34229317 9013892
0.78900003 -0.049615134 0.34167105 9079428
0.78900003 -0.010826807 0.34167105 8159872
0.78760004 -0.0052795163 0.34106484 8159102
0.78780007 0.01501296 0.34115142 8421758
