# .PCD v0.7 - Point Cloud Data file format
VERSION 0.7
FIELDS x y z rgb
SIZE 4 4 4 4
TYPE F F F U
COUNT 1 1 1 1
WIDTH 925
HEIGHT 1
VIEWPOINT 0 0 0 1 0 0 0
POINTS 925
DATA ascii
0.42741668 -0.1126795 -0.040793005 13421252
0.42589656 -0.10544882 -0.041653588 14078924
0.4229286 -0.095059931 -0.041673921 14013128
0.41796556 -0.083305925 -0.04236095 13881546
0.42053849 -0.088090271 -0.041594926 13421255
0.41694534 -0.075732939 -0.042433772 14012871
0.41543493 -0.065643147 -0.042663094 13882061
0.41325456 -0.055012435 -0.042586934 13355202
0.4119601 -0.044712596 -0.042453155 13355716
0.41181999 -0.0350537 -0.042439055 14145232
0.41282859 -0.026290618 -0.041962788 13749961
0.41400003 -0.018278785 -0.040724311 12499894
0.43109083 -0.13379148 -0.033488967 15460064
0.4285357 -0.12332891 -0.031692985 14539218
0.43036926 -0.12570605 -0.035981685 15130842
0.42716673 -0.1147637 -0.034702916 13025208
0.43000001 -0.11939894 -0.038271647 11511968
0.42487073 -0.10495439 -0.035368923 14144203
0.42187941 -0.094930284 -0.035055641 13420993
0.41817245 -0.083364338 -0.03438447 13487048
0.42035308 -0.08805301 -0.035851568 13091775
0.41610116 -0.075239308 -0.034674913 13749444
0.4134998 -0.065212667 -0.035357878 13749445
0.40885711 -0.05264771 -0.031877939 13946053
0.41146255 -0.055784415 -0.036048662 13880517
0.40841693 -0.044725712 -0.033617213 13750475
0.41046876 -0.045811053 -0.038275894 13357003
0.40827194 -0.035254177 -0.033709127 13881545
0.41049996 -0.034341738 -0.038658988 13684422
0.40867746 -0.027117904 -0.032362625 13619401
0.4114556 -0.023969131 -0.036197592 13684681
0.41422462 -0.01492827 -0.035130259 13881548
0.41725001 -0.0070368703 -0.033494059 13882316
0.42070013 -0.0023905444 -0.034686971 13159370
0.42290011 0.0044448599 -0.033722188 12501183
0.42681256 0.013780975 -0.032718953 12435129
0.43000001 0.019265402 -0.031728502 12106933
0.43225998 0.025225054 -0.032462422 12698811
0.43600005 0.033473231 -0.031607974 13027519
0.44000003 0.039284348 -0.031436328 13093055
0.44187504 0.04178106 -0.030923145 13158848
0.42899993 -0.13069351 -0.023483394 16315629
0.43027151 -0.13493736 -0.025087958 15656928
0.42757308 -0.12493991 -0.024492593 15394013
0.43000001 -0.12971698 -0.029211909 16775665
0.42578405 -0.11505002 -0.025229828 12630192
0.42448363 -0.10504024 -0.025244949 14078665
0.42176315 -0.095010057 -0.025301555 13158590
0.41807404 -0.083293833 -0.025283623 12893878
0.42033345 -0.088069864 -0.024645125 12762806
0.41555458 -0.075224228 -0.02487815 12828855
0.40900001 -0.060507685 -0.021242527 12236205
0.41169211 -0.065159351 -0.025290601 13025978
0.40823349 -0.054622706 -0.024729036 13222843
0.41000006 -0.059215903 -0.028173154 11776166
0.4061901 -0.045040116 -0.025223009 13684937
0.40540868 -0.034982853 -0.02517515 13685195
0.40711024 -0.025120018 -0.025185404 13750731
0.41000003 -0.020503268 -0.02977285 12763576
0.40851229 -0.018013533 -0.023158267 13882059
0.41155267 -0.01371914 -0.025781328 13618374
0.41533345 -0.0052477755 -0.024773294 13092802
0.42000002 -0.0008471816 -0.02951579 14013387
0.41810718 0.0016747358 -0.023057342 12829115
0.42142469 0.0057629365 -0.025862718 12895167
0.42572516 0.014440205 -0.025180373 12894910
0.43000001 0.019265402 -0.029211909 11646131
0.42881814 0.020764122 -0.022013864 13815755
0.43195501 0.02541841 -0.025119843 13289925
0.43679264 0.034854829 -0.024688281 13355717
0.44000003 0.039284348 -0.028346185 13947852
0.43900007 0.040663213 -0.021895299 12697789
0.44187728 0.044104531 -0.024846116 13487047
0.44738466 0.054453559 -0.021974087 13553608
0.44900003 0.060059115 -0.021042615 14736858
0.45257145 0.064631052 -0.021108883 13290178
0.45500001 0.070448153 -0.020791225 13224641
0.42900002 -0.13041961 -0.019101007 15064792
0.43095237 -0.13338324 -0.014634911 14867670
0.42846957 -0.12364775 -0.016455825 14934491
0.43013349 -0.12622227 -0.012639278 15526370
0.42745996 -0.11475252 -0.014973516 11380640
0.43000001 -0.11914729 -0.010085792 12696499
0.4257085 -0.10499173 -0.015274114 13617858
0.42352232 -0.095049724 -0.015381634 12434357
0.41867858 -0.081320934 -0.016154541 12565685
0.4208889 -0.086395338 -0.014920167 12368048
0.41553944 -0.07475695 -0.01505857 12302513
0.40862867 -0.061419364 -0.014258726 12631986
0.41158459 -0.066547148 -0.015272299 12236461
0.40627372 -0.054788563 -0.014939174 12894905
0.40320686 -0.044978429 -0.015005695 13289921
0.40231049 -0.034918442 -0.015216822 13618885
0.40357116 -0.025246274 -0.014963783 13420994
0.40750572 -0.015438875 -0.014363437 13553095
0.41038463 -0.011247297 -0.017607497 14080726
0.40900001 -0.00944228 -0.011029445 12766153
0.41280606 -0.0050837919 -0.015081657 13224904
0.41706586 0.0035843391 -0.015154467 13223360
0.42048284 0.0089621628 -0.015905457 12696504
0.42346066 0.014972225 -0.015337506 12697274
0.42788574 0.02163423 -0.014329895 12960699
0.43082541 0.026686061 -0.014908922 13158595
0.43491101 0.034765571 -0.014785349 13093063
0.43875009 0.041420113 -0.014272219 12829891
0.44159687 0.046435151 -0.01514454 13224390
0.44612229 0.054878976 -0.015167334 13750479
0.44896007 0.061693415 -0.01397817 14013133
0.4518491 0.066133164 -0.015490333 13948111
0.45459387 0.074165523 -0.014053718 13882575
0.4586876 0.082429215 -0.012570761 14277074
0.46012503 0.086457111 -0.011465428 14080208
0.4336383 -0.13273732 -0.0049396032 14867929
0.43174168 -0.12502982 -0.004447795 15065562
0.42899996 -0.11214142 -0.0085558929 10656918
0.43058628 -0.1154349 -0.0042100782 12038824
0.42791817 -0.10365311 -0.0059602121 13487298
0.4300279 -0.10724247 -0.0024241621 13421765
0.42537704 -0.094881669 -0.0050613829 12631476
0.41900012 -0.080447882 -0.0056024273 11776167
0.42178169 -0.085410483 -0.0049090004 12039341
0.41552535 -0.074777 -0.0048827347 12039339
0.40844458 -0.06227535 -0.0052455179 12369333
0.41162497 -0.067254603 -0.0046133762 12040113
0.40449518 -0.055154134 -0.0046506999 12631221
0.39899999 -0.04096967 -0.00084829651 13024949
0.40065214 -0.045195926 -0.0050208867 13420734
0.39868897 -0.034819342 -0.0016783552 13552321
0.4000614 -0.03502667 -0.0067904484 13683907
0.39878953 -0.027631599 -0.0010011104 14078669
0.40078452 -0.024721002 -0.0054031042 13487302
0.40463474 -0.015236228 -0.0049605835 13553095
0.40827283 -0.0072863107 -0.0038963924 12896196
0.41139624 -0.0029347995 -0.0057811881 13158853
0.41565812 0.0048470283 -0.0047717565 12829631
0.42000002 0.0099683218 -0.0083763981 11776683
0.41900003 0.010925475 -0.00099980494 13817813
0.42233336 0.015100322 -0.0050873724 12633024
0.42691311 0.02300057 -0.0042349747 12763840
0.43027282 0.028007984 -0.0054844986 12368824
0.43370447 0.034739848 -0.0042424067 12698303
0.43836725 0.042512748 -0.0044388701 13093059
0.44089583 0.047667131 -0.0050963066 12830147
0.44463339 0.055319205 -0.0047054673 13092802
0.44863045 0.063001864 -0.0046098223 13618631
0.45114639 0.067999065 -0.004810892 13618630
0.45479271 0.075097203 -0.0049158307 13684939
0.45865446 0.083119199 -0.0046087201 14145487
0.46028578 0.088200122 -0.0052542952 13948624
0.46230555 0.092805237 -0.0040195934 13751501
0.43603131 -0.13185625 0.0047689378 14999513
0.43444055 -0.12477508 0.0051794513 14867926
0.43347034 -0.11498376 0.0050343 12367789
0.42899996 -0.10062548 0.0029935201 12696753
0.43094596 -0.10537125 0.0051778569 12566713
0.42672101 -0.094653994 0.0052677309 12236203
0.42237782 -0.084909543 0.005420337 12038053
0.4156 -0.074792907 0.0053321775 11906984
0.40780008 -0.062751301 0.0058346516 11909039
0.4113555 -0.0674069 0.0046674157 11974318
0.39900002 -0.050310332 0.009322647 11644324
0.40269685 -0.055073477 0.0051211077 12433582
0.39762968 -0.044337656 0.0056783212 12763061
0.40000007 -0.048218612 0.002643307 13419450
0.39662704 -0.035155226 0.0050846995 13224387
0.39746138 -0.02522221 0.0053015449 13159366
0.40000001 -0.021095661 0.001542618 12764348
0.39875004 -0.018540068 0.0080715781 12829371
0.40162879 -0.014410523 0.0048154895 13486530
0.40652236 -0.0054846834 0.005518361 12830149
0.41033337 -0.001361175 0.0023287337 12633541
0.40900001 0.00032397808 0.0084073255 13094094
0.41361901 0.0052105756 0.0051520518 12107197
0.41796157 0.011727025 0.0058108931 12369855
0.42170003 0.016529774 0.0054105828 12500413
0.42661193 0.024084182 0.0052711936 12895426
0.42999995 0.028858066 0.0051914155 11909300
0.43348193 0.034776513 0.0049684322 12764095
0.438326 0.042505652 0.0050656633 12698306
0.44066665 0.047746118 0.0053600972 12896451
0.44466674 0.055364132 0.0052652182 13158337
0.44866675 0.062843442 0.0049891598 13684167
0.45081815 0.067308135 0.0055438192 13158338
0.45446914 0.074627832 0.0052987924 13947596
0.45827585 0.083554968 0.0055276435 13487047
0.46039137 0.088715635 0.0048999302 13487815
0.46229407 0.092586771 0.0056137508 13422280
0.43865007 -0.1315562 0.012458289 14999512
0.44023079 -0.13185228 0.017817957 14670803
0.43754211 -0.12454303 0.014522422 14736853
0.44000003 -0.12890777 0.018668145 14999511
0.43526688 -0.11500475 0.014758987 12762291
0.43274426 -0.10522681 0.014672744 12368305
0.4272536 -0.09398625 0.014996428 12433584
0.42999995 -0.099070452 0.015024226 13025976
0.41900003 -0.080296971 0.018127482 11381155
0.42244187 -0.085106425 0.015171576 11710891
0.41496512 -0.074816033 0.014866984 12169641
0.40647 -0.063963257 0.015524 11972774
0.41076469 -0.068763517 0.013724194 11972260
0.39802572 -0.051742096 0.015988227 11907495
0.40127146 -0.056372207 0.014325197 12039342
0.39581075 -0.044862013 0.014845743 12500404
0.39418218 -0.034939151 0.014740358 13486527
0.39507443 -0.024838777 0.014773986 13289664
0.3975679 -0.016217103 0.015629873 13158850
0.40037495 -0.011889918 0.013430367 13159367
0.40366364 -0.0050550257 0.015094234 12698819
0.40811431 0.0013620331 0.015920023 13094090
0.41278952 0.006524967 0.014552009 13027270
0.41727909 0.012700875 0.015586603 12632000
0.42150009 0.017682118 0.015055389 12237754
0.4264302 0.024883451 0.015184921 12697790
0.43000001 0.029331779 0.013066876 14014678
0.43323958 0.035112273 0.014790893 12895166
0.4382143 0.042595521 0.014660181 12894913
0.4409999 0.047635537 0.014949726 12632252
0.44462231 0.055317529 0.01507291 13290179
0.44857502 0.062628657 0.015207131 13355973
0.45081577 0.067108266 0.015032329 12895165
0.45460495 0.074650876 0.014879189 13487558
0.45832753 0.083582625 0.014761141 13421508
0.46000001 0.088592663 0.015664052 12631734
0.46142855 0.09186665 0.014122034 13224128
0.44157141 -0.13143572 0.023609964 14539474
0.43882924 -0.1223833 0.024285836 15131609
0.44051993 -0.12697197 0.025867181 14210508
0.43689296 -0.11514539 0.024893386 13354685
0.43328866 -0.10535894 0.024832299 12171439
0.42663381 -0.093765609 0.025088025 11449008
0.42999998 -0.099014521 0.024643207 12304570
0.41850007 -0.080997102 0.025512541 11183772
0.42207244 -0.085775957 0.024810769 11053472
0.40890905 -0.070879146 0.026436107 12040111
0.41381696 -0.075618461 0.025411695 11644838
0.40520006 -0.065324038 0.024869582 11710635
0.39711663 -0.05312907 0.025219295 11775913
0.40034875 -0.058153376 0.024915183 12104361
0.39336377 -0.045002181 0.024840571 12500148
0.39182624 -0.034730628 0.024743902 12829115
0.39234713 -0.024667729 0.024776045 12895680
0.39572725 -0.014685351 0.024988299 13290181
0.39820838 -0.0081824074 0.027091496 13159885
0.40156621 -0.0042231469 0.02462537 12633026
0.40683615 0.0029660251 0.02438141 12632506
0.41162503 0.0083872499 0.025935987 12435384
0.41622737 0.013561874 0.025179641 12633023
0.42096302 0.018606385 0.023923885 12435388
0.42568475 0.025116317 0.025160538 12895425
0.42900002 0.030267864 0.027598791 11843506
0.43274987 0.035466369 0.024647081 12895169
0.43824998 0.042954598 0.025209522 12631996
0.44102219 0.047775391 0.025079964 13027267
0.44518676 0.055055652 0.024867825 12829886
0.44900018 0.061921101 0.025266597 13553352
0.45113334 0.066848174 0.025257222 13618375
0.45489892 0.074652255 0.024951942 13618887
0.45877767 0.082848132 0.02468165 13750214
0.46042857 0.087689005 0.023999812 13092286
0.46180001 0.09096048 0.02268281 12236976
0.44300002 -0.13052744 0.030573592 14539474
0.43900007 -0.12048489 0.03248141 14736595
0.44200015 -0.12552781 0.035358142 14276303
0.43770671 -0.11498351 0.035038412 13552064
0.44000003 -0.11934303 0.039121956 14408145
0.43323323 -0.10534623 0.034969285 11842474
0.4261111 -0.094399802 0.035223801 11645613
0.42999998 -0.099208109 0.033431929 12172470
0.41750002 -0.082363486 0.035073597 11249308
0.42123535 -0.087263487 0.034861136 11381153
0.40775004 -0.071890607 0.035869099 11644068
0.41280359 -0.077009857 0.0344906 11184545
0.39866671 -0.060690124 0.037623618 12499375
0.40294382 -0.06521295 0.034848876 11644323
0.39531901 -0.054680098 0.035816383 11645352
0.40000001 -0.059800487 0.031819787 12501173
0.389 -0.041764174 0.038229987 14013380
0.39150548 -0.044888306 0.034929931 12566197
0.38864207 -0.03493068 0.03696857 13288633
0.39008704 -0.035092175 0.031646334 12763835
0.38877785 -0.026608624 0.036702428 13026491
0.39048338 -0.02330297 0.032752562 13158596
0.39285728 -0.014878262 0.034877338 13026752
0.39683998 -0.0064439434 0.035800219 12962248
0.40072221 -0.0020837609 0.033802465 12567489
0.40562865 0.0042600543 0.035364475 12829630
0.41085714 0.0091337962 0.032957196 11645870
0.41508153 0.014803025 0.035176739 12566974
0.42033339 0.019488567 0.032452505 13159884
0.41900003 0.02073434 0.039216544 11513001
0.42354539 0.024970876 0.034983899 13027009
0.42804763 0.030774107 0.035575744 12764608
0.43258753 0.03607668 0.034715146 12698305
0.43818417 0.042660665 0.035126537 12434877
0.4414565 0.047730494 0.035004087 12960962
0.44538891 0.055414438 0.034908637 13158337
0.44886678 0.062143207 0.035181385 13684166
0.45164442 0.066760361 0.034871437 13487302
0.45552453 0.074855521 0.035105724 13487301
0.45891652 0.082827836 0.034537483 13026752
0.46000001 0.086787961 0.034634802 12960701
0.4434157 -0.12480345 0.044995058 13881288
0.43740678 -0.11409838 0.044946328 13289405
0.44031584 -0.11894077 0.045064803 14276557
0.42900002 -0.10029071 0.04785211 12303540
0.43257466 -0.10532714 0.044932753 12040367
0.42507896 -0.094960444 0.044782579 11908781
0.41643941 -0.083357096 0.045279998 11447973
0.4207001 -0.088403985 0.044101551 11381663
0.4069182 -0.07336466 0.04500182 11184032
0.41170591 -0.078163505 0.045392893 11316130
0.3975938 -0.061711542 0.045412656 11841702
0.40186957 -0.066698655 0.044851195 11184803
0.39329463 -0.054754406 0.045165636 11578531
0.3881512 -0.043747071 0.045581311 12368820
0.39064521 -0.047930717 0.043021526 12039084
0.38621342 -0.035174619 0.045137249 12238005
0.38679239 -0.025122885 0.045074575 12960957
0.38856006 -0.017058488 0.046128236 13422023
0.39079243 -0.013214171 0.043288678 13092799
0.3946974 -0.0054392307 0.045010567 12830144
0.40000001 -0.00080683961 0.040247448 13684940
0.3987 0.00040936627 0.047209226 12829883
0.40364006 0.0052792784 0.044703376 12632510
0.40859997 0.010973452 0.046213221 12566717
0.414 0.015850566 0.044854827 12500924
0.41817397 0.021332661 0.045776621 13027265
0.4228406 0.025896721 0.044753093 12698045
0.42748147 0.031014936 0.045382228 12303285
0.43242651 0.036576953 0.044938877 13027011
0.43760708 0.043667633 0.045143753 13027267
0.4404999 0.04848215 0.044579063 13026239
0.44518614 0.055270661 0.045095447 13092290
0.44900003 0.061793458 0.044809878 13421765
0.45168415 0.066377401 0.045113731 12961471
0.45558348 0.074699193 0.044963371 13487046
0.45882341 0.082223967 0.044869609 13158080
0.45999998 0.08543697 0.042192467 11777198
0.44296375 -0.12373314 0.055034395 13749447
0.4375937 -0.1144862 0.054835152 13946307
0.44007143 -0.1190681 0.055538841 14341584
0.42858329 -0.10036067 0.05532895 12565426
0.4326185 -0.10571685 0.054950338 11513766
0.41900003 -0.090105839 0.057362944 10987166
0.42339477 -0.094714768 0.054897774 11841961
0.41527587 -0.084891908 0.055176336 11315616
0.42000002 -0.089337662 0.050617255 11249822
0.40575007 -0.073981814 0.055017266 11118497
0.41099998 -0.078993388 0.053630222 11183776
0.39643052 -0.063629895 0.05529996 11513253
0.40075856 -0.068358757 0.054296836 11446946
0.3886539 -0.051770881 0.056741055 11973549
0.39181402 -0.056246452 0.054480869 11645095
0.38631204 -0.045202773 0.054968543 12236720
0.38373813 -0.034851339 0.055146884 12894904
0.38383821 -0.025094429 0.055161361 12697530
0.38675216 -0.015157153 0.055030644 12961216
0.38878259 -0.0091335056 0.056726892 13420739
0.39282531 -0.0044947444 0.05461926 12894908
0.39753664 0.0016290769 0.055930492 12567233
0.40278745 0.0064937086 0.054421108 12435391
0.4079375 0.011772413 0.055577174 12369339
0.41308233 0.016594721 0.054701466 12697790
0.41741669 0.021987706 0.055542167 12631998
0.42244616 0.027089378 0.054691441 13289155
0.42722502 0.032621063 0.05551042 12960962
0.43132693 0.037349205 0.054620828 12829886
0.43681037 0.04376765 0.055232532 12501183
0.44069225 0.048790906 0.054934416 13158592
0.44490796 0.055393059 0.055058479 13092542
0.44887507 0.062012944 0.055454049 12698557
0.45200002 0.066555068 0.054787785 13422023
0.45603544 0.074911878 0.055016641 13684165
0.45800003 0.08066956 0.054231949 12960956
0.44340014 -0.12335865 0.06493485 13552065
0.43748212 -0.11390994 0.065378055 13486530
0.44043469 -0.11856528 0.06435433 14736338
0.42794117 -0.10128116 0.065389 12763062
0.43263075 -0.10644475 0.064795971 10658202
0.41835296 -0.091407649 0.065830223 11250594
0.42330509 -0.096499085 0.065295003 11382182
0.40850002 -0.080915019 0.066348135 11447459
0.41401476 -0.086037472 0.064091571 11250337
0.39900002 -0.070859782 0.068635851 10461598
0.40411913 -0.0749382 0.064689025 11184030
0.39485705 -0.064620137 0.06519191 11447458
0.40000001 -0.069164567 0.062253013 11972005
0.38755551 -0.05355436 0.065526217 11710376
0.3908236 -0.058079924 0.063620865 11578786
0.38353056 -0.044714011 0.06499441 12105906
0.38120338 -0.034748163 0.06503766 12500406
0.38112214 -0.024790816 0.065023489 12763579
0.38386694 -0.015242577 0.064973533 13224130
0.3875882 -0.0074489554 0.065561473 12698818
0.39161825 -0.002737191 0.064438693 12829632
0.39579996 0.0027425624 0.065307707 11975610
0.40156755 0.0081369886 0.065375045 12500925
0.40656531 0.013049225 0.065372609 12370366
0.41185364 0.017937703 0.064436927 11910331
0.41625759 0.023174498 0.065385982 12500924
0.42129278 0.028282871 0.064445361 12303805
0.42603078 0.033747699 0.065248728 12566976
0.43067864 0.038489226 0.064469405 12631737
0.43632036 0.044572107 0.065087259 12369335
0.44 0.049481828 0.064461134 13092800
0.44448009 0.05512638 0.064948708 13092800
0.44900009 0.061635796 0.065351121 13553349
0.45169088 0.066479944 0.065152429 13158076
0.45553029 0.07479059 0.065001093 13355201
0.45800003 0.080562331 0.062166125 12171954
0.44314823 -0.12281235 0.074909739 13288893
0.43676558 -0.11414322 0.074796073 13486786
0.44044447 -0.11912023 0.075595252 14407118
0.42703131 -0.10192597 0.075610161 12237490
0.43184313 -0.10700633 0.074669674 9868686
0.41731253 -0.091759518 0.075691588 11447461
0.42242315 -0.096704714 0.074639268 11512997
0.4075 -0.082096532 0.075472988 11644067
0.41286007 -0.087012708 0.074764058 11447458
0.39772418 -0.071500987 0.076197602 11381668
0.40248638 -0.076300189 0.074539639 11315874
0.38900003 -0.061115615 0.078526512 10064519
0.39328429 -0.065172702 0.074778624 11512998
0.38604903 -0.05493363 0.075068936 11841704
0.37836847 -0.041835628 0.078116 11579821
0.38147122 -0.045451082 0.074462265 12236977
0.37723774 -0.034580458 0.075680144 9474187
0.38019055 -0.037258774 0.071481653 12565681
0.37706149 -0.025394652 0.075801291 9869204
0.38018188 -0.02220729 0.071588084 12370112
0.3782858 -0.017883126 0.078207694 12368050
0.38177979 -0.014457802 0.074405603 13026752
0.38599113 -0.0058776932 0.075288355 12371141
0.39066669 -0.0015998264 0.071418785 12369084
0.38900003 0.00012600447 0.079209507 13424595
0.39496151 0.0040640263 0.074615285 12369855
0.40005562 0.0090267537 0.073655732 12830400
0.40465841 0.014105356 0.07590308 12370624
0.41090003 0.01865102 0.073229805 13027786
0.41525 0.024228085 0.075153768 12960958
0.4204286 0.02938219 0.074430071 13486272
0.42477337 0.034039054 0.0752073 12500151
0.42999995 0.03895076 0.074527711 12369336
0.43567431 0.044854123 0.075178213 13027266
0.44000003 0.049584828 0.071825981 11909043
0.43900001 0.050499838 0.07911361 11974577
0.44393188 0.055274032 0.074860074 13027268
0.44878393 0.062557921 0.075565569 13684169
0.45100003 0.066927724 0.074676543 13486529
0.45391443 0.073622085 0.074649878 12895166
0.44477782 -0.12314957 0.084742628 13486018
0.43649995 -0.11344843 0.085165128 12696245
0.44077778 -0.11817905 0.08470805 14209740
0.42614284 -0.10292566 0.085040033 11775655
0.43120006 -0.10791376 0.084447734 10130316
0.41609529 -0.092965282 0.084603108 11381411
0.42144132 -0.097916208 0.084885657 11512739
0.40575352 -0.083831467 0.085792355 11315362
0.41195244 -0.088728823 0.083557196 11052702
0.39576191 -0.073556237 0.085812144 11316133
0.40099999 -0.078118637 0.084271826 11381667
0.38774627 -0.06306617 0.085858963 11840934
0.39129797 -0.067291074 0.083941452 12039342
0.38339299 -0.055140708 0.08501026 12301743
0.37719548 -0.043457612 0.085531235 10263190
0.38065907 -0.048262037 0.083726652 11709604
0.36900002 -0.031842392 0.089822248 2699053
0.3716917 -0.034724817 0.084772073 2962222
0.37156701 -0.024766225 0.084705278 3357496
0.37697011 -0.016035061 0.085545614 12105651
0.38049996 -0.011817846 0.083072424 13223619
0.37900001 -0.0096369386 0.089594714 12699072
0.38374224 -0.0052096345 0.084944136 11975868
0.38833332 0.0012011669 0.08628799 12305348
0.39343807 0.0060469289 0.084732346 12435645
0.39764288 0.010901333 0.086216964 12171444
0.40373868 0.015579158 0.08446186 12369339
0.40824249 0.021477142 0.086427294 12763839
0.41397437 0.026038839 0.084426001 12566971
0.42000002 0.029632874 0.080605693 13620174
0.41783336 0.030621642 0.088176645 13026753
0.42440256 0.035131037 0.085137032 12895682
0.43000001 0.039398156 0.082524881 14079438
0.43394324 0.044990536 0.085109212 12961215
0.43875006 0.050856479 0.085486732 13158855
0.4430685 0.055950642 0.08474654 13092803
0.4478409 0.062837958 0.085208803 13027010
0.45096773 0.06764593 0.084846459 13290697
0.45379597 0.072778925 0.084358364 12632766
0.43837503 -0.12146863 0.097214967 13749702
0.44342858 -0.12346564 0.091549225 13749701
0.43449998 -0.11465582 0.094986588 12762549
0.44075003 -0.11928895 0.09077765 13749701
0.41850001 -0.10077519 0.099421695 11381154
0.42468753 -0.10427897 0.095232144 11314847
0.43028569 -0.10879387 0.093731329 10196366
0.40838462 -0.0910592 0.096317336 11644067
0.41421878 -0.095709138 0.094901532 11315617
0.42050004 -0.099042192 0.091283642 10723740
0.39800003 -0.081552953 0.097438134 11380638
0.40382144 -0.085715599 0.094619654 11249053
0.38866666 -0.071299531 0.097944498 11709862
0.39374223 -0.075535111 0.094611824 11381411
0.38564402 -0.064987384 0.095043018 12235950
0.39000002 -0.069261447 0.090825595 12697786
0.3784723 -0.051832594 0.097171694 12368304
0.38116339 -0.056122784 0.094401032 11907241
0.37599209 -0.044947427 0.094850063 10131346
0.38000003 -0.049693774 0.090720698 9670536
0.36820447 -0.03307689 0.095579579 2699308
0.37080362 -0.037426013 0.094121441 2764842
0.36813581 -0.026276367 0.09668345 2830638
0.37054855 -0.023634203 0.092871465 3027248
0.37577769 -0.015258491 0.094983973 11448235
0.37840393 -0.0078492248 0.096300565 12435130
0.38172618 -0.0035943058 0.094181612 12171958
0.38679269 0.0031476291 0.095330074 12698301
0.39137211 0.0078206649 0.093943216 12566713
0.39506552 0.012523314 0.095553353 12369593
0.40186 0.017519068 0.094579436 12566713
0.40728581 0.023253692 0.095557556 12699331
0.41170269 0.027435893 0.094168156 12567230
0.41632137 0.031744454 0.096321873 12894649
0.42299998 0.03655982 0.094738208 13355201
0.42771998 0.041272856 0.095861197 12763321
0.43319115 0.045979138 0.09467648 12894650
0.4384616 0.051346838 0.095597014 13026494
0.44245327 0.056389894 0.094848432 13486789
0.44754827 0.063740924 0.095623396 13289666
0.45074075 0.068577953 0.094162859 12500665
0.45280004 0.071910456 0.093152188 12237752
0.43805718 -0.12215833 0.10583863 13682879
0.44025004 -0.12533732 0.10519075 14012101
0.42766672 -0.11146927 0.10619558 9867145
0.43262711 -0.11602858 0.10458408 13551807
0.41719234 -0.10162631 0.10579491 11381922
0.42341381 -0.10651073 0.10456462 11775911
0.40536365 -0.092899539 0.10640089 11513250
0.41339394 -0.097408578 0.10355628 11316130
0.39516953 -0.083090432 0.10557228 11249569
0.40108103 -0.088081226 0.10394549 11381151
0.38686302 -0.073636562 0.10620139 12105392
0.391718 -0.07772655 0.10317684 11775655
0.37871432 -0.06073476 0.10776422 12171185
0.38246486 -0.06541802 0.10475661 12302514
0.37733904 -0.054512288 0.10525148 12500404
0.38036367 -0.058403309 0.10141127 11908012
0.37421945 -0.045157988 0.10508423 10263448
0.36600816 -0.034364834 0.10536574 2567979
0.37047055 -0.03936705 0.10364754 2369829
0.36528388 -0.025358297 0.10505822 2764585
0.37 -0.020668389 0.10132595 3484707
0.36850002 -0.019721933 0.10565808 11051418
0.37405887 -0.014652157 0.10428137 11775912
0.37699991 -0.0055532069 0.10545225 12237752
0.38038465 -0.0015203609 0.10211407 11513261
0.37860003 0.00030008488 0.10864359 11778742
0.38374406 0.004922065 0.10498506 12632766
0.39000002 0.0092562987 0.10041206 13884376
0.38800004 0.011233384 0.10711683 12435644
0.39401034 0.015331273 0.10472545 12632508
0.40050006 0.019194396 0.10202024 13159370
0.398 0.020937838 0.10883742 11710632
0.40543896 0.025006408 0.10518179 12632506
0.4106364 0.028972231 0.10240269 11975866
0.40900001 0.030771727 0.10817636 13883083
0.41402382 0.032494731 0.10390522 12501692
0.4222106 0.038194083 0.10407456 12632250
0.42622912 0.043006692 0.10562277 13224130
0.43148842 0.047735613 0.10467584 13092288
0.43611538 0.051820323 0.10402587 13092802
0.44247067 0.057392862 0.10399126 13290695
0.44774994 0.065049566 0.1050997 12764095
0.45000002 0.069673993 0.10163839 13092801
0.43481818 -0.12200964 0.11230347 13749185
0.44025004 -0.12585273 0.11103041 14209480
0.42637709 -0.11424865 0.11483105 10788245
0.43107146 -0.11807574 0.11228018 14538955
0.41677779 -0.10318479 0.1122936 11382437
0.4212501 -0.10791067 0.11403436 12368304
0.39900002 -0.090475172 0.1158062 10987422
0.40218034 -0.093825288 0.11440475 11119265
0.41000003 -0.098728381 0.11132031 10462360
0.38900003 -0.080163501 0.11305556 11776942
0.39381695 -0.08482039 0.11390763 11118753
0.40000001 -0.089765519 0.11391148 10724250
0.38550672 -0.074225537 0.11406312 11644587
0.39100003 -0.078776896 0.11879276 9803670
0.37842864 -0.061874077 0.11462618 11645353
0.38112858 -0.067026019 0.11495163 11776428
0.37622112 -0.054948039 0.11464547 11644842
0.36900002 -0.040480748 0.11314581 3484970
0.37406603 -0.045646414 0.1147176 9539467
0.36351815 -0.034785237 0.11520087 2435622
0.36390048 -0.025095619 0.11518516 2500903
0.36772731 -0.019053183 0.11584708 8750720
0.37314966 -0.013849536 0.11519853 10790561
0.37444377 -0.0051210765 0.11497001 12369596
0.37772378 0.0026974727 0.11564262 12830663
0.3814843 0.0073412573 0.11426336 12502726
0.38618392 0.013528118 0.11556081 13224649
0.39172503 0.017781965 0.11323029 12961732
0.39473334 0.021961033 0.11562064 13159111
0.40439618 0.027274432 0.11440491 13224386
0.40838888 0.031257287 0.11608604 12961214
0.41477147 0.035405539 0.11521908 12699069
0.42120001 0.03918384 0.11383156 13028810
0.42484617 0.043945827 0.11534284 12370109
0.43033338 0.048831787 0.11342552 12764612
0.43567297 0.053813871 0.11560143 12961473
0.4419091 0.058453545 0.11433229 13157822
0.44581687 0.063800916 0.11472667 12961214
0.42800003 -0.11608823 0.12021536 9537153
0.40633333 -0.092980541 0.12386221 10000528
0.41245452 -0.097126126 0.12664939 10789787
0.39657894 -0.082844488 0.12282307 10328722
0.40253332 -0.087448023 0.1244987 10395286
0.38685188 -0.0721948 0.12361707 10461340
0.39244449 -0.077559136 0.12360147 10263188
0.37900001 -0.060653575 0.12064831 11119013
0.38329545 -0.065050185 0.12478404 10855328
0.37791973 -0.053633329 0.12409835 10066066
0.38061541 -0.058753856 0.12637295 10724255
0.36850002 -0.041288562 0.12636322 8816515
0.37576094 -0.045743518 0.12484656 9802893
0.359 -0.030979455 0.12796858 2501930
0.36101627 -0.034558181 0.12491059 2567464
0.35900003 -0.027827861 0.12835878 2633260
0.36136496 -0.024831368 0.12485465 2764588
0.36645949 -0.018357558 0.12650327 9869973
0.3734268 -0.013549561 0.12501465 10198423
0.3759166 -0.0054188375 0.12472358 10592925
0.38033333 -0.0010636989 0.12908608 10461086
0.37810004 0.0025140573 0.12210356 12368310
0.38251665 0.0050252546 0.12653348 10920859
0.38683936 0.015268305 0.12347198 12829631
0.39000005 0.014995136 0.12897582 8815488
0.38899997 0.020539876 0.12292099 13488076
0.39232007 0.02320596 0.12392925 13290441
0.4034 0.028526593 0.12438051 13224389
0.40677282 0.033264048 0.12517253 13356489
0.41319361 0.038049571 0.12459864 13093317
0.41752172 0.041187838 0.12547059 13225416
0.42306164 0.045659475 0.12479527 13159366
0.43000001 0.049464535 0.12077711 11843761
0.42816672 0.050423369 0.1264413 12566715
0.43429628 0.055194583 0.12495103 13027778
0.44000003 0.059541956 0.12238417 13093318
0.43900001 0.060776908 0.12844354 13619144
0.44285464 0.063914992 0.12455314 12566459
0.37800002 -0.051791977 0.13006394 8552576
0.36850002 -0.041288562 0.13757904 10393490
0.37400001 -0.045006659 0.13475084 7828593
0.36420372 -0.03508595 0.13341159 1844256
0.37049997 -0.035007548 0.13919307 988945
0.36391675 -0.023868976 0.13438709 2171168
0.37050003 -0.027960498 0.13930136 791565
0.36363634 -0.018683989 0.13177203 9670536
0.37736365 -0.011721295 0.13281965 10592410
0.37851286 -0.0069881463 0.1323317 10592413
0.38073164 -0.0035268352 0.13463436 10461855
0.38406345 0.0043464131 0.13266005 10527136
0.38816667 0.010576428 0.13159256 9869459
0.39000002 0.012908286 0.13054097 10659489
0.40771428 0.036268689 0.13087961 12633025
0.41150001 0.039149869 0.13244265 12698816
0.41650003 0.041574441 0.13160962 14080725
0.42300001 0.046968289 0.13442573 13619404
0.42712501 0.051948451 0.13527803 13553355
0.43230352 0.056638472 0.13441183 13816529
0.43604341 0.062032927 0.1350484 13487564
0.44050002 0.064594418 0.13042866 12698045
0.36366665 -0.041030116 0.14680614 6248272
0.37040001 -0.041154038 0.141149 10262930
0.36550885 -0.035410117 0.14687592 922895
0.37080014 -0.034401074 0.14263603 988944
0.36458576 -0.024617741 0.14640902 1381648
0.37087879 -0.027769048 0.14310858 791567
0.36233333 -0.019391896 0.14530468 4462875
0.42500001 0.048391901 0.14026631 13290439
0.42775002 0.052462652 0.14092284 14276559
0.43326089 0.057517067 0.14295138 13093319
0.43594998 0.062499501 0.14408737 12435646
0.36233336 -0.041194394 0.15498617 2567718
0.36197394 -0.034996238 0.15498155 1317909
0.36109793 -0.024913048 0.15499847 1448725
0.36100003 -0.018926151 0.154413 3615784
0.34562504 -0.041151557 0.16898218 3028265
0.35550004 -0.040847585 0.16743138 659982
0.36180955 -0.041588038 0.1640937 1055257
0.3464343 -0.03509891 0.16856079 2436645
0.35547557 -0.034690894 0.16598232 1317656
0.36051798 -0.035364069 0.16199665 1975325
0.34759995 -0.026270006 0.16869596 2304808
0.3552812 -0.025445418 0.16679716 1186070
0.3606616 -0.025211874 0.16326006 1909535
0.35725001 -0.01953732 0.1689166 1316630
0.36066666 -0.019302698 0.16631539 987921
0.33866668 -0.041117191 0.17916232 2831151
0.34196007 -0.041564602 0.17404002 2896169
0.33833343 -0.03834904 0.1789847 2502187
0.34207439 -0.03489843 0.17372538 2501927
0.34281984 -0.025657816 0.17338848 2370088
0.79266673 -0.16489457 0.25789902 9736844
0.7924 -0.15779248 0.25892481 9605258
0.79339284 -0.17493017 0.26536882 11053476
0.79395998 -0.16516486 0.2657572 9736590
0.78877783 -0.15218717 0.26689196 11118242
0.79150009 -0.15662643 0.26462206 11249571
0.77875006 -0.14240295 0.26841116 12435896
0.78455561 -0.14627579 0.26535565 11841964
0.77712023 -0.13546512 0.26608497 11907756
0.77700001 -0.12616679 0.26917261 14144460
0.7871111 -0.15309668 0.27512991 11118755
0.79090005 -0.15823355 0.27417102 10065554
0.77743757 -0.14341527 0.27603325 11185068
0.78210008 -0.14768496 0.27386495 12303287
0.77641702 -0.13516079 0.27533066 11842994
0.77627629 -0.12526554 0.27512449 11908015
0.7769233 -0.11531125 0.27516192 10461082
0.77625018 -0.10484495 0.27527341 11315102
0.77100009 0.07786151 0.27972853 10655636
0.77100003 0.084178746 0.27972853 9011581
0.77275008 0.093416974 0.27855444 10131600
0.77600002 0.10016602 0.27972597 11645355
0.78100002 0.10629641 0.27969998 11711659
0.79000002 0.13896121 0.27922437 11514280
0.78875005 0.14635742 0.27670592 11580073
0.79000002 0.14081062 0.27737495 11448487
0.78880006 -0.16076767 0.28766334 9604489
0.79388469 -0.16572778 0.28466651 9671051
0.77900004 -0.15111086 0.28901383 10723483
0.78533334 -0.15517956 0.28446332 10921376
0.77650011 -0.1451049 0.28507811 11974833
0.78100008 -0.1496705 0.28152677 12238261
0.77566683 -0.13502869 0.2850523 11843504
0.77630794 -0.12500471 0.28507873 11842222
0.77667671 -0.11547211 0.28472784 11776684
0.77670389 -0.10527568 0.28496212 11710119
0.77596325 -0.095487691 0.28489363 11578532
0.77130431 0.076400712 0.28549248 12367529
0.77142304 0.085267633 0.28509209 11512222
0.77327579 0.094261967 0.28492406 12434868
0.77727276 0.10148974 0.28531367 12894908
0.78246158 0.10677859 0.28543851 11316390
0.78559095 0.11461404 0.28560993 11316648
0.78773338 0.12516408 0.28530928 11382440
0.78900003 0.13287471 0.28219563 11448232
0.79080003 0.13595621 0.28561848 11448489
0.78900003 0.14678927 0.28102583 11448488
0.79142863 0.14459416 0.28599659 11514026
0.78900003 0.15356182 0.28117976 11514280
0.79100007 0.15541683 0.28590745 11514026
0.78828579 -0.16200832 0.29548985 9604744
0.79133332 -0.16709009 0.29451162 9605002
0.77787501 -0.15134856 0.29633367 11776681
0.78364706 -0.15611653 0.29467493 11381154
0.77516657 -0.14492519 0.29484877 12500919
0.77505547 -0.13492182 0.29480675 12566456
0.77570027 -0.12504767 0.29505175 12631738
0.77566689 -0.11505522 0.29503894 12368053
0.77570027 -0.10507239 0.29505187 12565172
0.77603161 -0.095523044 0.29472452 12828340
0.76866674 0.075827189 0.29867604 13947594
0.77128571 0.078921415 0.29349974 11512995
0.77153331 0.085141309 0.29527268 11842732
0.77416003 0.094495192 0.29501081 12960956
0.77840006 0.1004758 0.29517144 13356227
0.78466672 0.10598469 0.29519832 11777197
0.78827775 0.11415652 0.29409784 11316647
0.79049999 0.11591756 0.29883233 11316647
0.78871435 0.12264556 0.29248628 11448233
0.79113346 0.12570299 0.2958017 11382440
0.78845459 -0.16301337 0.30502224 9408138
0.79039997 -0.16720028 0.30527097 9408395
0.77754551 -0.15182322 0.30526897 12565939
0.78358829 -0.15739956 0.30511948 10263188
0.77437931 -0.14465253 0.30527088 12369076
0.77402794 -0.13474408 0.30528912 12303287
0.77416682 -0.12480059 0.30534208 12040376
0.77422214 -0.11484069 0.30536368 12434618
0.77449995 -0.10490999 0.3054738 12894909
0.77456522 -0.096719772 0.3055391 12698042
0.7683447 0.07585834 0.30524859 12565169
0.76900005 0.081774376 0.3067781 11381155
0.77060014 0.085850455 0.30447784 11315360
0.77400011 0.094476767 0.30491334 12894906
0.77900004 0.10055325 0.30633855 12368822
0.78569567 0.10542423 0.30488864 11842990
0.79000002 0.10937075 0.30881482 11316647
0.79282612 0.11525414 0.30548283 11250854
0.79335707 -0.17452861 0.31509885 9671312
0.78813338 -0.16383104 0.3153415 9408139
0.79025 -0.16763072 0.31446165 9408397
0.77730006 -0.15169223 0.31476957 12829112
0.78299999 -0.15750435 0.3148987 10327956
0.774077 -0.14486051 0.31506544 12829881
0.77320021 -0.13460086 0.31491745 12895937
0.77300012 -0.12447368 0.315045 12370368
0.77282363 -0.1148993 0.31545544 12567232
0.77290481 -0.10624366 0.31600213 11579569
0.77369243 -0.096858777 0.31483868 12040888
0.76700002 0.068479754 0.31059739 9471356
0.76763636 0.075236127 0.31542787 11577759
0.76876479 0.083141021 0.31618077 11051160
0.77023089 0.087215982 0.31343096 11446176
0.77310723 0.094304569 0.31507221 12499892
0.77880007 0.10052744 0.31537628 12632248
0.78613639 0.1061657 0.31508029 11776941
0.7934643 0.11536328 0.31520629 11250854
0.79358613 -0.18475181 0.3252084 11052962
0.79358339 -0.17445409 0.32461685 9539981
0.7883001 -0.16232744 0.32475936 9408137
0.79089999 -0.16675086 0.3256467 9277065
0.778 -0.15160075 0.32347572 10790042
0.78378582 -0.15662961 0.32499591 9671051
0.77456009 -0.14481215 0.32454073 12369073
0.77345175 -0.13449846 0.32425109 13026750
0.7726208 -0.12467745 0.32478625 13027011
0.77187997 -0.1153971 0.3252221 13356746
0.77140611 -0.10516726 0.32468244 13159113
0.7717647 -0.097418942 0.32442701 13619407
0.76600003 0.068390474 0.32095176 9538430
0.76728576 0.075113699 0.3248907 11313821
0.76839286 0.084987484 0.32497308 11446690
0.76900005 0.090261236 0.3285096 13157565
0.77244443 0.094421729 0.32478848 12171700
0.77800006 0.10042418 0.32506907 10922146
0.78590477 0.10591976 0.32499465 11119268
0.79330766 0.11554796 0.32510713 11250854
0.78880006 -0.16076766 0.33272138 9210244
0.79345006 -0.16590071 0.33560914 9342601
0.78600001 -0.1551853 0.33543563 11250083
0.77760005 -0.14355686 0.33163801 13422021
0.78181821 -0.14566647 0.33556792 10460825
0.7766667 -0.13459904 0.33224064 11907757
0.78271431 -0.1356031 0.33816487 10788249
0.77527785 -0.12467989 0.33452195 10328985
0.77344459 -0.11489356 0.33500555 10329242
0.7728889 -0.10509294 0.33449769 10132123
0.77281821 -0.098103926 0.33433974 10461087
0.76823992 0.075423323 0.33390442 11316132
0.7675333 0.084698506 0.33507019 10855067
0.76844454 0.090996131 0.33496788 11644071
0.77226323 0.095880613 0.33461073 12368823
0.77644449 0.10083049 0.33562633 10462113
0.78547615 0.10629865 0.33488661 11712176
0.79000002 0.10937075 0.33100769 11119268
0.78900003 0.11169505 0.33920833 10988452
0.79264295 0.11557204 0.33489433 11053732
0.79353851 0.14529823 0.33456197 11316904
0.78842866 -0.15346789 0.34221521 9802380
0.79185718 -0.15572286 0.346883 10263960
0.78800011 -0.14547782 0.3421616 10197138
0.79163641 -0.14480029 0.347363 9869202
0.78745455 -0.13498659 0.34368488 10000528
0.79066664 -0.13548195 0.34794608 10066580
0.77900004 -0.12193242 0.34098795 11053472
0.78499997 -0.12549685 0.34506273 10066580
0.79000002 -0.1292024 0.3495017 9934996
0.77700001 -0.11470868 0.3415677 9737102
0.78320003 -0.11452127 0.34704605 9737616
0.77720004 -0.10527384 0.3420195 9474958
0.78290004 -0.1051292 0.34709594 9606544
0.77850008 -0.099072546 0.34259158 10462880
0.78300005 -0.098729298 0.34640488 8883848
0.76900005 0.078859694 0.34261152 10263964
0.77033335 0.075991213 0.34696296 8619142
0.76900005 0.084860504 0.34231147 11184806
0.77107143 0.085090265 0.34667349 9342862
0.76900005 0.09086132 0.34081125 11710892
0.77261907 0.094650373 0.34525934 11053732
0.77630007 0.10111423 0.34435049 10659487
0.7834667 0.10663651 0.34452894 10988196
0.78864288 0.11274422 0.34547275 10988195
0.79035717 0.11735021 0.34450498 11053732
0.79314286 0.12486269 0.34472394 11185318
0.78850007 -0.12249704 0.35068399 10395547
0.79314286 -0.12480998 0.35540444 10330267
0.78812504 -0.11482681 0.35213226 10198681
0.79119998 -0.11550659 0.35633159 10198938
0.78811115 -0.10511446 0.35276699 10133145
0.79128569 -0.10453837 0.35695177 10396317
0.78825009 -0.098468333 0.35149634 9869973
0.79149997 -0.098874032 0.35665172 10198938
0.77185714 0.075627454 0.35425487 9672850
0.77440006 0.085096359 0.35447747 10067351
0.78000003 0.089726366 0.35968563 10659487
0.77645457 0.094442584 0.3530947 10462109
0.78140002 0.096474096 0.35777059 10856866
0.77900004 0.10055325 0.35192984 10988452
0.78547621 0.10586088 0.35520655 10856866
0.78870004 0.11196067 0.35446638 10988452
0.79053336 0.11684796 0.35528964 10988452
0.77325004 0.075373746 0.36109874 10133143
0.77725005 0.082361795 0.36251107 10527901
0.78319997 0.0856971 0.36684525 10527901
0.78678262 0.095315054 0.36537957 10791073
0.78839999 0.10496692 0.3636834 10922659
0.79000002 0.10567194 0.36873549 10856866
0.78900003 0.11107937 0.36106521 11120038
0.79069579 0.11534362 0.36485958 10988452
0.79362059 0.12486663 0.36519599 11120038
0.78799999 0.086533658 0.37430292 10593695
0.79000002 0.0890273 0.37909219 10659487
0.78875005 0.092118204 0.3715682 10725280
0.79079998 0.094950341 0.37623706 10725281
0.79207999 0.10513483 0.37527129 10856867
0.79276001 0.11532205 0.3748523 10988453
0.79352015 0.12471952 0.37521118 11120039
0.78863156 0.086444847 0.38591769 10528159
0.78900003 0.090761669 0.38507703 10659745
0.79104769 0.095761195 0.38488606 10791074
0.79299992 0.10475766 0.38448504 10791587
0.78880006 0.086676762 0.39328957 10593694
0.79000002 0.087177895 0.39820269 10659487
0.79175001 0.094943427 0.39491507 10791074
0.78855562 0.086813271 0.40649831 10659231
0.79000002 0.087547779 0.40276462 10658974
0.78875005 0.091194674 0.40803543 10856353
0.79160881 0.095657393 0.40500006 10856353
0.78700006 0.087768912 0.41357756 10659487
0.78868747 0.093726762 0.41435048 10791073
0.79022223 0.097685494 0.41455209 10791073
0.7930001 0.10397379 0.41493294 10856867
