# .PCD v0.7 - Point Cloud Data file format
VERSION 0.7
FIELDS x y z rgb
SIZE 4 4 4 4
TYPE F F F U
COUNT 1 1 1 1
WIDTH 990
HEIGHT 1
VIEWPOINT 0 0 0 1 0 0 0
POINTS 990
DATA ascii
0.43000001 -0.13072361 -0.040284924 13421250
0.42900002 -0.12640242 -0.043204129 13421766
0.43000007 -0.12493545 -0.041399416 13552838
0.42790917 -0.11342502 -0.041591972 13290183
0.43000001 -0.11965061 -0.040284924 12236461
0.42596972 -0.10538951 -0.041992411 13947851
0.42258978 -0.094764516 -0.042304046 14013129
0.41846436 -0.082119875 -0.042667229 14078922
0.42044836 -0.087330051 -0.042546079 13553094
0.41709602 -0.074994512 -0.042343363 14275272
0.41558546 -0.065123595 -0.042493839 13882061
0.41312966 -0.054907449 -0.042538021 13420739
0.41176006 -0.044690885 -0.042432915 13355716
0.41194004 -0.035063542 -0.042451471 14079696
0.41302946 -0.026512846 -0.042052113 13816010
0.41300002 -0.01920303 -0.040625945 12828859
0.43076366 -0.13394828 -0.033405822 15525600
0.4284243 -0.12365092 -0.031810939 14736854
0.43000019 -0.12587626 -0.036304832 15065305
0.42707697 -0.11473942 -0.034695823 12959673
0.43000001 -0.11924795 -0.038472973 12301228
0.42509341 -0.10494728 -0.035411909 14144459
0.42230508 -0.094945922 -0.035406861 13617857
0.41821802 -0.083335355 -0.034305476 13487045
0.42041677 -0.087977894 -0.035807297 13354430
0.41604319 -0.075157978 -0.034435201 13749186
0.41368008 -0.065240972 -0.035374075 13683395
0.40894732 -0.052774172 -0.031661641 13946564
0.41139016 -0.055679467 -0.035997666 13880516
0.40847865 -0.044701517 -0.03350288 13881546
0.41045716 -0.045797821 -0.038125496 13357259
0.40823716 -0.035252992 -0.033469904 13947594
0.41044825 -0.034524124 -0.038454011 13749958
0.40864295 -0.027472585 -0.032442469 13553608
0.4113414 -0.0239616 -0.036026999 13750473
0.41427392 -0.014936126 -0.035048053 13684425
0.41733333 -0.0070258621 -0.033653997 13816783
0.42062083 -0.0022737905 -0.034585502 13093320
0.42298564 0.004336019 -0.033714972 12501440
0.42692861 0.014298901 -0.033017639 12369596
0.43000001 0.019265402 -0.031225184 11974326
0.43103579 0.024760479 -0.032632019 12632765
0.43463638 0.033724073 -0.031559739 13027262
0.43800002 0.040131148 -0.030780753 13290434
0.42899993 -0.13088828 -0.023386005 16118251
0.43035597 -0.13491502 -0.025429949 15525600
0.42749986 -0.12496348 -0.024537802 15328990
0.42598081 -0.11510033 -0.025041882 12630449
0.42458028 -0.10506392 -0.025251226 14078665
0.42176318 -0.095010675 -0.025303051 13223614
0.41799986 -0.083438464 -0.025305981 13025207
0.42021224 -0.088161111 -0.02452177 12631221
0.41545558 -0.075206444 -0.024871496 12763064
0.40900001 -0.060507685 -0.021242527 12499121
0.41170162 -0.065160759 -0.025290936 12960442
0.40817517 -0.054689392 -0.024781514 13222843
0.41000003 -0.059183907 -0.028621072 12169898
0.40620998 -0.045041963 -0.025224859 13684679
0.40549973 -0.034990333 -0.025180919 13816267
0.40723258 -0.025161257 -0.025148101 13750475
0.41025001 -0.020755433 -0.02955105 12434869
0.40857151 -0.018149 -0.022810804 13750471
0.41159254 -0.013911455 -0.025715936 13553095
0.41543451 -0.0052495142 -0.024779262 13092546
0.42000002 -0.0008471816 -0.02951579 14012874
0.41807416 0.0016227491 -0.023038717 12763322
0.42141902 0.0057269521 -0.025832862 12960701
0.42565581 0.01448411 -0.025267206 12763581
0.42879996 0.020717617 -0.021903431 13749961
0.43189994 0.025370531 -0.025095135 13224132
0.43616295 0.034935664 -0.024846219 13290180
0.4388929 0.041314062 -0.025888981 13092802
0.4414705 0.045227572 -0.023088049 13553100
0.44690916 0.054082669 -0.021752382 13487813
0.44900003 0.060059115 -0.021042615 14671833
0.45243752 0.064631358 -0.020939179 13224387
0.45450002 0.070370734 -0.020768963 13093059
0.4308461 -0.13337104 -0.014740895 14736342
0.42856008 -0.12368561 -0.016291207 15000025
0.43006986 -0.12636673 -0.012639194 15591648
0.42755669 -0.11480341 -0.014790593 11314847
0.43000001 -0.11914729 -0.010085792 12302254
0.42586634 -0.10499244 -0.015178028 13486530
0.42345551 -0.095035173 -0.015378564 12434356
0.41859263 -0.081308328 -0.015951173 12368818
0.42084503 -0.086411774 -0.014989747 12434355
0.41554949 -0.074834123 -0.015145682 12433842
0.40871441 -0.061432041 -0.014262212 12697524
0.41149232 -0.066532314 -0.015268979 12104618
0.40649998 -0.054690808 -0.014994449 13026235
0.40319297 -0.044891365 -0.015010517 13355713
0.40222448 -0.034910481 -0.015214392 13684420
0.40366048 -0.025251674 -0.014967361 13420737
0.4074094 -0.015543482 -0.014274586 13553095
0.41049999 -0.011458144 -0.017497305 13685710
0.40900001 -0.0091231214 -0.010869865 11712695
0.41286591 -0.0050497856 -0.015129405 13290439
0.41697434 0.0036079681 -0.015039041 13157823
0.42041388 0.0089605274 -0.015903436 12696501
0.42338374 0.014829456 -0.015420262 12762552
0.42824137 0.021884838 -0.014469954 12698042
0.43076196 0.02666601 -0.01497072 13092803
0.43482229 0.034758084 -0.014782353 13093319
0.43869701 0.041471634 -0.014274267 12632769
0.44154844 0.046529878 -0.015142952 13224132
0.44602278 0.054864336 -0.015188077 13684943
0.44900009 0.061416809 -0.014210352 14144720
0.4516727 0.066054337 -0.015325798 13947853
0.45436379 0.07420598 -0.014121493 13817295
0.45853341 0.082446389 -0.012043078 14277333
0.46000001 0.086298466 -0.011686843 13948369
0.43351063 -0.13269843 -0.0049373554 14868183
0.43164104 -0.12505381 -0.0044731246 14999769
0.42899996 -0.11234228 -0.0087232757 10657688
0.43053937 -0.11541904 -0.0042178305 12038570
0.42808074 -0.1037473 -0.0057059629 13487299
0.43003038 -0.10742614 -0.0023377344 13421765
0.42545247 -0.094898976 -0.0050626453 12500405
0.4187648 -0.080598071 -0.005784146 11315359
0.42178327 -0.085582986 -0.0048358999 12040109
0.41546464 -0.074766435 -0.0048817876 12104875
0.40842569 -0.062342964 -0.0050429129 12500406
0.41166666 -0.067365721 -0.0047656954 12105905
0.40468198 -0.055179249 -0.0046529844 12630964
0.39899999 -0.04124989 -0.0007652684 12959670
0.40073901 -0.045217495 -0.0050671422 13420735
0.39861712 -0.034795579 -0.0017664897 13552320
0.40001562 -0.035038941 -0.0068854224 13683392
0.39866674 -0.027557746 -0.0011297611 13750471
0.40081841 -0.024670653 -0.0054813507 13552838
0.40459496 -0.015011945 -0.0047617876 13487558
0.40821838 -0.00728535 -0.0038957095 12830404
0.41139621 -0.0029709321 -0.0057809679 13158852
0.41568106 0.0048118387 -0.0047289985 12895167
0.42000002 0.0097716767 -0.0086713666 11513253
0.41900003 0.010925475 -0.0014902483 13554894
0.42214742 0.015135518 -0.0051071532 12501437
0.42676818 0.022992583 -0.0042333743 12698047
0.43024245 0.028005989 -0.0054839998 12369081
0.43374723 0.034841135 -0.0043612733 12829632
0.43835178 0.042864576 -0.0044853268 13092802
0.44076198 0.047952924 -0.0051562614 12830147
0.44460005 0.055315707 -0.0047052312 13092545
0.44865116 0.062871382 -0.0046372889 13355718
0.45105553 0.067492723 -0.0050066696 13487306
0.45450571 0.074682452 -0.0048626936 13750476
0.45857885 0.083208553 -0.0047299303 14211023
0.46027282 0.088309482 -0.005081424 14013904
0.46199998 0.092522204 -0.0043131164 14014162
0.43590334 -0.13186027 0.0048565078 15065562
0.43412182 -0.12492815 0.0050299158 14867925
0.43302307 -0.11513028 0.005171902 12433327
0.42879996 -0.10084653 0.0025911082 12236975
0.43088007 -0.10549477 0.0052154036 12566714
0.42652383 -0.094511911 0.0051888931 12302252
0.43000001 -0.099517845 0.0085370056 11778740
0.41900003 -0.080296971 0.0014524113 10919312
0.42230684 -0.084984772 0.0055094054 12169382
0.41555557 -0.074783795 0.0053325165 11906983
0.40782985 -0.062802188 0.005646301 11777966
0.4114418 -0.067561358 0.0048190011 12040367
0.39900002 -0.050310332 0.009322647 11315874
0.40275761 -0.055081151 0.0051209419 12368047
0.39767113 -0.044070404 0.0056621558 12763064
0.40004167 -0.048334658 0.0033374939 13091512
0.39659974 -0.035152961 0.0050847232 13224386
0.39725691 -0.025180206 0.0052570207 13028036
0.40000001 -0.020845953 0.0016674723 13224640
0.39876926 -0.018684693 0.0077367057 12894651
0.40171149 -0.014384094 0.0047965879 13421250
0.40661547 -0.0054663084 0.0055006803 12764869
0.41033337 -0.001361175 0.0023287337 12567749
0.40900001 0.0003718519 0.0088381898 12897998
0.41372815 0.0051512024 0.005056601 12172989
0.41808006 0.011685257 0.0058511794 12370368
0.42157975 0.016390277 0.0054309568 12369338
0.42682859 0.024683829 0.0054888432 12632511
0.43000001 0.029231112 0.0046111182 11909559
0.4333975 0.034770396 0.0049673077 12829888
0.43834603 0.042849403 0.0050910106 12763839
0.44058326 0.048076291 0.0053674397 12764609
0.44496164 0.055389006 0.0052427263 13224132
0.44870004 0.062908679 0.0050746738 13552840
0.45091173 0.067519873 0.0052256556 13224644
0.45435444 0.074716046 0.0053920364 13750475
0.45824999 0.083425395 0.0054768138 13487303
0.46051997 0.088639565 0.0050672693 13488329
0.46252781 0.092759594 0.0053324397 13290694
0.4386667 -0.13150004 0.012793921 15065306
0.44000003 -0.13170363 0.018146433 14868183
0.43747672 -0.12463015 0.014657313 14736852
0.44000003 -0.12938601 0.018778509 15131611
0.43523356 -0.11499549 0.014758468 12696754
0.43277758 -0.10523517 0.014673679 12434098
0.42701438 -0.093877748 0.015045604 12171183
0.42999995 -0.099041015 0.014815244 12894392
0.41900003 -0.080296971 0.01910837 11644837
0.4225001 -0.08502385 0.015221643 11776939
0.41508237 -0.074654885 0.01503516 12103848
0.41999999 -0.079505384 0.012762994 13420734
0.40647575 -0.063933313 0.015469881 11907239
0.41062501 -0.06865897 0.013497035 11906726
0.39820004 -0.051409066 0.015880141 11578788
0.40134668 -0.056248959 0.014548284 12039600
0.3959817 -0.044836219 0.014810763 12565941
0.39422333 -0.034942579 0.014741656 13552318
0.39511567 -0.024841683 0.014775329 13223871
0.39746985 -0.016166685 0.015551914 13224128
0.40028936 -0.011755687 0.013469579 13159111
0.40359089 -0.0050538369 0.015091178 12633283
0.40812123 0.0012336115 0.015844097 12962761
0.41297475 0.0064207087 0.014652423 12895427
0.4173333 0.012643393 0.015481611 12566205
0.42147285 0.017613502 0.014977702 12171960
0.42623526 0.024929032 0.015286189 12632255
0.43000001 0.029331779 0.011556919 13883348
0.43318176 0.03509333 0.014729376 12894911
0.43821949 0.042655572 0.014743186 12829120
0.44098011 0.047633428 0.014948467 12632510
0.44475555 0.055334143 0.015076593 13158850
0.44862509 0.062635586 0.015208651 13290180
0.45118913 0.067176841 0.014909501 12895681
0.45469138 0.07466466 0.014882217 13356228
0.45839652 0.083613522 0.014707856 13487301
0.46000001 0.088545844 0.015804511 12631478
0.46095005 0.091603637 0.014275317 13290178
0.44027278 -0.13131598 0.022657989 14407632
0.43889573 -0.12276839 0.02431892 14999767
0.44039124 -0.12733905 0.026204353 14341838
0.4369168 -0.11515102 0.02489399 13354943
0.43326661 -0.10535412 0.024831634 12105647
0.42674661 -0.093790546 0.025095301 11449007
0.42999998 -0.099014521 0.024643209 12238777
0.41853344 -0.081122093 0.025976392 11118237
0.42209682 -0.085616007 0.024190163 11185059
0.40885711 -0.070969626 0.028148334 11974576
0.41381019 -0.075280644 0.024699885 11513510
0.40528575 -0.065164156 0.024839226 11907754
0.41000003 -0.069933861 0.020137653 10789530
0.3972322 -0.052880637 0.025219785 11776681
0.40051109 -0.057815552 0.024817619 11907240
0.39355835 -0.044986151 0.024890361 12631476
0.3918508 -0.034732617 0.024745787 12828857
0.39232212 -0.024666356 0.024774907 12895935
0.39571068 -0.014685241 0.024987098 13224645
0.39825007 -0.0080609675 0.026850384 13028299
0.40159494 -0.0040638344 0.024577966 12501953
0.40672895 0.0028348684 0.024540421 12501179
0.41154283 0.0081743691 0.025579719 12500667
0.41612706 0.013408585 0.025058193 12566977
0.42103341 0.018569402 0.024292462 12303547
0.42574722 0.025098486 0.025223842 12960961
0.42900002 0.030267864 0.028100938 12303029
0.43260831 0.035233293 0.024683394 12829632
0.43831906 0.043110214 0.025043447 12698047
0.44085711 0.047914453 0.025241517 12895683
0.44532108 0.055407476 0.025001185 12829629
0.44896564 0.062301639 0.024951203 13882317
0.45123917 0.06686043 0.025149798 13552582
0.4550001 0.074668467 0.024957908 13684166
0.45866662 0.082828313 0.024675936 13815492
0.46027592 0.087763056 0.024242008 13158079
0.46199998 0.090999871 0.022691695 12236722
0.44300002 -0.13052744 0.030573592 14933461
0.4390001 -0.12082496 0.033592239 14670802
0.44181257 -0.12591666 0.035503715 14275532
0.43746054 -0.11496766 0.035070132 13420735
0.43337768 -0.10538114 0.034980439 11908267
0.42605636 -0.094341964 0.03523761 11514285
0.42999998 -0.099158332 0.033487238 12172213
0.41728571 -0.082483292 0.035144925 11380892
0.42129555 -0.087530993 0.035237554 11446688
0.40726668 -0.071630813 0.036206763 11512741
0.41266677 -0.076935567 0.034500133 11119011
0.39880002 -0.060741507 0.038072232 12959665
0.40286165 -0.065144762 0.034681678 11775910
0.39533326 -0.054588567 0.035971634 11710632
0.40016666 -0.059669334 0.031988326 11777196
0.389 -0.041561797 0.038128804 14078916
0.39149985 -0.045173716 0.034573674 12565940
0.38869053 -0.034982901 0.036865328 13353912
0.39006826 -0.035113737 0.031569038 12632251
0.38875684 -0.026388826 0.036790241 12960442
0.39052626 -0.023528133 0.032444276 13027010
0.38900003 -0.019604877 0.03883709 13354946
0.39274567 -0.014775882 0.034797348 12960957
0.39684808 -0.0062748203 0.035763569 12962247
0.40068746 -0.0019503505 0.033601198 12830401
0.40548548 0.0041634412 0.035338864 12764093
0.41075 0.0091484571 0.033394367 11711149
0.4151752 0.01476688 0.035206482 12501436
0.42050004 0.019430643 0.032563534 12699331
0.41900003 0.02073434 0.039216544 11512748
0.42369995 0.025033994 0.035077669 13027008
0.42817393 0.030907916 0.035670813 12566717
0.43262818 0.036170084 0.034661867 12764353
0.43820512 0.042729914 0.035226706 12566464
0.44153333 0.047785748 0.034915391 12895428
0.44553337 0.055432431 0.034920078 12961216
0.44900015 0.062161352 0.035192147 13487301
0.45173323 0.066773549 0.034877885 13355973
0.45565864 0.074878 0.035115577 13421764
0.45892668 0.082586125 0.03412332 13026751
0.46025008 0.086422883 0.035227839 13026750
0.44371438 -0.12488782 0.045026142 13881030
0.43749148 -0.11411994 0.044955332 13158077
0.44052637 -0.11899787 0.045086969 14276559
0.42899999 -0.1002907 0.047182579 12106677
0.43272939 -0.10546334 0.044911262 11908268
0.42495003 -0.094903193 0.044992365 11777454
0.41649213 -0.083304472 0.045385826 11447973
0.42081264 -0.088341579 0.044187617 11381665
0.40717787 -0.073546037 0.044696253 10986909
0.41170374 -0.077901013 0.045135919 11316386
0.39753851 -0.061772965 0.04539036 11973031
0.40161189 -0.066726126 0.044658646 11184290
0.39326787 -0.054751046 0.045162618 11578274
0.38819778 -0.043752331 0.045587167 12434356
0.39058071 -0.047922656 0.043014359 12039339
0.38628718 -0.035181414 0.045146007 12303541
0.38668007 -0.025115883 0.045062222 13026493
0.38852003 -0.01719019 0.045941222 13355974
0.3909246 -0.013028568 0.043562476 13223872
0.39484593 -0.0054502687 0.044952467 12961471
0.40000001 -0.00080683961 0.040247448 13815754
0.39875001 0.00036267919 0.047588646 12829883
0.40354061 0.0051520495 0.044846442 12501178
0.4085294 0.011102892 0.046280283 12632508
0.41405815 0.015983252 0.044826929 12566459
0.41815004 0.021133326 0.045448136 13224646
0.42262495 0.025759147 0.044885837 12500924
0.42745158 0.031226119 0.045266643 12171704
0.43236363 0.036693413 0.044959918 12895683
0.43771425 0.043677904 0.045155022 12895938
0.4404999 0.048482142 0.044579059 12894653
0.44515482 0.055214211 0.045012336 13026752
0.44900003 0.061710868 0.045027602 13487559
0.45178953 0.066393167 0.045124654 12961472
0.45571446 0.074721113 0.04497613 13487046
0.45868966 0.081905812 0.045113869 13158337
0.46014285 0.084940717 0.041835956 12435899
0.44336379 -0.1238446 0.05508415 13617860
0.43749994 -0.11435954 0.054922704 13815236
0.44012505 -0.11899067 0.055103347 14473424
0.42861536 -0.10043254 0.055474661 12565426
0.43261838 -0.10579646 0.054976869 11513510
0.41900003 -0.0904328 0.057526428 10395028
0.42327026 -0.094718322 0.054919358 11841960
0.41525838 -0.084888935 0.05515765 11315615
0.42000002 -0.089337662 0.050617255 11315873
0.40568498 -0.073917463 0.055178478 11052702
0.41100001 -0.078902088 0.053769004 11184032
0.39611262 -0.063469961 0.055275049 11513252
0.40064508 -0.06830921 0.05449992 11577761
0.38865381 -0.051770706 0.056915823 11841705
0.39175868 -0.056202032 0.054490265 11710630
0.38637593 -0.045210194 0.054977726 12236463
0.3838678 -0.034841906 0.055126905 12894904
0.3837401 -0.025060929 0.055184878 12697530
0.38669351 -0.015189775 0.055065617 13026752
0.39000002 -0.010829636 0.050197229 11907757
0.38882607 -0.0091346111 0.056733314 13420738
0.39281541 -0.0044949977 0.054617427 12829115
0.39734095 0.0016742571 0.05566233 12764352
0.40283999 0.0066788457 0.054474857 12238012
0.40799999 0.011868286 0.055322979 12763069
0.41321746 0.016754905 0.054709833 12697533
0.41758823 0.021960374 0.055701096 12764096
0.4225238 0.026976528 0.05458625 13092545
0.42711115 0.032737486 0.055481836 12764097
0.43118376 0.037470788 0.054527223 12764094
0.43689826 0.043869596 0.055086099 12632255
0.44040734 0.048715137 0.054737568 13289410
0.44511649 0.055371169 0.055144493 13026749
0.44900006 0.061635792 0.055115595 12566970
0.45188683 0.066318788 0.054909676 13422279
0.45576769 0.074904166 0.055039346 13487043
0.45800003 0.08066956 0.054231942 12829627
0.4433955 -0.12338057 0.06498652 13617603
0.43737087 -0.11414399 0.065128058 13552066
0.44064707 -0.11903381 0.064724952 14802132
0.42829409 -0.10124676 0.065209277 12631219
0.43247691 -0.10632874 0.064867623 10723739
0.41782355 -0.091234177 0.065628797 11513252
0.42343333 -0.096339077 0.065071076 11316389
0.40861109 -0.080963507 0.066780545 11447200
0.41359216 -0.085844576 0.064441659 11184544
0.39900002 -0.070859782 0.069102883 10658462
0.40430006 -0.074855693 0.064659677 11183775
0.39476845 -0.064528197 0.065390162 11381667
0.40000001 -0.069164567 0.06209695 11577761
0.38748097 -0.053490501 0.065530837 11644582
0.39085722 -0.058120869 0.063820511 11775141
0.38370517 -0.044712462 0.064985469 12171185
0.38130659 -0.034778744 0.06501212 12565942
0.38105735 -0.024815788 0.065055616 12763577
0.38390613 -0.015243278 0.064979665 13092802
0.38784283 -0.0074455575 0.065532409 12764355
0.39140007 -0.00273573 0.064402729 12764095
0.39565709 0.0026903383 0.065276749 11844280
0.40187803 0.0080737062 0.065280899 12434617
0.40663242 0.013059021 0.065309793 12435645
0.4118 0.017970774 0.064376667 11909820
0.41639999 0.023191825 0.06533508 12632250
0.42131716 0.028284477 0.064449191 12238523
0.42599997 0.033825867 0.065252505 12435647
0.43050003 0.038592201 0.064518921 12565945
0.43644992 0.044688366 0.065062329 12369078
0.44000003 0.049584832 0.064615637 13158851
0.444718 0.055337179 0.065112002 12961214
0.44900009 0.061951131 0.065611474 13684164
0.45170367 0.066534892 0.064796023 13157820
0.45540252 0.074729837 0.065048784 13289665
0.45800003 0.080562331 0.060021754 12369335
0.44210523 -0.12266709 0.074581869 13223358
0.43698454 -0.11428338 0.074767649 13486529
0.44033337 -0.1190901 0.075919814 14275787
0.42713335 -0.10188977 0.075839616 12171954
0.43179241 -0.10688027 0.074608542 10131345
0.41723529 -0.091768108 0.075246885 11381924
0.42268008 -0.096898772 0.074900463 11381667
0.40771055 -0.082254723 0.075605817 11512739
0.41266668 -0.086957544 0.074405849 11381667
0.39774075 -0.071568049 0.076570183 11315875
0.40272364 -0.076219238 0.074518591 11315617
0.389 -0.061148141 0.077778473 10393232
0.39335704 -0.065396808 0.074772157 11578534
0.38611194 -0.05498074 0.075071737 11973034
0.37835005 -0.041861612 0.078014314 11514028
0.38160583 -0.045415837 0.074375935 12105392
0.37725025 -0.034608223 0.075767286 9408393
0.38027278 -0.036781903 0.071402818 12827826
0.37706646 -0.025312277 0.075647943 9869202
0.38005891 -0.021858087 0.071369991 12435389
0.37840003 -0.018036237 0.078157231 12302257
0.38176367 -0.014502974 0.074407853 13092288
0.38599128 -0.005811525 0.075219519 12370884
0.39042857 -0.0014396738 0.07114397 12435390
0.38900003 0.00012600447 0.079209507 13423827
0.39474684 0.0041417046 0.074695021 12369599
0.4001177 0.009000686 0.073317908 12763836
0.40489599 0.014236156 0.07539881 12370366
0.41086671 0.018793654 0.072695501 13159372
0.41521272 0.024251137 0.075066999 13026750
0.42038468 0.029433113 0.074470416 13026492
0.42469335 0.034032699 0.0751926 12369077
0.42999995 0.038950764 0.074527703 12369079
0.43559301 0.044833869 0.075117305 13027266
0.44000003 0.049584828 0.071568467 11711407
0.44393265 0.055227354 0.074917935 12961729
0.44887891 0.062335968 0.075447917 13684424
0.45125583 0.066801153 0.074812397 13552580
0.4540911 0.073482893 0.074518703 12763836
0.44397834 -0.12313586 0.084820434 13486529
0.43623635 -0.11361333 0.085296534 12762806
0.44061902 -0.11857878 0.084464662 14012873
0.42635292 -0.10298429 0.085149519 11841189
0.43100002 -0.10789495 0.084479742 10196366
0.41611111 -0.093018904 0.084528066 11447203
0.42148396 -0.097962335 0.084835701 11512739
0.40588242 -0.08371681 0.085664198 11184288
0.4118948 -0.088832162 0.084120303 11184545
0.39574999 -0.073578432 0.085855007 11316133
0.40096873 -0.078221433 0.084751852 11381667
0.3879452 -0.063339144 0.085820436 11906471
0.39112508 -0.067403302 0.08369042 12170671
0.38341022 -0.055144101 0.085013896 12367022
0.37731591 -0.043837335 0.08547467 10329237
0.38065708 -0.048405401 0.083160587 11709861
0.36900002 -0.032187928 0.089649484 2895661
0.37159058 -0.034735911 0.084712446 2896941
0.37146473 -0.024723694 0.084704079 3488824
0.37700978 -0.01584078 0.085485764 12236978
0.38048279 -0.011885451 0.082633995 13289412
0.37900001 -0.0096369386 0.089594714 12633277
0.38367423 -0.0052292277 0.084973149 11976124
0.38833332 0.0011572409 0.086495563 12239555
0.39332211 0.0060409703 0.084830754 12369595
0.39760005 0.011113432 0.08663366 12434617
0.40332603 0.015620066 0.084583245 12303802
0.40812504 0.021451266 0.086474814 12960704
0.41360262 0.025865216 0.084424749 12566714
0.41799998 0.030633792 0.088211752 12961218
0.4245286 0.035189409 0.085320078 12829890
0.43000001 0.039398156 0.082524881 14078926
0.42900002 0.04031083 0.089363039 12171956
0.43383324 0.045031399 0.085080206 12895421
0.43863165 0.051106419 0.085909225 12961988
0.44315499 0.05607206 0.08465188 13092545
0.44817781 0.062935904 0.085358463 13092545
0.4511081 0.06779258 0.085035279 13421511
0.45371747 0.072976239 0.084050916 12566972
0.43866667 -0.12120652 0.096166372 13617857
0.4419333 -0.12290622 0.091433488 13552322
0.4345625 -0.11500373 0.09502615 12893877
0.44000003 -0.11934303 0.090624347 13815495
0.41866669 -0.10081533 0.098971047 11381669
0.42486164 -0.10442849 0.095136888 11315104
0.43021432 -0.1089917 0.093428321 10130315
0.40871429 -0.091037877 0.097028442 11841703
0.41391554 -0.095343038 0.094923832 11315617
0.42050004 -0.099042192 0.091283642 10591640
0.39776924 -0.08138594 0.097538739 11314848
0.40410233 -0.085612707 0.094583437 11249568
0.38871428 -0.071438335 0.09786994 11644069
0.39372817 -0.075485356 0.094653107 11447204
0.40000001 -0.079465047 0.091281638 11906985
0.38578808 -0.06496568 0.095017806 12104878
0.39000002 -0.069261447 0.090825595 12565946
0.37841469 -0.052144758 0.097254612 12302511
0.38117206 -0.056144878 0.094269879 11841706
0.37611708 -0.044953149 0.09476772 10065809
0.36823252 -0.033009492 0.095575288 2764846
0.37088683 -0.037626561 0.094327718 2895660
0.36811697 -0.026359344 0.096755087 2895663
0.3705759 -0.023707589 0.093071148 2895919
0.3757706 -0.015258428 0.094982617 11447979
0.37842596 -0.007849629 0.096134529 12369339
0.38147298 -0.0035520853 0.09442357 12171444
0.38660231 0.0031465774 0.095529847 12698300
0.3913722 0.0077782008 0.093836576 12698042
0.39508766 0.012386695 0.095433861 12303543
0.40167299 0.017457876 0.094554454 12500665
0.40715915 0.023100626 0.095469348 12765124
0.411641 0.0273661 0.094489984 12764609
0.4162609 0.031575724 0.096614368 12960441
0.42304549 0.036427103 0.094796486 13289409
0.42753845 0.041290883 0.095752992 12631992
0.43288893 0.045961704 0.094642766 12894905
0.43808824 0.051663712 0.095208086 13157822
0.44217554 0.056736719 0.094864219 13486530
0.44757134 0.064186208 0.095623955 13223615
0.45060006 0.068818085 0.093596861 12829628
0.45244449 0.072054423 0.093713284 12238005
0.43837935 -0.12194814 0.10564648 13617343
0.44091669 -0.12535603 0.1072428 13880513
0.42784214 -0.11130128 0.1061966 10064524
0.43290332 -0.1159222 0.10458808 13223099
0.41700003 -0.10184527 0.10561643 11513251
0.42344439 -0.10661606 0.10459222 11775397
0.40574518 -0.092977516 0.10581782 11250336
0.41258833 -0.097451493 0.10332657 11382180
0.39571187 -0.083109818 0.10567252 11381155
0.40119049 -0.087821208 0.10400373 11380897
0.38665155 -0.073652215 0.1065829 12039856
0.39221627 -0.077919319 0.103508 11578533
0.37873331 -0.06075893 0.10761761 12303027
0.38248688 -0.065489903 0.10471476 12302513
0.3773016 -0.054478005 0.10526337 12500148
0.38030005 -0.058636367 0.10147532 12170671
0.37425205 -0.045119178 0.10503557 10263190
0.36616692 -0.034509856 0.10543834 2633513
0.37049997 -0.039344724 0.10335957 2566951
0.36527029 -0.025346417 0.10507084 2895144
0.37 -0.020668389 0.10132595 3090464
0.36900002 -0.019748693 0.10493937 11117210
0.37409252 -0.01468346 0.10431979 11710121
0.37705818 -0.0055719609 0.10541419 12303544
0.38057145 -0.0014034038 0.10211959 11250088
0.37860003 0.00030008488 0.10864359 12106165
0.38386926 0.0049633356 0.10501371 12632766
0.39000002 0.0092562987 0.10041206 13818070
0.38807693 0.011378707 0.10742566 12173501
0.39355811 0.014967657 0.10463402 12501181
0.40060002 0.019011945 0.10220184 13158599
0.39866671 0.020661423 0.10917566 12171698
0.40527728 0.02478382 0.10544418 12632250
0.41084617 0.028913198 0.10266984 12239038
0.40900001 0.030771727 0.10817636 13620170
0.41400006 0.032831553 0.10435902 12173243
0.4221251 0.038247414 0.10355387 12697529
0.42634884 0.042850688 0.10552195 13224130
0.43176192 0.04769725 0.10502276 13027009
0.43665388 0.051963467 0.10412064 13158594
0.44225004 0.057348505 0.10437376 13159109
0.44728938 0.064869076 0.10477158 12961219
0.43481252 -0.12207097 0.11301057 13880514
0.44100004 -0.12610491 0.11133061 14209735
0.4265095 -0.11388191 0.11463253 10524559
0.43100002 -0.11823183 0.11334805 14538442
0.40900001 -0.10040253 0.11487869 10394259
0.41558626 -0.10350314 0.11286852 11644839
0.42154551 -0.10823821 0.11369061 12433583
0.39900002 -0.090475172 0.11580619 10593176
0.40346664 -0.094444729 0.11444622 11185057
0.41033337 -0.099449307 0.1114108 11777194
0.38900003 -0.080011725 0.11290379 11842481
0.39397293 -0.084712557 0.11414323 11052961
0.40000001 -0.089531414 0.11118029 11513249
0.38522542 -0.074167028 0.1141035 11513770
0.391 -0.078776896 0.11879276 9540757
0.37835854 -0.062114697 0.11449424 11579561
0.38096872 -0.067158319 0.11486403 11579306
0.3763859 -0.055014886 0.11470148 11579305
0.36875004 -0.040453322 0.1117734 3420461
0.3741616 -0.0459469 0.11497641 9671052
0.36323068 -0.034741685 0.11523648 2369829
0.36321989 -0.025090177 0.11528824 2435364
0.36796001 -0.01883004 0.11544661 9013636
0.3731944 -0.013699057 0.11514182 10855841
0.37456405 -0.0051287827 0.11492736 12435131
0.37775955 0.0028576513 0.11569414 12830663
0.38151616 0.0073578544 0.11408351 12634055
0.38609311 0.013428058 0.11525779 13224650
0.3921316 0.018150637 0.11382882 12961732
0.39576599 0.022033298 0.1158616 13093316
0.4041428 0.027038053 0.11450142 13093056
0.40849999 0.031531744 0.1169154 12765376
0.41515008 0.035983238 0.11570293 12502206
0.4207778 0.039319739 0.11336926 12634310
0.41900003 0.040352073 0.11964924 11515566
0.42489615 0.043927144 0.11521298 12435901
0.43047625 0.048896044 0.11409395 12764609
0.43507409 0.053393926 0.11531048 12961730
0.44171435 0.058003802 0.1130326 13157820
0.44591671 0.064376734 0.11501134 12829370
0.42900002 -0.11635946 0.12049624 9800325
0.41900003 -0.10089559 0.1294581 11512999
0.42000002 -0.10015316 0.12780061 9868428
0.40676472 -0.092400827 0.12490056 9737613
0.41356254 -0.096749358 0.1272338 10592409
0.39686668 -0.08299429 0.12293172 9999757
0.40242106 -0.08753559 0.12468417 10395285
0.38707697 -0.07216084 0.123674 10790047
0.39225003 -0.077507742 0.12326029 10460825
0.37900001 -0.060209952 0.12064831 12040113
0.38341299 -0.064928338 0.12487734 10789022
0.37791309 -0.053759772 0.12412114 10066578
0.38087502 -0.059059612 0.12615138 10592155
0.37575823 -0.045706116 0.12489509 9868686
0.35847458 -0.033382189 0.12745482 2567979
0.3609103 -0.034981105 0.12362681 2567209
0.3585667 -0.027667444 0.1272652 2567467
0.36131257 -0.024103511 0.12435012 2895919
0.36628947 -0.018268876 0.12663855 10001303
0.37335372 -0.013472638 0.12508439 10132372
0.37603968 -0.0053109322 0.12482755 10592668
0.38000003 -0.0012112911 0.12941773 9278094
0.37812123 0.0026724173 0.12216697 12433845
0.38231042 0.0049753152 0.12672172 10789274
0.3868548 0.0151938 0.12391225 12632254
0.39039999 0.015297661 0.12939574 9210500
0.38900003 0.020160437 0.12292099 13421771
0.39372921 0.023411691 0.1246446 13290441
0.40231577 0.028437659 0.12449688 13290183
0.40642434 0.033004716 0.1251781 13290697
0.41306457 0.037789073 0.12415884 13159110
0.41744447 0.041253205 0.12463187 13159110
0.42320415 0.045924097 0.1258596 13290695
0.42999998 0.049464535 0.12178374 11975606
0.42828575 0.050556902 0.12845807 12960958
0.43410581 0.055045448 0.12498437 12961731
0.44000003 0.059885304 0.12255584 12764612
0.43900001 0.060776908 0.12844354 13553352
0.44276017 0.063829698 0.1246268 12435388
0.37800002 -0.052086942 0.13006394 8685182
0.36900002 -0.040912665 0.13733321 8092018
0.37400004 -0.044311378 0.1353876 9079169
0.35833335 -0.032601997 0.1305666 1910562
0.36405882 -0.036827058 0.13309523 1909792
0.37143242 -0.034960918 0.13845029 1317912
0.35900003 -0.02845818 0.13024974 2239785
0.3641786 -0.023039639 0.13407338 2237217
0.37099999 -0.027673472 0.1385456 792339
0.36333334 -0.018523248 0.13125421 9539719
0.37670007 -0.011735472 0.13252886 10460310
0.37841031 -0.0068949591 0.13236386 10592410
0.38072968 -0.0033675113 0.13447194 10462112
0.38391671 0.004106157 0.13275495 10461856
0.39000002 0.0087998006 0.13556245 10921636
0.38800001 0.010572083 0.13153715 9804178
0.39125001 0.01203081 0.13325474 11054247
0.39800003 0.027148951 0.13042356 12896970
0.40000001 0.028221784 0.13061073 13357264
0.40640002 0.034764662 0.13089138 12895428
0.412375 0.038872451 0.13211721 12763840
0.41783339 0.042360935 0.13306345 13684942
0.42230919 0.047165044 0.13434109 13619147
0.42687503 0.052042883 0.13557225 13618891
0.43224138 0.056479927 0.13418986 13817040
0.43576089 0.061992329 0.13498242 13422029
0.44050002 0.065109447 0.13042866 12434618
0.3628 -0.041045226 0.14781705 5262404
0.37088892 -0.041170217 0.14218396 10262162
0.36460793 -0.035427127 0.14720133 922895
0.37148276 -0.034462962 0.14307208 923152
0.36411995 -0.024353256 0.14691095 1381391
0.37164816 -0.027415585 0.14384156 725773
0.36100003 -0.019320538 0.14872263 4460302
0.42600003 0.051998559 0.14059635 14408148
0.435381 0.057949346 0.14370079 12632512
0.43620005 0.062228139 0.14372803 12895940
0.36153343 -0.041269671 0.15480852 2041377
0.36146349 -0.035015594 0.15493084 1317654
0.36100715 -0.024907053 0.15503064 1448471
0.36100003 -0.018869814 0.15508908 2762788
0.34561542 -0.041150652 0.16883303 2962219
0.35672224 -0.040895183 0.16727084 726284
0.3618125 -0.041386563 0.16382173 1777948
0.34694105 -0.035202291 0.16836683 2436647
0.35614389 -0.0343251 0.16549203 1449498
0.36039469 -0.036009174 0.16177198 1515032
0.34774354 -0.025852852 0.16914244 2566697
0.3550958 -0.025433358 0.16695276 1251863
0.36066142 -0.025156731 0.16308559 1974815
0.35694116 -0.019151649 0.16867228 1778208
0.36060002 -0.018961554 0.16645351 988435
0.33875 -0.041028399 0.17910741 2962477
0.34218973 -0.04162709 0.17385861 2961449
0.3385652 -0.036864981 0.17841811 2502184
0.34247836 -0.034928359 0.17369933 2501670
0.33900002 -0.022111135 0.17695864 2304554
0.34299311 -0.025719458 0.1736238 2370344
0.33900002 -0.01973032 0.17695864 1713445
0.335421 -0.041073553 0.18336153 2567721
0.79383343 -0.15677835 0.25920615 9408134
0.78838468 -0.15236405 0.26573262 11710380
0.79182351 -0.15730864 0.26460117 10724251
0.77837503 -0.14256254 0.26668668 11777452
0.7841875 -0.14707167 0.26465723 12039856
0.77708358 -0.135731 0.26632079 11841964
0.77700001 -0.12586363 0.26886943 13749957
0.79423338 -0.16522807 0.27495158 9605517
0.78645831 -0.15386684 0.2749781 10790050
0.79075003 -0.15894362 0.27300835 9342603
0.77764714 -0.14378253 0.27571353 11118759
0.78112507 -0.1478667 0.27425948 12368823
0.77661794 -0.13540824 0.27513474 11711407
0.77700019 -0.12525705 0.27462924 11579047
0.77700019 -0.11514401 0.2753562 10460823
0.77634794 -0.10508242 0.27550465 11314846
0.77579999 -0.095787831 0.2765305 11183773
0.77600002 -0.088763505 0.27972597 13881799
0.77057141 0.077302538 0.27880052 10524307
0.77033335 0.085610062 0.27918586 9932680
0.77250004 0.093689233 0.27876514 10657428
0.77500004 0.10003693 0.27936551 11908781
0.79000002 0.13896121 0.27922437 11514280
0.78899997 0.14643742 0.27715579 11514026
0.79000002 0.14081062 0.27829966 11711404
0.78900003 0.15171476 0.27610031 11514026
0.79052389 0.15641533 0.27553144 11579818
0.7927199 0.1654215 0.27647269 11645612
0.78866673 -0.16098684 0.28613746 9539466
0.79261905 -0.16621505 0.28465351 9539723
0.77900004 -0.15111086 0.28901383 10789539
0.78429174 -0.15504958 0.28454587 10921633
0.77646434 -0.14516835 0.28475997 12040884
0.78000003 -0.14947885 0.28116786 13225414
0.77581263 -0.1348269 0.28476477 11974832
0.77640039 -0.12516068 0.28441241 12106161
0.77630591 -0.1151504 0.28437814 11908524
0.77614319 -0.10532725 0.28464374 11775910
0.7761336 -0.09513814 0.2852253 11709089
0.7762 -0.088786379 0.28525028 11379867
0.77099997 0.075984389 0.28543207 12170150
0.77076006 0.085055582 0.2850551 11578270
0.77292866 0.09434431 0.28495252 12762807
0.77707696 0.1017062 0.28445172 12763320
0.783077 0.10672332 0.28566048 11448230
0.78849995 0.11429225 0.28710365 11316901
0.79000002 0.11861777 0.28662199 11382695
0.78900003 0.12031468 0.28441212 11579819
0.79000014 0.12593834 0.28538904 11448232
0.79016012 0.13529038 0.28483042 11514280
0.78900003 0.14746651 0.28219566 11448233
0.79000002 0.14368746 0.28569731 11514025
0.78900003 0.15171476 0.28164151 11579819
0.79024017 0.15550618 0.28530309 11514026
0.79207999 0.16528851 0.28552291 11645612
0.78850007 -0.1612608 0.29530722 9604487
0.7910589 -0.16630611 0.29506639 9670537
0.7786001 -0.15103328 0.29524356 12631990
0.7834118 -0.15563861 0.29523271 11578533
0.77533329 -0.14495635 0.29491276 12369078
0.77488869 -0.13489369 0.29474407 12434873
0.7753666 -0.12499361 0.29492489 12566203
0.77580571 -0.11507513 0.29509246 12302259
0.77600032 -0.10511318 0.2951673 12564918
0.77637529 -0.095621318 0.29485506 12762294
0.77700001 -0.088877887 0.29281923 14407369
0.76900005 0.077145182 0.29803404 13750475
0.77112496 0.078098871 0.29240921 10986650
0.77090001 0.085071735 0.29503098 11776940
0.77385181 0.09445861 0.29525563 12894650
0.77816671 0.10074963 0.29447508 13289664
0.78458822 0.1061421 0.29524544 11777195
0.78876919 0.11275186 0.29469821 11316901
0.79016668 0.11710162 0.29670259 11316901
0.79035515 0.12499791 0.29433194 11382694
0.79040015 0.13533092 0.29416984 11448487
0.79033357 0.14477585 0.29455623 11514281
0.79110014 0.15489875 0.29442993 11448490
0.7934401 0.16557269 0.29530039 11514282
0.78845459 -0.16116761 0.30502227 9407365
0.79137504 -0.16659738 0.30530033 9539465
0.77777779 -0.15148166 0.3058587 12236974
0.78335714 -0.15588965 0.30477658 11183518
0.77465516 -0.14470434 0.30537903 12434099
0.77400011 -0.13473941 0.3052783 12434360
0.77436668 -0.12483235 0.30542144 12171960
0.7747221 -0.11491472 0.30556184 12368825
0.77523071 -0.10514728 0.30506462 13355204
0.77595854 -0.095948786 0.30491465 13158338
0.76857156 0.076074436 0.30519229 12367791
0.76900005 0.082674503 0.30600658 11380896
0.7704286 0.086822413 0.3041268 11709348
0.77360725 0.09442848 0.30512094 13025979
0.77850008 0.10048871 0.30522814 12434870
0.78543478 0.10602692 0.3049489 11514025
0.78900003 0.11107936 0.30472979 11119268
0.79085004 0.11596987 0.30544525 11250854
0.79299998 0.12463927 0.30479211 11448232
0.79407161 0.13469762 0.30463573 11448488
0.79391998 0.144555 0.30529618 11448488
0.7924242 0.15540779 0.30470461 11448489
0.79236645 0.16534743 0.3051016 11514282
0.78854555 -0.16135401 0.31512651 9342088
0.792 -0.16648147 0.31489488 9408395
0.77716666 -0.15105917 0.3141073 12237490
0.78314292 -0.15571646 0.31542686 11249827
0.77408338 -0.14494903 0.31489971 12697784
0.77326691 -0.13461214 0.31494424 12829887
0.77320009 -0.12464476 0.31491712 12633023
0.77332276 -0.11485306 0.31514159 12763841
0.77403575 -0.10478146 0.31448001 12369597
0.77476186 -0.097085558 0.314257 11975093
0.76600003 0.067792736 0.31856081 13551548
0.76723528 0.075051956 0.31518105 11708320
0.7682693 0.084227756 0.31574419 11182746
0.77000004 0.088215515 0.31217277 12038827
0.76900005 0.090261236 0.31860825 14276044
0.77260727 0.094372295 0.31486866 12499637
0.77733332 0.10064206 0.31447795 12763578
0.78438103 0.10580189 0.31492165 11513769
0.78900003 0.11107936 0.31488866 11316647
0.79142863 0.1159236 0.31519619 11316647
0.78850007 -0.1606451 0.32422698 9342347
0.7931053 -0.16606751 0.32497773 9276811
0.77719998 -0.15076169 0.32382601 10855323
0.78418756 -0.15590797 0.32512847 10065809
0.77436006 -0.14477466 0.32445663 12434354
0.77330327 -0.13437146 0.32450676 13158335
0.77249986 -0.12453277 0.32457966 12829632
0.77193326 -0.115104 0.32433993 12961478
0.77154291 -0.10528337 0.32430422 12961479
0.77174997 -0.097536825 0.32471311 13948114
0.76600003 0.068390474 0.32184839 9866116
0.76689297 0.075074874 0.32472447 11444892
0.76780766 0.084869675 0.32509625 11314592
0.76900005 0.090261243 0.324009 14013130
0.77246153 0.094707139 0.32546458 12171188
0.77683336 0.10027357 0.32458061 11118756
0.78468192 0.1058857 0.32510087 11250598
0.78900003 0.11107936 0.32504749 11185061
0.79130441 0.11615748 0.32526946 11185061
0.78900003 -0.16043893 0.33428282 9407623
0.79386371 -0.16616474 0.33490443 9342601
0.77900004 -0.15111086 0.33004603 13882569
0.78600007 -0.15533519 0.3355687 11117984
0.77762502 -0.144701 0.33196777 12566712
0.78233337 -0.14483663 0.33695447 10328466
0.77681249 -0.135002 0.33344075 11052961
0.78200006 -0.13704896 0.33863977 10262418
0.77489477 -0.12472893 0.33451596 10328987
0.78000003 -0.12939292 0.33959967 11184806
0.77382141 -0.11510586 0.33529571 10394780
0.77322221 -0.10513809 0.33464131 10000280
0.77327275 -0.098161243 0.33453634 10789795
0.76766664 0.068539284 0.33422914 10526109
0.76737499 0.075249597 0.3345511 11052449
0.76746666 0.084692717 0.33504024 10789532
0.76877785 0.090835229 0.33591259 11184035
0.77204174 0.096345253 0.33507887 11908785
0.77650005 0.10284533 0.33500543 12172213
0.78407145 0.10737228 0.33389211 10921890
0.78811103 0.11416826 0.33568034 11185061
0.79000002 0.11723071 0.33147004 11119268
0.78900003 0.12031468 0.33797693 11250854
0.79064012 0.12456454 0.33460578 11251110
0.78814298 -0.15341313 0.34209114 9802635
0.79153848 -0.15610975 0.34662092 10263702
0.78784615 -0.14587438 0.34330156 10131345
0.7908572 -0.1444204 0.34829402 10263959
0.78677779 -0.13491814 0.34501046 10066580
0.79000002 -0.13752472 0.3495017 10592926
0.77833337 -0.12182808 0.34130403 10066580
0.7840001 -0.12577476 0.34532115 9803409
0.77749997 -0.11381152 0.34245548 9145480
0.78300011 -0.11563534 0.34742504 10000788
0.77750009 -0.10592268 0.34245548 9408654
0.78281826 -0.10470173 0.34732577 9869205
0.77850008 -0.099072546 0.34259158 10527909
0.7845 -0.098918431 0.34798849 9540242
0.76753849 0.075440951 0.34530127 9013639
0.76869237 0.084549956 0.34339789 10395802
0.77012503 0.084985241 0.34769505 8948356
0.76900005 0.091161363 0.34201142 11382441
0.77200007 0.095737845 0.34515342 10922404
0.7761429 0.10343111 0.34441033 10856868
0.78133345 0.10786578 0.34475529 10922404
0.78684008 0.11446547 0.34478715 10988196
0.78900003 0.12031468 0.34167105 11119268
0.79096162 0.12424842 0.34487134 11119782
0.79393333 0.13482386 0.3454811 11250854
0.7931 -0.13528112 0.35551879 10527131
0.78833342 -0.12462509 0.35091773 10198166
0.79180008 -0.12566704 0.35610798 10461338
0.78827286 -0.11466141 0.35326788 10329752
0.79087496 -0.11453301 0.35752699 10395545
0.78822231 -0.10533318 0.35322666 10395546
0.79049999 -0.10460906 0.35681698 10395545
0.78800011 -0.098129936 0.3516922 10132376
0.79075003 -0.098780632 0.35631347 10263959
0.76833338 0.073396914 0.3523576 9804178
0.77090913 0.077525005 0.35582292 10264729
0.77340913 0.085266605 0.35467485 10264729
0.77450007 0.092947289 0.35284451 10330522
0.77600002 0.10016602 0.35057452 10922661
0.78542864 0.10598265 0.35549349 10856867
0.7883637 0.11350743 0.35280517 10856867
0.79066664 0.11609631 0.35673872 10922659
0.79340929 0.12478915 0.35489571 11054246
0.79396433 0.14496514 0.35537031 11185831
0.79258823 0.15491541 0.35550147 11185831
0.77283335 0.07774701 0.36120525 10527388
0.77630007 0.082941361 0.36361426 10593181
0.78185719 0.087326087 0.3660357 10725023
0.78666669 0.095407441 0.36542204 10791073
0.79000002 0.09827432 0.36984515 10791073
0.78880006 0.10403471 0.36189699 10856866
0.79200006 0.10635474 0.36655977 10856866
0.79412496 0.14456196 0.36503577 11120038
0.7917667 0.15502609 0.36511242 11185831
0.79360002 0.16560704 0.36502686 11317160
0.78708339 0.08670602 0.3746247 10790305
0.78866673 0.091954701 0.37229824 10921890
0.79061115 0.095267087 0.3763009 10790562
0.7926333 0.10509862 0.37478971 10856867
0.79323077 0.14495733 0.37485677 11120039
0.79388887 0.15492605 0.37517896 11119784
0.79403585 0.16509704 0.37565264 11316648
0.78900009 0.086395882 0.38633642 10462110
0.79000002 0.088657416 0.38538018 10659489
0.79107696 0.094849586 0.38495156 10725281
0.79290891 0.1048812 0.38470793 10922404
0.79412001 0.12481156 0.38478798 11119526
0.79302758 0.13485241 0.38518631 11054247
0.79303324 0.14506501 0.38518828 11054503
0.78893334 0.086691089 0.39483345 10593695
0.79000002 0.0890273 0.39758626 10659487
0.78900003 0.090761669 0.39246529 10922659
0.79085726 0.094944753 0.39537215 10725280
0.7929374 0.10525474 0.39500284 10856866
0.7938 0.12476144 0.39484993 11053989
0.79206049 0.13477139 0.39541891 10988453
0.79228002 0.14492744 0.39502484 11054246
0.79354167 0.15444739 0.39472485 10988709
0.78900003 0.087067544 0.40385553 10527901
0.79000002 0.087794356 0.40457284 10593694
0.79068011 0.094658881 0.40533248 10725024
0.79270959 0.10495859 0.40469733 10856867
0.79271418 0.11551189 0.40511471 10987939
0.79141188 0.12504055 0.40477964 10988196
0.79174072 0.13494372 0.40512145 11054245
0.79368001 0.1451854 0.40501377 10988452
0.78633338 0.087541126 0.41398621 10528160
0.78866673 0.09272372 0.41476193 10659489
0.79039997 0.096720949 0.41456312 10725281
0.79248559 0.1052115 0.41473731 10791073
0.79222214 0.11503535 0.41498303 10987683
0.79207993 0.12449336 0.41532212 10988196
0.79289639 0.13479942 0.41498244 10988453
0.78500003 0.088463835 0.42079765 10726052
0.78860009 0.093300603 0.42235851 10659488
0.79072726 0.096682668 0.42555159 10725282
0.79209995 0.10502683 0.42460504 10791075
0.79187995 0.11519282 0.4244858 10856615
0.79259986 0.12457574 0.42487115 10791079
0.79378796 0.13523646 0.42500082 10726054
0.7941153 0.14483246 0.42475623 10791331
0.79350001 0.1549435 0.42425853 10922916
0.79333335 0.097760379 0.43269512 10725280
0.79390627 0.10549608 0.43521383 10791074
0.79213321 0.1152279 0.43482018 10856867
0.79085302 0.12495258 0.43433261 10922659
0.79203224 0.13513522 0.43437335 10922659
0.79257149 0.10667557 0.44247967 10856867
0.79171425 0.11534391 0.44407773 10856609
0.79036689 0.12514801 0.44402808 10856608
