# .PCD v0.7 - Point Cloud Data file format
VERSION 0.7
FIELDS x y z rgb
SIZE 4 4 4 4
TYPE F F F U
COUNT 1 1 1 1
WIDTH 949
HEIGHT 1
VIEWPOINT 0 0 0 1 0 0 0
POINTS 949
DATA ascii
0.42899996 -0.13154945 -0.04157215 14012618
0.42999998 -0.13206579 -0.040284924 15525343
0.42899993 -0.12633966 -0.041509379 14078413
0.42999998 -0.12377302 -0.041770916 13552326
0.42775679 -0.11489123 -0.041996174 13814468
0.43000001 -0.11965061 -0.042801518 13223616
0.42547998 -0.10508861 -0.042869996 13749445
0.42435989 -0.094758056 -0.042956281 13815492
0.42319402 -0.084546916 -0.043791432 13749701
0.41883335 -0.071604446 -0.040546224 13223099
0.42103079 -0.075517692 -0.043828573 13683393
0.41815898 -0.064007431 -0.042225517 13815751
0.42037156 -0.06664297 -0.045625627 13618630
0.41688403 -0.054944776 -0.043895539 13749444
0.42000002 -0.059840832 -0.047213886 14406860
0.41617155 -0.04516957 -0.043863315 13684169
0.41609102 -0.034929231 -0.043854341 14078668
0.41789788 -0.025657255 -0.04278617 14013132
0.42023081 -0.022414364 -0.044515781 13355974
0.41900003 -0.019482009 -0.040235266 15132641
0.4215228 -0.015376592 -0.042294309 13486277
0.42514291 -0.0075396565 -0.042531747 11776685
0.42999998 -0.14079 -0.032231823 16118251
0.42899996 -0.13082133 -0.032257292 16578032
0.43000022 -0.13538398 -0.034630354 15591136
0.42833346 -0.12470815 -0.034300663 14472654
0.43000001 -0.12649575 -0.038573634 14605010
0.42663205 -0.11486167 -0.034898136 13551809
0.42477962 -0.10477576 -0.035322689 13486529
0.42264464 -0.094851628 -0.035146337 13288895
0.41900009 -0.080717348 -0.031687539 13092026
0.42081118 -0.085287146 -0.035101932 13420735
0.41799983 -0.074683577 -0.0345787 13552836
0.4202728 -0.0783948 -0.038390182 14013901
0.41605124 -0.064995587 -0.034757625 13552322
0.4138447 -0.054762885 -0.0352882 13749186
0.41271976 -0.044795383 -0.035290048 14078408
0.41277203 -0.03508202 -0.035337899 14079183
0.41473597 -0.025083479 -0.035023421 13814983
0.41757628 -0.016430579 -0.033473913 13354945
0.4207806 -0.013076238 -0.036803991 14144206
0.42300007 -0.0053470423 -0.035134606 13224904
0.4263466 0.0039921664 -0.034284409 12829632
0.43000001 0.0091990242 -0.034245096 12172728
0.43169832 0.014473892 -0.033129286 12435388
0.43569499 0.025213001 -0.03314187 12698300
0.43693182 0.034641806 -0.032793984 12895420
0.43850005 0.041075319 -0.031970009 12961467
0.44000003 0.043404538 -0.031178817 12961467
0.43100002 -0.14010844 -0.022721482 12960186
0.42899993 -0.13108914 -0.026075294 16183272
0.43011707 -0.13589892 -0.024511369 15525342
0.42776069 -0.1249293 -0.024463788 14144459
0.42620763 -0.11506232 -0.025019804 13025466
0.42490962 -0.10480716 -0.025382955 13683652
0.42306677 -0.09494698 -0.025271552 12828857
0.41900003 -0.080296971 -0.029445514 11118241
0.42077765 -0.085118085 -0.025091777 12631477
0.41780663 -0.075093463 -0.02504909 13091771
0.42000002 -0.079505384 -0.021158356 9999239
0.41450986 -0.065298505 -0.024868984 12893877
0.40900001 -0.050932925 -0.02044463 12696241
0.41178679 -0.055362683 -0.025255816 13223613
0.40860638 -0.044565875 -0.022904845 13486785
0.41055095 -0.045785364 -0.027891848 13814980
0.40835834 -0.035391197 -0.023235956 13684680
0.41041172 -0.034200571 -0.028503831 13750732
0.40872729 -0.027440965 -0.021417273 13618885
0.41164121 -0.024583306 -0.025695708 13815497
0.41515166 -0.01487732 -0.024793951 13881031
0.41795552 -0.0074943583 -0.023852102 13026755
0.42079633 -0.003364342 -0.026144197 13158338
0.42482948 0.004757158 -0.025540827 12828087
0.42802572 0.012139123 -0.023581911 12762297
0.43083054 0.016587943 -0.025544088 12959674
0.43519002 0.025112044 -0.024984503 13223106
0.43878925 0.033716813 -0.025646606 13157567
0.44029021 0.037715204 -0.024124963 13552838
0.43900001 0.040222771 -0.02982332 12895674
0.44357982 0.044097334 -0.024768222 13224642
0.44888893 0.051637657 -0.022088528 12961474
0.45130435 0.056558818 -0.021610262 13750471
0.45592859 0.064959511 -0.021520497 13224384
0.45833337 0.071321644 -0.020765236 12961214
0.43170354 -0.13443862 -0.014724231 14933463
0.42884368 -0.12340817 -0.017556367 13815495
0.43009388 -0.12565534 -0.013312453 14802389
0.42809108 -0.11439656 -0.015594063 11907242
0.42999998 -0.1166307 -0.010948624 10722967
0.42639023 -0.10496007 -0.015128164 13354428
0.42456502 -0.095174357 -0.015335662 12762549
0.42150036 -0.085129701 -0.015392541 12499890
0.41756752 -0.074372888 -0.015171066 12762805
0.42000005 -0.079136685 -0.01525899 10855323
0.41358998 -0.065230623 -0.015028186 12302255
0.40839311 -0.053015593 -0.013968648 12894132
0.41068175 -0.057487991 -0.01603616 13157306
0.40651006 -0.045076281 -0.014774822 13552320
0.40553644 -0.034994062 -0.014740267 13290178
0.40737262 -0.025368998 -0.01457193 13486272
0.41030002 -0.020998061 -0.018268866 13421253
0.40866664 -0.018735321 -0.012243768 13092032
0.41221589 -0.014346681 -0.015385586 13553095
0.41652128 -0.0054582967 -0.014992409 13158595
0.42000002 -0.0010438272 -0.018503642 12829115
0.41887504 0.00074873562 -0.011908943 13684166
0.42212099 0.0048907227 -0.015605093 12762551
0.42687008 0.013850559 -0.014606979 12959158
0.4300555 0.0185968 -0.016128093 12235951
0.43308073 0.025036443 -0.014728079 12828860
0.43764782 0.034043755 -0.014610799 13027012
0.44015795 0.038702101 -0.015965164 12698562
0.44375572 0.044822678 -0.01508654 13156796
0.44815859 0.053605478 -0.014310514 13684424
0.45061901 0.057865445 -0.016749596 13553352
0.45374078 0.064950354 -0.014897049 13684425
0.45761538 0.074732304 -0.014162788 14078671
0.46164289 0.083873279 -0.012639516 13882574
0.434194 -0.13395697 -0.005006881 14736341
0.43216988 -0.12510133 -0.0044369888 14933976
0.43061459 -0.11509826 -0.0046782647 11841962
0.42856872 -0.10308319 -0.0054680472 12761778
0.43000013 -0.10730253 -0.0032182869 14013130
0.42578819 -0.094800152 -0.0051453551 12630448
0.42237392 -0.084906474 -0.0049623554 12368047
0.4171724 -0.074541725 -0.0048803226 12039339
0.42000005 -0.07942345 -0.0050989729 12367019
0.40899998 -0.060294911 -0.002997282 11512993
0.41266331 -0.065462254 -0.0050123027 12367531
0.406856 -0.054724116 -0.0048303986 12301997
0.41000003 -0.059375871 -0.0091367774 13356231
0.40371028 -0.044946965 -0.0046335449 12829113
0.40273729 -0.034872442 -0.0048358208 13224126
0.40401745 -0.025066201 -0.0046539968 13618114
0.40720242 -0.016410936 -0.0044369111 13487558
0.41078261 -0.011781908 -0.0074624768 13291468
0.40900001 -0.00944228 -1.8466952e-05 13881284
0.41339993 -0.005073742 -0.0049934178 13223357
0.41745457 0.002359614 -0.0043398561 13222588
0.42098156 0.0071829581 -0.005568868 12630966
0.42530078 0.014598817 -0.0049230433 12698303
0.42869228 0.020519406 -0.0032629264 12369338
0.43194246 0.02555622 -0.0047638849 12500665
0.43688372 0.034769814 -0.0044439225 13026495
0.44000003 0.039284348 -0.0092902975 11578531
0.44260946 0.044825789 -0.0047847633 12961219
0.44737777 0.054614346 -0.0047340477 12894912
0.44900003 0.060059119 -0.0026480658 11908784
0.45222619 0.065035962 -0.0049355524 13421253
0.45692226 0.075034529 -0.0048343362 13749702
0.45900002 0.080738224 -0.002169779 12763064
0.46233338 0.085372537 -0.0050722612 13750986
0.46551162 0.092504337 -0.0046338048 13684937
0.43690738 -0.13341317 0.0047203572 14538706
0.43433341 -0.12492606 0.0050678276 14933720
0.43283513 -0.11513892 0.0051696678 11512226
0.4289411 -0.10092678 0.0038795292 12039599
0.43049285 -0.10587066 0.0051526865 13355457
0.42657468 -0.094634339 0.0053191232 12039597
0.42225564 -0.084883951 0.0054187551 12301482
0.41705889 -0.074820004 0.0052067875 11776426
0.42000002 -0.079505384 0.0078468565 10394259
0.40830001 -0.061520018 0.0056517445 12037796
0.4124091 -0.066620581 0.0049246871 11842477
0.40494668 -0.055061314 0.0053130365 12302511
0.39900002 -0.041903734 0.009322647 11643806
0.4010964 -0.045163475 0.0049267965 12894389
0.39892867 -0.034858305 0.0084202699 13222070
0.40021127 -0.034958035 0.0037809741 13420220
0.39900002 -0.028639996 0.009135833 13880260
0.40094692 -0.024968479 0.0051595317 13289407
0.40467268 -0.015016027 0.0051862155 13224129
0.40834096 -0.0075354697 0.0061930274 13288379
0.41146427 -0.003252082 0.0045203203 13288889
0.41578352 0.0045325351 0.0055475151 12960187
0.4204286 0.0094163148 0.002510654 12302515
0.41900003 0.010925475 0.0097899474 10200740
0.42366663 0.015284039 0.0055373325 12041144
0.42787883 0.021388022 0.0055933772 12894908
0.43157628 0.026619837 0.0048608216 12631994
0.43665427 0.034907289 0.0050904667 12763838
0.43900001 0.040222771 0.0076879803 11908783
0.44225985 0.044886652 0.0050220368 12763836
0.44698757 0.054567724 0.0052114725 13092547
0.44900003 0.060059119 0.0057608709 14079440
0.45243993 0.065102965 0.0052334722 13223873
0.45706183 0.075056851 0.0053298329 13684423
0.45900005 0.080738224 0.0053519118 13158337
0.46199998 0.08559949 0.0053868913 12895937
0.46514711 0.092069238 0.0052305213 13355716
0.43886212 -0.13221359 0.0126283 14670547
0.44004163 -0.13334729 0.017192371 14801877
0.43713486 -0.12466548 0.014773131 14802131
0.44000003 -0.12964351 0.019551044 13946309
0.43453318 -0.11481149 0.0147335 12038054
0.43143335 -0.10490743 0.014626813 13092285
0.42682213 -0.094794206 0.015133251 12302255
0.41900003 -0.080296971 0.018617926 12698038
0.42218402 -0.085005261 0.015179041 12039081
0.41585881 -0.07460811 0.015209348 11645354
0.42000002 -0.079505384 0.012762995 12368046
0.40727594 -0.063078634 0.015807379 11974062
0.4115676 -0.067703575 0.01396223 11645356
0.39900002 -0.050310332 0.019597374 14539216
0.40229535 -0.054869529 0.015052552 12367533
0.39778668 -0.043989692 0.015945971 12631219
0.40017137 -0.047567878 0.012668241 12762291
0.39665273 -0.035157695 0.014833315 13092544
0.39740372 -0.025479045 0.015371664 13027267
0.40000007 -0.021934526 0.011452925 13750989
0.39875004 -0.018617904 0.018262029 13091515
0.40164837 -0.014480041 0.014646627 13290181
0.40649483 -0.005282552 0.015089999 12763065
0.41042858 -0.0013766765 0.011510648 11972781
0.40900001 0.00061122101 0.018173583 13947084
0.41406596 0.0051698298 0.014865517 12829374
0.41833341 0.011608277 0.016207935 11843509
0.42228985 0.01596166 0.014980242 12632768
0.42692861 0.022398617 0.015380065 12829119
0.430913 0.027510809 0.014168129 13223875
0.4356111 0.034823127 0.014765188 12895167
0.43900007 0.040839389 0.015549937 13026493
0.44225773 0.045845687 0.014803638 12829115
0.44671106 0.054534238 0.015142784 13092803
0.44900003 0.060059123 0.015220925 12566713
0.45250696 0.065252051 0.014882813 13092286
0.45755696 0.075028069 0.014880869 12961728
0.46000001 0.079837255 0.018824425 14541276
0.45900002 0.080738224 0.010724548 14080207
0.46225357 0.085158862 0.015191363 13354941
0.46410537 0.091071784 0.014445921 12434869
0.44057494 -0.132393 0.025250515 15130840
0.43756241 -0.1243223 0.02507484 14867667
0.44 -0.12964353 0.025216307 14078665
0.43456668 -0.11482025 0.024903273 12235689
0.42887497 -0.10051256 0.027088162 12171442
0.43128049 -0.10523816 0.024469199 12762806
0.42610216 -0.094962724 0.025119625 12169896
0.41836852 -0.081155464 0.025908008 12104872
0.42143834 -0.085985623 0.024874967 11577502
0.40871429 -0.070944928 0.028138306 11119263
0.4138537 -0.075258091 0.024778403 11315359
0.40549496 -0.064948909 0.024974097 11775651
0.41 -0.069613926 0.021097472 10525841
0.39791107 -0.052120183 0.025750974 12499890
0.4007096 -0.056807347 0.024672095 12104619
0.39556152 -0.044967137 0.025092732 12236976
0.39378536 -0.034904778 0.024866423 12763064
0.39447105 -0.02480074 0.024908086 12697785
0.3972747 -0.015748693 0.025844993 12895166
0.40016657 -0.011798489 0.022963936 13355714
0.39900002 -0.0092114182 0.029872103 14340302
0.40331072 -0.0050640106 0.025045408 13223616
0.40792683 0.0015782563 0.025063079 12829377
0.41261119 0.0068888883 0.024730586 12435389
0.41720834 0.012835308 0.02543471 12500926
0.42146006 0.017623132 0.024763731 12369854
0.42640913 0.023648614 0.025190806 12500669
0.43042865 0.028390156 0.024126491 13289413
0.43482235 0.034760572 0.024917262 12763069
0.43880004 0.041232146 0.0251466 12829374
0.4416725 0.046088565 0.025149876 12895165
0.44672826 0.054537445 0.02507898 13026496
0.44900003 0.060059115 0.021002069 11316647
0.45266676 0.064932302 0.025034543 13224646
0.45782435 0.074555613 0.024775488 13092547
0.45999998 0.079837255 0.0247472 13882575
0.46274289 0.085087337 0.02481721 13289922
0.46483335 0.090651207 0.022831641 12500918
0.44110718 -0.13210976 0.034945447 14802130
0.43766662 -0.12356143 0.034914095 14538960
0.43999997 -0.12880076 0.035657246 14275273
0.43417767 -0.11471894 0.035045996 12170154
0.42812908 -0.10193107 0.035444826 12435640
0.43084905 -0.10654936 0.034310911 12828854
0.42457289 -0.095242739 0.035312042 11776686
0.41693184 -0.082855478 0.035624493 11908267
0.42090252 -0.087872759 0.034298319 12038823
0.40714285 -0.071927465 0.036032364 11053474
0.4129616 -0.077228785 0.034481157 11119010
0.40298 -0.065020286 0.034929272 11710378
0.39652801 -0.054699272 0.03566023 12170412
0.40014291 -0.059286755 0.03270017 12039340
0.39281887 -0.044755921 0.034849402 12696499
0.38900003 -0.031746957 0.039140645 12828855
0.39135003 -0.034797981 0.034634084 12697270
0.38900003 -0.02901499 0.039140645 12959414
0.39167196 -0.024556875 0.034743056 13420221
0.39472735 -0.01464822 0.035090294 12829372
0.39768189 -0.0074862493 0.036350027 13355202
0.40143284 -0.0033999796 0.034019262 12894139
0.40637046 0.0032647804 0.035481054 12829374
0.41145715 0.0083636958 0.034214795 12500923
0.41573757 0.013963759 0.035233527 12434874
0.42069241 0.018887015 0.033994738 12500922
0.42510003 0.024517609 0.035329115 12895168
0.43000001 0.028965728 0.032650549 12566200
0.43348888 0.034654986 0.034988198 13158596
0.43833339 0.04158847 0.035523307 12632253
0.44158828 0.046707388 0.034802474 12829630
0.44638634 0.054590132 0.034890827 13356232
0.44900006 0.060059123 0.036243267 13620172
0.45274326 0.065209672 0.03485449 13553095
0.45807403 0.07494092 0.034810003 13552838
0.46000001 0.079837255 0.036592752 13025723
0.46200001 0.084452011 0.034715377 12960701
0.44220838 -0.13150226 0.045403 14275787
0.43815219 -0.12305923 0.044532843 14276558
0.44065708 -0.12798113 0.045106828 13815495
0.43402413 -0.11502338 0.045225509 12302254
0.4272401 -0.10284362 0.045086093 12632248
0.43050003 -0.10803314 0.044743691 11972775
0.41900003 -0.090105839 0.049025409 9144705
0.42282024 -0.094940767 0.044965804 11382441
0.41560262 -0.084494837 0.045182865 11447718
0.42050004 -0.089198217 0.041079342 11711149
0.4066619 -0.073991589 0.045283291 11445916
0.41121739 -0.078722768 0.044556044 10920087
0.39790004 -0.061475001 0.04596338 11908011
0.40186238 -0.066447698 0.044654626 11315616
0.394054 -0.054807596 0.045127794 11841704
0.38869768 -0.042663548 0.046811581 12039596
0.39101371 -0.046234563 0.043692403 12368048
0.3878721 -0.035113774 0.045187034 12303286
0.39000002 -0.038036942 0.040336862 12501176
0.38810185 -0.025666295 0.045443092 12435129
0.39018747 -0.022137716 0.040972583 13354944
0.38884997 -0.018534884 0.048045885 12567230
0.39171702 -0.014798027 0.044197921 12961472
0.39576131 -0.0058637215 0.046006501 13025726
0.40016672 -0.0016915604 0.042449556 13420996
0.39900002 0.00012924365 0.048553426 12237498
0.40469369 0.0049381889 0.044887159 12369338
0.41033337 0.0097388923 0.04128639 10722967
0.40900001 0.010664723 0.047855347 13618373
0.41475511 0.015328121 0.044977326 12105652
0.41999999 0.019800596 0.041276593 12763061
0.41880003 0.020724442 0.048020653 12764094
0.42357469 0.025168069 0.044896085 12895681
0.42821428 0.030642508 0.046734639 13092544
0.43274716 0.035713699 0.044775035 12895424
0.43810195 0.043136373 0.045229133 13553095
0.44080943 0.047982994 0.044499904 12632510
0.4452785 0.054860719 0.04524871 13157825
0.449 0.060778305 0.045343727 13420740
0.45240593 0.065847591 0.044798568 13223875
0.45744002 0.074660815 0.045125809 13816266
0.46000001 0.079837255 0.044130828 14276048
0.46085006 0.082980633 0.045181673 13026749
0.44323078 -0.13151413 0.054892518 13748931
0.43850005 -0.12225848 0.055079699 14538960
0.44143477 -0.12714854 0.05513186 13683139
0.43394873 -0.11509033 0.055227268 12367791
0.42640001 -0.10313241 0.055195332 13091255
0.43037504 -0.10854708 0.05463741 10788757
0.41850007 -0.091284268 0.056373157 10788760
0.42169026 -0.095542163 0.054468323 11775911
0.40900001 -0.080295525 0.058866329 9803153
0.41396743 -0.085064866 0.055056944 11512996
0.40537372 -0.074517921 0.055048928 11381924
0.41033337 -0.079596691 0.052332491 11380638
0.39643833 -0.063519858 0.055445585 11841188
0.40064514 -0.068097375 0.053894419 11775653
0.38899997 -0.051367458 0.057436548 11578014
0.39189088 -0.055588774 0.054653432 11775912
0.38725421 -0.04512113 0.055202305 12367790
0.39000002 -0.048871178 0.050501559 13158077
0.38501632 -0.034991916 0.055002697 13025463
0.38501608 -0.025175696 0.055045657 12762805
0.38746098 -0.015682798 0.055393461 13157825
0.39046669 -0.011817082 0.051779576 13092547
0.38900003 -0.0095876604 0.058112647 14275790
0.39328799 -0.0050964095 0.054843392 13025724
0.39765629 0.0013808872 0.055920523 12106425
0.40329406 0.0062626139 0.054437462 12698306
0.40812129 0.01180118 0.055856992 12631997
0.41339138 0.016524356 0.054229409 12303033
0.41729626 0.021737132 0.056023315 12829374
0.42281967 0.0267723 0.054468933 13027012
0.42695752 0.032763716 0.055736795 12960445
0.43140003 0.037308503 0.05420908 12697789
0.4364793 0.044242345 0.055376545 13224134
0.44027781 0.048929431 0.05357578 12960708
0.44421843 0.055270959 0.055090588 13157823
0.4485589 0.062379271 0.055632632 13355714
0.45180956 0.066910774 0.054625653 13289922
0.45654657 0.074911721 0.054906126 13684684
0.45900002 0.080738224 0.059078276 13355722
0.46035722 0.082247958 0.054788467 12566200
0.44268423 -0.13114472 0.064176507 13683397
0.43748936 -0.12263157 0.064939156 14604239
0.44046152 -0.12759939 0.064742118 13814210
0.43313912 -0.11493599 0.06506487 12630191
0.42625764 -0.10434397 0.065233827 12039339
0.42999995 -0.10914382 0.063839167 11380381
0.41717389 -0.092582472 0.065179393 11381664
0.42117038 -0.09770719 0.064738765 11972773
0.40840006 -0.081644148 0.066044159 11315618
0.41252315 -0.086327679 0.064445183 11316136
0.39850003 -0.070770994 0.068548672 11512484
0.40344217 -0.075052172 0.064856552 11117982
0.39465949 -0.064717412 0.065132372 11446946
0.38794595 -0.053374793 0.065846115 11775910
0.39090699 -0.057527754 0.063442722 11709347
0.38450757 -0.044791125 0.065081246 12368307
0.3820152 -0.034791596 0.064851798 12368563
0.38171092 -0.024803178 0.064880416 12565430
0.38446862 -0.015266029 0.065073103 12829888
0.3879661 -0.0078612501 0.065710329 12567487
0.39176276 -0.002932216 0.064534932 12633024
0.39585364 0.0030865292 0.065650471 12172477
0.40170586 0.008402314 0.064695254 12632768
0.40628955 0.013329959 0.065465391 12435389
0.41186109 0.018107027 0.064149357 12565943
0.41608462 0.023409346 0.065526843 12764355
0.42141944 0.028175939 0.063308232 12763581
0.42588237 0.034667958 0.065320045 12829888
0.43000004 0.039146498 0.062392123 13355716
0.43424165 0.044873688 0.064921685 12501179
0.43888241 0.051090848 0.066702083 12763833
0.44292659 0.056159038 0.064751863 13618117
0.44781467 0.063496642 0.065634973 13356228
0.45079306 0.068196841 0.06420742 13092801
0.45513418 0.075039424 0.064837866 13159110
0.4581334 0.081014968 0.06539578 12566199
0.4605 0.083338797 0.061068464 12040114
0.44209999 -0.13026227 0.075015746 14143689
0.43708891 -0.1228328 0.075128876 14143690
0.44038701 -0.12756352 0.074108988 13682882
0.42899999 -0.11050106 0.077646241 11512738
0.43203789 -0.11516909 0.074886054 12565168
0.42488098 -0.10478689 0.075069882 11578533
0.43000001 -0.10958422 0.070445225 8223090
0.41590145 -0.094054908 0.075315155 11381153
0.42046672 -0.098689884 0.073410161 11579045
0.40644127 -0.083311386 0.075449906 11315360
0.41146874 -0.088307373 0.073938437 11709604
0.39717025 -0.072436325 0.076002501 11775655
0.40175858 -0.076916113 0.074213162 11578530
0.38889998 -0.061327629 0.078096122 11379610
0.39276984 -0.065413654 0.074693546 11512227
0.38612288 -0.055018365 0.075045608 11973547
0.37844452 -0.041911561 0.078289822 11776428
0.38176382 -0.045410924 0.07444869 12170927
0.3770507 -0.034534771 0.07656996 9078143
0.38039535 -0.035768017 0.071906507 12565685
0.37702578 -0.025228593 0.076250263 9276809
0.38012505 -0.023847064 0.071311973 12435903
0.3783637 -0.017792933 0.078210481 12697274
0.38180736 -0.014490393 0.074377641 12763583
0.38635388 -0.0058746543 0.075454146 12238013
0.39047062 -0.0016471846 0.072356172 11317939
0.38900003 0.00042955644 0.078905955 12829637
0.39422724 0.0043171872 0.074505195 12172217
0.40000004 0.0093765892 0.072670549 13224902
0.39900002 0.010403971 0.078910574 13290184
0.40408421 0.014805375 0.075129569 12171960
0.41050005 0.019112771 0.070854038 12172986
0.40855554 0.020749165 0.077983491 13224645
0.41447473 0.025179345 0.074726023 12829888
0.42000002 0.029632874 0.070773423 10987679
0.41845456 0.030860132 0.076923989 13750479
0.424052 0.035502728 0.074941725 12828863
0.42844445 0.040593393 0.077878028 12434096
0.43276197 0.045089144 0.074680999 12829886
0.43797675 0.052149367 0.075517148 13486787
0.44161707 0.057095531 0.074478574 13487300
0.44681177 0.064846866 0.075090215 13027009
0.45000002 0.069673993 0.072141558 13751505
0.44900003 0.070570283 0.079864629 14276305
0.45302641 0.074977301 0.07487011 13027010
0.45533335 0.080093257 0.07139688 11711405
0.442 -0.1302328 0.083172336 14078153
0.43682927 -0.12332708 0.084733516 13748675
0.44036844 -0.12845059 0.086632036 13880517
0.42807692 -0.11156176 0.085660137 10920091
0.43193445 -0.11658178 0.084552415 12893365
0.41810006 -0.10097291 0.087383732 11183773
0.42321923 -0.10551775 0.084789887 11643812
0.40849999 -0.091354646 0.088120304 11710374
0.41407228 -0.095573343 0.08455281 11512738
0.39900002 -0.080200449 0.088718273 12431273
0.40437898 -0.085013218 0.085161731 11184033
0.41000003 -0.089130208 0.080606148 11052700
0.39534038 -0.074572444 0.085483946 11447204
0.40018186 -0.0789904 0.082337447 11250082
0.38752568 -0.063394777 0.085788541 11775139
0.39095002 -0.067761607 0.083515607 11775396
0.38312706 -0.055075459 0.084997587 12104877
0.37698984 -0.043851219 0.085522503 10131091
0.38067645 -0.048367653 0.082990758 11315362
0.37196988 -0.03474981 0.084835291 2831149
0.37185889 -0.024750592 0.084730357 3357239
0.37696368 -0.015623817 0.085409954 11973550
0.38038102 -0.011749204 0.081990801 13026241
0.37900001 -0.0094151273 0.088929281 11711667
0.38306242 -0.0050683506 0.084884867 12499896
0.38768083 0.0016920671 0.085906766 12894396
0.39291462 0.0064397133 0.084600724 12566460
0.39737737 0.012189509 0.085982233 12368823
0.40197173 0.01691547 0.084470466 12633021
0.40698317 0.022824829 0.085611872 12895680
0.41237259 0.0271111 0.08398325 12566717
0.41662002 0.032206804 0.085744821 12895682
0.42225868 0.037160221 0.084597513 13092545
0.42705265 0.042182524 0.085401751 13289665
0.43162069 0.047042795 0.084784515 12961474
0.43724066 0.05326023 0.084840141 13356232
0.44072405 0.057921581 0.084652469 13289405
0.44542053 0.064723372 0.084971465 13027010
0.449 0.070974566 0.086090475 13486274
0.45155767 0.074716784 0.084279738 12894907
0.44149998 -0.13119279 0.096171655 12959415
0.4365294 -0.12353779 0.095415883 13682879
0.44021419 -0.1283451 0.094789512 13880515
0.42617655 -0.11291769 0.095226176 10590609
0.43119356 -0.11793319 0.094276138 13946052
0.41612762 -0.10271547 0.095544599 11709861
0.42187816 -0.10744432 0.094330765 11709604
0.40760732 -0.093589135 0.095416144 11447205
0.4116061 -0.097744361 0.093735494 11973035
0.39725649 -0.082237393 0.096529536 11248798
0.40244442 -0.086625323 0.09424635 11249054
0.38796666 -0.072019905 0.097099304 11643811
0.39307404 -0.076120377 0.09414129 11315105
0.3846159 -0.065089867 0.095014378 12367534
0.37836209 -0.052672278 0.096772082 12302513
0.38092405 -0.056679796 0.093771294 11972777
0.37594432 -0.044955716 0.094804808 9934224
0.36822897 -0.032991279 0.095924616 2829868
0.37077436 -0.036968425 0.093838729 2830123
0.3681927 -0.026454793 0.096237116 2895662
0.37056679 -0.023140943 0.093384504 2895920
0.37568039 -0.015255269 0.094959468 11184805
0.37830311 -0.0073502753 0.096163683 11645613
0.38101435 -0.003144643 0.094049312 11844281
0.38527346 0.004054226 0.095367372 12369081
0.39105883 0.0084210373 0.092227958 12961217
0.38885716 0.010399682 0.098426595 13486789
0.39461458 0.014572572 0.095174506 12566715
0.40069234 0.018674977 0.09169022 12237492
0.39900002 0.020678699 0.098992996 13947594
0.40585375 0.025218187 0.095448285 12960701
0.41081819 0.028985269 0.092830904 12894395
0.40900001 0.030771727 0.099559069 13424597
0.41518188 0.034276493 0.095160753 12829630
0.42075005 0.038895823 0.093995698 12434358
0.42557144 0.043755099 0.09557426 12895424
0.43037036 0.048425682 0.094049945 12764609
0.4353604 0.054739859 0.095195293 12764355
0.44000003 0.059541956 0.093199469 13356231
0.44440976 0.06502226 0.09491203 13092547
0.44883007 0.072844021 0.095078737 12303285
0.45000002 0.074941285 0.090577073 12105906
0.43880004 -0.13072827 0.10712062 14143173
0.44021431 -0.1318415 0.10354944 12828341
0.42800003 -0.12109754 0.10808866 14472393
0.43463635 -0.12511232 0.10441488 13551293
0.44000003 -0.12964351 0.10092483 14143173
0.41825002 -0.11075152 0.10890868 10986136
0.42434615 -0.11494014 0.10508145 11314330
0.43016669 -0.11936143 0.10185777 14209220
0.40854546 -0.10063891 0.10762007 12367532
0.41424006 -0.10515124 0.10498993 12301483
0.42040005 -0.10910603 0.10174273 12104103
0.39783335 -0.090521209 0.10879138 11514278
0.40447325 -0.095005415 0.10473806 11644066
0.41050002 -0.099809773 0.10040411 10854295
0.38883337 -0.080584161 0.10663376 12104879
0.39514521 -0.085101619 0.10552669 11447459
0.40030003 -0.088521525 0.1026419 11315617
0.38534522 -0.074550115 0.10537302 11776170
0.39146158 -0.078686446 0.10128016 11841190
0.37843141 -0.062396016 0.10630863 12763577
0.38131642 -0.066592805 0.10383268 12368562
0.37673786 -0.054892853 0.10499127 12829116
0.38000003 -0.059479233 0.10050616 10461081
0.37411901 -0.045291107 0.10505467 10394776
0.36619064 -0.03453242 0.10529677 2501675
0.37046149 -0.039573763 0.10378509 2237733
0.3656556 -0.025371512 0.10510733 2763561
0.37 -0.020668389 0.10132596 2959652
0.37396136 -0.014800172 0.10451192 11250856
0.3766768 -0.0052433489 0.10518808 11974582
0.38000003 -0.0010630266 0.10080269 12236209
0.37844831 0.0014979752 0.10715117 12501438
0.38211712 0.005740026 0.10449187 12369850
0.38664636 0.013000587 0.10586349 12698044
0.3920351 0.017230218 0.103652 12698047
0.39604175 0.022345131 0.10615027 13092545
0.40323603 0.026793413 0.10409793 12632251
0.40776664 0.031762127 0.10568144 12895165
0.41419354 0.03616228 0.10396262 12434873
0.42000002 0.039465148 0.10027025 11843763
0.41833332 0.040287863 0.10705224 11710119
0.42362919 0.045100186 0.10491703 12829376
0.43000001 0.049464535 0.10064436 13225165
0.42810002 0.050549217 0.10751323 13421768
0.43389407 0.055423915 0.10484742 13158340
0.43864289 0.06138796 0.10750683 13420996
0.44295898 0.065765411 0.104782 13026751
0.44737843 0.072214179 0.1042805 12237749
0.42634624 -0.12205394 0.11395231 14209480
0.41792312 -0.11188892 0.1152788 11643554
0.42218754 -0.11649274 0.11411016 10326669
0.40766671 -0.10207625 0.11313748 11447204
0.41363642 -0.10738628 0.11309909 11907241
0.39667502 -0.092597418 0.11429085 10789791
0.40276667 -0.097086474 0.11224213 11513254
0.3876923 -0.08183904 0.11297606 11052445
0.39266667 -0.087067083 0.11246046 11250337
0.38473815 -0.074896038 0.11445113 11250084
0.39033332 -0.078459203 0.11968721 9670538
0.37836966 -0.06269154 0.11305334 12170929
0.38123208 -0.066303916 0.11588029 11053219
0.37630838 -0.055054195 0.11464081 11973807
0.36875004 -0.040453322 0.11414602 3224629
0.37369731 -0.045698844 0.11478794 9605516
0.36370605 -0.034910861 0.11529849 2238758
0.36393726 -0.025009332 0.11521021 2500900
0.36790004 -0.019085957 0.11496224 9538950
0.3730368 -0.013940696 0.11524523 10395288
0.37422922 -0.0051464629 0.11490786 11710895
0.37710756 0.004550152 0.11509692 12960961
0.38040006 0.0087322341 0.11159446 13684168
0.37876925 0.011445655 0.11784595 12632513
0.38342339 0.015476257 0.114623 13290441
0.39000002 0.019299267 0.11045504 12434877
0.38789281 0.021433676 0.11653576 13882834
0.3942951 0.024563536 0.1134104 12895938
0.40025005 0.028786244 0.11296628 13356742
0.39900002 0.030953428 0.11954245 13422025
0.4045541 0.033713661 0.11588425 13224901
0.41221055 0.038684543 0.11495715 12631992
0.4163847 0.042746719 0.11632527 13158593
0.42165515 0.046654668 0.11381774 12566975
0.42642859 0.052050672 0.11551615 13092804
0.43268633 0.05679068 0.11459472 13027010
0.43769383 0.062649257 0.11544967 12895166
0.44132432 0.067830503 0.11470787 12697529
0.44333336 0.070994824 0.11420528 11908782
0.39360005 -0.080957405 0.12271805 9277834
0.38858333 -0.07223276 0.12305591 9868431
0.3913095 -0.076477662 0.12430378 10065808
0.38467857 -0.065468356 0.12318264 10066837
0.37773815 -0.053421348 0.12201587 10065805
0.38033333 -0.059531406 0.12107354 10725021
0.36900002 -0.040480748 0.1200565 3026731
0.37665713 -0.046212226 0.12272599 9473670
0.35900003 -0.032180063 0.12790856 2501672
0.36053458 -0.034530967 0.12457456 2435879
0.35900003 -0.029298605 0.12814867 2896432
0.36118686 -0.024883516 0.12490258 2633259
0.36664709 -0.018814286 0.12412268 9737873
0.37319455 -0.014287366 0.12348376 10000532
0.37589538 -0.005121903 0.12413576 10000533
0.37794125 0.0034542435 0.12363312 10526619
0.38102561 0.0063945279 0.1276968 11381155
0.37900001 0.011213338 0.12064831 11645357
0.38486847 0.014752918 0.12542854 10592155
0.39000002 0.018994935 0.12932365 10066839
0.38860002 0.023416575 0.12385467 11645357
0.39212903 0.026666908 0.12369346 12764096
0.39688891 0.032342523 0.12448573 13356491
0.40270841 0.036981385 0.12463493 13422026
0.40570003 0.041016594 0.12518869 13290696
0.41543588 0.045307271 0.12296806 13356745
0.42078573 0.049108565 0.12473168 13487818
0.42476317 0.05406706 0.12560733 13356232
0.43104351 0.058447961 0.12343574 12961730
0.43631244 0.064527549 0.12486555 13093059
0.44000003 0.068812385 0.12169746 12171448
0.43900001 0.070283189 0.12870046 11382439
0.44016671 0.070641547 0.12491929 11776684
0.36866668 -0.041019291 0.13692199 8288882
0.3705 -0.041078977 0.13919309 9078656
0.36488241 -0.035018742 0.13385244 1844254
0.37073681 -0.035828214 0.1391675 1185556
0.36375719 -0.023865303 0.13444303 2236447
0.37062502 -0.027970409 0.13934816 856845
0.36133337 -0.019197525 0.13335343 7892848
0.38165003 0.0052710539 0.1312743 10658208
0.38757691 0.012973228 0.13206795 11776684
0.39100006 0.018007815 0.13246305 11579562
0.39308336 0.021757944 0.13257068 11053218
0.40400004 0.028321404 0.13351811 9145993
0.40525004 0.0337894 0.13351879 9343889
0.41350001 0.035232529 0.13828546 8949382
0.42133334 0.048133072 0.13292453 12895428
0.4244675 0.05546923 0.13412142 13750223
0.42812502 0.060774848 0.13440749 13947601
0.43556902 0.066659331 0.13453506 13552841
0.4385455 0.070793547 0.1353102 11842478
0.36400005 -0.041075997 0.14636384 5656134
0.37066665 -0.041097458 0.14142366 9407364
0.36520374 -0.035515573 0.14684914 922895
0.37101418 -0.034228455 0.14255825 922895
0.36399066 -0.024771677 0.14683397 1315600
0.37123337 -0.02795097 0.14317402 725772
0.36100003 -0.018897984 0.14914519 6367270
0.41657144 0.03622039 0.14166461 10987682
0.4215 0.039113313 0.14190675 9737872
0.42400002 0.0408336 0.14291406 9737871
0.4338485 0.056009069 0.14448924 10197914
0.43803456 0.064713389 0.14432046 12632255
0.43999997 0.06648697 0.14732382 10988203
0.43900004 0.070437349 0.14159819 13026241
0.44000003 0.070700809 0.14470185 12434878
0.36152175 -0.04105835 0.15511611 2107170
0.36182553 -0.035006002 0.15495044 1186325
0.36113796 -0.024961328 0.15493959 1382678
0.36100003 -0.019060504 0.15366326 3416354
0.43900001 0.059235349 0.15002538 11646124
0.44000003 0.062202916 0.15062465 11580845
0.34612504 -0.041211385 0.16857044 2896938
0.35610524 -0.041211873 0.16748993 659979
0.36160001 -0.041574527 0.16360971 1711898
0.34698585 -0.035264771 0.168346 2239525
0.35555455 -0.034625128 0.16613524 1120276
0.36039349 -0.035113629 0.16223384 1777946
0.34759516 -0.026256302 0.16877118 2239014
0.35500926 -0.025071047 0.16687833 1120021
0.36072138 -0.025825128 0.16296257 1975070
0.35716665 -0.019253626 0.16813439 2566442
0.36000001 -0.019267017 0.16600874 986895
0.33900002 -0.040959254 0.17914106 2567976
0.34196779 -0.041684676 0.17412876 2764584
0.33875 -0.038351737 0.17920659 2436647
0.34234309 -0.034957383 0.17394312 2370341
0.33900002 -0.022111135 0.17695864 2238242
0.34278601 -0.025355013 0.17345636 2304037
0.34300002 -0.019481344 0.1735841 2304555
0.35500002 -0.01899942 0.17035156 2764848
0.78693759 -0.16439958 0.2572971 10196365
0.79233336 -0.16853581 0.25407392 9604485
0.77554548 -0.15473588 0.25760934 13749442
0.78100002 -0.15881217 0.25593165 11511707
0.77216673 -0.14526886 0.25665271 13487299
0.77094442 -0.13540992 0.2568481 12566971
0.77247065 -0.125696 0.2568602 12502461
0.77300006 -0.11556445 0.25873891 9738127
0.77359998 -0.10478668 0.25893971 10000788
0.77400005 -0.098500445 0.25907362 10000532
0.78855562 -0.17224559 0.26620162 9342600
0.79068422 -0.17666259 0.26446274 9408394
0.77875006 -0.16108954 0.26522207 10394001
0.78473914 -0.16612838 0.2642605 9539207
0.77500015 -0.15499552 0.2655153 12170667
0.77266675 -0.14495032 0.26471245 12171181
0.77192581 -0.13508058 0.26520753 12434868
0.77216655 -0.12538172 0.26478702 12106417
0.77254283 -0.11471983 0.26478583 11974058
0.77330023 -0.10480667 0.26541549 12171182
0.77387112 -0.095357552 0.26598448 12237231
0.77399999 -0.088534735 0.26813337 12630702
0.76600003 0.075961843 0.2681514 12761520
0.76616663 0.08514636 0.26751193 12433839
0.76766664 0.090104736 0.26773643 10592407
0.77237499 0.095181987 0.26802135 10525588
0.78850007 -0.17210525 0.27431032 9473672
0.79143757 -0.17703275 0.27509946 9407623
0.77866673 -0.16076846 0.27582571 10130572
0.78431582 -0.16625677 0.27489361 9342086
0.77492601 -0.15489294 0.27456701 11445918
0.77296311 -0.14491354 0.27521309 11840931
0.77186203 -0.1351472 0.2753664 12367791
0.77136105 -0.12525126 0.27534354 11974831
0.77136666 -0.11532011 0.27534553 12172467
0.77188897 -0.10545889 0.27553102 12236977
0.77245712 -0.094815716 0.27560446 12696755
0.77180004 -0.088644065 0.27712482 13683649
0.76618201 0.075091168 0.275208 11379354
0.76570004 0.084496982 0.27511609 11512995
0.76739997 0.090073429 0.27482989 12632504
0.77259099 0.095209502 0.27487895 12039341
0.77742863 0.10113198 0.27451912 12960185
0.78444451 0.10595522 0.27664715 12171182
0.78900003 0.11292642 0.27840915 11185315
0.79000002 0.11565872 0.27811474 11185315
0.78900003 0.1240088 0.27887091 11316647
0.79000002 0.12624656 0.27853084 11250853
0.79090005 0.13541815 0.27861637 11382183
0.78900003 -0.17152131 0.28164151 9277061
0.792 -0.17526661 0.28528827 9342600
0.78537506 -0.16507268 0.28486624 9801864
0.79000002 -0.16988929 0.28847137 9408393
0.77517402 -0.15487067 0.2851074 12431783
0.76900005 -0.14174506 0.2882292 13354167
0.77125806 -0.1455918 0.28372183 12168868
0.76900005 -0.13516918 0.28710401 12696751
0.77058339 -0.13504736 0.28228223 12235435
0.76900005 -0.12756816 0.28687897 11974572
0.77030438 -0.12425642 0.28425771 11447716
0.76900005 -0.11226608 0.28800416 13356742
0.77029186 -0.11523495 0.28480512 11448232
0.76900005 -0.10461505 0.28710404 11777711
0.77022243 -0.10513169 0.28465447 11381927
0.76900005 -0.096363939 0.28920433 14343122
0.77033347 -0.095178865 0.28474531 11973292
0.77028573 -0.089397773 0.28410527 11578019
0.76442862 0.076343074 0.28432748 10592151
0.76338243 0.084874392 0.28500354 11908011
0.76800007 0.091428749 0.28454816 12632248
0.77294451 0.095854431 0.28455445 12105648
0.77750009 0.10035963 0.28481641 11710892
0.78539133 0.10602101 0.28470758 11513512
0.78879982 0.11474456 0.28526229 11053730
0.78885686 0.12477802 0.28541517 11185317
0.79000002 0.12971419 0.28107378 11382183
0.78900003 0.13139705 0.28810623 11119524
0.79056531 0.13568296 0.28473538 11316647
0.78623527 -0.16399625 0.29467335 10065034
0.79000002 -0.16850224 0.29586899 9473413
0.77530009 -0.15484531 0.29498893 12499116
0.78000003 -0.15860882 0.29942781 11511966
0.76900005 -0.14287022 0.29304481 12170667
0.77077782 -0.1463086 0.29518718 11644581
0.76900005 -0.13776952 0.29220471 13618370
0.77061123 -0.1343497 0.29502344 11184802
0.77058643 -0.12503225 0.29413661 11250342
0.77076018 -0.11515642 0.29436785 11315112
0.77135712 -0.10538564 0.29430845 11183777
0.77136844 -0.096028693 0.29412282 11184802
0.77000004 -0.089879774 0.29108253 12106162
0.76405883 0.076526813 0.29562804 9737103
0.76408011 0.084535949 0.29446447 10788248
0.76850003 0.091102675 0.29411304 11248800
0.77383333 0.095564038 0.2953485 10526104
0.77900004 0.10055325 0.29266113 11514024
0.78590477 0.10583137 0.29494783 11250596
0.78859991 0.1147153 0.29534611 11053473
0.78863984 0.12439571 0.29469597 11185060
0.79000002 0.1274949 0.29919794 11185061
0.78900003 0.13139705 0.29180035 11382437
0.79170841 0.1357132 0.29512069 11316645
0.78738469 -0.16351555 0.3043901 9671305
0.79042858 -0.16760264 0.30607516 9868941
0.77660006 -0.15282878 0.30394214 9671051
0.78250003 -0.15751711 0.30657014 10132114
0.77469993 -0.1451979 0.30374441 9671564
0.77520841 -0.13494873 0.30394498 10000787
0.77540004 -0.12499974 0.3040207 10066839
0.77531582 -0.11562347 0.30336523 10198169
0.78149998 -0.11408977 0.30869406 10461337
0.77650005 -0.10608805 0.30217573 9342603
0.78412503 -0.10528934 0.30789685 10855580
0.77750003 -0.097126305 0.30210838 9474186
0.78575003 -0.098156027 0.30807588 10790045
0.76900005 0.068658322 0.3069067 6250851
0.76790011 0.074311756 0.30449241 8422273
0.77000004 0.078211166 0.30775639 8487294
0.76800007 0.083253853 0.30231246 10723992
0.77171433 0.085806988 0.30618456 10592407
0.77550006 0.09299355 0.30420682 11644838
0.78285712 0.098173015 0.30628651 10658458
0.78768426 0.10468636 0.30431935 10855838
0.79020005 0.10865867 0.30741349 10855839
0.78900003 0.11107937 0.30103567 10987936
0.79083329 0.11519507 0.30559456 10987680
0.79129177 0.12460047 0.30492347 11119267
0.78850007 -0.16218393 0.31222773 10461593
0.7917648 -0.16569182 0.31604797 10527130
0.78671426 -0.15471318 0.31463742 10527131
0.79000002 -0.15509406 0.31898654 10526874
0.7845 -0.14517446 0.31390166 10592924
0.79000002 -0.14492233 0.31991127 10658460
0.78564703 -0.13519667 0.31458253 10329495
0.79000002 -0.1347506 0.31991127 10461081
0.78541183 -0.12498951 0.31448957 9934737
0.79000002 -0.12596595 0.31991127 10461081
0.78687501 -0.1152192 0.31415835 10197652
0.79016668 -0.11443052 0.31843719 10329752
0.78860009 -0.10645004 0.31232923 10657944
0.79300004 -0.10462792 0.31675223 9934480
0.79275 -0.098565191 0.3149991 10657946
0.77050006 0.068792254 0.31111342 7895157
0.77252191 0.075501435 0.31417468 9803409
0.77571428 0.084955327 0.31373981 10132116
0.78250003 0.089097448 0.31779063 10461338
0.77900004 0.091434985 0.31180951 10527131
0.78594446 0.095833406 0.31510109 10592924
0.79000002 0.09827432 0.31991127 10855839
0.78900003 0.10245974 0.31211805 10724510
0.79150009 0.10621237 0.31555074 10856096
0.7932272 0.11530425 0.31514227 10921889
0.79345006 -0.12447151 0.32549137 10461338
0.77700007 0.073921181 0.32192278 10395545
0.78650004 0.078506798 0.32770002 10527131
0.77900004 0.080493063 0.32092774 10461338
0.78642857 0.085207939 0.32517466 10592924
0.79050004 0.088158943 0.32936662 10724510
0.78814286 0.09303619 0.32232261 10724510
0.79169232 0.095493369 0.32658544 10790303
0.78900003 0.077832229 0.3305887 10395545
0.79171431 0.077569902 0.33570069 10395545
0.78888893 0.083772391 0.36788836 10658719
0.79136014 0.086143404 0.3636601 10658719
0.79316133 0.094836384 0.36503127 10790305
0.78874999 0.085040331 0.3734149 10527388
0.79000002 0.088719063 0.37600985 10658974
0.79208016 0.094827615 0.37489811 10724767
0.78900003 0.082449883 0.38692412 10330522
0.79021436 0.086937837 0.38580203 10462108
0.7927143 0.094903633 0.38503414 10659230
0.78900003 0.083373412 0.39338884 10396315
0.79005879 0.086966939 0.39391649 10462109
0.79156685 0.094765425 0.3952218 10593694
0.79254293 0.10500505 0.39467558 10659488
0.7925384 0.11521745 0.39493796 10791074
0.79000002 0.088333763 0.40475267 10527902
0.79050022 0.09477853 0.40502512 10527902
0.79188228 0.10494456 0.40502167 10659487
0.78841668 0.087618671 0.41386005 10462108
0.78884196 0.094631813 0.41624779 10527901
0.79000002 0.09592054 0.41221333 10462108
0.78900003 0.10492248 0.41893992 10593694
0.79048294 0.1052272 0.41403547 10593694
0.78900003 0.11477349 0.41832417 10725280
0.7913202 0.11511153 0.4130666 10659487
0.78900003 0.12169997 0.41878596 10725280
0.79302943 0.12508135 0.41455212 10725281
0.76366669 0.089635231 0.42544866 10527903
0.78600001 0.088576525 0.42133367 10462108
0.7661429 0.091976278 0.42708477 10593181
0.77366668 0.095539667 0.42659 10658718
0.78683335 0.096804895 0.42399719 10593694
0.77700001 0.1009022 0.42863497 10790303
0.78799987 0.10510944 0.42543525 10659487
0.7889998 0.11461956 0.42463502 10659231
0.79000002 0.11861777 0.42902607 10791073
0.78900003 0.1210535 0.42257243 10659230
0.79033345 0.1257614 0.42550668 10725023
0.79282141 0.13574874 0.42472449 10790816
0.76780003 0.094795398 0.43170804 10724510
0.77244449 0.098904349 0.43355626 10593181
0.77654552 0.10288219 0.43493798 10658974
0.78494442 0.10704045 0.43393052 10724510
0.7886399 0.11413147 0.43537644 10724510
0.79000002 0.117878 0.43235502 10724767
0.78900003 0.1232392 0.43802619 10790303
0.7901364 0.12561725 0.43389234 10790303
0.79270369 0.13469821 0.43441007 10790559
0.77700001 0.10393303 0.44015586 10527901
0.78340006 0.10772522 0.44231352 10593181
0.78824997 0.11466719 0.44376045 10724767
0.7889998 0.12493234 0.44418311 10790303
0.79000002 0.12971419 0.44012251 10856096
0.78900003 0.13213588 0.44547606 10724768
0.79163641 0.13647293 0.44372752 10790560
