# .PCD v0.7 - Point Cloud Data file format
VERSION 0.7
FIELDS x y z rgb
SIZE 4 4 4 4
TYPE F F F U
COUNT 1 1 1 1
WIDTH 454
HEIGHT 1
VIEWPOINT 0 0 0 1 0 0 0
POINTS 454
DATA ascii
0.4442001 -0.051573414 -0.0023765252 12959929
0.44385013 -0.045055624 -0.0026188053 15131867
0.44667855 -0.03521087 -0.0026738371 15198431
0.45000002 -0.030404517 -0.0010737763 14671833
0.45183337 -0.028056473 -0.0010763953 14013903
0.45540005 -0.061047632 0.0085091712 12434355
0.44550005 -0.053026296 0.0051951148 12631734
0.45222229 -0.058082957 0.0084491242 12500147
0.43885723 -0.043203585 0.0078562601 15197917
0.44155401 -0.045549277 0.0040952479 14737111
0.43885723 -0.038457386 0.0080520147 15395555
0.44415069 -0.034510668 0.0049036196 15066591
0.45000002 -0.030404517 0.002086598 14606040
0.44900003 -0.029285839 0.0083886636 14343125
0.45446968 -0.025547413 0.0054774676 14079953
0.46000001 -0.020311495 0.0064404397 13882575
0.46280956 -0.017593667 0.007824637 13816783
0.45652947 -0.062377397 0.014752588 12434610
0.46330005 -0.066994764 0.018419513 12368818
0.43875003 -0.050572224 0.017825769 13091001
0.44473082 -0.054004855 0.015075882 12565683
0.45211112 -0.058478758 0.013971331 12434353
0.43593106 -0.04463781 0.014916284 14737109
0.44000003 -0.048956424 0.010623962 13750213
0.43654662 -0.036343705 0.015085754 15198432
0.44221738 -0.031675167 0.013657583 14672091
0.4474287 -0.02825108 0.016226731 14014160
0.45401964 -0.023849793 0.014774871 13948369
0.46000001 -0.020311495 0.013440084 14145748
0.46567652 -0.017413609 0.014409353 13619404
0.47322857 -0.013387026 0.016630428 13487818
0.479 -0.0099369716 0.014555891 13422024
0.48135713 -0.007569104 0.017526034 13356232
0.46900001 -0.070116073 0.021388605 12171953
0.47467571 -0.073433682 0.025391079 12106160
0.45555556 -0.061712272 0.021308444 12237490
0.46561113 -0.066948861 0.022753308 12171953
0.4720909 -0.068167135 0.027813178 12105647
0.43673918 -0.052446242 0.025350913 12500147
0.44387498 -0.055933159 0.022881066 12302769
0.42899999 -0.04120459 0.028770469 15132638
0.43161294 -0.04499802 0.024428818 14473681
0.42900002 -0.039028611 0.029105235 15395810
0.43279111 -0.035087392 0.024967756 15066592
0.44050002 -0.030793864 0.021119503 14606299
0.43900001 -0.029147444 0.027728265 14277077
0.44551221 -0.026834551 0.024672031 13816781
0.45184377 -0.022196241 0.024505055 13882573
0.456 -0.019278528 0.026003573 13027265
0.4655 -0.017825892 0.025043089 13224644
0.4760769 -0.013183408 0.024329836 13356232
0.47900006 -0.0099369725 0.025769368 13290695
0.48060712 -0.0077993535 0.024891166 13290696
0.49200001 -0.0032959743 0.020709841 13224644
0.50600004 -0.0010206521 0.026037367 13225416
0.509 0.00016487473 0.026191736 13422795
0.51051855 0.0045498335 0.027951857 13224903
0.49850002 -0.082112432 0.039655402 11974574
0.47631249 -0.072606303 0.031965725 11974574
0.48200002 -0.076007724 0.034397054 11974574
0.49200001 -0.078929581 0.038755186 11974574
0.47400004 -0.067906201 0.032473717 11974574
0.42899999 -0.050410639 0.036302693 12894649
0.43025005 -0.051102884 0.033343006 12763063
0.42723921 -0.044601291 0.035294656 14276816
0.43000004 -0.048514873 0.030850807 13289407
0.42718935 -0.036657285 0.035787079 15263969
0.43050009 -0.032259893 0.033538345 14737885
0.43443754 -0.028332055 0.035301518 13816783
0.44609523 -0.024959017 0.033501118 13553610
0.4516522 -0.021181697 0.034735885 13750474
0.45541671 -0.017972937 0.034541834 13093058
0.46300003 -0.015383461 0.037193473 13224644
0.47700003 -0.012923085 0.030607004 13422023
0.48250005 -0.011133659 0.03425267 13224644
0.49000001 -0.010165169 0.038979232 13290437
0.48448005 -0.0076863198 0.033195771 13290437
0.49362963 -0.0041522579 0.037212729 13422023
0.5 -0.0010085495 0.036263201 13290439
0.50673681 0.0019167019 0.035560593 13422025
0.51242858 0.0061361841 0.034804523 13356232
0.52050006 0.0099165989 0.038359828 13356232
0.52457148 0.012102422 0.036819927 13356232
0.53347063 0.015682045 0.037222471 13356232
0.54311115 0.018823691 0.034299225 12369337
0.5468421 0.022278929 0.036085885 11514282
0.55057144 0.025404481 0.036618091 11185316
0.51633334 -0.092908233 0.048328068 12040367
0.49879998 -0.081811048 0.042716037 11974574
0.50351721 -0.084508941 0.04562559 11974574
0.51140004 -0.089384839 0.047627397 11974574
0.49650002 -0.078586042 0.044450775 11842988
0.42888886 -0.05117853 0.045942362 12565943
0.4301905 -0.053188603 0.045683492 12368564
0.4236401 -0.045019444 0.04503734 13947852
0.42416519 -0.035000645 0.044992428 15132386
0.43000001 -0.030059844 0.040749412 14079955
0.4273158 -0.02902882 0.046463344 13948115
0.4305 -0.027789736 0.042740088 13554125
0.44300002 -0.024746208 0.04353698 13290956
0.45290911 -0.021731811 0.041233394 13159109
0.45420003 -0.018141376 0.041022219 12961472
0.48700005 -0.010674141 0.045002811 13290438
0.49000001 -0.010165169 0.041846983 13290438
0.48760003 -0.0076034688 0.048604675 13355975
0.49223331 -0.0059000477 0.042536784 13421768
0.504875 0.0014982114 0.041491937 13224646
0.51600003 0.0065058689 0.044918913 13421768
0.52150005 0.009935651 0.044533931 13421768
0.52494121 0.013511842 0.044826832 13553352
0.53221434 0.017528368 0.043932594 13618889
0.53614289 0.021693977 0.046590477 12894909
0.54442865 0.023483191 0.04239868 11513769
0.51683336 -0.092125796 0.053279951 12040367
0.52200001 -0.092703775 0.059854988 12040367
0.50494123 -0.083701208 0.0528243 11974574
0.51050007 -0.08767432 0.052759495 11974574
0.42155558 -0.050522558 0.054913998 12434614
0.41764995 -0.043667149 0.056228243 14276818
0.42105007 -0.0464161 0.052540291 13552582
0.41763154 -0.036808126 0.056701016 15263971
0.42090175 -0.033443533 0.053493984 15066593
0.42212504 -0.02907595 0.054506615 14079701
0.48833337 -0.0070814174 0.051994592 13355975
0.49442863 -0.0042157094 0.053393517 13487561
0.50187504 -0.0015978788 0.056814041 13553354
0.50605559 0.0012205006 0.055922542 13553354
0.51378381 0.0067432928 0.056308784 13553354
0.51825005 0.011086963 0.05517868 13487818
0.52381819 0.01433475 0.054265834 13487818
0.53300005 0.01795619 0.056435641 13882575
0.53737509 0.021954603 0.055327643 12368823
0.53100002 -0.10051752 0.068967 12697525
0.52741677 -0.093206525 0.066856913 12105903
0.53010005 -0.097120993 0.066740498 12303282
0.505 -0.081409194 0.06854561 11842988
0.51900005 -0.087311052 0.069230907 11908781
0.50100005 -0.079591528 0.069175534 11777195
0.41764709 -0.051511984 0.06594649 12236722
0.41523156 -0.045002833 0.065013111 13881547
0.41477314 -0.034884762 0.064948171 15263715
0.41786668 -0.028004073 0.065683141 14013652
0.42033336 -0.028727816 0.060660988 14408409
0.45857885 -0.013976544 0.0664557 12895428
0.46000001 -0.012234982 0.069975667 12961218
0.45900002 -0.0089848032 0.067674495 13224393
0.46000001 -0.0095428117 0.069437236 13290184
0.50392312 -0.0025105726 0.064499751 13224646
0.50716662 0.00095749577 0.064289674 13553611
0.51450902 0.0063342215 0.065125249 13553611
0.52488238 0.013477812 0.065897927 13619148
0.53111774 0.017945185 0.064553961 13421513
0.53347367 0.021011312 0.063856252 11448235
0.53100002 -0.10051752 0.070831619 12631732
0.51749998 -0.090996876 0.078418881 12237746
0.52521217 -0.094101392 0.073443882 12303539
0.53000003 -0.098839335 0.072187111 12566196
0.5062381 -0.081950918 0.075879857 11842988
0.51436371 -0.087193146 0.075067908 12106160
0.52050006 -0.088781893 0.071258157 12171953
0.50264293 -0.078424491 0.075955376 11777195
0.41433334 -0.050303806 0.073689021 12434357
0.40864703 -0.042016834 0.077863358 14605270
0.41208339 -0.045131657 0.074222989 13750217
0.40850011 -0.036790736 0.077627197 15197666
0.41207322 -0.034058664 0.073725268 15263715
0.41445726 -0.02679565 0.075122446 13947859
0.46268004 -0.012891191 0.073766693 12764097
0.46257144 -0.0092871422 0.073309831 13092804
0.50800002 0.00016455082 0.070142053 13553358
0.51553577 0.0061467038 0.075064763 13619406
0.52538896 0.013946424 0.074146748 13487821
0.53069246 0.017851992 0.077194877 11777200
0.53150004 0.020236149 0.076344691 10856097
0.51744449 -0.09182933 0.085511461 12434870
0.52100003 -0.094965525 0.084133729 12566457
0.50613338 -0.081277587 0.084422499 11974318
0.51284844 -0.086718075 0.08532837 12237491
0.49740005 -0.074829176 0.081253938 11842477
0.50340003 -0.07800962 0.085776672 11842733
0.41518185 -0.051470067 0.085160904 12302515
0.40662354 -0.043524384 0.085497379 14144464
0.41152 -0.047960199 0.083331682 12894652
0.40594524 -0.035167634 0.085098177 15263459
0.41 -0.03090129 0.080926083 15198179
0.40827778 -0.028753178 0.087221816 14868962
0.41226575 -0.025497058 0.084175251 13816529
0.50250006 -0.0021899538 0.086439297 13092805
0.51536512 0.005827928 0.085191675 13553356
0.52568191 0.01343374 0.084886685 13027013
0.53149998 0.017405801 0.084522337 10856097
0.53300005 0.020636424 0.08207918 10921889
0.51719999 -0.090883084 0.096596546 12435125
0.50690913 -0.081503488 0.093401387 12040112
0.51289469 -0.086383581 0.094989948 12303284
0.4942593 -0.074579068 0.094632417 11776941
0.5021112 -0.077418953 0.091529861 11908526
0.40800002 -0.050490014 0.090719439 12565687
0.39900002 -0.040346961 0.099615701 14276051
0.40242997 -0.044229828 0.094849043 13815241
0.39899999 -0.036978662 0.099502489 15066080
0.40166092 -0.034573216 0.094617151 15197666
0.40604424 -0.026826566 0.095953673 14474460
0.41352177 -0.023888461 0.091731928 13619152
0.50700003 -0.0010226693 0.091368109 13158853
0.51523721 0.0056797955 0.094672747 13289927
0.52383333 0.013218124 0.094805911 11447980
0.53100002 0.017575128 0.092585526 10856096
0.507375 -0.082240358 0.10345945 12106160
0.51150006 -0.08509443 0.10414822 12303283
0.50420004 -0.077970028 0.10550985 11842733
0.40472734 -0.051377688 0.10436921 12236980
0.39784622 -0.042117558 0.10603351 14276306
0.40178865 -0.046786811 0.10433203 13157825
0.39721191 -0.035418857 0.10532406 15131872
0.40000007 -0.031623151 0.10136931 15263972
0.39823076 -0.028985886 0.10826635 15132130
0.40373275 -0.025615465 0.1043928 14474202
0.41150004 -0.02033657 0.10378215 13224137
0.40900001 -0.01997452 0.10913384 13290186
0.41257146 -0.018079147 0.10884239 13290186
0.51820004 0.0081755416 0.10236384 12566716
0.51900005 0.011103009 0.10325058 10856096
0.52050006 0.011135099 0.10172065 10527131
0.79000002 0.079780273 0.10907917 11185058
0.51234996 -0.084277257 0.11479551 12303028
0.509 -0.076811068 0.11365356 11776684
0.51054555 -0.078772061 0.11591277 11842734
0.40149999 -0.051331371 0.11550234 12302515
0.39579776 -0.043720961 0.1150967 13881291
0.40007997 -0.048760783 0.11435966 12631482
0.39337105 -0.034864761 0.11462372 15065821
0.39607134 -0.026600918 0.11583293 14935010
0.40325716 -0.022920243 0.11266904 14277081
0.40784624 -0.019071532 0.11627453 13027013
0.41137043 -0.015968315 0.11375713 13158599
0.78900003 0.079679288 0.11725289 11250853
0.79000002 0.079780273 0.11277799 11316644
0.78900003 0.082449883 0.11817642 11382694
0.79052186 0.085627496 0.11438002 11514023
0.51313889 -0.084059455 0.12366944 12368564
0.51100004 -0.079684846 0.12468705 12039598
0.39700001 -0.05098753 0.1273077 12368308
0.40395236 -0.052378304 0.12278277 12105136
0.38892305 -0.041966245 0.1284993 14210512
0.39301029 -0.044666871 0.12458851 13552582
0.40044448 -0.049242876 0.12216173 12499638
0.38853344 -0.035237942 0.12739201 14868955
0.39104486 -0.034728114 0.12223867 15000283
0.38884997 -0.028821433 0.12787953 15132128
0.39333922 -0.024666013 0.12472881 14868702
0.3967143 -0.019108979 0.12641412 13092803
0.40024999 -0.01907899 0.12132157 13027015
0.78880006 0.078736261 0.12590131 11185061
0.7889998 0.084703304 0.12467811 11382440
0.79000002 0.087917656 0.12461416 11448233
0.78874183 0.095972613 0.12451084 11645612
0.79000002 0.091616467 0.12535393 11514026
0.78842849 0.1051987 0.12455069 11711403
0.79000002 0.10937075 0.12479912 12105905
0.78900003 0.11107937 0.12464114 11645609
0.79167861 0.11543094 0.12506206 11777195
0.38784856 -0.044001959 0.13501452 13815753
0.39000002 -0.047349516 0.13054097 12894652
0.38577318 -0.035096645 0.13499005 14802906
0.38736367 -0.026497224 0.13559639 15000799
0.39186493 -0.022182841 0.13296932 14605788
0.39557901 -0.01824405 0.13516964 13027014
0.40000001 -0.017662169 0.13295177 13027010
0.51100004 0.0097356047 0.13156556 11119270
0.51100004 0.013072541 0.13383216 10921889
0.78747368 0.076616623 0.13482915 11119524
0.78885716 0.083358653 0.13411576 11316647
0.79045463 0.087733284 0.13589062 11448233
0.38861111 -0.051679417 0.14776376 12434355
0.39000002 -0.052827496 0.14606191 12434355
0.38517061 -0.044560552 0.14549766 13618631
0.37900001 -0.030487215 0.14992744 3289660
0.38268483 -0.034816649 0.14510375 13224390
0.38437578 -0.025110342 0.14509711 14408407
0.39100003 -0.020315116 0.14063852 14408667
0.38829997 -0.01909901 0.14774027 14342872
0.39367649 -0.016695658 0.14514229 13422028
0.40283868 -0.011729414 0.14681773 13619406
0.40683332 -0.0090738805 0.14887077 13290186
0.41661903 -0.0064106463 0.14738986 12435391
0.47800002 0.0063093696 0.14880629 12961989
0.50400001 0.0096022394 0.141562 12567235
0.50550002 0.010814202 0.14257443 13422542
0.78800005 0.076998971 0.1418238 11185061
0.79033333 0.079196692 0.14797986 11185061
0.78900003 0.081526354 0.14126471 11382183
0.79186952 0.085856222 0.14480202 11382439
0.3863036 -0.05220047 0.15512881 12499892
0.37754005 -0.042357024 0.15669774 3685946
0.38226962 -0.04616648 0.15384817 10329754
0.37658998 -0.035009269 0.15528345 2830895
0.38021436 -0.036435015 0.1507255 2962490
0.37750003 -0.026923599 0.15590799 5330004
0.38158205 -0.022764429 0.15355676 13355978
0.38494524 -0.017512117 0.15584458 14408409
0.3943958 -0.013116314 0.154844 13422028
0.40100002 -0.01082139 0.15049374 13750990
0.40400001 -0.0093268491 0.15035939 13092807
0.41750002 -0.0052366201 0.15082113 12369854
0.42033339 -0.0041276203 0.15250224 12369855
0.47813055 0.0070645432 0.15433986 13093321
0.48000002 0.0089202523 0.15369895 13093577
0.47812504 0.011487742 0.15849723 13290956
0.48360533 0.014705397 0.15665054 13159369
0.48750001 0.020700343 0.15918127 10526876
0.38130611 -0.052323643 0.16544512 12697273
0.37600952 -0.043759499 0.16528809 5922653
0.38079411 -0.048906807 0.16392663 12894652
0.37263021 -0.034880944 0.16493452 2633516
0.37526923 -0.024985533 0.16507483 7566708
0.38000003 -0.020633938 0.16040501 14079441
0.37851727 -0.018118601 0.16745731 14408407
0.38159344 -0.015068213 0.16459636 14277079
0.39600003 -0.010996246 0.16036059 13290439
0.4276 0.0025446061 0.16815335 12501955
0.47500002 0.0084937382 0.16010419 13355979
0.47733334 0.01294646 0.16368246 13356236
0.48135474 0.017280465 0.16511874 13356493
0.48573342 0.022258036 0.16584279 12501182
0.49000001 0.026924359 0.16707194 10790303
0.37860718 -0.051157948 0.176043 13026495
0.38052166 -0.054004788 0.17479466 12763322
0.36830002 -0.040662874 0.17785275 2502958
0.37460822 -0.045262832 0.17480087 8092792
0.36784714 -0.034760557 0.17615497 2239017
0.37056613 -0.03536617 0.17153463 2502188
0.36797616 -0.028060868 0.17675945 2698540
0.37281653 -0.023766033 0.17434914 8158071
0.37711003 -0.01559195 0.1757405 13816527
0.38132143 -0.011862078 0.17255352 14211030
0.37859997 -0.0092723379 0.17919391 13883093
0.3836 -0.0075165946 0.17581411 13356492
0.39100003 -0.0026193617 0.17984509 12896198
0.42900002 0.0021475547 0.17071107 12698821
0.43326667 0.0059653423 0.17447799 13093065
0.45266667 0.009683934 0.17235263 13356751
0.43900001 0.010419269 0.17828733 13290188
0.44500005 0.012519351 0.17902185 13422031
0.45474076 0.014251024 0.17537652 13356751
0.463 0.01717787 0.1750956 13488336
0.47820005 0.017616551 0.17528461 13553615
0.48139998 0.018413693 0.17330271 13487822
0.46588886 0.021723391 0.17920575 13685715
0.47491306 0.024221942 0.17862745 13685714
0.48438168 0.024945756 0.17517591 13356492
0.49000001 0.02940974 0.17433688 10592925
0.47600001 0.031353403 0.17938054 11908533
0.48660007 0.031601235 0.17812669 11776943
0.491 0.031998292 0.17538047 11053475
0.3847 -0.060575176 0.18658355 12039858
0.37738818 -0.052572571 0.18561278 13026493
0.381836 -0.057161476 0.18489671 12368565
0.3670961 -0.041596863 0.18543968 2765103
0.37332931 -0.046911195 0.18488351 10197652
0.3655175 -0.03496366 0.18480451 1909281
0.36691591 -0.02685808 0.1854552 3224630
0.3722581 -0.021843605 0.18434966 10987171
0.37516031 -0.01465813 0.18495014 13158597
0.37756097 -0.0070422995 0.18575396 14079956
0.3811914 -0.0030441715 0.18496849 13750994
0.39650002 -0.0014944769 0.18330254 12765126
0.40200001 -0.00081087381 0.18348488 12699333
0.38469568 0.0011459048 0.18835287 13093834
0.39328575 0.0023560417 0.18910439 12896968
0.40424073 0.0032738878 0.18716717 12568005
0.4143137 0.0061140358 0.18646519 12896456
0.42185718 0.0080390889 0.18549861 13027784
0.4177143 0.011731372 0.1894083 13027786
0.4238334 0.01303585 0.18789944 13093577
0.43175 0.013785645 0.18747029 13290186
0.44577044 0.016536161 0.18444344 13553360
0.45344448 0.018549101 0.18066685 13553873
0.44827032 0.022411453 0.18646084 13882325
0.45361772 0.026133062 0.1855873 14013911
0.46593022 0.025929451 0.18314233 13882838
0.47053856 0.028792612 0.18122253 13751508
0.45800003 0.031243317 0.18832748 14211290
0.46653333 0.033210978 0.18738741 13619153
0.47060004 0.033826418 0.18414024 12698305
0.46900001 0.041141581 0.18955602 11053220
0.37877777 -0.060470395 0.19683468 12500918
0.3806667 -0.06121761 0.19336028 12105137
0.37648687 -0.054898884 0.19502151 12697272
0.38075 -0.059374228 0.19072896 12434103
0.36370155 -0.04217824 0.19498277 3093040
0.37277195 -0.047682017 0.19460295 11118241
0.35900009 -0.033547424 0.1987911 2239268
0.36138272 -0.035128728 0.19393772 2238500
0.35900006 -0.02845818 0.19916463 2435620
0.36206377 -0.026116874 0.19474392 4012597
0.37222227 -0.020499896 0.19448355 11250343
0.37443808 -0.015173321 0.19527403 12632251
0.3768687 -0.0051768948 0.19483833 13290697
0.38000003 -0.0010630266 0.19065098 14211544
0.37899998 0.00056638813 0.19495516 13422025
0.38277104 0.0038471923 0.19359355 13027270
0.3948572 0.0071524279 0.19255719 12830919
0.40327278 0.0073761498 0.19130178 12633798
0.41200003 0.0094577288 0.19063 12831176
0.39639398 0.012138815 0.19732305 13027784
0.40506259 0.014805036 0.19657083 13094347
0.41390246 0.015413382 0.19345196 12830919
0.4224 0.017641552 0.19072261 13027785
0.43600002 0.018172922 0.19169058 13356492
0.44328576 0.019120382 0.19158629 13619151
0.4084 0.020592319 0.19903505 13093577
0.41587228 0.022677219 0.19588661 13159626
0.42275003 0.023873106 0.19541846 13291211
0.44683671 0.023676895 0.1942635 13619664
0.45235485 0.02829735 0.19506603 13816786
0.45730308 0.031975195 0.19595009 14014166
0.46407279 0.036699872 0.19554079 13816529
0.46598473 0.043445848 0.19598877 11711406
0.37584215 -0.053669363 0.20204651 12303029
0.359 -0.040835354 0.2014567 1975073
0.36000001 -0.042583555 0.2008431 2040609
0.37443754 -0.04885808 0.20208639 11249829
0.35866645 -0.034729872 0.20149748 1712925
0.35890919 -0.026871849 0.20158365 1908248
0.36300001 -0.022468558 0.20085326 4924966
0.37378052 -0.014826783 0.20157756 12434618
0.37763643 -0.0059277192 0.20197511 12830403
0.38000003 -0.00076649763 0.20191906 12830152
0.38088891 0.00081709877 0.20159906 12763842
0.39660004 0.014619368 0.20052493 13027015
0.40260005 0.018607128 0.20185952 13422541
0.40807694 0.021664687 0.20184612 13093576
0.41422224 0.025192298 0.2052342 12698818
0.42300007 0.028680718 0.20382822 13093833
0.45100003 0.029708466 0.20058148 13422542
0.42567867 0.032170203 0.20682503 13290953
0.43430004 0.036342412 0.20839794 13093575
0.44791675 0.036840938 0.20732687 13488335
0.45417458 0.0357293 0.20336446 13751507
0.46112502 0.038472123 0.20103459 14013908
0.44773918 0.042117957 0.20865017 13619664
0.45439032 0.043523975 0.20643242 13685713
0.46249998 0.044995293 0.20356792 13224904
0.45900002 0.051009636 0.20915391 12303548
0.46200001 0.050982516 0.20871834 10921638
0.4248462 0.028446108 0.21496822 10725282
0.42589998 0.033265464 0.214022 10856611
0.4345834 0.038715675 0.21183549 12566715
0.44000003 0.039284348 0.2101099 13290186
0.43811116 0.041395072 0.21342176 12764094
0.44480401 0.04482884 0.212782 13158855
0.4515385 0.048933797 0.21220098 13685200
0.45396432 0.051880378 0.2136922 12829635
