# .PCD v0.7 - Point Cloud Data file format
VERSION 0.7
FIELDS x y z rgb
SIZE 4 4 4 4
TYPE F F F U
COUNT 1 1 1 1
WIDTH 577
HEIGHT 1
VIEWPOINT 0 0 0 1 0 0 0
POINTS 577
DATA ascii
0.44523081 -0.051730577 -0.0019438795 12894393
0.44410011 -0.045081995 -0.0020996716 15197660
0.44678256 -0.035292085 -0.0020673932 15329504
0.45000002 -0.030404519 -0.0026539634 14540501
0.45185715 -0.028184464 -0.00145461 14211281
0.45500001 -0.061280925 0.0085031027 12631734
0.44618604 -0.053279251 0.0053000073 12697014
0.45133337 -0.058143597 0.007815985 12565941
0.43888897 -0.043239113 0.0079711191 15132125
0.4418824 -0.045467257 0.0041888538 14737110
0.43900007 -0.038653731 0.0083302967 15526883
0.44418529 -0.034555327 0.0049021225 15132383
0.45000002 -0.030404519 0.0010331399 14606294
0.44900003 -0.029285839 0.0068119885 14342868
0.45444003 -0.025924291 0.0050708679 14079696
0.46086663 -0.020924093 0.006165409 14474454
0.46425003 -0.017832266 0.0077528581 13816781
0.47300002 -0.012027103 0.009944357 13619147
0.47000003 -0.071365863 0.019783791 12435123
0.45709091 -0.062341012 0.014539926 12500147
0.46308696 -0.066929229 0.017048473 12434353
0.43885723 -0.050199088 0.016417142 13157821
0.44490007 -0.053963229 0.014789895 12565940
0.4520556 -0.058588929 0.015028955 12434354
0.43629211 -0.044757772 0.014832636 14671316
0.44000003 -0.049299777 0.010280613 13486530
0.43668911 -0.036366567 0.01518279 15263713
0.44220001 -0.031818494 0.012648032 14671833
0.448125 -0.028506266 0.016828658 14079696
0.4544532 -0.024195172 0.015249869 14014159
0.4605 -0.020602789 0.011567832 14145489
0.46524006 -0.017703773 0.013612051 13750732
0.47355881 -0.013308767 0.014915965 13553611
0.47833335 -0.0099231414 0.013416626 13422025
0.48500001 -0.0060799569 0.017204484 13356231
0.46900001 -0.070116073 0.02266953 12171696
0.47178957 -0.072164305 0.024279203 12171696
0.45568752 -0.061529294 0.023174817 12368561
0.46548003 -0.067066878 0.023824872 12237232
0.43636367 -0.05177306 0.026998837 12697271
0.44490242 -0.05577584 0.02481994 12368305
0.45160002 -0.058846436 0.021545535 12434098
0.43155095 -0.04472981 0.024755202 14473939
0.43324709 -0.035288882 0.025081567 15132384
0.44000003 -0.030758912 0.021611139 14803419
0.43900001 -0.029404372 0.029012898 14145748
0.4455471 -0.026706895 0.025222149 13882573
0.45250008 -0.021783056 0.023934793 13882316
0.45700002 -0.019109182 0.025655651 13224646
0.46380004 -0.01787186 0.023433249 13224646
0.47580004 -0.013760733 0.022924393 13356232
0.48222223 -0.011254701 0.027452413 13290438
0.48517072 -0.0073689315 0.024639633 13290438
0.49311113 -0.0029763256 0.027490288 13421767
0.49900001 0.00016163554 0.027429417 13356231
0.50555003 0.0028899896 0.025895517 13356230
0.51090914 0.0072340905 0.028247917 13290438
0.49771431 -0.082900107 0.039094266 12040367
0.47750002 -0.071947515 0.030160017 12171183
0.49425 -0.079097994 0.038739085 12040367
0.42900002 -0.050578024 0.036888536 12828858
0.43224999 -0.051096089 0.03222625 12697527
0.42756099 -0.044551089 0.036068227 14276816
0.43004346 -0.045995954 0.031101877 14078924
0.42717656 -0.036957867 0.036937725 15329762
0.43108627 -0.033523437 0.033540484 14935006
0.43429419 -0.028504431 0.03602615 13948369
0.44386667 -0.025545618 0.031565752 13684939
0.45000002 -0.020923398 0.030529967 13816524
0.47450003 -0.015672754 0.033305891 13158852
0.48348153 -0.011533046 0.035647828 13290439
0.48760003 -0.0082308603 0.035647605 13290439
0.49395552 -0.0037863301 0.034928937 13356232
0.5 -0.0010085495 0.039774727 13422025
0.49900001 0.00016163554 0.031518005 13487818
0.50400001 0.0017691934 0.03478216 13421769
0.51365721 0.0069412887 0.035920262 13355975
0.51600003 0.011307007 0.034612846 13290439
0.52100003 0.012976471 0.039005928 13355975
0.51550001 -0.092608146 0.048401561 12171183
0.49850002 -0.082112432 0.040822402 12040367
0.5053044 -0.085370399 0.044832516 12171183
0.51100004 -0.088624351 0.047695715 12236976
0.49700004 -0.079536632 0.042448308 11974317
0.42842311 -0.051822558 0.044493675 12565687
0.4300909 -0.054047808 0.04620441 12368562
0.42395049 -0.045073997 0.04507656 14013133
0.42414442 -0.035272226 0.04511321 15198178
0.43000004 -0.030437335 0.041881878 14342613
0.4258 -0.028967014 0.049021821 14013395
0.43156528 -0.027707227 0.043597143 13619405
0.48500004 -0.01096648 0.044054322 13290182
0.48725003 -0.0078250421 0.041040625 13356232
0.49349999 -0.006016254 0.04849783 13421768
0.50150001 -0.0012066599 0.045174222 13422025
0.50475007 0.0011996911 0.044828091 13487561
0.51568425 0.0072310613 0.044643033 13290439
0.52416128 0.014032012 0.043283202 13487817
0.53088892 0.017986333 0.048031669 13684424
0.53200001 0.020514213 0.048339847 13354690
0.51762503 -0.092232309 0.05253775 12040367
0.52192861 -0.09339074 0.05670632 12040367
0.50800002 -0.084034845 0.05159042 12105390
0.51310003 -0.087403327 0.053562738 12040367
0.42333335 -0.050846085 0.054262325 12565944
0.41775432 -0.044012133 0.056717306 14210769
0.42107156 -0.045798503 0.05229304 13815497
0.41755933 -0.036776219 0.056574184 15329764
0.42084482 -0.033392467 0.053367153 15066592
0.4235 -0.028612277 0.054510795 14013905
0.48484614 -0.011627005 0.054140981 13027267
0.4874 -0.0082861744 0.05462461 13421768
0.49316666 -0.0053153099 0.052847281 13421768
0.50233334 -0.0014053766 0.056037679 13553354
0.50633335 0.0013512973 0.05470331 13553354
0.51487505 0.0068990178 0.056017332 13553099
0.51900005 0.011103009 0.055623036 13618893
0.52440012 0.013432552 0.056075312 13553355
0.5312174 0.017637489 0.055180073 13750476
0.53299999 0.021189447 0.055533599 12829630
0.53000003 -0.10032823 0.068216749 12565683
0.52658343 -0.094106987 0.066102654 12237487
0.53000003 -0.099087484 0.067596376 12500147
0.509 -0.083245598 0.063130654 11908781
0.51800001 -0.088355459 0.060608976 12040367
0.52340007 -0.088787273 0.068346262 12040365
0.41805887 -0.051620226 0.06624116 12368051
0.41558874 -0.045018237 0.065022521 13947340
0.41460016 -0.035161104 0.065161243 15198178
0.42050004 -0.030380134 0.06052091 14935264
0.41806668 -0.028115673 0.067901857 14211288
0.42189661 -0.02754846 0.063802913 13816529
0.4647693 -0.01290549 0.068691127 12895426
0.465 -0.0087752119 0.069211803 13224646
0.50733334 -0.0018146057 0.063122936 13290182
0.51100004 -0.0010307377 0.067266569 13487561
0.509 0.00016487473 0.060747501 13355975
0.51426387 0.0050649983 0.065036871 13553355
0.52445012 0.013900183 0.065631993 13619404
0.53073341 0.01789826 0.063672021 13553354
0.53193343 0.020844895 0.064644106 11447977
0.53000003 -0.10032822 0.071318597 12697526
0.5176 -0.090953656 0.078009784 12303283
0.52516282 -0.094988182 0.073935948 12434868
0.53000003 -0.099087484 0.074420445 12500918
0.50588888 -0.081753038 0.076033443 11908524
0.51386362 -0.087272063 0.076299734 12040367
0.52100003 -0.08886718 0.071937032 12040367
0.49900001 -0.076353371 0.074740216 11842474
0.5018 -0.077840023 0.076254874 11842731
0.41460004 -0.050336182 0.073734112 12499638
0.40866664 -0.042122092 0.077845246 14605270
0.41225305 -0.045161124 0.074205659 13815754
0.40848792 -0.036648098 0.07736896 15263714
0.4118 -0.034027398 0.073563397 15263715
0.40900001 -0.020931996 0.078494594 12894913
0.41318086 -0.026082266 0.075390197 13882064
0.40885714 -0.019694313 0.077919714 12698306
0.46458018 -0.013269965 0.074917369 12895426
0.46490011 -0.0087736044 0.074096575 13092806
0.51100004 -0.0010307377 0.070556283 13619145
0.51598221 0.0063883089 0.074631393 13684939
0.52491117 0.014187885 0.074605346 13421511
0.53062505 0.018028872 0.078080006 11513770
0.53225005 0.020420454 0.078786328 11053218
0.51759261 -0.092101909 0.084749132 12631734
0.52200007 -0.096677072 0.083372265 12697527
0.50622225 -0.08134494 0.084121794 12039854
0.51270974 -0.086761817 0.085428163 12303026
0.50356531 -0.077695183 0.084759876 11908524
0.41472003 -0.051480152 0.085571982 12433843
0.40673095 -0.043538958 0.085364185 14144463
0.41152 -0.048152357 0.084217526 12960188
0.40577754 -0.035221703 0.085125998 15263459
0.4104 -0.030995112 0.081453107 15198179
0.40841174 -0.0274796 0.08653383 14606044
0.41192594 -0.025411353 0.084607892 13947859
0.40900001 -0.01997452 0.081367023 12895428
0.51529413 0.0058520981 0.084864572 13553357
0.52000004 0.0099070733 0.087015577 13027014
0.52541661 0.013194251 0.085564099 13158341
0.53080004 0.017321063 0.084597394 10921377
0.53266668 0.02054096 0.08248356 10987425
0.51750004 -0.091299221 0.094958052 12500918
0.5062353 -0.080982313 0.09450084 12105648
0.51315004 -0.086334273 0.094997644 12369076
0.49695453 -0.07487876 0.095687635 11908013
0.50255561 -0.077095881 0.092721291 11908525
0.39900002 -0.040502638 0.099460028 14341844
0.40249997 -0.044293799 0.094883263 13881036
0.39900005 -0.036903735 0.099047936 15131873
0.40171313 -0.034485471 0.094364658 15263202
0.40596887 -0.027109865 0.09624517 14671324
0.41369775 -0.023011427 0.093153834 13487566
0.41461116 -0.018362733 0.095790043 13356235
0.51587033 0.0051835109 0.095181838 13290185
0.52561772 0.013532097 0.094245069 11579565
0.53000003 0.016301291 0.090550058 11119011
0.51800001 -0.090780757 0.10062633 12631734
0.509 -0.082054019 0.10364431 12368562
0.51293755 -0.085396737 0.10331302 12434355
0.50445461 -0.077564359 0.1078722 11908268
0.40366665 -0.051135201 0.10479286 12368309
0.39807326 -0.042239089 0.1061006 14276049
0.40130985 -0.046756245 0.10440625 13223106
0.39726302 -0.03538081 0.10531959 15066079
0.40000004 -0.031708278 0.10111392 15263972
0.39821434 -0.028835926 0.10831849 15132131
0.40301073 -0.025771182 0.10438132 14474202
0.41140002 -0.020669026 0.10283849 13093064
0.41607693 -0.017844964 0.10271193 12961479
0.42153847 -0.016409952 0.10830528 13618891
0.51658005 0.0060017086 0.10412706 12763840
0.51900005 0.011103009 0.10689554 10658717
0.79100001 0.079881258 0.10921725 11579562
0.50820005 -0.080735348 0.113 12040112
0.51231253 -0.0845045 0.11634997 12368821
0.50535721 -0.077204034 0.11448507 11842477
0.40180004 -0.05129249 0.11618548 12302515
0.3958666 -0.043766178 0.11507261 13881292
0.40009525 -0.048753757 0.11425183 12762810
0.393576 -0.034883201 0.11468344 15066079
0.39599988 -0.026632883 0.11553062 14935008
0.40332147 -0.022418711 0.11307605 14145237
0.41000003 -0.020023359 0.11036048 13224646
0.40799999 -0.019925684 0.11636328 12960963
0.41376573 -0.016235253 0.11480569 13158598
0.51800001 0.0068389107 0.11073212 11908529
0.52000004 0.0099070733 0.11136216 10856096
0.52100003 0.011145795 0.11096648 10856096
0.79099995 0.079264008 0.11322936 11316390
0.79200006 0.085546665 0.11491683 11513769
0.51239294 -0.083931841 0.12344106 12499893
0.51133335 -0.079636551 0.12287489 12105136
0.40363154 -0.052189652 0.12267058 12170674
0.38893747 -0.042269856 0.12842093 14210769
0.39304391 -0.044614002 0.12433869 13552582
0.40057144 -0.049303181 0.12175433 12565687
0.38860539 -0.035294194 0.12737887 14934492
0.39106065 -0.034661319 0.12219569 14934750
0.38886359 -0.028632063 0.12788408 15132386
0.3926605 -0.024651021 0.12466946 14803166
0.39533332 -0.019307075 0.12739128 12829380
0.403 -0.019681495 0.12026799 12500670
0.78800005 0.077997781 0.12777664 11184804
0.79000002 0.079780273 0.1238744 11316647
0.78883338 0.082740501 0.12800013 11382440
0.79113042 0.086257331 0.12429138 11514026
0.78900003 0.11846761 0.12925881 11908781
0.79206681 0.11490933 0.12480908 11777196
0.78868413 0.12570728 0.12697163 11842988
0.79147053 0.12439505 0.12235915 11842989
0.78867996 0.13503724 0.12551309 11842989
0.79000002 0.1352624 0.1201756 11842734
0.78900003 0.14100179 0.12482584 11908526
0.79056007 0.14527923 0.12485123 11908526
0.79217649 0.1548911 0.12487029 11842989
0.39200005 -0.050345372 0.13641059 12302516
0.38791114 -0.043619078 0.13530427 13947084
0.39007694 -0.047710367 0.13443047 12762810
0.38573518 -0.035094082 0.134976 14868442
0.38727361 -0.026289171 0.13533412 15066337
0.39063635 -0.022111224 0.13320448 14671580
0.39612502 -0.018417234 0.13674702 12961221
0.40200001 -0.017750481 0.13361886 12895428
0.78657901 0.076916225 0.13438635 11250596
0.78837502 0.083539121 0.1346935 11447976
0.79011112 0.088217862 0.13499033 11579561
0.78900003 0.1092323 0.13572353 11842732
0.79192591 0.10413972 0.13495594 11776940
0.78891981 0.11476149 0.13478625 11776940
0.78829992 0.12482098 0.1346806 11777195
0.78868747 0.1335381 0.13417026 11842988
0.79033333 0.1379924 0.13605653 11777197
0.80446666 0.22298691 0.13455833 5194555
0.38846666 -0.051407464 0.14760737 12434357
0.39066669 -0.051393017 0.14264868 12434613
0.38479838 -0.044625644 0.14528504 13487045
0.38259447 -0.034806993 0.14506942 13355462
0.38442522 -0.025113709 0.14511593 14408407
0.39100003 -0.020239033 0.14094381 14408667
0.38824999 -0.019566687 0.14797851 14671837
0.39454922 -0.016695714 0.14580551 13487565
0.40224323 -0.012107285 0.14618334 13619404
0.41166666 -0.011428942 0.14036213 12697792
0.40599999 -0.0090546431 0.14776778 13224905
0.41525 -0.0081257746 0.14385846 12500670
0.48408332 0.0067736916 0.14785205 12961992
0.49150002 0.009364089 0.14552943 13224393
0.49800003 0.011237837 0.1468717 13158855
0.50666666 0.011236354 0.14310229 13290698
0.78820008 0.07812272 0.14130619 11316644
0.79000002 0.079780273 0.14421786 11448230
0.78900003 0.08214204 0.14095686 11382439
0.7916401 0.11515761 0.14452058 11711403
0.78900003 0.12770292 0.14034118 11777195
0.79122216 0.12497479 0.14485468 11711659
0.79144007 0.13551094 0.1444826 11777195
0.80450004 0.2148103 0.14482565 9276298
0.80800003 0.22220349 0.14245974 4669241
0.81287509 0.22434115 0.14744332 4208947
0.38600004 -0.05198063 0.15513787 12631478
0.37779596 -0.04225966 0.15648599 3422774
0.38221687 -0.046378765 0.1541151 10658461
0.37688026 -0.035076134 0.15529044 2830894
0.38000008 -0.03565101 0.15045011 3027511
0.37769565 -0.02687061 0.15597036 5461331
0.38143283 -0.022756306 0.15349619 13421769
0.38434726 -0.017317386 0.15599054 14342616
0.3939487 -0.014098519 0.15287982 13487564
0.40025002 -0.01041137 0.15083712 13553358
0.40100002 -0.0092575904 0.15112036 12501440
0.47636002 0.0073326123 0.15595108 13093577
0.48038465 0.0069031399 0.15179692 13027785
0.4768261 0.012436146 0.15751402 13356492
0.48339593 0.015180404 0.15471964 12829890
0.493 0.015163276 0.15203154 13553355
0.4851667 0.020790888 0.15803935 10461083
0.81508344 0.22304113 0.15483736 1579041
0.38117632 -0.052209664 0.16558662 12894394
0.37612391 -0.043686822 0.16530097 6054237
0.38072965 -0.048802126 0.16402608 12960443
0.37264624 -0.034916461 0.16495781 2633514
0.37536299 -0.025005907 0.1650833 7500915
0.38000003 -0.020337408 0.16055328 14737115
0.37843338 -0.018245125 0.16709505 14408406
0.38193941 -0.014653995 0.16452567 14145492
0.38500002 -0.0093388557 0.1694255 13093064
0.4578 0.0093653454 0.16823766 13159370
0.46000001 0.0098408163 0.16689381 13225163
0.47099999 0.0085016387 0.1623785 13355979
0.4578 0.012044406 0.16855885 13225163
0.46420002 0.012756278 0.16754022 13356749
0.47471753 0.013183161 0.16396393 13422028
0.48115006 0.018235652 0.16504851 13421771
0.48670837 0.024920657 0.16611761 11579564
0.48775002 0.031273048 0.1678278 11119265
0.79115009 0.0761948 0.1657251 11053218
0.79133344 0.10492294 0.16483787 11579562
0.8175 0.2241773 0.16167709 986644
0.37869447 -0.05149373 0.17563735 13157824
0.38051218 -0.05454243 0.17453526 12697272
0.36859998 -0.040696017 0.1773946 2830381
0.37453392 -0.045302298 0.17475593 8158328
0.368 -0.034979459 0.1760039 2304296
0.37041306 -0.034659494 0.17122431 2502188
0.36812133 -0.028057395 0.17737643 2633002
0.37294433 -0.024006326 0.1744796 7894899
0.37740177 -0.015650716 0.17579508 13882063
0.38140625 -0.012039801 0.17263982 14276823
0.37875003 -0.0094087701 0.17908774 14145237
0.38352787 -0.0075030327 0.17558783 13422029
0.43650001 0.0090834945 0.17676108 13159372
0.4548333 0.0092866635 0.17229068 13159370
0.43800005 0.010395535 0.17736852 13225165
0.44357148 0.012762102 0.17902605 13290702
0.45583609 0.014446017 0.17540573 13422542
0.46066669 0.019560941 0.17791921 13685714
0.47266671 0.018221863 0.17221673 13488335
0.46528575 0.022095919 0.17899562 13685970
0.47477779 0.024600867 0.17759724 13751505
0.48546439 0.025596218 0.17402895 12961219
0.49000001 0.029295031 0.17318979 10790304
0.47766671 0.031092057 0.17926608 12500666
0.48666674 0.033735443 0.17703271 11119011
0.48999998 0.032277483 0.17318979 11053475
0.79116005 0.075897567 0.17458421 10987682
0.79173523 0.10519473 0.17484559 11514024
0.79086679 0.16503207 0.17492352 11776941
0.79087526 0.17464116 0.17515548 11777197
0.38371429 -0.06083047 0.18810487 12105137
0.37762129 -0.052425511 0.18558164 13157824
0.38149121 -0.056911089 0.18456495 12434101
0.36708161 -0.041517969 0.18536906 2896173
0.37349424 -0.046670657 0.18484423 10130832
0.36545169 -0.034992807 0.18480524 1909535
0.3666766 -0.02699241 0.18534735 3027761
0.37228128 -0.021852979 0.18452291 10790048
0.3752059 -0.014696918 0.18485469 13224388
0.37755692 -0.0068844762 0.18578015 14145492
0.38104537 -0.0032613114 0.18440661 13685457
0.39500004 -0.0017186471 0.18380733 12961993
0.4005 -0.00080784818 0.18515293 12830407
0.38331249 0.0013060836 0.1884203 13159370
0.39200002 0.0019623344 0.18902418 13159370
0.40506172 0.0034212738 0.18703879 12764613
0.41332692 0.0060001616 0.18551138 13027785
0.42150003 0.0081548113 0.18511686 13027784
0.43800002 0.0093701696 0.18044461 13355981
0.41639999 0.01277029 0.1888538 12961992
0.42400005 0.012324775 0.18745321 13159113
0.4321667 0.013465841 0.18815814 13355979
0.44666672 0.016530614 0.18528797 13553615
0.45327273 0.018573614 0.18103728 13554130
0.44885001 0.021423843 0.18712094 13685458
0.45389596 0.025274346 0.18607359 13882837
0.4654634 0.025936401 0.18353869 13883094
0.47060013 0.028723 0.18190114 13948628
0.458 0.030169571 0.18814683 14211288
0.4654375 0.032094393 0.18785943 14014167
0.47352466 0.034632895 0.18471085 12500667
0.48227274 0.036594164 0.18082188 11184804
0.47533333 0.040398408 0.18729001 11184804
0.79232121 0.1154563 0.18485056 11579816
0.79111123 0.17475687 0.18496124 11777195
0.37900004 -0.060209949 0.19872594 12171954
0.38092312 -0.06099591 0.19499843 12171699
0.37687144 -0.054748487 0.19526058 12763065
0.38038465 -0.058717914 0.19205235 12499894
0.35859999 -0.041186426 0.19902582 2567724
0.36447629 -0.042441536 0.19447446 3553846
0.3727544 -0.047756419 0.19448525 11184034
0.35868752 -0.035342585 0.19837804 2239015
0.36145753 -0.034851443 0.19327824 2238500
0.359 -0.027897896 0.19902456 2501415
0.36209092 -0.026124323 0.19468947 3881527
0.37200004 -0.020603362 0.19452251 11513255
0.37430897 -0.015143589 0.19524342 12697786
0.37687388 -0.0051628402 0.19480082 13356490
0.38000003 -0.00076649763 0.19079924 14606299
0.37899998 0.00038893902 0.19491079 13487818
0.38264465 0.003540477 0.19392987 13027526
0.39452386 0.0079141306 0.19397008 13093322
0.40323403 0.0069452696 0.19184007 12830406
0.41050002 0.0097428476 0.19073698 13093579
0.39620006 0.011973497 0.19766042 13093321
0.40508869 0.014661353 0.19625776 13224908
0.4124063 0.015611552 0.19293049 12961992
0.42100003 0.017876605 0.19019572 13027784
0.43633339 0.017338455 0.1920101 13355979
0.44386673 0.018502662 0.19206969 13553358
0.4086667 0.02054215 0.19849519 13093577
0.41291672 0.022207864 0.19499922 13159371
0.42000002 0.026683189 0.19957623 13685716
0.44808006 0.022343423 0.19378261 13685200
0.4524546 0.027151266 0.19506246 13750994
0.45745164 0.031793308 0.19584401 14014166
0.4647873 0.036458198 0.19640322 14014165
0.47091666 0.038645308 0.19161408 12631999
0.46885365 0.045261282 0.19770601 11777198
0.47037941 0.042792797 0.19306019 11053219
0.46900001 0.051023021 0.19852252 11250854
0.37646878 -0.053808082 0.20185955 12434613
0.35800001 -0.040635891 0.20122886 1844257
0.36700001 -0.045416262 0.20016621 10132116
0.37376475 -0.048470065 0.20164172 11315619
0.35803986 -0.034500331 0.20148157 1646621
0.35872233 -0.026592283 0.20136553 2236955
0.36800003 -0.02055667 0.20071164 5384499
0.36900002 -0.019748693 0.20212089 5906227
0.37348831 -0.015034338 0.20160742 12237240
0.37760717 -0.0063784425 0.20200478 12567232
0.38033333 -0.001063699 0.20165177 12435904
0.38216668 0.0019686432 0.2021234 11844023
0.39720002 0.01519311 0.20045748 13224395
0.40240002 0.0185977 0.20175886 13684688
0.40825 0.021318257 0.20203578 13093064
0.41438708 0.025459735 0.20501503 12961734
0.4223125 0.028931905 0.205303 13027783
0.44487503 0.028393166 0.20162612 13422542
0.426 0.032133151 0.20776632 13356491
0.43382764 0.035239324 0.2077146 13224903
0.44575864 0.035051066 0.20495063 13488333
0.45467442 0.036018148 0.2024291 13817300
0.46225002 0.03802662 0.20125282 14013909
0.44738469 0.042200405 0.20823064 13685454
0.45448893 0.044406347 0.206589 13817040
0.46498671 0.045291033 0.20329213 12895939
0.45657149 0.051146973 0.2091634 13027266
0.46654549 0.050887581 0.20410889 11053475
0.79224008 0.14469357 0.20501594 11579562
0.79066688 0.15481082 0.2054214 11579562
0.79100019 0.16506229 0.20550835 11645611
0.79234481 0.17474648 0.20509011 11711402
0.42150003 0.027766397 0.21163593 10592673
0.43116668 0.028232269 0.21867804 10856098
0.42650002 0.033730756 0.21222161 11579567
0.43368748 0.03758974 0.21266454 12500923
0.43827277 0.041182347 0.2135732 12698302
0.44519606 0.045237124 0.21313357 13224134
0.45158336 0.048864231 0.21193774 13882317
0.45334783 0.052105535 0.21329269 12763580
0.43224999 0.027461741 0.22120786 10856098
0.78900003 0.1287584 0.24694312 11382440
0.79143351 0.12426376 0.244711 11382440
0.7889998 0.13485026 0.24594502 11448233
0.79014289 0.13608013 0.24095872 11448233
0.79146898 0.14495507 0.24505657 11447976
0.78900003 0.12770294 0.25116497 11382183
0.79080784 0.12471755 0.25572878 11447975
0.78900003 0.13416766 0.25116497 11513769
0.79090917 0.135334 0.25631979 11382440
0.79154545 0.14512837 0.25610447 11447976
0.79142863 0.15509419 0.25484753 11447976
0.79206657 0.15508422 0.26512349 11382183
0.79000002 0.11861777 0.28199846 11316390
0.78900003 0.12331615 0.28672093 11250597
0.79073685 0.12584153 0.28396469 11250597
0.78900003 0.12708724 0.29303172 11382437
0.7902 0.12863716 0.29612979 11250853
0.79117256 0.13540189 0.29483712 11185061
0.79100001 0.12802663 0.3036505 11184804
0.79219431 0.15511008 0.30503547 11250854
0.7917999 0.16522893 0.30488518 11316647
0.79189992 0.15505354 0.31511864 11185061
0.79093754 0.1461847 0.32341409 11316390
0.78900003 0.15910301 0.32874164 11250854
0.79054314 0.15465556 0.32462358 11250854
0.79199994 0.16539261 0.32514268 11250854
0.78900003 0.15559359 0.33631459 11250855
0.79000002 0.1580717 0.33347356 11185061
0.79060012 0.16497985 0.3349601 11185062
0.78900003 0.15617849 0.34567305 11053989
0.79000002 0.15798365 0.34368929 11119525
0.78900003 0.16187359 0.34905931 10988452
0.79039305 0.165134 0.34471864 11053989
0.79154837 0.17462096 0.34570193 11119525
0.79166669 0.18465994 0.3446781 11250853
0.79146671 0.19480434 0.34551671 11185317
0.78900003 0.15836418 0.35275346 11054245
0.78899986 0.16386649 0.35489213 10988196
0.79000002 0.16731875 0.35412523 11053988
0.79084015 0.17428727 0.35542724 11185062
0.79203218 0.1846561 0.35458773 11119270
0.79199994 0.1949356 0.35502282 11184806
0.78900003 0.16649126 0.36106521 11053475
0.79033333 0.16800608 0.36630136 11119268
0.79148 0.17442784 0.36497989 11119268
0.78900003 0.16741478 0.37676525 10987683
0.79000002 0.16762698 0.37261927 11053475
0.79085732 0.17409256 0.37454292 11119268
0.78900003 0.16556773 0.3804594 11119270
0.79177785 0.16604477 0.3867462 11053477
0.78700006 0.13843352 0.3997612 10921891
0.78800011 0.14583711 0.39734793 10987684
0.78900003 0.15245357 0.39745241 10987684
0.79111767 0.15767938 0.39585781 10987940
0.78860009 0.13760671 0.40611368 10987427
0.78849989 0.14515844 0.40421617 10921890
0.78900003 0.1527409 0.40365028 10921890
0.79012501 0.15713367 0.40551075 10921890
0.79199994 0.16539234 0.40487066 10987682
0.79186106 0.20494293 0.40495768 10328727
0.78800005 0.11593018 0.41524392 10856096
0.78893745 0.1223831 0.41528991 10856096
0.79015386 0.12789004 0.41616151 10921889
0.79118192 0.13571757 0.41535723 10856096
0.78900003 0.14617357 0.41001242 10987682
0.79125017 0.14466132 0.4150441 10921890
0.79183334 0.15504202 0.41519496 10921889
0.79209661 0.17533723 0.41508961 10987682
0.79076684 0.18506749 0.41524839 10921889
0.79108018 0.19470951 0.41479725 10921890
0.79199994 0.2048025 0.41534582 10460569
0.79100001 0.098398715 0.42956915 10659487
0.78885704 0.10749739 0.42497635 10790816
0.7902 0.10236835 0.42839494 10659487
0.78870821 0.11457764 0.42447886 10790560
0.79000002 0.11861777 0.42902607 10725280
0.78900003 0.1210535 0.42257243 10856096
0.79073691 0.12535509 0.425237 10856096
0.79173332 0.17540592 0.42440745 10921889
0.79042327 0.18543731 0.42534241 10921889
0.79017687 0.1951396 0.42471394 10921633
0.79136676 0.20534028 0.42457998 10526363
0.78900003 0.10738524 0.43033013 10659487
0.79014832 0.10445777 0.43506694 10725024
0.78900003 0.11107937 0.4303301 10725280
0.79033345 0.11512262 0.43491247 10856353
0.79141939 0.1844506 0.43517676 10921890
0.79000026 0.19536802 0.4345744 10856096
0.79153854 0.20601262 0.4348509 10460312
0.79050022 0.10481326 0.44410291 10856098
0.79112017 0.11508244 0.44445026 10856098
0.79163343 0.18465021 0.44473806 10921634
0.79034626 0.19474173 0.44408733 10921634
0.79204351 0.20421922 0.44472727 10987427
