# .PCD v0.7 - Point Cloud Data file format
VERSION 0.7
FIELDS x y z rgb
SIZE 4 4 4 4
TYPE F F F U
COUNT 1 1 1 1
WIDTH 489
HEIGHT 1
VIEWPOINT 0 0 0 1 0 0 0
POINTS 489
DATA ascii
0.44409096 -0.051743113 -0.0020043834 12697527
0.44342503 -0.045013662 -0.0015782027 15066332
0.44631582 -0.034789335 -0.0016158634 15066591
0.44900003 -0.029285839 -0.0015969487 14211284
0.45241669 -0.026500674 -0.00072487857 13948369
0.45300001 -0.060300689 0.009523876 12565941
0.44559616 -0.053686794 0.0057397308 12500405
0.45066667 -0.058583919 0.0091228886 12434610
0.43887505 -0.043437451 0.007514067 15131869
0.44118041 -0.045591295 0.0039557437 14737111
0.43900007 -0.03879647 0.0080876444 15461347
0.44394058 -0.034373567 0.0049241013 15001055
0.44884616 -0.028952386 0.0060408097 14211539
0.45476058 -0.024186429 0.0053170552 14014160
0.45900002 -0.019192811 0.0069637029 13751245
0.46216667 -0.016912935 0.008098173 13750989
0.47000003 -0.071365863 0.018683512 12303539
0.45630774 -0.062580667 0.014663822 12369075
0.46329999 -0.067212716 0.018527901 12237489
0.43900001 -0.050215434 0.015652709 12894905
0.44537506 -0.053908918 0.014514297 12500146
0.45199999 -0.058423638 0.015060311 12368818
0.43575862 -0.044607159 0.014862526 14671573
0.44000003 -0.049299777 0.010795636 13421248
0.43709615 -0.037537768 0.015263194 15329761
0.44384626 -0.032376572 0.014509847 14803675
0.44880956 -0.028672777 0.015439262 14079696
0.453612 -0.024025405 0.014922026 14013902
0.45900002 -0.019192811 0.016097184 13487558
0.46405411 -0.017075783 0.014220663 13684939
0.47350004 -0.012773465 0.01587127 13619147
0.48341179 -0.0076239933 0.016953995 13356232
0.49200001 -0.0032959743 0.018406279 13093828
0.46900001 -0.070116073 0.020839635 12368562
0.47500005 -0.072847985 0.024987116 12236976
0.48090914 -0.077219777 0.027408421 12171183
0.45700008 -0.061798818 0.021913299 12302769
0.46566671 -0.066401519 0.023450578 12236976
0.47147375 -0.066888362 0.028386226 12171183
0.43665227 -0.052260518 0.025882123 12565684
0.4439474 -0.055217817 0.022894328 12368305
0.45279998 -0.059002895 0.02203054 12434355
0.42899996 -0.041664891 0.028728623 15197661
0.43164843 -0.045038879 0.024414925 14408145
0.42900002 -0.039028611 0.029105235 15395556
0.43304592 -0.035282765 0.025060933 15066591
0.44220003 -0.031528864 0.02109742 14737884
0.43875 -0.029387482 0.028995939 14211540
0.44573179 -0.027307764 0.0253697 13882573
0.45210645 -0.022435468 0.02438909 13816778
0.45625001 -0.018274855 0.028281432 13224388
0.465 -0.016354727 0.026647491 13355975
0.47609091 -0.013012025 0.023853978 13356232
0.47900003 -0.0097127017 0.026442176 13355975
0.4814482 -0.0076514264 0.023525594 13356231
0.49400005 -0.002921544 0.021563441 13159366
0.50851846 0.0026354466 0.026828341 13421768
0.51040012 0.0073355534 0.028255828 13290185
0.49785715 -0.082256615 0.037773587 12105903
0.50166672 -0.084984623 0.038928378 12040110
0.47722229 -0.07184317 0.032128952 12039597
0.48261112 -0.075670809 0.033372179 12105390
0.49200001 -0.078738406 0.037988503 12105390
0.47313043 -0.067367502 0.032581486 12039597
0.42900002 -0.050075874 0.035131011 12763320
0.43050003 -0.050250962 0.031725351 12828601
0.42690215 -0.044565678 0.035385855 14276304
0.43000001 -0.048179328 0.031186353 13420737
0.42687154 -0.036847137 0.035820585 15264226
0.43139133 -0.032369774 0.033787061 14803420
0.43605268 -0.028492359 0.0359657 13948368
0.44512507 -0.025277518 0.033257689 13619144
0.45155561 -0.021111216 0.034451757 13816523
0.45343751 -0.018692613 0.033678189 13027265
0.46300003 -0.015024506 0.030328054 13355975
0.48000002 -0.011081405 0.03144161 13355975
0.48650002 -0.0078147501 0.031873234 13355975
0.4936364 -0.0049430244 0.036676653 13421767
0.50166672 -0.0010119113 0.034032919 13421768
0.49900001 0.00016163554 0.038527012 13421768
0.50654542 0.0025419153 0.033283219 13421768
0.51064718 0.0076904036 0.033097945 13290439
0.53500003 0.016455077 0.038801629 13290439
0.54712504 0.021953374 0.037117008 12040371
0.55176198 0.026016315 0.036695737 11184804
0.55525005 0.031215023 0.037832994 11316390
0.509 -0.090395063 0.041682251 12237746
0.51425004 -0.093036562 0.047831867 12105647
0.49899998 -0.080831349 0.04358907 11974317
0.50416279 -0.084986985 0.045045644 12040110
0.51033336 -0.089039184 0.047566343 12105647
0.49685356 -0.075842209 0.045714036 11908524
0.42899996 -0.051331244 0.045048445 12697014
0.43087506 -0.053491697 0.046551097 12433842
0.42363253 -0.044906288 0.045180034 14012876
0.42402971 -0.035056997 0.045084674 15197920
0.43000001 -0.03026117 0.041454058 14211540
0.42677781 -0.029502429 0.04726487 14145234
0.43322727 -0.027329387 0.044141088 13488076
0.44523081 -0.024222178 0.042712118 13027781
0.45275006 -0.021116372 0.043037754 13093573
0.45366669 -0.018615527 0.041576676 12961217
0.49400008 -0.0048910077 0.04381543 13421766
0.5 -0.0010085495 0.048553545 13553352
0.50426316 0.0015344374 0.045514595 13487559
0.51569998 0.007300186 0.045430336 13355974
0.52306259 0.013453171 0.045360304 13421767
0.53100002 0.017575128 0.048456166 13553352
0.53900003 0.02288715 0.049186204 12170929
0.54550004 0.023375796 0.046366543 13158080
0.55177772 0.026374722 0.042457286 11382183
0.55500001 0.031363696 0.041551422 11316390
0.51564288 -0.092612542 0.053003453 12040110
0.50404 -0.083764941 0.053407326 11974317
0.51112509 -0.089127891 0.052775074 11974574
0.4975 -0.075908601 0.052241057 11908525
0.42555556 -0.051001694 0.054212809 12499892
0.43300003 -0.054597426 0.05066349 12368562
0.41758174 -0.043589465 0.056462545 14342353
0.42128581 -0.046104219 0.052648641 13618631
0.41759995 -0.036186703 0.056525394 15263969
0.42081258 -0.033356193 0.052745316 15066336
0.41900003 -0.029290874 0.059815161 14934235
0.42133334 -0.028993899 0.055668022 14079185
0.43000001 -0.027039932 0.050312471 13027784
0.48800004 -0.010123678 0.054813974 13355975
0.49406666 -0.0053825574 0.053567722 13355975
0.5025 -0.0016004075 0.057620589 13487305
0.50592858 0.0011812194 0.05505345 13553098
0.51515383 0.0066130706 0.056249894 13553099
0.52388471 0.0131022 0.055257779 13553356
0.53205556 0.01788904 0.055748906 13685198
0.53676009 0.02214217 0.05566512 12369080
0.54050004 0.02421616 0.052485798 10790302
0.53000003 -0.10032822 0.069457486 12435125
0.52810532 -0.094766945 0.067844369 12171440
0.53000003 -0.099087484 0.068216749 12631734
0.52600002 -0.089720026 0.068933278 12040367
0.41788235 -0.051541105 0.066213772 12302515
0.41499078 -0.04497746 0.064974666 13881547
0.41445369 -0.034858901 0.064898178 15328737
0.41748387 -0.027764646 0.06571158 14013136
0.42000002 -0.028377552 0.060941145 13947342
0.45899999 -0.014503965 0.066111557 12830403
0.46000001 -0.013311851 0.069078274 12829888
0.46000001 -0.0095428117 0.068360358 13290439
0.49700004 -0.0068199281 0.06106174 13290439
0.50403708 -0.0027165317 0.064308845 13290182
0.50762498 0.00075977942 0.064744562 13553353
0.5142321 0.0060485029 0.065001346 13553355
0.52000004 0.0099070733 0.062668979 13619149
0.52514285 0.013243619 0.065165877 13553612
0.5309546 0.017687162 0.06489151 13422027
0.53293753 0.020915952 0.064221956 11447978
0.53000003 -0.10032822 0.070698224 12435125
0.52663261 -0.094111815 0.07479836 12303283
0.53000003 -0.099087484 0.074774936 12434868
0.50614291 -0.081426218 0.076826252 11842988
0.51363641 -0.085758343 0.076822422 11974317
0.52225006 -0.08938472 0.074546039 11974574
0.50200003 -0.078575194 0.078715131 11842988
0.41325003 -0.050172273 0.075681083 12434101
0.40871429 -0.041693799 0.077117309 14605015
0.41193676 -0.045294471 0.074268647 13684168
0.40852782 -0.037271414 0.077260412 15197665
0.41201231 -0.033891875 0.073899724 15197922
0.41466683 -0.027385054 0.075334854 14079444
0.46276674 -0.013067959 0.073542476 12829889
0.46283332 -0.0096015893 0.073119529 13093060
0.50800002 0.00016455082 0.070142053 13421768
0.51570374 0.0062334039 0.075034223 13619404
0.52489656 0.013525615 0.074379094 13619147
0.53085005 0.017819483 0.075659618 12237493
0.53273332 0.021210045 0.077218294 10987680
0.53000003 -0.10032822 0.080624141 12500918
0.51822227 -0.091494173 0.087458357 12500918
0.52471882 -0.095191114 0.083116323 12500919
0.50676924 -0.081513606 0.085029908 11908781
0.51458061 -0.087041371 0.08542414 12171953
0.52000004 -0.089913934 0.080320261 12040113
0.49850002 -0.07627745 0.081667319 11711402
0.50307143 -0.078322686 0.085703194 11842988
0.41483334 -0.051446319 0.085010037 12302515
0.40664202 -0.043674305 0.085425951 14078670
0.41127786 -0.047955059 0.082942031 12960444
0.40611985 -0.035283715 0.085156038 15197666
0.4104 -0.030995112 0.081453107 15263202
0.40849999 -0.02887504 0.088120103 14868960
0.41238073 -0.024797104 0.084551424 13816271
0.41500002 -0.018324502 0.089361332 12237500
0.51100004 -0.0010307377 0.087303929 12895428
0.5156492 0.004791976 0.085001893 13487819
0.52087504 0.0097715771 0.085030645 13290440
0.52600002 0.013173695 0.08571516 13224391
0.53114289 0.017403051 0.084704585 10921890
0.53359997 0.021660579 0.082170688 10987425
0.51757139 -0.090878882 0.095698848 12500663
0.50671428 -0.080499329 0.093857631 11974318
0.51337498 -0.085772425 0.094921112 12237747
0.49900001 -0.074601114 0.095767245 11711147
0.50281489 -0.076744877 0.093488216 11842733
0.40533337 -0.05047527 0.094227962 12499381
0.39900002 -0.040035602 0.09992706 14671065
0.40270773 -0.044371888 0.094841145 13815242
0.39899999 -0.036299337 0.099646844 15132386
0.40173525 -0.0346612 0.094646864 15197666
0.40601507 -0.026928347 0.096257642 14605531
0.41262501 -0.023045992 0.093167648 13553359
0.41366664 -0.018910578 0.095352836 13685715
0.51629156 0.0051347287 0.094857723 13224391
0.52149999 0.0098139178 0.09471301 13224391
0.52578795 0.013454737 0.095386147 11382442
0.53016669 0.017133966 0.093680382 10856096
0.51386666 -0.085009143 0.10390536 12302771
0.50700003 -0.079357818 0.10442396 11908527
0.51100004 -0.079983912 0.10764035 12039343
0.40400004 -0.051256627 0.10463776 12367795
0.39797574 -0.042319685 0.10627933 14210512
0.40140295 -0.046523776 0.1040046 13223104
0.39702603 -0.035311416 0.105183 15066080
0.40000004 -0.03130696 0.10111392 15198179
0.39818755 -0.029000891 0.1077028 15197410
0.40355885 -0.025306344 0.10446467 14473946
0.41100007 -0.02026416 0.10196743 13224395
0.40800005 -0.019352604 0.10886701 12961222
0.41233337 -0.018849753 0.10101426 13488337
0.51787502 0.006081454 0.10272517 13092805
0.52066672 0.0099197738 0.10236248 12434876
0.52233332 0.011174318 0.10187312 10461340
0.51445001 -0.084537238 0.11562324 12434100
0.5072307 -0.076929562 0.11460955 11907757
0.51038474 -0.079244532 0.11504701 11973550
0.40114287 -0.050983679 0.11556029 12367795
0.39593402 -0.043769524 0.1150905 13881034
0.40009525 -0.048798345 0.11434011 12696760
0.39365169 -0.034890063 0.11470541 15066078
0.39613411 -0.026646817 0.1158277 14934752
0.40247497 -0.022828579 0.11315823 14276568
0.40776753 -0.018401591 0.11523583 13092808
0.41041178 -0.015804159 0.11318304 13290187
0.51377273 -0.084085964 0.12298162 12434356
0.51100004 -0.079385787 0.12558424 11973550
0.39600003 -0.050859101 0.12698703 12170416
0.40376467 -0.052303467 0.12291551 12170672
0.3889333 -0.041817885 0.12811978 14276049
0.39312238 -0.044920322 0.12457863 13552325
0.40028575 -0.049267825 0.12233656 12696759
0.38842115 -0.035397161 0.12731795 14868699
0.39113247 -0.034545913 0.12231243 14934748
0.38882351 -0.02878728 0.12827243 15066336
0.39321053 -0.024773605 0.12476094 14737630
0.39621046 -0.018470678 0.12671274 13355723
0.39100003 -0.050216943 0.13682538 12236722
0.387871 -0.04381514 0.13535899 13881290
0.3902308 -0.047729049 0.13356753 12762811
0.38565874 -0.035085946 0.13495085 14802650
0.38737994 -0.026476914 0.13556074 15000545
0.39114639 -0.021959322 0.13389148 14408411
0.39394116 -0.018041862 0.13689707 13158599
0.38844445 -0.05130348 0.1485094 12237493
0.38534671 -0.044487927 0.14540996 13553095
0.38279012 -0.034826573 0.14514433 13289669
0.38424808 -0.025115531 0.14512564 14408149
0.39100003 -0.020010784 0.14048675 14211031
0.38824996 -0.019187635 0.14749351 14211287
0.39413881 -0.016367078 0.14542899 13421772
0.4011111 -0.011691867 0.14660504 13487823
0.40433335 -0.0093345447 0.14858957 12830407
0.41425005 -0.0066495021 0.14798544 12369599
0.3868615 -0.052433204 0.15541999 12369077
0.37771752 -0.042227283 0.15687351 3356984
0.38268089 -0.046049904 0.15391031 10001304
0.37681571 -0.03501489 0.15594649 2765103
0.38048387 -0.035132103 0.15134698 3028278
0.37762973 -0.027017446 0.15640815 5001037
0.38135999 -0.023119751 0.15364225 12566717
0.38503948 -0.017305726 0.15602632 14211288
0.39360467 -0.013470284 0.15456863 13355979
0.40033332 -0.010491523 0.15055621 13355981
0.41550004 -0.0061861603 0.15026055 12040889
0.47550002 0.0085024843 0.15710844 13093577
0.48050004 0.0085926726 0.15408401 13225163
0.47731251 0.012448028 0.15822719 13159370
0.48376921 0.016007019 0.1561617 12830404
0.49166667 0.012821046 0.15190986 13224395
0.48150003 0.02044557 0.15834813 10922148
0.38139129 -0.052165948 0.16550298 12697273
0.37605891 -0.043767914 0.16531858 6053981
0.38081077 -0.04876446 0.16389233 12894652
0.37230977 -0.034872033 0.16508862 2567980
0.3752116 -0.024982009 0.16504896 7500915
0.38000003 -0.020633938 0.16040501 14605784
0.37835902 -0.017841633 0.16693309 14342871
0.38132048 -0.014957413 0.16412957 14211287
0.39600003 -0.010996246 0.16036059 12829888
0.45900002 0.0098194238 0.16975458 13355979
0.46285719 0.0095929271 0.16792308 13224907
0.47033334 0.0085940612 0.16201741 13225163
0.45900002 0.011968479 0.16975458 13290186
0.46530554 0.013892885 0.16768785 13356494
0.47440007 0.013954294 0.1631791 13225419
0.48027274 0.018656211 0.16290337 13291211
0.484579 0.024795687 0.16599789 11382185
0.37864518 -0.051289808 0.17597708 13223360
0.38073575 -0.054568674 0.17476542 12697017
0.36859998 -0.040868551 0.17791219 2699310
0.37458813 -0.045288369 0.17482364 8289401
0.36790848 -0.034779146 0.17550883 2304808
0.37022215 -0.035768665 0.17094676 2567979
0.36815912 -0.028027229 0.17634951 2829612
0.37288693 -0.023617929 0.17434412 8355193
0.37720156 -0.015575897 0.1758343 13816270
0.38125923 -0.011742084 0.17276804 14211288
0.37866667 -0.0091358088 0.17855547 13947859
0.38371429 -0.0075996919 0.17490333 13355979
0.39650002 -0.0021891741 0.17958266 12830150
0.41720003 0.0013065845 0.1755856 12764356
0.42353338 0.0029222218 0.17329191 12895941
0.43289286 0.0074920217 0.17732504 13027785
0.45757148 0.009483193 0.17259097 13487822
0.43720001 0.010992704 0.17796388 13225164
0.44233334 0.01343675 0.17894889 13225165
0.4585 0.0129039 0.17487282 13356236
0.46318516 0.017066143 0.17583662 13619151
0.47000003 0.019957254 0.17602333 13684944
0.46766666 0.020952992 0.17952637 13553360
0.47416666 0.024462042 0.1774828 13816530
0.48541474 0.027234709 0.17429577 12566718
0.47427273 0.031240428 0.17852865 11908019
0.48000002 0.031618763 0.17752112 10658460
0.38475001 -0.060598064 0.18710311 12105137
0.37738469 -0.052358061 0.18542421 13157568
0.38190323 -0.057141546 0.18493165 12434101
0.36716667 -0.041651204 0.18513077 2830638
0.37343046 -0.046916869 0.18491858 10328724
0.36565295 -0.03501153 0.18490723 1778208
0.36686805 -0.026923161 0.18545434 3093298
0.37238711 -0.021836957 0.1845542 10856099
0.37504441 -0.014671427 0.18513691 13158596
0.37746996 -0.0070603397 0.18557878 14014419
0.3813695 -0.0028433516 0.18529177 13816528
0.39645454 -0.0015566885 0.1848423 12961478
0.40000001 -0.00080683961 0.18304954 12830407
0.38540006 0.0012101342 0.18845025 13159113
0.39761111 0.0017314807 0.18831317 13027527
0.40309861 0.0042717988 0.18634982 12633284
0.41411766 0.0076072207 0.1873652 12962249
0.4218612 0.007325395 0.18328252 13093064
0.43133333 0.0085564563 0.18038952 13027784
0.41557142 0.011253444 0.18968163 12961992
0.4228572 0.012112672 0.1865292 13158856
0.43642858 0.011238128 0.18096039 13290956
0.44611907 0.01663826 0.1850816 13488335
0.45423532 0.017785328 0.18161741 13488079
0.46257141 0.019177631 0.18112741 13619152
0.44880003 0.020633262 0.18783496 13619921
0.4543266 0.024575494 0.18699169 13751508
0.46618181 0.025808267 0.1838291 13817044
0.47058836 0.027500618 0.18084332 13882323
0.45850003 0.030202508 0.18942618 13883351
0.46593335 0.032258764 0.18710437 13883094
0.47130775 0.034571934 0.18410899 12040373
0.47457144 0.040942948 0.18884455 11053475
0.37899998 -0.060336705 0.1973317 12368563
0.38150001 -0.06105284 0.19324014 12236722
0.3766695 -0.054848433 0.19510765 12697272
0.38063639 -0.058769271 0.19140105 12499894
0.35900006 -0.04106456 0.19916463 3094064
0.36415499 -0.042488217 0.19495082 3553844
0.3727544 -0.047817603 0.19448529 11184034
0.35900009 -0.035473906 0.19868958 2239269
0.36133778 -0.034883384 0.1937324 2173220
0.36217418 -0.026093645 0.19491285 4078904
0.37214288 -0.020536933 0.19374926 11119011
0.37400776 -0.015082237 0.19528249 12632251
0.37698314 -0.0052827676 0.19481289 13355977
0.38025001 -0.00098939857 0.19292603 13882574
0.37899998 0.0003762641 0.19441648 13882576
0.38356867 0.0040296582 0.19433734 12961732
0.39450002 0.0072057568 0.19313814 12961992
0.40184003 0.0081117237 0.19180448 12633540
0.38900003 0.01014322 0.19850546 10527650
0.39577281 0.011586737 0.19761768 12961735
0.40541869 0.014230946 0.19615486 13028298
0.41313344 0.016040336 0.19299594 12764870
0.42320001 0.0165214 0.19091994 13027271
0.43466666 0.017781928 0.19161844 13290186
0.44418755 0.018795354 0.19195424 13422028
0.40850005 0.020693092 0.1988924 12962247
0.41182357 0.020946011 0.1954557 13027784
0.42600003 0.020083463 0.19345187 13684944
0.43525004 0.021926206 0.19637831 13553358
0.44738466 0.023162348 0.19480428 13619408
0.45255324 0.027132453 0.19446059 13751250
0.45765519 0.031477764 0.19610928 13883093
0.4645091 0.036063801 0.19610207 13948885
0.47086674 0.038881075 0.19214557 12500926
0.46566662 0.043539077 0.1983169 12369080
0.47211999 0.042595215 0.19343621 11053477
0.37619358 -0.053689469 0.2017983 12499894
0.35884613 -0.041047141 0.20114639 2041889
0.37375 -0.048805237 0.20187877 11315367
0.35851648 -0.034714043 0.20141295 1647131
0.35896784 -0.02693736 0.2016948 1842711
0.36000001 -0.024660721 0.20089927 3812388
0.36900002 -0.019748693 0.20212089 6235958
0.37319347 -0.015597012 0.20156951 12698306
0.37789479 -0.0055557941 0.20168494 13224649
0.38016668 -0.0012116273 0.20111804 12500668
0.38163635 0.0015054586 0.20157017 12303034
0.39533338 0.012783599 0.20049347 12698306
0.40281254 0.017581889 0.20159657 12764613
0.40768424 0.02153315 0.20246153 12764613
0.41394442 0.025174132 0.20482713 12896199
0.4240953 0.028174292 0.20472752 12961478
0.44800004 0.029160475 0.20343609 13553358
0.45120001 0.029510949 0.20109086 13421772
0.42650002 0.031689338 0.20760188 13224649
0.43424007 0.034062292 0.20682487 13158856
0.44648719 0.035836928 0.20609143 13488077
0.45437044 0.035509899 0.20309345 13816530
0.46161541 0.038056191 0.20155881 13817301
0.44692156 0.044419926 0.20789066 13750990
0.45483786 0.044318039 0.20601881 13685714
0.46290725 0.044862226 0.20360467 13159112
0.44800004 0.050486367 0.20868622 13027524
0.46400002 0.050841141 0.20527697 10856099
0.79096687 0.16505335 0.20457125 11645355
0.79116666 0.1743588 0.20462291 11711402
0.42640004 0.027752299 0.21566981 10790307
0.43000001 0.025808547 0.21942762 10659489
0.42767572 0.033396173 0.21491605 11119271
0.43387499 0.038274843 0.21275695 12172216
0.44000003 0.039284348 0.2101099 13291209
0.43771434 0.041349888 0.21435511 11974836
0.44410723 0.045361493 0.21275052 13093059
0.44800001 0.050486367 0.2128813 13619147
0.79176009 0.17448825 0.21497566 11514282
0.43009526 0.027659876 0.22225684 10659489
0.43000004 0.031632666 0.22086568 10790562
0.79217637 0.15488842 0.23483001 11513769
0.79219991 0.16531281 0.23549305 11513769
0.79119366 0.13468783 0.244633 11382183
0.79093122 0.1448075 0.24513955 11447976
0.79141188 0.15474109 0.24517517 11447976
0.79165632 0.15523727 0.25537086 11382183
0.78900003 0.13740002 0.27840912 11316644
0.78900003 0.14432651 0.27794737 11382437
0.79115015 0.14471874 0.27314597 11316390
0.79136115 0.15495022 0.27507156 11316646
0.79079998 0.11799718 0.28283885 11250852
0.79029173 0.12606114 0.28441498 11251108
0.78900003 0.13591212 0.28194937 11185058
0.79031247 0.13485414 0.28627372 11250853
0.78900003 0.14363386 0.28141063 11316644
0.79111773 0.14504118 0.28659385 11316645
0.79136676 0.15495005 0.2852672 11316644
0.78900003 0.19736362 0.30763236 11447976
0.7910741 0.19470614 0.3038817 11447976
0.79171431 0.2050605 0.30484819 11579050
0.78900003 0.19727562 0.31170762 11185062
0.79017401 0.19488765 0.31579995 11250854
0.79060012 0.20569734 0.31460273 11316137
0.79155171 0.19501513 0.32507759 11250854
0.79177779 0.20463066 0.32475102 11381671
0.792 0.1585941 0.35149759 10988195
0.78860003 0.16695955 0.35515767 11054246
0.79000002 0.1642364 0.35165939 11054245
0.78899986 0.17326382 0.35521623 11054246
0.79027271 0.17802885 0.35382688 11053989
0.78900003 0.16772264 0.36445153 10987941
0.79000002 0.16793521 0.36922869 11119268
0.78900009 0.17337577 0.36249253 10987941
0.79004771 0.17622435 0.36660886 11053476
0.79184622 0.18577386 0.36493382 11053732
0.79000002 0.16785815 0.37516221 11053477
0.79068011 0.17447348 0.37505063 11053477
0.79085714 0.1663544 0.38241339 10987684
0.79042864 0.11559833 0.41639286 10790818
0.79100007 0.12354458 0.41680035 10856355
0.7910558 0.17525546 0.41508961 10921891
0.79103714 0.18523481 0.41518408 10921891
0.79125005 0.11509845 0.42507616 10725282
0.79070991 0.12517384 0.42547119 10725282
0.79104006 0.17477192 0.4244813 10856098
0.79150009 0.18554924 0.42474699 10856097
0.79192871 0.13499482 0.43563703 10725026
0.79020017 0.14454578 0.43468434 10790305
0.79123539 0.15514362 0.43459868 10790818
