# .PCD v0.7 - Point Cloud Data file format
VERSION 0.7
FIELDS x y z rgb
SIZE 4 4 4 4
TYPE F F F U
COUNT 1 1 1 1
WIDTH 823
HEIGHT 1
VIEWPOINT 0 0 0 1 0 0 0
POINTS 823
DATA ascii
0.59800005 -0.11110063 0.089568444 13882571
0.59846157 -0.10520364 0.088990912 13685194
0.60000002 -0.10093763 0.088463388 13685195
0.59900004 -0.096562587 0.089718223 14277586
0.59999996 -0.09493611 0.088974155 13817037
0.60042858 -0.087957211 0.089128554 13816780
0.58900005 -0.11425456 0.0992513 13619399
0.59388465 -0.11236404 0.095571622 13619400
0.58585721 -0.10326217 0.099503599 13685192
0.59573585 -0.10516232 0.095032401 13816780
0.57700002 -0.092340671 0.099930733 13422020
0.58481824 -0.09564504 0.098916508 13553607
0.59613633 -0.09517844 0.094574936 13882573
0.60000002 -0.096723795 0.091272607 14145743
0.57662505 -0.084856257 0.099696353 13356484
0.58388877 -0.084024325 0.098385371 13422278
0.59514278 -0.085512221 0.094663695 13750987
0.6009286 -0.082603134 0.091312706 14014414
0.57660002 -0.074320808 0.099861458 13290437
0.58454537 -0.074825592 0.098370664 13356230
0.59504998 -0.075587764 0.09524823 13553609
0.60181826 -0.074666567 0.091675393 13751241
0.57800007 -0.064761981 0.09942621 13224644
0.58495456 -0.064854331 0.097196385 13422023
0.59525001 -0.064464696 0.093748793 13488072
0.60145456 -0.06572739 0.091236785 13751241
0.5765 -0.055823285 0.099844135 13158851
0.58412004 -0.055218276 0.098258466 13290437
0.59412909 -0.054678679 0.094275653 13422279
0.60057145 -0.054639459 0.091359533 13752268
0.56611115 -0.044144318 0.099808723 12698300
0.57492864 -0.044709813 0.098896436 12961472
0.58564287 -0.04505432 0.097998343 13093058
0.59390473 -0.045027513 0.093978539 13290693
0.60000002 -0.048967026 0.091272607 13621196
0.56500006 -0.038171053 0.099832959 12632507
0.57612503 -0.036227625 0.099271774 12698300
0.58513051 -0.03447229 0.097818978 12829886
0.59210008 -0.035293438 0.094087496 13027264
0.57684624 -0.02474463 0.099279575 12764093
0.58496779 -0.024902005 0.096886888 12764093
0.59152943 -0.025387594 0.093322352 12895933
0.56871432 -0.014461191 0.099827103 12829629
0.57527274 -0.014873746 0.098341793 12764093
0.58505553 -0.0151041 0.095537961 12764093
0.59172732 -0.015800459 0.093286894 12764347
0.56900001 -0.0091399644 0.099877253 12763838
0.5763889 -0.0056594685 0.098697968 12764093
0.58404541 -0.0044725281 0.095302984 12764349
0.59200001 -0.0095094182 0.092827402 12895933
0.57706261 0.0049156314 0.09926486 12435128
0.58431429 0.0047228187 0.095992751 12698300
0.59033334 0.0084838858 0.093948044 13028035
0.57690012 0.014229466 0.099506781 12435129
0.58393538 0.015401537 0.096715301 12698044
0.59100002 0.015410393 0.094054148 12962242
0.56900001 0.024161015 0.099877253 12500921
0.57680774 0.026257856 0.098076753 12698045
0.58353847 0.023775317 0.095278747 12961216
0.56900001 0.038147427 0.099877253 12566714
0.57676464 0.034775645 0.09718585 12829886
0.58139998 0.037754644 0.093886025 13158851
0.56850004 0.042773701 0.099789493 12435128
0.57620686 0.044886362 0.097835474 12829886
0.58169234 0.045228884 0.094561845 13355973
0.57738101 0.054253947 0.098578729 12895422
0.58172727 0.055343244 0.095547915 13290437
0.57756257 0.065508507 0.099097319 12829629
0.58156669 0.064582929 0.095818751 13421766
0.53900003 0.079668544 0.099658556 12434871
0.54460001 0.078706324 0.099162936 12434871
0.55400002 0.079291813 0.09983813 12369078
0.56700003 0.077827036 0.099854521 12500664
0.57714999 0.075138509 0.09711425 13092801
0.58025002 0.071841836 0.094041169 13816523
0.53721058 0.085289367 0.098465703 12434357
0.54366666 0.082064912 0.097968906 12369078
0.55300003 0.083032437 0.09836334 12171699
0.56050003 0.080877617 0.099697381 12303285
0.5767895 0.082551979 0.097045749 12895422
0.58000004 0.082673647 0.09434025 13356230
0.5625 -0.12030414 0.1079482 12895165
0.58500004 -0.12032612 0.10131626 12894652
0.55468428 -0.11429906 0.10863613 13027008
0.565 -0.11534442 0.10618726 12961215
0.57558829 -0.11434455 0.10380339 13027007
0.58447373 -0.11423988 0.10150936 13619143
0.53900003 -0.1007701 0.10975302 13158594
0.54538101 -0.10397276 0.10861657 13092801
0.55385715 -0.10527264 0.10653691 12961215
0.5644092 -0.10467382 0.10458951 12961215
0.5750556 -0.10526332 0.10265512 12961213
0.58333331 -0.10621832 0.10091113 13619400
0.52600002 -0.090951405 0.10956867 13027008
0.53588241 -0.094068505 0.10896631 12961215
0.54514283 -0.095593914 0.10704952 13027008
0.55507147 -0.094764873 0.10578343 12895679
0.56480008 -0.094528325 0.1034932 12764093
0.57407695 -0.095751673 0.10117899 12961214
0.58000004 -0.098251939 0.10045031 13553352
0.51760006 -0.08441098 0.1095138 12961215
0.52394736 -0.084852733 0.10855621 12961215
0.53375 -0.086462736 0.10763698 12895679
0.54518181 -0.084745541 0.10683115 12895679
0.55525005 -0.08544156 0.10623301 12829886
0.56443244 -0.085023321 0.10313536 12764092
0.57275003 -0.084956422 0.10053549 12895676
0.5158695 -0.074344657 0.10871426 12895422
0.52394456 -0.075539589 0.10709259 12895422
0.53245461 -0.074606664 0.10649206 12895679
0.54480004 -0.074435048 0.10646714 12764093
0.55468184 -0.074547328 0.10544472 12764093
0.56396562 -0.075661607 0.10276307 12764093
0.57228577 -0.074073724 0.10102587 12961472
0.50564283 -0.063334987 0.10938448 12961472
0.51272231 -0.065517433 0.10826376 13027008
0.52340001 -0.064934321 0.10722747 12895422
0.53535718 -0.064364776 0.10667776 12829886
0.54518753 -0.064588249 0.10574272 12764093
0.55335289 -0.065428056 0.10451951 12829886
0.56382614 -0.064949773 0.10298014 12895679
0.57366675 -0.06490197 0.1014104 13027265
0.49900001 -0.051821839 0.10978526 12698300
0.50506902 -0.054350309 0.10830151 12764093
0.5145883 -0.056237116 0.1069029 12764093
0.52425003 -0.056594606 0.10674958 12829629
0.53600007 -0.057168912 0.10675337 12632507
0.54459095 -0.054527339 0.10532312 12632508
0.55350006 -0.054887015 0.1033071 12895679
0.56394118 -0.055577066 0.1022459 12895679
0.5728572 -0.056714557 0.10093589 13027265
0.50417787 -0.044895712 0.10695922 12500922
0.52100003 -0.049226716 0.1060878 12698300
0.53900003 -0.04777414 0.10849121 12369337
0.54547727 -0.045299605 0.10511377 12698300
0.55423534 -0.044618879 0.10147905 12764093
0.56128567 -0.04655895 0.10077388 12829886
0.49860007 -0.03252238 0.10969726 12435130
0.50428569 -0.035424031 0.10748383 12369337
0.51166672 -0.033972155 0.10598365 12303544
0.52900004 -0.035742205 0.10647839 12829888
0.53490007 -0.033889018 0.10716335 12501179
0.54500008 -0.035477489 0.10526222 12566715
0.55404168 -0.035378452 0.10211039 12698300
0.56309092 -0.033246703 0.10087394 12698043
0.57100004 -0.031894792 0.10022832 12632250
0.49827281 -0.025714083 0.10930666 12237751
0.5039677 -0.024724726 0.10763733 12237751
0.51233339 -0.024478983 0.10685474 12237751
0.52000004 -0.027830137 0.10710151 12303544
0.53573912 -0.024527969 0.10706661 12369337
0.54331994 -0.024754072 0.1044712 12566715
0.55405557 -0.025764991 0.10265228 12763837
0.56471425 -0.024935367 0.10110431 12764093
0.57171428 -0.025246961 0.1003537 12763836
0.49857146 -0.016176803 0.10969097 12237751
0.50465 -0.015487058 0.1090759 12171958
0.51477271 -0.014569644 0.10832004 12171701
0.52466667 -0.014900745 0.10748742 12237751
0.5344286 -0.016391931 0.10655215 12303544
0.54508692 -0.01468829 0.10466356 12435130
0.55460882 -0.014895084 0.10276447 12698045
0.56323081 -0.015745487 0.10109161 12764093
0.57000005 -0.019831071 0.10005279 12961215
0.49899998 -0.0021747004 0.10978526 11842993
0.50543749 -0.0048672734 0.1089795 11908786
0.51476932 -0.0054877154 0.107686 11974579
0.52541673 -0.0048450488 0.10667598 12040372
0.5349412 -0.0060140332 0.10612214 12171958
0.54509097 -0.0055089165 0.10530758 12237751
0.55387497 -0.0058955317 0.10378186 12434873
0.56413645 -0.0046208212 0.10195779 12632251
0.57133335 -0.0044918982 0.10028683 12632251
0.49900001 0.0048343074 0.10978526 11842993
0.50359988 0.0051435251 0.10752057 11908786
0.51422226 0.0036421977 0.10671029 11842993
0.52700001 0.0026381381 0.10607582 11974579
0.53525007 0.0045540072 0.10663583 11974579
0.54400003 0.005668533 0.10575373 12040372
0.55362499 0.0047119791 0.10430438 12106165
0.56511116 0.0041541969 0.10222454 12237750
0.57349998 0.0048847757 0.10066714 12434871
0.48466668 0.013770792 0.10965559 11974579
0.49626672 0.015339131 0.10964587 11974579
0.50402701 0.015210253 0.10693152 12040372
0.51100004 0.019305687 0.10524783 12237751
0.537 0.010230958 0.10683151 12040372
0.54573339 0.015428505 0.10601021 12040372
0.55376196 0.014933361 0.10361744 12106165
0.56389475 0.014838045 0.10168438 12237750
0.57228571 0.014917734 0.10045399 12369078
0.48900002 0.026487825 0.10987467 12040372
0.49624988 0.025035363 0.10807545 12106165
0.50199997 0.021679083 0.10592245 12171958
0.51099998 0.022898369 0.10564736 12237751
0.53715795 0.025655851 0.1069928 12369337
0.54418182 0.024319405 0.1049554 12106678
0.55383343 0.02470761 0.10293881 12237749
0.5640626 0.025939468 0.10172791 12369335
0.5702858 0.02497845 0.10010294 12435128
0.46088892 0.035399817 0.10979062 12040371
0.47400004 0.038991027 0.10983321 12105906
0.49550003 0.030903921 0.10726297 12106163
0.51500005 0.0339243 0.10848294 12237749
0.528 0.038488809 0.10998528 12237749
0.53766674 0.034575813 0.10759252 12435130
0.54443753 0.035229806 0.10543763 12500922
0.55430776 0.03531085 0.10298552 12237749
0.56311107 0.036200784 0.10176516 12303542
0.57080001 0.033589348 0.10019322 12500921
0.46500003 0.041516412 0.10992492 11974577
0.49755561 0.044555716 0.10959597 12237492
0.50326675 0.046350833 0.10859941 12237492
0.51436371 0.045163319 0.10856257 12106163
0.52316672 0.04445957 0.10918215 12171956
0.53454548 0.044369224 0.10758894 12237751
0.54412502 0.045072686 0.10537616 12698301
0.55521429 0.04465016 0.10348839 12369335
0.56366664 0.045048308 0.10182466 12369335
0.57033336 0.048251305 0.10011131 12566714
0.47700006 0.057993103 0.10963362 12237492
0.48559999 0.056533225 0.10956254 12632250
0.49638465 0.055305805 0.10956497 12369078
0.50495833 0.055278156 0.10882496 12434871
0.51436371 0.055773664 0.10752263 12303542
0.52345461 0.055317771 0.10691895 12303542
0.53521061 0.05477256 0.10633814 12237750
0.54454553 0.054991007 0.10473435 12698044
0.55383337 0.054957658 0.10369418 12698300
0.56385005 0.054562729 0.10266284 12435129
0.57276928 0.05547354 0.10115544 12500922
0.47592309 0.063921697 0.10959147 12303284
0.48388234 0.064527854 0.10885282 12500664
0.49537501 0.066163607 0.10743553 12500921
0.50407696 0.06415087 0.10736009 12500664
0.51431578 0.064422861 0.10649581 12566457
0.5236429 0.06496565 0.10592247 12500921
0.53484213 0.065406702 0.10507932 12237751
0.5443182 0.0649857 0.10370722 12500921
0.55438465 0.064464651 0.10290035 12698300
0.56487495 0.065632574 0.10212379 12435129
0.57330775 0.064504094 0.10114715 12566458
0.47900003 0.075846121 0.10987044 12369079
0.48466668 0.075236373 0.10946617 12369336
0.49541458 0.074240953 0.1072888 12566714
0.50187498 0.076816857 0.10615568 12632507
0.51633334 0.077114947 0.10553786 12829888
0.52700001 0.070492543 0.10607582 12632507
0.53506982 0.075589202 0.10422295 12435129
0.54358822 0.074203193 0.1016277 12500665
0.55500007 0.074106082 0.10131504 12632250
0.56440002 0.074034922 0.10091734 12500664
0.57133335 0.072408594 0.10028682 12698043
0.46875 0.086293109 0.10971405 12302769
0.47440001 0.084252559 0.1091081 12433842
0.48483336 0.083013676 0.10883838 12369078
0.49535713 0.082990013 0.10873063 12566714
0.50457692 0.084526889 0.10732631 12698300
0.51484001 0.085494049 0.10569488 13027265
0.52478266 0.085896231 0.10407548 13027009
0.5339334 0.084122099 0.10204874 12566202
0.51250005 0.090745851 0.10615373 12566200
0.5266 0.092382804 0.10327645 12039855
0.53100002 0.092408113 0.10141093 11513767
0.52700001 -0.12196722 0.1196467 13026238
0.53418189 -0.12146477 0.11706105 13092031
0.55400002 -0.12043448 0.11021352 12763836
0.52655566 -0.11426568 0.1190633 13289410
0.5352391 -0.11507454 0.11578561 13223874
0.54500002 -0.1149678 0.11203348 13092545
0.5517143 -0.11698657 0.11049554 12895422
0.5145334 -0.10318584 0.11873864 13158081
0.52456003 -0.10504162 0.11677728 13223617
0.5349167 -0.10518568 0.11343315 13158337
0.54260004 -0.10754267 0.11099102 13158594
0.49833336 -0.091223337 0.11935928 12895422
0.50487494 -0.094208539 0.11749855 12895165
0.51330769 -0.095132977 0.11459009 13092031
0.52459997 -0.095212191 0.11197468 13092288
0.53281826 -0.09746062 0.11121091 13027008
0.48750001 -0.083724275 0.11980885 12632250
0.49605548 -0.084676057 0.11761259 12829629
0.50429273 -0.085411191 0.11393583 12895166
0.51286966 -0.085866801 0.11095262 12960959
0.47726673 -0.073514268 0.1187823 12763838
0.48430303 -0.075081393 0.11747002 12763837
0.49504763 -0.075029574 0.11481111 12763838
0.50427586 -0.075102158 0.11175381 12829630
0.51110005 -0.07628952 0.11041258 12895422
0.46850002 -0.061268363 0.11952644 12895424
0.47491899 -0.064753354 0.118423 12895424
0.48424995 -0.065026812 0.11613297 12961217
0.49519145 -0.064806685 0.11313043 12895424
0.50223076 -0.066316471 0.11058413 12961216
0.45739999 -0.053286277 0.11947708 12895424
0.46590474 -0.054895889 0.11854561 12895424
0.47400001 -0.055027802 0.11666328 13027010
0.48425004 -0.055064917 0.11487462 13092803
0.49470437 -0.055295333 0.11254249 12764095
0.5 -0.057192974 0.11000527 12698300
0.45793751 -0.045344085 0.11944337 13027010
0.46504757 -0.044457179 0.11762552 12895424
0.47303131 -0.045074657 0.1150348 12961217
0.48346666 -0.046320405 0.11405972 13027010
0.49559081 -0.045190837 0.11245365 12829888
0.50062501 -0.044956572 0.11014278 12698300
0.44900003 -0.030336956 0.11980708 12303544
0.45672226 -0.034431752 0.11936895 12698302
0.46518186 -0.035019226 0.11760678 12698045
0.47414708 -0.034900613 0.11495305 12763838
0.48454544 -0.033877511 0.11314728 12698045
0.49462497 -0.035123318 0.11160231 12698302
0.50050002 -0.037918635 0.11011527 12632509
0.44900006 -0.024555814 0.11980707 12303544
0.45500013 -0.024898812 0.11845068 12435130
0.46463898 -0.024897087 0.11654007 12435130
0.47436669 -0.02557249 0.11483379 12500922
0.48449999 -0.024796488 0.11282627 12435129
0.49357694 -0.025082691 0.11094423 12435130
0.44826925 -0.014428354 0.11896454 12237751
0.45414641 -0.014423961 0.1166065 12303544
0.46488002 -0.015129988 0.11476671 12303544
0.47383341 -0.015654145 0.1139498 12369337
0.48429999 -0.015260601 0.11255324 12171958
0.49375999 -0.014724066 0.11103252 12303544
0.50050002 -0.010968248 0.11011527 12171958
0.44632438 -0.0050296467 0.1188607 11974579
0.45479545 -0.0052466546 0.11597257 12040372
0.46370831 -0.0053215357 0.11409209 12106165
0.47566667 -0.006584283 0.11330644 12171958
0.48468187 -0.004896516 0.11256118 12040372
0.49450001 -0.0050516115 0.1111056 11908786
0.50039995 -0.0068679885 0.11009327 11974579
0.43733341 0.0066910484 0.11955757 12369080
0.44500002 0.0049429866 0.11818829 11908786
0.45495358 0.0046315603 0.11586275 11908786
0.46516138 0.0048550633 0.11413731 11974577
0.47419998 0.0047732741 0.11231647 11974578
0.48340002 0.0038305763 0.11172418 11974577
0.49365005 0.0043774806 0.11056914 11908785
0.43642858 0.014809935 0.11951352 12764094
0.44496015 0.015225109 0.11765715 12040372
0.45477143 0.014929032 0.11543839 11974579
0.46529266 0.015532007 0.11349203 11908785
0.47309092 0.014249435 0.111127 11974579
0.4816364 0.014813763 0.11026829 11974579
0.49300003 0.010546789 0.11019404 11974579
0.43578947 0.025298476 0.11896042 13224387
0.44565302 0.024821121 0.11688153 12434871
0.45488641 0.025338031 0.11418314 12171958
0.46389475 0.024086066 0.11251622 12106164
0.47411767 0.023851702 0.11135967 12106164
0.48390478 0.025348106 0.1108832 12171958
0.49079999 0.023136539 0.11027912 12171958
0.43556511 0.035297681 0.11841005 13158595
0.44464284 0.034640655 0.11625658 12698043
0.45558324 0.035039354 0.11308941 12237751
0.46314287 0.034208823 0.11071793 12106164
0.48433337 0.030770376 0.11109065 12040370
0.52900004 0.038561709 0.11019359 12237749
0.43608826 0.044606827 0.11905938 13290437
0.44456878 0.045281261 0.11679716 12961472
0.45526204 0.044831712 0.11418588 12500923
0.46280009 0.045329921 0.11178377 12171956
0.4729231 0.046653729 0.11102791 12106162
0.48560005 0.0464219 0.11115324 12237492
0.49338466 0.046628125 0.11067833 12303286
0.53000003 0.041116081 0.11040189 12237749
0.43625721 0.055409063 0.11905741 13750731
0.44427782 0.054703642 0.11676488 13290180
0.45458978 0.054665968 0.11411387 12698045
0.46412501 0.053928006 0.11229085 12369335
0.47259101 0.055513479 0.11065859 12369332
0.48375005 0.051962253 0.1103911 12369078
0.49362504 0.052157413 0.11033359 12566458
0.43602055 0.064861827 0.11842117 14144719
0.44388884 0.064855248 0.1158949 13487302
0.45572221 0.065313622 0.11474822 12961215
0.46417072 0.065320358 0.11239788 12500663
0.47165018 0.065022029 0.11055553 12434613
0.48000002 0.069824174 0.11009981 12369078
0.43570462 0.074600033 0.11854859 14473941
0.44468752 0.075527363 0.11604305 13750217
0.45461905 0.074970491 0.11364581 13026750
0.46474364 0.074910127 0.11166946 12566454
0.47300005 0.074892811 0.1101528 12368821
0.48000002 0.074993141 0.11009981 12434872
0.43756527 0.08382763 0.11884613 14605012
0.44462964 0.083774425 0.11546637 13750472
0.45441666 0.084006667 0.11229246 12829114
0.46481821 0.083343215 0.11101455 12500148
0.47166669 0.081672885 0.11002606 12302769
0.49800003 -0.12283344 0.12938431 13092031
0.50455552 -0.12247613 0.12819192 13289410
0.51460725 -0.12313748 0.12525526 13355459
0.52257144 -0.12146401 0.12125919 13421253
0.47400004 -0.11192036 0.12980677 13027008
0.49670595 -0.1140005 0.12918207 13157824
0.5042904 -0.11491709 0.12746876 13223874
0.51472086 -0.11525613 0.12382609 13290179
0.52241182 -0.11615844 0.12097675 13487046
0.47550002 -0.10326806 0.12947251 12894909
0.48390913 -0.10328825 0.12818699 12960702
0.49584213 -0.10595182 0.12716562 12960702
0.50461113 -0.10516591 0.12407126 13027008
0.51289999 -0.10723859 0.12172113 13158337
0.46719998 -0.091504201 0.12947372 12566457
0.4747318 -0.094527274 0.12812681 12763580
0.48349997 -0.094783865 0.12447533 12895165
0.49469566 -0.094750531 0.12177024 12829629
0.50255555 -0.09813942 0.12128392 13027008
0.44409999 -0.081780538 0.12961827 12895423
0.45570007 -0.083382018 0.12905556 12500664
0.4650588 -0.084636971 0.12776531 12566457
0.47440431 -0.084887788 0.12463789 12698043
0.4832581 -0.086078174 0.12171467 12763836
0.49180001 -0.088723525 0.12040397 12829629
0.4364211 -0.073313981 0.12908326 13290182
0.44460002 -0.074670039 0.12816986 12829630
0.45515627 -0.074534692 0.12640014 12566459
0.46492308 -0.075196862 0.12424171 12763837
0.47331434 -0.075542703 0.12154035 12763837
0.48000002 -0.079626411 0.12021301 12698043
0.43469492 -0.064712055 0.1283621 13355975
0.44486853 -0.064641789 0.1258769 13027010
0.4546957 -0.065082125 0.12344594 12763838
0.46400005 -0.065779693 0.12148917 12895424
0.47157145 -0.068293929 0.12046555 12763838
0.42695004 -0.05378858 0.12926319 12895681
0.43379667 -0.055057704 0.12713313 13093060
0.44493619 -0.054878961 0.12438426 13027267
0.45331594 -0.055098847 0.12125963 12895424
0.46200001 -0.059335615 0.12003122 12895424
0.41700003 -0.042817924 0.12981637 13158853
0.42457154 -0.044716973 0.12848859 13092803
0.43392992 -0.044662382 0.12530914 13093060
0.4450233 -0.045233216 0.1229761 12895423
0.45281264 -0.044933364 0.12072033 12829631
0.41788888 -0.034157827 0.12965713 12895681
0.42431492 -0.03512362 0.12811086 12961474
0.4344219 -0.035038818 0.12489703 13158852
0.44443479 -0.034914766 0.12167756 12500923
0.45272732 -0.037146199 0.12031596 12698302
0.41738105 -0.024572242 0.12937567 12829631
0.42413336 -0.025182519 0.12745805 12829631
0.43453223 -0.024780739 0.12418642 12961474
0.44362792 -0.025383467 0.12131234 12303543
0.45000002 -0.029351063 0.12007391 12237751
0.41669449 -0.014797207 0.12906648 12500666
0.42465577 -0.015132717 0.12661485 12500666
0.43401796 -0.014825081 0.1232542 12895680
0.44348493 -0.015179659 0.12081561 12237750
0.4156445 -0.0046022842 0.1284368 12369337
0.42464784 -0.0053919666 0.12519737 12303544
0.43424445 -0.0054153567 0.12191255 12698302
0.44191667 -0.0065835752 0.1205017 11777199
0.41473815 0.0051274537 0.12774661 12566716
0.42438459 0.0046034805 0.12346759 12369336
0.43303034 0.0036961313 0.12079188 12632508
0.4146418 0.014665531 0.12767988 13224645
0.42479178 0.015065487 0.12341806 13158594
0.43090001 0.014765439 0.12052449 13224388
0.41571438 0.025043759 0.12847672 13553354
0.42504713 0.025058175 0.12410077 13553609
0.43047369 0.025015095 0.12043224 13816524
0.41656095 0.03446031 0.12865275 13684940
0.42454064 0.035211254 0.1246414 13750733
0.43043342 0.034903623 0.12089789 13882318
0.41721871 0.044909753 0.12893674 13948112
0.42390636 0.045143444 0.12469175 14079441
0.43050006 0.044483986 0.12066472 14277076
0.41748384 0.05518223 0.1289569 14342870
0.42402095 0.054834586 0.12477436 14474455
0.43076009 0.055604428 0.12078775 14671831
0.41789994 0.064167947 0.12931277 14606042
0.42390707 0.06509085 0.12578976 14737114
0.43102568 0.065234438 0.12152816 15066076
0.4248181 0.074785322 0.12601548 14933980
0.43096769 0.075351298 0.12127472 14802907
0.42622629 0.083784856 0.1269765 14539221
0.43235549 0.084193215 0.12199365 14538705
0.44550002 -0.12552738 0.13973163 12500918
0.45833337 -0.12323646 0.13964248 12698043
0.46480951 -0.12345345 0.13722876 12829627
0.47393757 -0.1228557 0.13380231 13092801
0.48484612 -0.12329473 0.13285717 13158593
0.49275002 -0.12274911 0.13095596 13158592
0.44825003 -0.11187544 0.13980584 13553352
0.45562077 -0.11405356 0.13914821 12961215
0.4643285 -0.11480427 0.13545376 12698043
0.47306249 -0.11667644 0.1326589 13092801
0.48615387 -0.11575479 0.13234478 13027008
0.49275002 -0.11715488 0.131016 13092545
0.42425004 -0.10129157 0.13865164 12895422
0.43566671 -0.10218789 0.13885498 12895422
0.44600007 -0.10457924 0.13870002 13290180
0.4550294 -0.10505506 0.13713343 12894909
0.46441662 -0.10552155 0.13364035 12632250
0.47189477 -0.1056094 0.13056314 12961215
0.4826667 -0.10907009 0.13029487 13092801
0.41824999 -0.091413543 0.13950697 12763836
0.42203853 -0.094882011 0.13785882 12829629
0.4349601 -0.092715032 0.13629185 12763836
0.44434378 -0.09536624 0.13526787 12895422
0.45554841 -0.095178701 0.13327904 12500921
0.46396977 -0.095827073 0.13156201 12566457
0.47100005 -0.098715641 0.1304546 12763836
0.40657145 -0.081449769 0.13975379 12764091
0.4152889 -0.084258087 0.13847962 12763836
0.42415559 -0.084964499 0.13664643 12829629
0.43484131 -0.084750094 0.13391763 12763837
0.44348004 -0.086149082 0.13119788 12698301
0.45400003 -0.088371836 0.13070229 12500664
0.39740002 -0.071878649 0.13962145 12895678
0.40494007 -0.0744339 0.13831492 12961471
0.41424525 -0.075025223 0.13602935 12961216
0.42432079 -0.074733347 0.1336585 12961473
0.4328109 -0.075884558 0.13130879 13027010
0.39619055 -0.064291798 0.13909967 12961472
0.40450764 -0.065206066 0.13682657 12961217
0.41475472 -0.064860739 0.13458538 13158594
0.42426321 -0.065079927 0.13204931 13093060
0.43042859 -0.068092555 0.13054149 13158596
0.39514709 -0.054052565 0.13792431 12961473
0.40391806 -0.055067562 0.13461392 13027010
0.41497627 -0.05514393 0.13290194 13093059
0.42295241 -0.055809207 0.13119152 12961217
0.38866666 -0.042739965 0.13949619 13093060
0.39438266 -0.04492721 0.13761361 12961474
0.40423471 -0.044934954 0.13371131 13092802
0.41427785 -0.045801524 0.13098139 13093060
0.42100003 -0.047663707 0.13007605 13093060
0.38861111 -0.036060661 0.13952677 13224388
0.39365214 -0.035482571 0.13725147 12961473
0.40483776 -0.034538172 0.1336987 12895680
0.41275686 -0.034570053 0.13097104 12895681
0.38900003 -0.029470317 0.1393128 13290439
0.39446914 -0.024918834 0.13786089 13027266
0.40380251 -0.025102889 0.13383795 12764094
0.41281086 -0.025486575 0.13080651 12764095
0.39506575 -0.014929047 0.13755715 13158595
0.40412664 -0.014823101 0.13321798 12698301
0.41178259 -0.015631033 0.13062011 12500923
0.39592591 -0.0050884075 0.1376406 13093059
0.40397501 -0.0052140108 0.13280424 12698301
0.41125003 -0.0045619928 0.13031176 12435130
0.39584851 0.004342658 0.13817792 13224644
0.40460214 0.0049601034 0.13342942 12961473
0.41 0.0062116501 0.13051665 12895681
0.39731818 0.014358204 0.13875867 13553609
0.40474319 0.015202404 0.13442868 13487561
0.41066676 0.015645232 0.13040738 13355975
0.39845455 0.022770114 0.13947584 13816524
0.40458116 0.024899198 0.13561724 13750731
0.41140622 0.025416037 0.1311429 13684939
0.40506724 0.034782134 0.13691543 13882061
0.41251776 0.035366483 0.13189991 13750732
0.40658441 0.044822883 0.13705365 14276819
0.41289064 0.045153935 0.13203368 14013905
0.40648165 0.054912873 0.13750538 14934236
0.41298625 0.054976005 0.13250488 14408406
0.40804183 0.063716851 0.13775147 15263201
0.41322717 0.065487579 0.13316908 14803164
0.40900001 0.071145311 0.13945392 15526373
0.41479462 0.074826881 0.13550101 15131872
0.4206191 0.076941475 0.13098925 14868442
0.41624153 0.083919771 0.1373512 14539477
0.42179251 0.084590741 0.13232687 14210256
0.42766666 -0.13168146 0.14965563 12763836
0.43543753 -0.13115948 0.14777566 12763836
0.44000003 -0.13118859 0.14573193 12698043
0.42577779 -0.12405752 0.14923039 12895422
0.43539208 -0.12581699 0.14743844 13092801
0.44275007 -0.1243299 0.14289656 13290179
0.45350003 -0.12176005 0.14046597 12698043
0.40833333 -0.11107233 0.14974117 12961215
0.41575 -0.11384541 0.14919977 12961215
0.4235574 -0.11456957 0.14678426 12961471
0.43431431 -0.11515512 0.14437716 13158594
0.44439623 -0.11541209 0.14202558 13421766
0.45171431 -0.11753833 0.14031963 13421766
0.39475003 -0.10258851 0.14940549 12829629
0.40502048 -0.10459324 0.14842726 12895422
0.41465959 -0.10488506 0.14671554 12829629
0.42290169 -0.10521318 0.14354157 12961214
0.43281823 -0.10790842 0.14210492 12961215
0.44241676 -0.1073974 0.14083339 13027008
0.38762498 -0.092926778 0.14929077 12697530
0.39429578 -0.094653636 0.14748779 12698043
0.40425527 -0.094465397 0.14452335 12764091
0.41508892 -0.095500864 0.14279228 12764091
0.42054549 -0.097420171 0.14130189 12829629
0.37857145 -0.081918679 0.14950439 13749961
0.38470596 -0.084585607 0.14802568 12894909
0.39471948 -0.084754959 0.14457954 12763836
0.40309799 -0.085701525 0.14133456 12764091
0.41242859 -0.087660275 0.1405274 12698041
0.3776412 -0.074549012 0.14891137 14473683
0.38402218 -0.074437514 0.14565222 13355716
0.39434427 -0.075829625 0.14206208 12829886
0.4005 -0.078862071 0.1403833 12895421
0.37768519 -0.065028243 0.14835636 15328480
0.38400877 -0.064990461 0.14382996 13882316
0.39169231 -0.06572172 0.14073315 12961472
0.37740296 -0.054617021 0.1477825 14999771
0.38377854 -0.055012919 0.14280683 13948111
0.39100006 -0.056258168 0.14039426 13158851
0.37839544 -0.046143886 0.14812207 13223879
0.38321319 -0.044699829 0.14340653 14079698
0.37869692 -0.035043392 0.14894718 6975091
0.38333124 -0.034825649 0.14394368 14013906
0.37885714 -0.028384525 0.14961742 3487035
0.38378137 -0.024963085 0.14464554 14013648
0.38531524 -0.015298222 0.14493608 13948112
0.391 -0.012687145 0.14048579 13619404
0.38625002 -0.005449025 0.14571413 13553353
0.39120597 -0.0049902643 0.14109775 13356231
0.38712746 0.0043838476 0.14661275 13553352
0.39161816 0.0054285331 0.14191309 13487560
0.38854763 0.013706941 0.14837557 13948110
0.39271191 0.015196132 0.14366902 13882318
0.38900003 0.021253223 0.1491479 14342868
0.39384565 0.025118276 0.14463429 14277075
0.39529547 0.034951057 0.145596 14605527
0.40033337 0.036525875 0.14081961 14211282
0.39679575 0.044657812 0.14636219 15065822
0.40080002 0.045430213 0.14164099 14868443
0.39828581 0.053899914 0.14834215 15460579
0.40141106 0.055375714 0.1435615 15394786
0.4033677 0.064966358 0.14496028 15526373
0.40615657 0.074629806 0.14537008 15460836
0.41061544 0.077847958 0.14113802 15263457
0.40821216 0.082433045 0.14752354 15394788
0.41230914 0.084567524 0.14288217 14144460
0.38629416 -0.13190086 0.15966946 12895424
0.39517948 -0.13289553 0.15830965 12698045
0.40194446 -0.13122863 0.15501602 12829630
0.41516671 -0.13058329 0.15256725 12763836
0.42388889 -0.13200742 0.15152702 12829629
0.38607857 -0.12456388 0.15911819 13158596
0.39438573 -0.12500986 0.15707047 13092803
0.40410542 -0.12507331 0.15414375 13158594
0.4140732 -0.12490639 0.152043 13027008
0.42252177 -0.1270308 0.15109763 12961215
0.36900002 -0.11045143 0.15979293 12829631
0.37615004 -0.11265715 0.1588932 12894910
0.38421878 -0.11525822 0.15679957 13092545
0.39522499 -0.11521448 0.15457548 13027008
0.4040449 -0.11571231 0.15226787 13027008
0.41289479 -0.11718182 0.15056206 13092801
0.36781818 -0.10450148 0.15963241 13487047
0.37512696 -0.10481914 0.15661268 12960702
0.38406375 -0.10576184 0.15222086 12895422
0.39308336 -0.10621382 0.15104203 12895166
0.40175003 -0.10896774 0.15046015 12895422
0.3667925 -0.094433345 0.15880018 14605270
0.37385467 -0.094981231 0.15475491 13421509
0.38375002 -0.095059231 0.15134709 12763835
0.36687496 -0.084787503 0.15804967 15197151
0.37370181 -0.085141949 0.15328325 14210769
0.3811667 -0.088143051 0.15063372 13092285
0.36746249 -0.075513765 0.15795006 15395043
0.37252146 -0.074894577 0.15291232 15000285
0.3687222 -0.067447811 0.15900089 15592422
0.37263671 -0.064931788 0.15437861 15591652
0.3729572 -0.055008918 0.15496925 15131616
0.37616757 -0.045185663 0.15512544 8817031
0.37669915 -0.0351528 0.15518098 2764847
0.37774482 -0.026763752 0.15565267 5526869
0.38043746 -0.02208557 0.1540013 13684683
0.38137701 -0.015086733 0.15486132 13684683
0.38265628 -0.0052272077 0.15470609 13092802
0.38418281 0.0046031708 0.15515126 13158338
0.38597867 0.014733713 0.15494119 13816267
0.38790917 0.024272185 0.15543407 14211026
0.3904444 0.028055992 0.15140671 14342868
0.38879076 0.032956377 0.15780006 14473941
0.39118484 0.035564393 0.15383701 14605527
0.39290753 0.045025554 0.15515061 15000028
0.39608791 0.055049516 0.15484659 15328993
0.3979578 0.063468173 0.15634671 15394787
0.40021992 0.067288958 0.15339214 15526374
0.402419 0.075117126 0.15498063 15394788
0.4058421 0.08274173 0.15478526 14736089
0.359 -0.1320406 0.16883928 13421768
0.36242685 -0.13341373 0.16621377 13027010
0.37459579 -0.1334797 0.16324639 12961217
0.38131997 -0.13277721 0.16112751 12895424
0.35807538 -0.12451775 0.16812457 14013904
0.36378971 -0.12502897 0.16448162 13224389
0.37574556 -0.12471346 0.16193388 13158596
0.38121429 -0.1259636 0.16061878 13224132
0.35704514 -0.11462148 0.16746826 14474457
0.36380985 -0.11492065 0.1631076 13224390
0.37378794 -0.11681744 0.16071714 13027010
0.38000003 -0.11952634 0.16010848 13355205
0.35775819 -0.1053161 0.16690521 14935007
0.36284766 -0.10500886 0.16220473 14211027
0.35820213 -0.095159791 0.16684596 15263202
0.36166671 -0.094824113 0.16215743 15131870
0.35869804 -0.085659936 0.16765805 15329765
0.36170012 -0.084711149 0.16307957 15460837
0.35900003 -0.079724133 0.16890931 15395558
0.36249158 -0.074894503 0.16481385 15526631
0.36533165 -0.065081179 0.16501288 15591910
0.37 -0.061378691 0.16022597 15394275
0.36743292 -0.055402186 0.16530907 15394533
0.37019226 -0.052976452 0.16140887 15328739
0.36900002 -0.049982939 0.16756746 14736861
0.37264431 -0.044919275 0.16492704 7895416
0.37287882 -0.034971535 0.16507123 2436651
0.37570947 -0.025025055 0.16502018 7238257
0.38000003 -0.020337408 0.16010848 13487561
0.37852323 -0.01581621 0.16666616 13355975
0.38041809 -0.013784464 0.1625019 13421768
0.37900004 -0.0093411906 0.16915108 13027010
0.38106948 -0.0051513468 0.16487838 12895681
0.38217849 0.0049070292 0.16515182 12961217
0.38420668 0.015199552 0.16519037 13619147
0.38515022 0.025305206 0.16526158 14079696
0.38694093 0.03508012 0.16492219 14408661
0.38862723 0.042439591 0.16509913 14803419
0.39112133 0.047394939 0.16447303 15066334
0.39381829 0.055030759 0.16513166 15197920
0.39604744 0.064885683 0.16524448 15395043
0.39797625 0.072467819 0.16670303 15328993
0.40060258 0.076203875 0.16407393 15262945
0.4022668 0.081305966 0.16467971 13091009
0.35895246 -0.14093627 0.17692964 12500152
0.36014289 -0.14092164 0.17257763 12566200
0.35900012 -0.1361775 0.17528495 13026237
0.36040851 -0.1348692 0.17533956 13683907
0.358318 -0.123789 0.17328086 13814725
0.36046004 -0.12620816 0.17768089 13815236
0.35766655 -0.11489002 0.17523529 14079695
0.3582364 -0.10625412 0.17406163 14013904
0.36045834 -0.10270724 0.1772965 14671834
0.35861909 -0.09674859 0.1709692 14408409
0.36155561 -0.094701052 0.17609182 14342613
0.36382192 -0.085408807 0.17596924 14079441
0.36361662 -0.074097142 0.17464393 14473943
0.36218446 -0.064172141 0.17384145 14079443
0.36581674 -0.055225838 0.17425737 14013908
0.37 -0.050118394 0.17928186 9409422
0.3685919 -0.044207733 0.17653741 5922653
0.37048471 -0.045515519 0.17390788 7566965
0.36801895 -0.034908257 0.1765708 2107429
0.37059036 -0.034937542 0.17180111 2436138
0.36820003 -0.028255651 0.17764914 2501673
0.37347722 -0.02427087 0.17455962 7763828
0.37806475 -0.014856989 0.17513679 13158596
0.37896085 -0.0068359701 0.17569664 12763838
0.38029394 -0.0026343972 0.17361958 12829631
0.38084629 0.004994303 0.17513876 12895424
0.38167226 0.015490424 0.17487723 13619146
0.38293213 0.025262065 0.17518948 14013903
0.38460994 0.035242952 0.17510158 14342612
0.38639703 0.045108628 0.17508531 15000541
0.39033332 0.049166083 0.17055362 15132384
0.38836262 0.054336347 0.17669894 15263457
0.39131761 0.056111116 0.17230348 15263713
0.38890907 0.062202003 0.17851165 15394786
0.39216077 0.065459378 0.17441128 15394786
0.39579302 0.074556649 0.17529771 15262687
0.40000004 0.078787766 0.17134443 15327969
0.39900002 0.080458932 0.17605346 7629416
0.40014288 0.080823496 0.1724755 8879486
0.359 -0.13702585 0.18105727 12960960
0.36047626 -0.13297322 0.18125722 14144717
0.35900003 -0.12048477 0.18067528 14540248
0.36061117 -0.12567103 0.18106407 13684422
0.35836363 -0.1148211 0.180355 12303544
0.35825002 -0.10849081 0.18029782 9737620
0.36100003 -0.10214107 0.18104801 10000279
0.36320001 -0.093951955 0.18091643 12171705
0.36721736 -0.084772065 0.18198887 12303289
0.37 -0.080723293 0.18520074 10132373
0.36844999 -0.075957537 0.18081707 13552839
0.3705833 -0.075716846 0.18431322 10921633
0.36733332 -0.068676509 0.18114309 10329754
0.36866668 -0.05338962 0.18108137 10066838
0.37057889 -0.051429421 0.18266842 9738387
0.36771795 -0.042528 0.18256718 3751483
0.37068748 -0.047663253 0.18287021 9409164
0.36695457 -0.035101645 0.18253072 1778718
0.36766672 -0.027015459 0.18279192 2962225
0.37292105 -0.021974411 0.18266761 10526880
0.37707695 -0.014669264 0.18388811 12435134
0.37806645 -0.0050619026 0.18479964 12040631
0.37848598 0.0044956426 0.18596664 12501182
0.38002643 0.006561575 0.18179874 12763838
0.37896666 0.012927734 0.18806234 12830658
0.38040745 0.015782967 0.18397596 13356232
0.38081843 0.025086846 0.18496573 13750733
0.38177311 0.035039026 0.18505676 14079698
0.38352063 0.044958457 0.18513735 14934494
0.3857986 0.055018041 0.18498075 15197921
0.38726473 0.064624421 0.18506868 15329249
0.39025006 0.06898775 0.18109933 15526372
0.38870832 0.0712559 0.18751146 15066078
0.39236113 0.074751027 0.18415068 15000286
0.3580555 -0.04128271 0.1978485 2765101
0.36000001 -0.042864479 0.19466281 2172709
0.35809824 -0.034748364 0.19786678 2173221
0.35874999 -0.028227866 0.19867538 2238756
0.36032006 -0.025254864 0.19827691 3878956
0.37783337 -0.0053337454 0.19030069 10001050
0.37800014 0.0056796432 0.19080375 11909560
0.37861538 0.012396417 0.19143336 12633026
0.38047051 0.017728664 0.19297543 12961735
0.3816444 0.025329821 0.19443993 12961476
0.38145143 0.034338031 0.19415635 13553355
0.3813493 0.045032669 0.1924606 14606042
0.38354227 0.05506184 0.19276436 15066079
0.38537502 0.065025203 0.193434 15131616
0.38834858 0.073506035 0.19414912 14934236
0.39070004 0.076682284 0.19141467 14868444
0.3576667 -0.040726583 0.20102917 1843997
0.35782972 -0.034548786 0.20147364 1646619
0.35845456 -0.026531486 0.20135306 2236700
0.36000001 -0.023480849 0.20056216 3346193
0.38592011 0.026940156 0.20221281 10263193
0.38689712 0.034448676 0.20500334 11316394
