# .PCD v0.7 - Point Cloud Data file format
VERSION 0.7
FIELDS x y z rgb
SIZE 4 4 4 4
TYPE F F F U
COUNT 1 1 1 1
WIDTH 820
HEIGHT 1
VIEWPOINT 0 0 0 1 0 0 0
POINTS 820
DATA ascii
0.59850001 -0.11119294 0.089643329 13948367
0.59900004 -0.10567733 0.089017093 13553609
0.60000002 -0.10234224 0.088463388 14014160
0.59900004 -0.093407482 0.089718223 14409688
0.59999996 -0.096567728 0.088931583 14014930
0.59900004 -0.089551233 0.089718223 14475481
0.59999996 -0.085486896 0.089633889 14343123
0.58900005 -0.11356512 0.0992513 13816524
0.59476936 -0.11258345 0.095285982 13882316
0.58630002 -0.10440115 0.099480607 13816781
0.59621996 -0.10498844 0.094902411 14079695
0.5850001 -0.094989277 0.099145353 13816781
0.59573919 -0.095095322 0.094706163 14079952
0.60000002 -0.098128408 0.091272607 14474965
0.58577788 -0.084220342 0.098704427 13685195
0.59547597 -0.08507406 0.094226353 13948367
0.6006667 -0.080894388 0.090436049 14211793
0.58590925 -0.075000934 0.098602347 13619402
0.59488231 -0.075133756 0.094581999 13750988
0.6007334 -0.074714407 0.090726949 14014414
0.5848276 -0.065007672 0.097834699 13619402
0.59429038 -0.064972602 0.093404479 13751245
0.6006667 -0.068239637 0.090904258 14014157
0.58423328 -0.054881718 0.097849324 13553609
0.59306675 -0.055576324 0.093174443 13751245
0.57733345 -0.043851633 0.099424295 13158853
0.58486956 -0.045290418 0.097418569 13290438
0.59316671 -0.045208331 0.093044549 13554123
0.56850004 -0.03109185 0.099789485 13158853
0.57605886 -0.034402635 0.098733827 12895681
0.58496296 -0.034803454 0.095876083 13093060
0.59105003 -0.035785664 0.092815615 13290950
0.56819999 -0.024290355 0.099337205 12895681
0.57482618 -0.025319703 0.097500227 12895681
0.58470368 -0.025361169 0.094516128 13027266
0.59100002 -0.024132326 0.091863342 13159621
0.56828576 -0.015778655 0.099751875 13027267
0.57500005 -0.015585057 0.098684102 13027267
0.58547068 -0.014321224 0.096636683 13027267
0.59269577 -0.014405584 0.093537301 13093315
0.57642859 -0.0052120057 0.099831767 13027267
0.58454162 -0.0049965964 0.098151423 12961474
0.59188896 -0.0058643161 0.094397612 13027266
0.56900001 0.0088425651 0.099877253 12566716
0.57621431 0.005482866 0.099215262 12698302
0.5847407 0.0049043926 0.097108603 12895680
0.59149998 0.004446398 0.094725981 13027265
0.56491667 0.015823914 0.099708103 12632509
0.57418764 0.015223519 0.098515138 12698302
0.5842858 0.01513432 0.096207358 12895680
0.59169233 0.015747726 0.094801977 13159108
0.56666672 0.022517255 0.099686958 12895681
0.57475001 0.024522224 0.098864906 12829888
0.58361906 0.025627103 0.096322477 13093059
0.59142864 0.022738922 0.094714954 13290694
0.57718188 0.036054764 0.099469975 12895428
0.58265716 0.034521699 0.096541367 13158853
0.57653576 0.045062892 0.097966723 13027267
0.58227271 0.046161093 0.094646595 13356744
0.57738101 0.054254062 0.09857861 13027267
0.58236367 0.055404738 0.095651858 13488331
0.5776667 0.065436751 0.099481821 12961474
0.58279401 0.064913236 0.096356444 13619404
0.54000002 0.079816349 0.099843442 12632509
0.57696432 0.075920239 0.097895719 13158853
0.58135712 0.073095478 0.095434777 13816783
0.53633332 0.08554402 0.098744363 12566714
0.54260004 0.082229376 0.098291233 12763838
0.55000001 0.081294425 0.099117279 12961474
0.56850004 0.083362862 0.099789485 12895681
0.57645839 0.083687328 0.097470939 12829631
0.58100003 0.08587648 0.093822837 13882317
0.5546875 -0.11417861 0.10880522 13224387
0.56395829 -0.11527869 0.10696247 13158852
0.57445008 -0.11438569 0.1049301 13027267
0.58400011 -0.11470349 0.10192729 13685195
0.53850007 -0.10130753 0.10965121 13290439
0.54510522 -0.10419808 0.10837203 13290182
0.55443752 -0.1052742 0.10680719 13158853
0.5654667 -0.10438681 0.10516296 13093060
0.57500011 -0.10506392 0.10310458 13027267
0.58283335 -0.10612542 0.10105222 13685195
0.53662509 -0.093997337 0.1081657 13158853
0.54347062 -0.095616899 0.10609367 13158853
0.55328578 -0.096776374 0.10544323 13158853
0.56790912 -0.094324 0.10427522 13027267
0.57507694 -0.094673201 0.10181822 13093059
0.58066672 -0.09768597 0.10056576 13553609
0.51740003 -0.083163753 0.10922821 13158853
0.52457696 -0.083860211 0.1072848 13158853
0.53243756 -0.087392882 0.10630865 13158853
0.54500002 -0.082754031 0.10459548 13158853
0.56665003 -0.084452443 0.10489862 12961474
0.57421428 -0.085171185 0.10155301 13158852
0.58050001 -0.080669552 0.1005369 13422023
0.51685721 -0.074288495 0.10830767 13158853
0.52341944 -0.075559296 0.10519427 13158853
0.53375 -0.071356915 0.10524562 13093060
0.544375 -0.073256128 0.10495047 13027267
0.55637503 -0.073086038 0.10498592 13027267
0.56491673 -0.075691156 0.10394562 13027267
0.57535714 -0.074758813 0.10166483 13027266
0.58116668 -0.074413754 0.10065236 13356230
0.5053637 -0.063401327 0.10935529 13224391
0.51456523 -0.065037191 0.10806717 13224646
0.52420008 -0.065850034 0.1067355 13158853
0.53399998 -0.064531982 0.10605075 13027267
0.5443846 -0.064129263 0.10506317 12961474
0.55346674 -0.064947069 0.10431747 13093060
0.56518197 -0.065187842 0.10317039 13158853
0.57568431 -0.064359449 0.10125975 13356230
0.58000004 -0.06838055 0.10045031 13356230
0.49900004 -0.054158174 0.10978526 12960963
0.50470835 -0.054827716 0.10877172 13027011
0.51451993 -0.055190183 0.10731495 12961474
0.52425009 -0.054445844 0.10674958 12961474
0.5345 -0.055090103 0.10632842 12895681
0.5436154 -0.055039525 0.10501277 12961474
0.55320007 -0.05516497 0.10418075 13093060
0.5656957 -0.054975625 0.10320655 13158853
0.57638103 -0.055134784 0.10117028 13290437
0.49900001 -0.04890142 0.10978526 12895424
0.50481081 -0.044293176 0.10767239 12829631
0.51155567 -0.046145875 0.1061595 12764095
0.52450001 -0.048026394 0.10649087 12632509
0.53750008 -0.047640014 0.1072441 12764095
0.54449993 -0.045592975 0.10542167 12829888
0.55212504 -0.044411696 0.10434584 12961474
0.56524998 -0.044153053 0.10252278 12961474
0.57446671 -0.045185033 0.10137244 13027266
0.50551015 -0.03538686 0.10712881 12632509
0.51062506 -0.032258578 0.1047217 12632509
0.52900004 -0.030788612 0.10647839 12829888
0.53500003 -0.033642709 0.10643364 12764095
0.54599994 -0.033456009 0.10665229 12829888
0.55369562 -0.035492271 0.10434257 12895426
0.56360877 -0.034986649 0.10150695 12895681
0.57180005 -0.035961974 0.10036874 12895681
0.49900001 -0.020865386 0.10978526 12369337
0.50478119 -0.025245246 0.10809793 12500923
0.5121001 -0.027526492 0.10607252 12566716
0.52200001 -0.024271142 0.10751343 12698302
0.53585005 -0.024026819 0.10703619 12698302
0.5437308 -0.024838824 0.10493226 12829633
0.55394447 -0.024890788 0.10284802 12961475
0.56237507 -0.025406333 0.10093322 12961474
0.49900001 -0.017944967 0.10978526 12500923
0.50481486 -0.015984042 0.10856725 12435130
0.51305884 -0.013898096 0.10771628 12369337
0.52324998 -0.014223869 0.10725801 12500923
0.53634995 -0.016085573 0.10675969 12632509
0.54534787 -0.014696144 0.10471394 12763840
0.55475992 -0.014573772 0.10267063 12961474
0.56308335 -0.016070906 0.1007041 12961474
0.57000005 -0.010490409 0.10005279 13158853
0.50612503 -0.0057588322 0.10972174 12237751
0.51426929 -0.005203804 0.10850851 12237751
0.52418184 -0.0050185425 0.1068423 12303544
0.53507149 -0.0054718778 0.10581827 12500923
0.54418182 -0.0057339487 0.10513098 12500925
0.55419999 -0.0051338929 0.1036966 12632509
0.56421059 -0.0047517377 0.1015338 12829888
0.57242858 -0.0051711635 0.10047907 12895681
0.48900002 0.0093164593 0.10987467 12041142
0.49680001 0.0085328724 0.10976382 12237751
0.50570834 0.0054354891 0.10894004 12171958
0.5153448 0.0047009168 0.10750904 12171958
0.52462506 0.0058498308 0.1060569 12237751
0.53387505 0.0045496118 0.10558125 12237751
0.54311115 0.0052634766 0.10522063 12237751
0.5533334 0.0051419982 0.10414172 12369337
0.56414825 0.0041448679 0.10205082 12566716
0.57200003 0.0035286455 0.10040385 12698302
0.479 0.018096721 0.10987044 12172728
0.48390007 0.013063246 0.10940576 12041142
0.49530005 0.013375016 0.10954782 12237751
0.50536847 0.015854554 0.10825665 12303544
0.51171434 0.01462338 0.10710522 12303544
0.52500004 0.01061685 0.10567326 12237751
0.53633338 0.01063886 0.10585769 12237751
0.54457146 0.015116774 0.10651616 12369337
0.55460721 0.015805773 0.10364945 12369337
0.56128573 0.013880276 0.10114962 12566716
0.47669232 0.025895165 0.10933895 12238521
0.48340002 0.022115799 0.10906305 12304057
0.49471429 0.022828657 0.10900321 12369337
0.50440007 0.020942729 0.10884251 12369337
0.51350003 0.023002574 0.10736048 12500923
0.52200001 0.022165291 0.10751343 12435130
0.53680003 0.026316728 0.10666251 12698303
0.54540002 0.024750331 0.10568954 12435130
0.55450004 0.023959784 0.10340285 12435130
0.56299996 0.025580073 0.10145725 12632509
0.57000005 0.029541001 0.10138717 12698302
0.46900001 0.038030759 0.10977256 12106163
0.47425002 0.031795993 0.10878092 12172472
0.49300003 0.039399836 0.10961932 12500921
0.52600002 0.039574396 0.10956867 12698302
0.53560716 0.03465376 0.10695145 12763839
0.54500002 0.034916073 0.10470772 12764095
0.55485719 0.035794299 0.10369976 12500923
0.56386673 0.03626148 0.10293094 12566716
0.57318187 0.034826986 0.10109738 12698302
0.49900004 0.044746716 0.10978526 12435130
0.50506258 0.046125975 0.10926938 12435130
0.51436853 0.045924772 0.10840645 12303544
0.52474999 0.044392098 0.1082298 12435130
0.53451866 0.04438509 0.10660887 12632254
0.5446251 0.045434434 0.10515926 12961476
0.55371428 0.044899665 0.10422773 12829888
0.5648334 0.044785596 0.10235462 12632509
0.57087505 0.044954836 0.10020638 12764095
0.4845385 0.057042066 0.10930566 12895679
0.49531254 0.055157248 0.10933317 12632508
0.50512499 0.054751959 0.10876203 12632509
0.51446152 0.055333987 0.10715885 12566715
0.52378571 0.054641809 0.10603818 12435130
0.53447062 0.054635394 0.10558826 12500667
0.54464287 0.055010252 0.10452142 12895682
0.5526666 0.054307256 0.10390844 12895424
0.56387508 0.054630626 0.10271063 12698045
0.57250005 0.055695463 0.101048 12829888
0.48538473 0.065104261 0.10901495 12698044
0.49378952 0.066232592 0.10759996 12829631
0.50400001 0.065326206 0.10743284 12698302
0.51475996 0.064564496 0.10678674 12764093
0.52405268 0.064737864 0.10521986 12829887
0.53426671 0.065625429 0.1043667 12369337
0.54530007 0.062853649 0.10426679 12698302
0.55419999 0.066217527 0.10350486 12895681
0.56440902 0.06474448 0.1029095 12829888
0.57313335 0.064941488 0.10131554 12764095
0.47900003 0.079210162 0.10987044 12632252
0.48515791 0.075833142 0.10924658 12698045
0.49521875 0.07486368 0.10746086 12829631
0.50253338 0.074353382 0.10569722 12829888
0.51575005 0.072613962 0.10576906 13093058
0.52500004 0.074353941 0.10544853 13093059
0.53388894 0.075855061 0.10356545 12632509
0.54425001 0.075770892 0.10158166 12566716
0.55410004 0.074500248 0.10206093 12961474
0.56516665 0.074560732 0.10169914 12566716
0.5728333 0.074606128 0.10055012 12829888
0.46900001 0.087437943 0.10977256 12433588
0.4746522 0.084740631 0.10882024 12499894
0.48330769 0.082924515 0.10832842 12566203
0.4954375 0.08330261 0.10776439 12829888
0.50535005 0.084217355 0.10656349 12961474
0.51538098 0.085887328 0.10528318 13355975
0.52463633 0.085692652 0.10392134 13224389
0.53306901 0.08369261 0.10204165 12698301
0.5575 0.080443561 0.10046888 12566716
0.56449997 0.081454799 0.10040887 12500923
0.57050002 0.080985039 0.10014056 13224646
0.51400006 0.090412743 0.10526174 12040114
0.523 0.090361036 0.1028173 11315879
0.53050005 0.09083128 0.10119113 11250343
0.52550006 -0.12223634 0.11930615 13290180
0.53400004 -0.12139433 0.11653927 13224132
0.55400002 -0.12043448 0.11021352 13355973
0.5172857 -0.112108 0.118997 13553095
0.52452171 -0.1151976 0.11822439 13355716
0.53510523 -0.11556541 0.11527891 13290180
0.54487503 -0.11494141 0.11200801 13224387
0.55199999 -0.11686174 0.11036812 13158594
0.51379484 -0.1043841 0.11765718 13355716
0.52460009 -0.10519625 0.11535047 13290180
0.53490329 -0.10472791 0.1127473 13224388
0.54262501 -0.10811827 0.11096374 13355974
0.48350003 -0.090956978 0.11938882 13027008
0.49000001 -0.090462081 0.11927615 13158594
0.50609088 -0.093868926 0.11733713 13092801
0.51268178 -0.095356196 0.11448082 13158594
0.52466673 -0.095386036 0.11231662 13224388
0.53280008 -0.096535958 0.11114777 13158853
0.47860003 -0.08275681 0.11986239 12829886
0.48292857 -0.085764624 0.11932781 12961215
0.49655554 -0.083708473 0.1172917 13027008
0.5039556 -0.085565202 0.11411862 13027008
0.51290482 -0.08566083 0.11095305 13158851
0.52350003 -0.08868143 0.11027343 13158853
0.4758333 -0.073555827 0.1192271 12895682
0.48390913 -0.075020149 0.11775152 12961216
0.49448895 -0.074827775 0.11485466 13027009
0.50407141 -0.075312808 0.11182188 13092802
0.5110001 -0.075696729 0.11043084 13158596
0.46606252 -0.063065447 0.11930853 13093062
0.47413334 -0.065515324 0.1181801 13027013
0.48421222 -0.065381877 0.11614231 13158853
0.49464455 -0.064786002 0.11301123 13158596
0.50240004 -0.066334657 0.11060868 13290182
0.51100004 -0.06921757 0.11003287 13224646
0.45809096 -0.053571381 0.1195019 13158853
0.46567851 -0.055672817 0.11813743 13092806
0.47363648 -0.054780837 0.11609207 13224392
0.48419234 -0.054945238 0.11484866 13224647
0.49446681 -0.055323157 0.11255962 12961219
0.5 -0.059533998 0.11000527 13158343
0.45805889 -0.045140956 0.11951075 13158855
0.46431598 -0.044957317 0.11790922 13027270
0.47317511 -0.044732235 0.11542097 13093062
0.48376197 -0.045948762 0.11397681 13224391
0.49528563 -0.045084424 0.11227118 13092803
0.5007143 -0.044377681 0.11016243 13027010
0.45717651 -0.034736797 0.11940433 12961220
0.4648422 -0.034787029 0.11789912 12895682
0.47372523 -0.035190418 0.11522295 12895683
0.48470005 -0.034232788 0.11321469 12895681
0.4955 -0.03491421 0.11183953 12961474
0.50100005 -0.035027903 0.11022529 12829888
0.44900003 -0.023504695 0.11980707 12764096
0.45557895 -0.024917031 0.11841251 12633025
0.46440548 -0.024853919 0.1162991 12632767
0.4744412 -0.025585745 0.11427183 12632767
0.48386663 -0.024613893 0.11245266 12764095
0.4948 -0.025091911 0.11126525 12698302
0.5 -0.025589239 0.11000527 12566716
0.44795662 -0.014585906 0.11920754 12434876
0.45425531 -0.014584684 0.11683237 12435646
0.46441665 -0.015480933 0.11508258 12501180
0.47375867 -0.015103036 0.11405452 12501692
0.48333341 -0.015343553 0.11244179 12369593
0.49375004 -0.013938846 0.11105187 12566716
0.50060004 -0.012728897 0.11013728 12369337
0.43849999 -0.0013977662 0.1195711 11975349
0.44594735 -0.0048875059 0.11862724 12171960
0.4540683 -0.00543364 0.11581176 12238265
0.46311113 -0.0049677151 0.11411127 12172728
0.47570005 -0.0063555809 0.1135062 12370106
0.48361543 -0.0048031546 0.11205503 12172471
0.49423531 -0.0053524543 0.11070604 12171958
0.50116664 -0.0055076084 0.11026195 12237751
0.43659261 0.0051345523 0.11944557 12501435
0.44460419 0.0048455601 0.11762697 12040887
0.4539167 0.0048712716 0.1153864 12041142
0.4631668 0.0055315406 0.11404928 12106678
0.47408 0.0043317187 0.11255346 12172728
0.4832857 0.0041118618 0.11125127 12106679
0.49454549 0.0038389964 0.11038113 12106422
0.50099999 0.0030920673 0.11022528 12106165
0.43616667 0.01477678 0.11937399 13027522
0.44421434 0.015184638 0.1170333 12238007
0.4543685 0.014366276 0.11507528 12238008
0.46525627 0.015425549 0.11360701 12237751
0.47369447 0.014626326 0.1113887 12106935
0.48050001 0.013089768 0.1102145 12172728
0.43500006 0.025284087 0.11926284 13487817
0.44504079 0.024786862 0.11746396 12698301
0.45451173 0.025332985 0.11481036 12500923
0.46475002 0.025908176 0.11261652 12303800
0.47295836 0.024502814 0.11078811 12238521
0.43600011 0.034972943 0.11897983 13421768
0.44490704 0.034948301 0.11732628 12961474
0.45498088 0.034780435 0.11463285 12566716
0.46376932 0.035446055 0.1116868 12369336
0.47000003 0.039762266 0.11000662 12040370
0.52900004 0.038561709 0.11019359 12435130
0.53066665 0.036197823 0.11054076 12435130
0.43448648 0.045384709 0.11930816 13750734
0.44444227 0.045164663 0.11719918 13224646
0.45455107 0.04499092 0.11424176 12764093
0.46458617 0.044032224 0.11199568 12369336
0.4733125 0.045030627 0.11098722 12369335
0.48366663 0.046429388 0.11086001 12500921
0.49436367 0.0464493 0.11044648 12632508
0.5 0.046397064 0.11000527 12566716
0.43554339 0.054893162 0.11866816 13948111
0.44483024 0.054563046 0.11611051 13356231
0.45451427 0.05492745 0.11351684 12895679
0.46499997 0.053240769 0.11260214 12698045
0.47462496 0.055154782 0.1116372 12566714
0.48218751 0.05362431 0.11045759 12500923
0.49280006 0.051376887 0.1102645 12895679
0.43610907 0.064662963 0.11810578 14211026
0.44399998 0.065553553 0.11559938 13684681
0.45542106 0.065404251 0.11447024 13158595
0.46376315 0.065431841 0.11219613 12698044
0.47440737 0.064645156 0.11103319 12566458
0.48087502 0.064886674 0.11030053 12434873
0.43623823 0.074592598 0.11875475 14671319
0.44462749 0.075513288 0.11595526 13947340
0.45416287 0.074838817 0.11326517 13224132
0.46455553 0.074180998 0.11162582 12763838
0.4729048 0.075534068 0.1104193 12500665
0.48087502 0.074027166 0.11015859 12632252
0.43762508 0.083680876 0.11886074 14867926
0.44487929 0.084121324 0.11546141 13881546
0.45396671 0.084064737 0.11209203 13092288
0.46519995 0.084216528 0.11094687 12631737
0.47128573 0.082892597 0.11014871 12433845
0.49900001 -0.12015966 0.12964411 13158594
0.50465387 -0.12351908 0.12856087 13487302
0.5135715 -0.12271678 0.1244856 13553096
0.52266675 -0.1221883 0.12049669 13290180
0.49733332 -0.11374738 0.12940288 13224387
0.5042631 -0.11465221 0.12733741 13355716
0.51393187 -0.11544599 0.12268567 13487559
0.52000004 -0.11912984 0.12049213 13684938
0.47600004 -0.10276866 0.12943979 13027008
0.48335293 -0.10320847 0.12823427 13158338
0.49580005 -0.10569587 0.12741609 13223617
0.50565857 -0.10538564 0.12460732 13289667
0.51037514 -0.10632189 0.12154719 13224387
0.45900002 -0.090648875 0.12999707 12829629
0.46541184 -0.092783526 0.12886016 12829631
0.47453335 -0.095049404 0.12738958 12829888
0.48231429 -0.094920732 0.12375833 13092545
0.506625 -0.097316757 0.12161656 13158594
0.44000003 -0.080201216 0.12976617 13290439
0.45648003 -0.083422638 0.12885027 12698043
0.46423683 -0.085302755 0.12709558 12764094
0.47460389 -0.085147612 0.12337936 12829888
0.48000002 -0.088615932 0.12085513 13027008
0.49300003 -0.089861818 0.12000641 13027008
0.4362857 -0.073349699 0.12910518 13355975
0.44457579 -0.074979201 0.12833306 13093058
0.45521623 -0.074820541 0.12646662 12764094
0.46471423 -0.075171448 0.12378296 12961474
0.47229645 -0.076304406 0.12131003 12829888
0.42800003 -0.060478508 0.12973277 13487560
0.43427095 -0.064866133 0.12844884 13487561
0.44518191 -0.065287955 0.12626497 13224646
0.4552407 -0.065039046 0.12345537 12895681
0.4632 -0.066704758 0.12109713 13093060
0.42596671 -0.054046761 0.12904678 13224388
0.43375471 -0.055186331 0.12691596 13356232
0.44453329 -0.054844804 0.12438529 13290440
0.45372504 -0.055198379 0.12135359 13093060
0.41700003 -0.043794129 0.12981637 13356232
0.42457423 -0.044811323 0.12839159 13290438
0.43421301 -0.044803061 0.1250973 13356232
0.44467664 -0.044644523 0.1227485 13027011
0.45286676 -0.044907447 0.12072925 13092804
0.41710523 -0.033887155 0.12933402 13158853
0.42419609 -0.035358995 0.12815271 13159110
0.43434289 -0.034937453 0.12503326 13355977
0.44479993 -0.034866001 0.12182338 12763841
0.4519231 -0.035991549 0.12042227 12895682
0.41678572 -0.02498663 0.12915431 12961478
0.42411545 -0.025028335 0.12745795 13027270
0.43460283 -0.024844807 0.12428492 13158600
0.44374996 -0.025282526 0.12117784 12632256
0.45000002 -0.028297605 0.12007391 12566716
0.41626829 -0.01486338 0.12849075 12632768
0.42386058 -0.014605347 0.12612484 12763842
0.43396428 -0.015169101 0.1233478 13093063
0.4432334 -0.015077882 0.12071918 12500926
0.41394836 -0.0051983907 0.12843934 12632766
0.42474622 -0.0054257931 0.12464722 12501438
0.43413162 -0.0056892517 0.1214463 12895939
0.44162506 -0.0076121567 0.12042221 12237751
0.41428572 0.004984268 0.12798941 12895681
0.42382503 0.0048369085 0.12365459 12566974
0.43168008 0.0039354623 0.12068022 12895681
0.41511303 0.015074311 0.12787193 13487818
0.42449999 0.01501686 0.12363824 13421768
0.43099993 0.014769802 0.12055234 13487817
0.41581997 0.024958944 0.12847044 13816526
0.4249036 0.025026014 0.12406432 13816526
0.43045002 0.025079584 0.1204998 14014161
0.41644987 0.034456391 0.12876371 13947857
0.42474976 0.035325292 0.12475652 13948112
0.43056667 0.034914739 0.12093501 14145747
0.4173438 0.044922084 0.12897523 14211283
0.42429304 0.045073457 0.12469406 14277076
0.43020001 0.043712404 0.12076572 14408663
0.41776663 0.055067547 0.12907566 14605785
0.42413825 0.054861691 0.12485919 14737371
0.4305653 0.056061298 0.12089107 14935006
0.41809094 0.063312054 0.1295322 14803163
0.42383879 0.065056577 0.12611385 14934493
0.43094745 0.065211445 0.12154515 15197921
0.42438695 0.074853048 0.12629952 15000286
0.43133339 0.074990764 0.12166621 15066079
0.42590564 0.083646454 0.12697412 14670807
0.43249997 0.084130816 0.12195545 14802137
0.44595656 -0.12267992 0.13842043 12895423
0.46733332 -0.12223423 0.13694763 12961215
0.47420001 -0.12401153 0.1349034 13290180
0.48364991 -0.12341981 0.13357572 13355715
0.49487504 -0.12397941 0.13203962 13421252
0.50100005 -0.1259191 0.13016373 13289410
0.44693553 -0.11518435 0.13896371 13619144
0.45491999 -0.11413863 0.13794917 13092801
0.46511117 -0.1146586 0.13498396 12895422
0.47363162 -0.11555954 0.13261624 13224387
0.48553336 -0.11494919 0.13220564 13224388
0.49395457 -0.11684268 0.13127147 13290180
0.43880004 -0.10176051 0.13947909 13158594
0.44459191 -0.10480645 0.13790791 13421766
0.45551425 -0.10462677 0.13579586 12895422
0.46453997 -0.10568112 0.13316467 12829629
0.47261912 -0.10564653 0.13058317 13092801
0.48150003 -0.10861709 0.13016811 13290181
0.41850001 -0.090487584 0.13959005 12961217
0.4242084 -0.09292078 0.13900365 13027009
0.43525001 -0.094491042 0.13773783 12961472
0.44378042 -0.095584653 0.1353312 13158594
0.45537502 -0.095286489 0.13285235 12829630
0.46321061 -0.096820332 0.13107128 12829631
0.40900001 -0.080295525 0.13977309 12961474
0.41561541 -0.083893932 0.13851051 12961217
0.42386964 -0.084914386 0.13656117 12961216
0.43439132 -0.084884264 0.13360621 13027008
0.44478258 -0.085858926 0.13152792 13092802
0.45388895 -0.086985931 0.13096532 12698300
0.39700001 -0.070504606 0.13985322 13158853
0.4052265 -0.07389985 0.13829194 13158853
0.41416982 -0.075196058 0.13594964 13093059
0.42443633 -0.075084575 0.13349366 13290181
0.43200004 -0.075711392 0.13097107 13224389
0.39584213 -0.064671896 0.1390745 13158853
0.40458474 -0.065202035 0.13676499 13158853
0.41456893 -0.064886518 0.13416895 13290438
0.4240784 -0.065441892 0.13175696 13356231
0.43055555 -0.067616105 0.13045199 13421768
0.39466664 -0.054269899 0.13750923 13224646
0.4041346 -0.055136975 0.13447809 13224646
0.4145883 -0.054958265 0.13234867 13290182
0.4217858 -0.055937525 0.1307039 13224644
0.38850001 -0.044438943 0.13958791 13224646
0.39462352 -0.045105822 0.13696496 13159110
0.40446278 -0.044563767 0.1335586 13224646
0.4137857 -0.045746859 0.13106677 13290184
0.42100006 -0.046579581 0.13007605 13290438
0.38857895 -0.035781525 0.13954444 13487818
0.39382672 -0.035314407 0.13711703 13224646
0.40473703 -0.034825526 0.13368802 13158853
0.41262159 -0.034795977 0.13095574 13158599
0.38900003 -0.02901499 0.1393128 13553611
0.39485705 -0.024698438 0.13739386 13224646
0.40407148 -0.025195887 0.13346697 13027012
0.41262862 -0.025420092 0.13082504 12961475
0.39526433 -0.015067001 0.13768281 13356232
0.40392154 -0.014667553 0.13306944 12895681
0.41205886 -0.015875096 0.13054575 12698815
0.39592949 -0.0050398279 0.13811776 13422025
0.40397999 -0.0050853346 0.13286901 12895938
0.39673337 0.0045398078 0.1381305 13487818
0.40422416 0.0049852589 0.13318448 13224647
0.39734796 0.014669789 0.13886167 13882319
0.40441629 0.015085586 0.13434762 13685198
0.41105875 0.015757794 0.13039982 13553611
0.39805564 0.02404855 0.13944882 14145491
0.40403661 0.024814975 0.13558245 13882576
0.41161767 0.025104005 0.13125621 13882576
0.40452853 0.034895688 0.13684064 14079698
0.4124364 0.035367705 0.13191965 13948113
0.40636194 0.045033932 0.13683553 14474456
0.41265577 0.044966731 0.13179833 14211284
0.40641794 0.054810163 0.13756874 15000800
0.4134168 0.055138513 0.13268344 14606042
0.40795663 0.064162739 0.13812694 15395302
0.41392612 0.06527257 0.13336252 15000543
0.40881816 0.071911432 0.13901462 15592681
0.41490188 0.074896201 0.13520554 15263715
0.42061114 0.077432364 0.13083053 14935007
0.41622224 0.083902061 0.13719001 14605272
0.42170218 0.084681168 0.13228315 14736345
0.42700002 -0.13081004 0.14942195 13027010
0.43578574 -0.13138559 0.14789638 13092802
0.44033337 -0.13111591 0.1460136 13290180
0.42497152 -0.12416638 0.1492897 13224388
0.43543187 -0.12583102 0.14754196 13290180
0.4422923 -0.12468924 0.14341688 13553352
0.40550002 -0.11045717 0.14996253 13158851
0.41641673 -0.11229739 0.14945345 13093058
0.42396975 -0.11454101 0.14735822 13224387
0.43447623 -0.11498181 0.14452145 13355973
0.44306815 -0.11558011 0.14212258 13619144
0.38900003 -0.10141215 0.14933002 12895422
0.39270011 -0.10461791 0.14896873 13027008
0.40526322 -0.10445223 0.1487245 13092801
0.41482222 -0.10476139 0.14740649 13027009
0.42376566 -0.10517156 0.14437304 13158596
0.43375674 -0.10507573 0.14169295 13158595
0.44060001 -0.10713069 0.14025764 13158594
0.38826472 -0.094138071 0.14928621 12829629
0.39419046 -0.094476625 0.14723922 12895422
0.40465516 -0.093548149 0.14507148 12961216
0.4147895 -0.095177099 0.14359607 12961217
0.42280006 -0.097496055 0.14135294 13092803
0.43233335 -0.099382877 0.14032371 13027267
0.37850001 -0.082282983 0.14950782 13948110
0.38528821 -0.084478721 0.14833638 13092801
0.39431641 -0.085061736 0.14498772 12961216
0.40434697 -0.084824689 0.14211267 12895681
0.4128519 -0.086854599 0.14108562 12961217
0.3776668 -0.07455381 0.1489214 14605270
0.38425273 -0.074810132 0.14573982 13552840
0.39446548 -0.075559542 0.14227642 13093060
0.40143755 -0.077638589 0.14070806 13027010
0.37772724 -0.065119915 0.14837585 15394786
0.38399172 -0.064862899 0.14376876 14079440
0.39170837 -0.066320278 0.1406626 13224646
0.37736848 -0.054382656 0.14759195 15066080
0.38428417 -0.055317052 0.14267205 14079699
0.39087504 -0.056492079 0.14009842 13356232
0.37840819 -0.046210714 0.14781253 13552844
0.38292676 -0.044497218 0.14336582 14342870
0.37877426 -0.034603287 0.14903679 6580334
0.38279864 -0.03491497 0.14408243 14211541
0.37874997 -0.028249575 0.14949583 3881792
0.3838048 -0.024946541 0.14461569 14145492
0.38531059 -0.015298594 0.14497551 14145491
0.391 -0.013390748 0.14045081 13750990
0.38644058 -0.0054766629 0.1458666 13750733
0.3912974 -0.0050213402 0.14124757 13619404
0.38739222 0.0045197122 0.14673987 13750733
0.39184129 0.004946189 0.14162061 13684940
0.38827541 0.014382034 0.1477448 14145490
0.3925516 0.014928443 0.14280415 14079698
0.38899997 0.021450533 0.14849526 14474456
0.39332598 0.025231836 0.14445446 14539992
0.39434472 0.034952007 0.14476673 14671835
0.40000001 0.037897989 0.14059909 14540249
0.39576226 0.044522408 0.14609915 15132130
0.40082222 0.045690469 0.14150093 14935007
0.39816222 0.053387899 0.14828601 15461094
0.40126887 0.055422701 0.14367841 15461094
0.40265495 0.064904667 0.14489725 15592937
0.40590689 0.074697718 0.14518584 15592681
0.41037506 0.078310058 0.14084315 15461095
0.40836668 0.082348578 0.14771315 15592167
0.41192067 0.084735021 0.14356722 14144466
0.38579997 -0.1319125 0.15965703 13092803
0.39565799 -0.13261311 0.15843017 12961217
0.40242109 -0.13120322 0.15491062 13027010
0.4147273 -0.13128529 0.15284421 12895424
0.42311764 -0.13195074 0.15140976 13027009
0.38595653 -0.12444419 0.15921226 13355975
0.39453524 -0.12495981 0.15711366 13290182
0.40435714 -0.12527229 0.15410198 13290438
0.41487235 -0.12467289 0.15208262 13224389
0.42165002 -0.12749502 0.15115078 13092802
0.37741941 -0.11283036 0.15887506 13027010
0.38504225 -0.11466534 0.1565176 13224389
0.39408001 -0.1154439 0.15405498 13290181
0.40386671 -0.11596619 0.15204263 13224645
0.41427279 -0.11621596 0.15076581 13158852
0.42000002 -0.1188345 0.15041485 13224387
0.36900005 -0.10094925 0.15979293 14013905
0.37494245 -0.10482801 0.15748119 13092803
0.38506746 -0.1051744 0.15295538 13027010
0.39170003 -0.10853569 0.15091501 13158596
0.36731109 -0.094067872 0.15905775 14802651
0.37372091 -0.094725177 0.15528318 13684684
0.38393843 -0.095303297 0.15187131 12895424
0.36678246 -0.084660977 0.15836629 15394787
0.37362629 -0.085123427 0.15362677 14473942
0.38169235 -0.0882001 0.150646 13027009
0.36755258 -0.075619631 0.15805197 15592167
0.3725293 -0.074764311 0.15305637 15263200
0.36874998 -0.066262811 0.15925287 15723753
0.37252548 -0.064909399 0.15432645 15657959
0.36900005 -0.058621299 0.15979293 15460582
0.37273002 -0.055073526 0.15494302 15263203
0.37625617 -0.045226313 0.15513821 9014154
0.37675485 -0.035159081 0.1552031 2764848
0.37755555 -0.02681778 0.15574223 5461332
0.38041997 -0.022140179 0.15406767 13816526
0.38135177 -0.015121061 0.15481599 13750990
0.3826969 -0.0052483003 0.15468341 13224390
0.38408384 0.0046029226 0.15511052 13355975
0.38561735 0.014725355 0.15508111 13947856
0.38796741 0.024346165 0.155367 14408406
0.39026669 0.028022766 0.1511555 14540248
0.38882226 0.03289542 0.15767558 14605528
0.39109892 0.035684701 0.15373375 14671578
0.39295828 0.045056559 0.15539503 15066079
0.39642504 0.055070952 0.15494229 15395044
0.39812046 0.063754648 0.15590394 15526631
0.4000856 0.06786 0.15321031 15657959
0.40200025 0.075052075 0.15486464 15460837
0.40583637 0.082790963 0.15469295 14671065
0.35882148 -0.13314585 0.16831496 13487562
0.36265582 -0.13348912 0.1659466 13158596
0.37418646 -0.13378939 0.16355367 13158596
0.38126087 -0.13239768 0.16125919 13158596
0.39300001 -0.13511564 0.16006574 12763838
0.35803574 -0.12453292 0.16801991 14079955
0.36376363 -0.12501779 0.16450652 13422024
0.37558502 -0.12449344 0.16196872 13290439
0.38110715 -0.12596078 0.16063726 13356232
0.3568573 -0.11469427 0.16733566 14671578
0.36384383 -0.11507479 0.16306283 13421768
0.37393177 -0.11570983 0.16072653 13158853
0.38000003 -0.11952634 0.16010848 13355975
0.3574844 -0.10506917 0.16659714 15132386
0.3635374 -0.10512418 0.16189496 14276820
0.37 -0.10641987 0.16022597 13421768
0.35817224 -0.095181182 0.16672632 15329765
0.36219406 -0.095029883 0.16209625 15197922
0.35861817 -0.085895494 0.16726421 15527144
0.36181763 -0.08456181 0.16305941 15657960
0.35900003 -0.079724133 0.16932952 15461351
0.36272055 -0.074951306 0.16486557 15724010
0.36523059 -0.065076254 0.16493106 15658217
0.36734051 -0.0554296 0.1652361 15526631
0.37033325 -0.052061331 0.16164972 15394535
0.36900002 -0.049982939 0.16756745 14934494
0.37273347 -0.044944033 0.16488519 7961466
0.37268922 -0.034955025 0.16498797 2567468
0.37544441 -0.024989443 0.16504925 7435123
0.38000003 -0.020337408 0.16010848 13619145
0.37884602 -0.01646794 0.16693495 13487818
0.38033777 -0.013795472 0.16323432 13553611
0.38115051 -0.005241869 0.16488338 13027267
0.3817943 0.0049383305 0.16496907 13092546
0.3839294 0.015292626 0.16527537 13816526
0.38548014 0.025218165 0.16513295 14211284
0.38692772 0.035105683 0.16494772 14540249
0.38850796 0.042729553 0.16533689 14935007
0.39125007 0.047485355 0.16404344 15197921
0.39368036 0.055021629 0.16511713 15329507
0.39596868 0.064918645 0.16514951 15461349
0.39791077 0.072872318 0.16615415 15460836
0.40036055 0.076601714 0.16382974 15329251
0.40195456 0.08122573 0.16357803 13946831
0.35887507 -0.14076342 0.17693594 12631737
0.36000001 -0.14115211 0.1730669 12566199
0.35896784 -0.13615556 0.1754268 13223873
0.36042258 -0.13497588 0.17554507 13749700
0.35833859 -0.12376713 0.17324166 13749702
0.36051857 -0.12626295 0.17748603 13749957
0.35761225 -0.11483844 0.17524613 14145233
0.3582885 -0.10602586 0.17432682 14145234
0.36024317 -0.10222217 0.17733528 14737628
0.35852638 -0.097597338 0.17111667 14343131
0.36195144 -0.094933286 0.17633124 14342871
0.36429408 -0.085384525 0.17649908 14145491
0.3655417 -0.076073729 0.17586242 14276308
0.37 -0.074804425 0.17928186 13552583
0.36271435 -0.063615873 0.17380393 14408152
0.36604616 -0.055212282 0.17439228 14145238
0.37 -0.050118394 0.17884877 11908533
0.36870834 -0.044587776 0.17656791 6909546
0.37069395 -0.045256123 0.17456043 7369330
0.36822745 -0.034655616 0.17725442 2238500
0.37067977 -0.035280447 0.17247817 2501930
0.36854163 -0.028027855 0.17735167 2632746
0.37335116 -0.024142433 0.1745587 8027257
0.37808496 -0.014859504 0.17498313 13224392
0.37886268 -0.0073894695 0.17667119 12829635
0.38021225 -0.0037925455 0.17380357 12895682
0.38090611 0.0049193311 0.17498858 12961474
0.38148773 0.015410774 0.1749474 13750733
0.38320112 0.025336955 0.17506123 14145491
0.38429159 0.035061792 0.17523223 14408663
0.38653487 0.045051403 0.17521696 15066592
0.39025 0.049231604 0.17082168 15263972
0.3883419 0.054328803 0.17696942 15329764
0.39113641 0.055831216 0.17234412 15329765
0.38894442 0.06183964 0.17844526 15330021
0.3922101 0.065405399 0.17450278 15395557
0.3960261 0.074524768 0.17526771 15394785
0.40000004 0.079308003 0.17207275 15590626
0.39850003 0.080358103 0.17956384 6708063
0.40000007 0.081020743 0.17364946 7234402
0.35881817 -0.13649727 0.18104196 13290183
0.36052388 -0.13246855 0.18136159 14144974
0.35900006 -0.1203447 0.18095541 14539997
0.36071429 -0.12555595 0.18156803 13750217
0.35815385 -0.11533291 0.18037853 12434877
0.3585 -0.10772639 0.18042363 9934745
0.36060005 -0.10135136 0.18080536 9868947
0.36321738 -0.094292246 0.18094756 12303545
0.3659583 -0.086150996 0.18135659 12369082
0.36873081 -0.076739512 0.18148936 12895168
0.37036359 -0.074483275 0.18292737 11710637
0.36657143 -0.065117732 0.18093009 10395548
0.36750004 -0.056224775 0.18100868 10329499
0.37068966 -0.051976468 0.18305853 10001047
0.36777776 -0.042358316 0.18274705 3028788
0.37089747 -0.047347121 0.18301244 9212301
0.36675018 -0.034955196 0.18233925 1909537
0.36762741 -0.027097646 0.18275501 3158577
0.37257499 -0.022157965 0.18264134 9869205
0.37689209 -0.014769089 0.18375219 12501440
0.37811202 -0.0052929139 0.18486674 12172475
0.38000003 -0.0011223324 0.18128064 12567229
0.37869993 0.0044910656 0.18709823 12501439
0.3801856 0.0058202506 0.18244897 12764353
0.37900007 0.012450811 0.18831249 12896197
0.38050008 0.015650136 0.18427446 13422282
0.38081077 0.025086416 0.18496212 13882319
0.38159579 0.035057537 0.18517233 14211284
0.38348898 0.045043405 0.18507394 14935007
0.38569692 0.055041846 0.1849312 15329764
0.38745072 0.064487211 0.18546708 15395300
0.39053848 0.068696365 0.18149644 15395558
0.38877776 0.071066327 0.1878234 15066079
0.39269051 0.074805096 0.18460862 15197408
0.35883331 -0.041185763 0.19865157 2699309
0.36000001 -0.040757563 0.19676971 2567723
0.35875002 -0.035348564 0.19830771 2239015
0.36000007 -0.034057565 0.19672759 2304807
0.35900003 -0.028668286 0.19895452 2238758
0.360475 -0.025831025 0.19808322 3747885
0.37771431 -0.0059398846 0.19034585 10132892
0.37862501 0.0067731831 0.19077355 12632256
0.37900001 0.011302063 0.19145055 12895428
0.38027096 0.016760355 0.19284666 13092808
0.38131469 0.025420917 0.19423798 13093062
0.38152549 0.034956284 0.19469525 13553870
0.3816334 0.044907562 0.19470303 14540251
0.38316521 0.054935142 0.19478017 15000288
0.38499218 0.064778343 0.1950981 15197153
0.3881169 0.073204525 0.19554876 14802139
0.39091668 0.076657139 0.19219689 15131616
0.35830003 -0.040901385 0.20120814 2041636
0.35817292 -0.034421649 0.20147873 1712671
0.35879421 -0.026785864 0.2014707 2236958
0.36000001 -0.023480849 0.20098355 3806742
0.38466677 0.026901163 0.20121737 10329241
0.38592991 0.035153087 0.2036963 11447980
0.38391665 0.044684857 0.20122902 14474204
0.38327274 0.054854382 0.20096631 14737375
0.38410002 0.065814078 0.20081472 14144722
0.3865 0.072813995 0.20077264 12630463
