# .PCD v0.7 - Point Cloud Data file format
VERSION 0.7
FIELDS x y z rgb
SIZE 4 4 4 4
TYPE F F F U
COUNT 1 1 1 1
WIDTH 830
HEIGHT 1
VIEWPOINT 0 0 0 1 0 0 0
POINTS 830
DATA ascii
0.59800005 -0.11110063 0.089568444 13092801
0.59890914 -0.10572515 0.089194685 13422280
0.60000002 -0.10234224 0.088463388 12896449
0.59900004 -0.098665997 0.089718223 14146000
0.59999996 -0.095063806 0.089101836 13685707
0.60033333 -0.087875418 0.089448936 13883086
0.60000002 -0.070036188 0.089867994 13816778
0.60000002 -0.068631575 0.089867994 13882571
0.58783334 -0.11357214 0.099282958 13421766
0.59440005 -0.11240228 0.095252782 13487816
0.5859167 -0.10577229 0.099415697 13553352
0.59581995 -0.1049183 0.094837382 13685194
0.58500004 -0.095418416 0.099002466 13422023
0.5961861 -0.095326953 0.094673775 13750987
0.60000002 -0.093212277 0.091272607 13948621
0.57740009 -0.083753213 0.09945783 13224899
0.58435297 -0.084540278 0.097900599 13356230
0.59507412 -0.085866705 0.094434492 13685194
0.60069227 -0.084610425 0.090728551 13882828
0.57733339 -0.077752896 0.099536657 13093059
0.58457142 -0.07473401 0.097667873 13224645
0.59440625 -0.074687697 0.093458712 13422022
0.6006667 -0.076206118 0.090436049 13816778
0.58503717 -0.065245591 0.098122507 13224646
0.59363157 -0.064906739 0.09340582 13422279
0.58486968 -0.05487515 0.098492384 13158853
0.59371412 -0.055235971 0.093616366 13356487
0.58490479 -0.044996537 0.098558322 12895681
0.59329534 -0.045169089 0.093748897 13159364
0.57625002 -0.034551121 0.099631712 12566716
0.58452189 -0.035087258 0.097895853 12632509
0.59209096 -0.035048902 0.094014809 12830142
0.56900001 -0.025124434 0.099877246 12435130
0.57492864 -0.024714008 0.09889745 12500923
0.58488464 -0.024878524 0.096602887 12566716
0.59189999 -0.025164777 0.093087018 12698557
0.56900001 -0.017132198 0.099877253 12501437
0.57628578 -0.015323913 0.099227302 12566972
0.58533335 -0.01462965 0.096596234 12632508
0.59220004 -0.015152922 0.093412332 12632763
0.57709098 -0.0044787182 0.099453807 12566716
0.5851351 -0.005250989 0.096184604 12566972
0.5905 -0.0074129375 0.092592195 13027265
0.56712502 0.0076477453 0.099379875 12106165
0.57522225 0.0051223617 0.098347761 12237751
0.58449996 0.0039501763 0.095700681 12500922
0.59000003 0.0077877156 0.093895003 12633279
0.56339145 0.015145467 0.098944768 12171958
0.57400006 0.015080852 0.097278893 12237751
0.58458334 0.015814872 0.094969966 12764093
0.59071434 0.015404282 0.094008677 12699072
0.56491667 0.023106821 0.099265642 12303543
0.57600003 0.026051847 0.098528296 12435130
0.58470374 0.025433203 0.095782802 12698301
0.5905 0.022999227 0.093974568 13093573
0.57700002 0.031254552 0.099930733 12369337
0.58333331 0.035134949 0.096856892 12698301
0.57661539 0.045664746 0.097939916 12501180
0.58225006 0.043889266 0.09547013 12961729
0.57705003 0.05321027 0.098113753 12698302
0.58235002 0.056018054 0.095878892 12961986
0.56850004 0.068723306 0.099789485 12369337
0.57687503 0.067709424 0.098725408 12829887
0.58355886 0.064477377 0.096723251 13158851
0.53400004 0.077524304 0.099199645 12303287
0.56800002 0.071322843 0.099701725 12369080
0.57609093 0.076201379 0.097194239 12961215
0.58225006 0.072767183 0.095045969 13619656
0.5340417 0.084663063 0.098635077 12237236
0.54000002 0.082344644 0.097315148 12105906
0.57750005 0.082249343 0.097716115 12698043
0.58025002 0.08372777 0.095739007 13223874
0.55512494 -0.11423802 0.10821132 12895422
0.56380957 -0.11439415 0.10518044 12764093
0.57422233 -0.11317624 0.10317603 12895679
0.58362502 -0.11491676 0.10124507 13553609
0.53900003 -0.1007701 0.10975302 13027008
0.54525006 -0.10393548 0.10886783 12961215
0.55445832 -0.10516884 0.10710698 12829629
0.56478572 -0.10506505 0.10441775 12764093
0.57477778 -0.10551573 0.10200888 12764093
0.58157146 -0.10464942 0.10072245 13553609
0.528 -0.091297224 0.10998528 12829629
0.53587508 -0.094705537 0.10903403 12895422
0.54435301 -0.095169477 0.10746547 12829886
0.5543685 -0.095511392 0.10618375 12698300
0.56522578 -0.094914265 0.10381751 12632507
0.57480013 -0.094408497 0.10102514 12829884
0.58000004 -0.098251939 0.10045031 13224644
0.51900005 -0.080628619 0.10932553 12764094
0.52434784 -0.084154956 0.10852568 12764093
0.53412503 -0.085865252 0.10742613 12829629
0.54487503 -0.086087972 0.10664184 12764093
0.55621427 -0.08482337 0.10646681 12698300
0.56458062 -0.084745407 0.10395406 12632506
0.57246673 -0.085138112 0.10101826 12566970
0.51755005 -0.073498562 0.10853268 12698302
0.52283341 -0.075869635 0.10630506 12698301
0.53100002 -0.079385146 0.10563787 12764093
0.54466671 -0.0737615 0.10750695 12764093
0.55663168 -0.074579604 0.10737339 12632509
0.56344116 -0.0754648 0.10405182 12632509
0.57368755 -0.074508011 0.10111485 12829887
0.50550002 -0.063149869 0.10943869 12829631
0.51408321 -0.064975232 0.10788084 12764095
0.52458334 -0.064306386 0.10712177 12764094
0.53550005 -0.064766154 0.1072827 12698302
0.54577786 -0.062856682 0.10644511 12500923
0.55413049 -0.065356895 0.10543936 12632509
0.56413043 -0.064985096 0.10315051 12764095
0.57534796 -0.064931698 0.10104513 12895681
0.49900004 -0.053574093 0.10978526 12566459
0.50482607 -0.054302901 0.10869877 12566716
0.51395452 -0.055281807 0.10738131 12566716
0.52359998 -0.055599302 0.10698242 12632509
0.53482348 -0.054175705 0.10661445 12369337
0.54422724 -0.055128668 0.10513726 12500923
0.55381256 -0.054921441 0.10352818 12698302
0.56353849 -0.055532794 0.10256787 12763838
0.57588243 -0.055797935 0.10084213 12829888
0.58000004 -0.050050374 0.10045031 12895681
0.49900001 -0.047149166 0.10978526 12566459
0.50511104 -0.044800833 0.10783784 12369337
0.51380002 -0.046269767 0.10630374 12303544
0.52420008 -0.046460938 0.10673939 12303544
0.53700006 -0.047845017 0.10733438 12303544
0.54478061 -0.045111094 0.10426679 12500923
0.55350006 -0.044368234 0.10168871 12566716
0.5645715 -0.046074636 0.10117338 12566716
0.57628572 -0.045198143 0.10057489 12566716
0.49900001 -0.031962983 0.10978526 12237751
0.50436109 -0.035162266 0.1079092 12171958
0.51340014 -0.035000317 0.10614044 12171958
0.52700001 -0.03560707 0.10607582 12500923
0.53569233 -0.033685341 0.10627784 12303544
0.54524136 -0.03556427 0.10454954 12435130
0.55316675 -0.034639556 0.1021299 12500923
0.56272721 -0.0340649 0.10080905 12500923
0.5702858 -0.034528557 0.10010294 12435130
0.49811119 -0.024974423 0.1094599 12171958
0.50299996 -0.025134942 0.10765941 12040372
0.51569998 -0.024699949 0.10754275 12040372
0.52000004 -0.028438803 0.10710151 12171958
0.53438717 -0.024765013 0.10626306 12172471
0.54416001 -0.024791913 0.10340881 12304314
0.55418181 -0.026947141 0.10175393 12435900
0.5625 -0.024931064 0.10070862 12500923
0.49875003 -0.017935101 0.10973026 11974579
0.50440925 -0.015719781 0.10887989 11974579
0.51480955 -0.014468173 0.10826556 11908786
0.52553844 -0.014781129 0.10776646 12040885
0.53513801 -0.016370067 0.10623635 12106678
0.54465383 -0.014436662 0.10359175 12238521
0.55358827 -0.014457553 0.10181976 12370107
0.56372732 -0.01564651 0.10062896 12632509
0.57000005 -0.011824789 0.1000528 12632509
0.50566673 -0.0055603846 0.10947517 11777200
0.51429164 -0.0052556968 0.10832848 11842993
0.52464288 -0.0047461959 0.10717755 11777970
0.53499991 -0.0054641934 0.10637043 11909556
0.54452944 -0.0060472819 0.10472538 11975349
0.55346668 -0.0052599995 0.10284948 12172471
0.56410527 -0.004752141 0.10151459 12369337
0.57171434 -0.0051683844 0.1003537 12435130
0.47900003 0.0091259386 0.10987044 11842993
0.4835 0.0086463168 0.10977075 11645614
0.50571871 0.0050858026 0.10852226 11645614
0.51373333 0.0047413814 0.10717013 11645871
0.52540004 0.0055807484 0.10648978 11646384
0.53460866 0.005180913 0.10580434 11711920
0.54406255 0.0049510309 0.10433187 11908786
0.55364287 0.0040610777 0.10301039 11974578
0.56321055 0.0039937352 0.10128582 12040372
0.57033336 0.0015191222 0.10011131 12237751
0.47680002 0.012432148 0.10936582 11842993
0.48249999 0.013523503 0.10935488 11777200
0.49400002 0.012881108 0.10984167 11842993
0.5061906 0.015795499 0.10826193 11908786
0.51320004 0.015147346 0.10697929 11909043
0.52600002 0.012237393 0.10611989 11777970
0.5356667 0.013382004 0.10564204 11843249
0.54431254 0.015471355 0.10438029 11908786
0.55417246 0.015435193 0.1020098 12040371
0.56 0.011980125 0.1009194 12040370
0.49850002 0.027584743 0.10967526 11974578
0.50452781 0.024961703 0.10804538 12040370
0.51238465 0.024063082 0.1062697 12040628
0.523 0.025268633 0.10649504 12106935
0.53366667 0.023701852 0.106374 12041142
0.54408336 0.025401486 0.10455344 12040372
0.55352384 0.024119999 0.10165969 12106164
0.5632 0.02760933 0.10070202 12237749
0.57100004 0.029592827 0.10022832 12369337
0.46900001 0.038579728 0.10977256 11908784
0.47050002 0.039253257 0.10902221 11908784
0.49699995 0.035306107 0.10856587 11908784
0.5016923 0.032593533 0.1069426 11974577
0.51475 0.033010636 0.10722523 12106165
0.523 0.033226922 0.10771939 11974577
0.53635299 0.034600198 0.10743969 12237751
0.54381585 0.034986902 0.10449433 12303543
0.55287504 0.035611857 0.10238522 12040372
0.56533337 0.035685439 0.10143107 12237750
0.57590914 0.035485908 0.10059776 12303801
0.58000004 0.03616932 0.10045031 12369850
0.47300005 0.04167819 0.1096015 11842991
0.49761903 0.044540197 0.10859171 11908784
0.50344443 0.047830105 0.10735509 11974577
0.51480001 0.048128597 0.10747443 11974577
0.537 0.04520081 0.1074936 12171956
0.54399997 0.045078766 0.10550576 12500921
0.55446666 0.044914581 0.10363852 12237750
0.56442857 0.045990087 0.1021506 12171957
0.57042867 0.045395516 0.10012801 12106935
0.47840005 0.058166794 0.10950854 12040113
0.48384613 0.056611098 0.10906276 12500921
0.49600005 0.055304874 0.10906307 12171956
0.50433332 0.055066217 0.10820054 12237749
0.51472229 0.055668753 0.10741467 12171956
0.52369225 0.05524154 0.10663259 12171956
0.53505003 0.054655124 0.10612579 12106163
0.54505002 0.054467451 0.10440902 12500921
0.55557144 0.055175155 0.1034623 12435129
0.56466669 0.054023821 0.10237157 12303544
0.57292318 0.056006793 0.10097555 12501179
0.47811112 0.063332967 0.10941736 12040370
0.48429626 0.0657489 0.10822316 12303542
0.49400002 0.067415483 0.10645603 12237750
0.5061667 0.062962539 0.10820045 12237749
0.51523542 0.063736141 0.10760587 12303542
0.52373081 0.065431558 0.10588357 12369335
0.53430003 0.065836273 0.10428871 12106163
0.54513335 0.064750284 0.10359744 12435129
0.55500001 0.06535437 0.10282991 12566715
0.56405264 0.064880557 0.10164557 12303544
0.57433337 0.063038863 0.10080875 12435130
0.4781667 0.076830246 0.10967929 12237494
0.48433331 0.075107425 0.10873706 12303286
0.4939667 0.074862987 0.10685868 12435130
0.50200003 0.078196689 0.1062132 12435130
0.5138334 0.07354214 0.10643186 12566715
0.52603853 0.0746741 0.1054501 12500922
0.53246665 0.075163476 0.10226933 12171957
0.54750001 0.073877864 0.101229 12435130
0.55514288 0.073512889 0.10152595 12434873
0.56533337 0.073861457 0.10114339 12369080
0.57166666 0.07869824 0.10079014 12434871
0.46900001 0.08634001 0.10977256 12171701
0.47566667 0.083971888 0.1087313 11974321
0.48236361 0.082279794 0.10745776 12237492
0.49533334 0.082100369 0.10762428 12500665
0.5053125 0.083704516 0.10710013 12763067
0.51476192 0.085606202 0.10595955 12960702
0.52522224 0.085232154 0.10421011 12895424
0.53163165 0.084474236 0.10189762 12434614
0.57471424 0.08283814 0.10106891 12434871
0.51700002 0.090940438 0.10648361 13289410
0.52642858 0.091543801 0.10383783 12171698
0.53112507 0.092802323 0.10162096 11381926
0.52350003 -0.1211572 0.1191576 12829629
0.53488892 -0.12142128 0.11669745 13092033
0.54400003 -0.12038076 0.11288664 12829629
0.55300003 -0.12021709 0.11001458 12829629
0.51742858 -0.11283065 0.11937625 13290180
0.52413046 -0.11473534 0.11829586 13026752
0.53483337 -0.11515187 0.11581527 13026495
0.54466665 -0.11542653 0.11245985 12895422
0.55144453 -0.11686839 0.11056453 12895422
0.50800002 -0.1009206 0.11949422 12763836
0.51475757 -0.10456672 0.11788218 12961215
0.52479166 -0.10461307 0.11504444 13026238
0.53488457 -0.10495843 0.11261545 12961215
0.54280007 -0.10758217 0.11103175 12961215
0.49800003 -0.090773188 0.11947361 12763836
0.50505716 -0.094259292 0.11749621 12698043
0.51396883 -0.095297888 0.11412236 12895166
0.52516669 -0.094599359 0.11174858 12895166
0.53266668 -0.097094409 0.11095425 12829629
0.47900003 -0.080581874 0.11996257 12698045
0.48433337 -0.082998417 0.11978363 12566459
0.49605879 -0.084511742 0.11749876 12763836
0.50408107 -0.085754924 0.11433894 12698044
0.51416671 -0.084771365 0.11142954 12763838
0.52266669 -0.088743351 0.11050445 12829630
0.47574079 -0.073559709 0.11864586 12632252
0.48379314 -0.074939907 0.1167806 12566459
0.49406451 -0.075390115 0.11458758 12632252
0.50417864 -0.074654952 0.11247735 12698045
0.51309526 -0.076310843 0.11093664 12698302
0.46572223 -0.063573211 0.11917579 12698302
0.47454545 -0.065958187 0.11765707 12698045
0.48457706 -0.064719401 0.11559396 12829888
0.49441871 -0.064521909 0.11288521 12698045
0.5025385 -0.066177711 0.110652 12764095
0.51100004 -0.06921757 0.11003287 12698302
0.45766667 -0.053545341 0.11949924 12698302
0.46513334 -0.055776414 0.11800639 12632255
0.47413793 -0.054731753 0.1163276 12829888
0.48448282 -0.054946024 0.11503197 12895424
0.49417785 -0.055316962 0.11241797 12566716
0.5 -0.05894874 0.11000527 12698045
0.4575555 -0.044837046 0.11941053 12764095
0.46432355 -0.044863451 0.117687 12698302
0.47333336 -0.044814184 0.11561133 12698303
0.48434484 -0.044920541 0.11406077 12764095
0.49469224 -0.045269139 0.11194778 12698302
0.5 -0.042561613 0.11000527 12500923
0.45675004 -0.033876844 0.1193312 12500923
0.4645676 -0.034797687 0.11789937 12500923
0.47323808 -0.035245243 0.11524131 12500924
0.48429164 -0.034001116 0.11296698 12500923
0.49493334 -0.03529229 0.11154855 12500923
0.50019997 -0.037310183 0.11004927 12435130
0.44885716 -0.023122653 0.11961879 12303544
0.45533332 -0.024998406 0.1185108 12303544
0.46478948 -0.024845913 0.11645273 12303544
0.47387874 -0.02549356 0.11423454 12303544
0.4842813 -0.024783462 0.11249179 12303544
0.49331996 -0.025201391 0.1108413 12303544
0.44777781 -0.014338142 0.11901239 11974835
0.45427504 -0.014633922 0.11689888 12171958
0.46422589 -0.015204213 0.11495858 12171958
0.47400013 -0.015594716 0.11354895 12171958
0.48443487 -0.01532678 0.11224623 12040372
0.49480772 -0.014714461 0.11113046 12106165
0.50140005 -0.01274596 0.1103133 11908786
0.44635889 -0.0048436453 0.11877403 11777200
0.45382696 -0.0050234501 0.11534418 11908786
0.46290001 -0.006894181 0.11354095 11974579
0.47485718 -0.0068299435 0.11312399 12040373
0.48445842 -0.0044251294 0.11277025 11842995
0.49494445 -0.0049263202 0.11178597 11777200
0.50166678 -0.0052396338 0.11091836 11777200
0.43816671 0.0062962715 0.1196511 12238007
0.44500008 0.0049665035 0.11823919 11777200
0.45410216 0.0044007222 0.11525813 11777200
0.46304548 0.0056207348 0.11344802 11777200
0.47396299 0.0053300355 0.1117916 11842993
0.4824546 0.0025107018 0.11179056 11842993
0.49527276 0.0038537034 0.11096232 11777200
0.50220001 0.004981658 0.11060636 11711407
0.43632153 0.014804131 0.11948434 12632765
0.44423556 0.01525214 0.11740424 11842995
0.45476666 0.014555885 0.11544769 11842993
0.46525002 0.015450108 0.11331668 11777200
0.47279304 0.014047573 0.1108853 11842993
0.48550004 0.017780447 0.11050632 11908786
0.49800003 0.019980371 0.11073108 12040372
0.50099999 0.014821738 0.1102253 11777200
0.43615803 0.025318807 0.11895431 12961473
0.4452745 0.02514296 0.11651455 12171958
0.45380005 0.024222335 0.11478163 12040372
0.46499994 0.024887767 0.11391245 11908785
0.47423536 0.025130207 0.11232935 11908785
0.48433331 0.026123345 0.11103357 11908786
0.49427274 0.025718911 0.11063568 11908785
0.50140005 0.022462014 0.11031328 11842993
0.43565905 0.035395734 0.11853594 13027011
0.44486055 0.034536269 0.11646612 12435130
0.45514703 0.035184205 0.11451251 12171957
0.46464109 0.035568245 0.11239872 11908784
0.4730714 0.032738365 0.11143499 11908784
0.48288891 0.032308478 0.11050755 11908784
0.49150002 0.031800404 0.1104364 12040370
0.43483332 0.045136675 0.11883765 13290184
0.44479549 0.045413509 0.1166167 12829631
0.45494863 0.044823829 0.11464071 12369078
0.46352491 0.044608541 0.11200996 11974577
0.47245455 0.046510518 0.11097997 11974577
0.48488891 0.046451218 0.11058835 12237492
0.49400002 0.046297967 0.11041802 12171956
0.43584105 0.055078801 0.11867662 13619147
0.44421738 0.054827023 0.11626185 13027008
0.45444438 0.055016797 0.11392152 12566457
0.46486962 0.053479377 0.11211255 12237749
0.47342312 0.055265151 0.11088841 12171956
0.48342863 0.051724534 0.11039897 12237492
0.49350002 0.051566657 0.1103056 12303542
0.43571413 0.064815812 0.11833772 13947852
0.44415781 0.065128379 0.11590774 13224388
0.45537779 0.065198362 0.11415544 12763836
0.46456406 0.065067574 0.11168188 12237492
0.47344446 0.064621359 0.11037961 12171699
0.48000002 0.069262326 0.11009981 12237492
0.43588656 0.074631371 0.11859816 14342353
0.44452092 0.075499512 0.11599973 13553352
0.45381823 0.074824095 0.11333409 12763580
0.46403843 0.074769892 0.11173745 12434871
0.47336361 0.07560274 0.11058855 12105907
0.48000002 0.072071552 0.11009981 12237492
0.43777275 0.083991632 0.11881211 14407377
0.44509989 0.084228791 0.11538231 13552582
0.45396665 0.083779067 0.11191379 12697529
0.46456251 0.083685614 0.11090465 12237494
0.47200003 0.08202602 0.1103612 12040115
0.50475001 -0.12302087 0.12894528 13027007
0.51385289 -0.12284503 0.1247483 13158593
0.49723083 -0.1135591 0.12891361 12961214
0.50434375 -0.11483965 0.12704 12961471
0.51370215 -0.11584623 0.12275822 13158594
0.47800002 -0.10279377 0.12978318 12632250
0.48446426 -0.10333221 0.12816867 12763836
0.49451509 -0.10500884 0.12580293 12763837
0.50448275 -0.1055527 0.12307795 12895423
0.51125008 -0.10755146 0.12125569 12961215
0.45900002 -0.091186136 0.12999707 12369080
0.46564287 -0.092040963 0.12899263 12434872
0.47366667 -0.094225235 0.12773784 12566457
0.48433337 -0.095218457 0.12436634 12698044
0.49459261 -0.095295414 0.12167332 12763837
0.50212502 -0.097990386 0.1207563 12829629
0.44615394 -0.082128577 0.12948659 12566458
0.45545831 -0.084171742 0.12889911 12303285
0.46523073 -0.084658436 0.12678221 12434871
0.47404355 -0.08502952 0.1233191 12566457
0.4830527 -0.086797811 0.12114991 12698044
0.49300003 -0.088130631 0.12000641 12698043
0.43586963 -0.073639251 0.12898803 13027010
0.44491667 -0.074872889 0.12814082 12632508
0.45551279 -0.074848101 0.12623782 12434872
0.46478572 -0.075052157 0.12349066 12632251
0.47195455 -0.076486945 0.12120808 12566458
0.43468964 -0.064828977 0.12855716 13092803
0.44497374 -0.064796083 0.12626287 12961472
0.45533928 -0.064894475 0.12350572 12566715
0.46273685 -0.066617794 0.12107418 12763838
0.42700002 -0.053886987 0.12914558 12764095
0.43354166 -0.055684552 0.12738599 12961474
0.44555318 -0.054933101 0.12478055 12895938
0.45347831 -0.055545423 0.12166382 12632510
0.42494446 -0.044944815 0.12839329 12895681
0.43394443 -0.044387244 0.12531549 12961474
0.44537768 -0.045335781 0.12314057 12632766
0.45246679 -0.045186553 0.12076454 12566717
0.41715384 -0.032543685 0.12956211 12698302
0.42455357 -0.035285588 0.12839438 12764096
0.43433836 -0.03503922 0.1249376 12961475
0.44508913 -0.034888383 0.12190301 12434873
0.45300001 -0.036696054 0.12037358 12632252
0.41600001 -0.024569156 0.1291672 12632509
0.42455935 -0.02523257 0.12695359 12632509
0.43390754 -0.024724921 0.12372474 12829888
0.44437504 -0.025319075 0.1213487 12172471
0.45000002 -0.028297603 0.12007391 12171958
0.41595668 -0.014957908 0.12851226 12238008
0.42440426 -0.015167408 0.12604362 12303800
0.43407273 -0.015100275 0.12327571 12632509
0.44294289 -0.015263631 0.12091158 11975349
0.41468093 -0.0050964081 0.12824155 12172215
0.42498469 -0.005461982 0.12472845 12106422
0.43427911 -0.0052020773 0.12161277 12500923
0.44172728 -0.0068148468 0.1204033 11711407
0.41480565 0.0049099089 0.12802906 12369595
0.42423368 0.0047416221 0.12376017 12237752
0.43314701 0.0042835614 0.12076135 12435131
0.41577971 0.015148775 0.12801045 13027267
0.42483336 0.015104069 0.12376055 12961217
0.43100005 0.014767928 0.12055232 13027009
0.41610011 0.024975324 0.12855679 13355975
0.42478397 0.025019346 0.12415542 13356232
0.43054995 0.024834158 0.12042699 13619403
0.41705886 0.034539383 0.12874109 13553354
0.42449981 0.035334822 0.12481934 13553354
0.43066677 0.034921877 0.12096296 13750990
0.41721877 0.044909015 0.12893668 13750733
0.42419371 0.045116309 0.12468132 13882319
0.43019998 0.043712404 0.12076572 14079699
0.4177084 0.054731067 0.12930231 14277076
0.42421997 0.055012658 0.12519248 14342613
0.43058327 0.055917352 0.12085599 14605528
0.41774997 0.064254925 0.12949899 14474455
0.42404455 0.065059543 0.12612483 14539992
0.43077502 0.065184429 0.12149688 14868442
0.42492315 0.074908316 0.12643033 14737113
0.4309999 0.075070597 0.1216128 14868442
0.42627776 0.08363118 0.1270047 14473684
0.43239126 0.084110491 0.12194729 14276048
0.44600001 -0.12514681 0.13988845 12369078
0.45857146 -0.1233037 0.13968991 12500663
0.46635896 -0.12371988 0.13795134 12566712
0.47276929 -0.12366995 0.13448411 12961215
0.48316666 -0.12256315 0.1334441 12961215
0.49573916 -0.12315986 0.13206914 12961215
0.50100005 -0.12562588 0.13045636 12829372
0.4473334 -0.11225855 0.13948992 13487558
0.45564011 -0.11406974 0.13906531 12763835
0.46512502 -0.11499335 0.13650282 12500663
0.4739643 -0.11487757 0.13323645 12895422
0.48412502 -0.1155834 0.13236183 12895422
0.49386367 -0.11703137 0.13135149 12961215
0.43730006 -0.10151519 0.13930547 12698043
0.44465792 -0.10479912 0.13811697 13158850
0.45503235 -0.1048934 0.1366307 12566713
0.465 -0.10550062 0.13415463 12435128
0.47342864 -0.10584315 0.13094941 12763836
0.48200002 -0.10873222 0.1303027 12829629
0.41850001 -0.090487584 0.13959005 12632252
0.42434484 -0.093482278 0.13898076 12566716
0.43487036 -0.094740205 0.13744085 12632508
0.44377148 -0.095699079 0.13499524 12764093
0.45534378 -0.095352419 0.1329173 12369079
0.46323812 -0.09703742 0.13145044 12369080
0.47500002 -0.099924661 0.13008063 11974320
0.40866664 -0.081346758 0.13934 12632250
0.4147858 -0.084022902 0.138089 12566458
0.4242326 -0.084988102 0.13630618 12500923
0.43487754 -0.085209601 0.13333483 12566716
0.44365212 -0.086013481 0.13087972 12698045
0.45150003 -0.088638611 0.13051419 12303286
0.39800003 -0.070682198 0.13974081 12829886
0.40575391 -0.074327298 0.13803789 12829630
0.41415694 -0.074857742 0.13498506 12829887
0.42404658 -0.07505206 0.13289937 12829888
0.43233335 -0.075840123 0.1309415 12829888
0.39634147 -0.063942201 0.13888139 12698301
0.40476269 -0.065454975 0.13681856 12764095
0.41517869 -0.065416194 0.13446355 12895681
0.42412516 -0.064965948 0.13163425 12961474
0.43050003 -0.068895414 0.13049114 13158596
0.39470205 -0.054310478 0.13678972 12764095
0.40275863 -0.055168249 0.13353519 12829888
0.41580555 -0.054271352 0.13271065 12895681
0.4223904 -0.05564975 0.13107871 12764095
0.38852942 -0.043800041 0.13951814 12895679
0.39396775 -0.045223564 0.13658506 12764095
0.40399998 -0.044014856 0.13366596 12895681
0.41398045 -0.044946879 0.13139367 12961474
0.42087501 -0.046170764 0.13016033 12829888
0.38866666 -0.036571123 0.13949618 13027266
0.39351428 -0.035474531 0.13725671 12829888
0.40476054 -0.034366462 0.13394552 12763839
0.41297725 -0.035462793 0.13110539 12764095
0.38900003 -0.029925644 0.1393128 13224646
0.39448828 -0.024624014 0.1376996 12829888
0.40437815 -0.025080664 0.13370956 12566462
0.41122225 -0.025715711 0.13076156 12566716
0.3945156 -0.014916403 0.13745123 12961474
0.40430501 -0.014814211 0.13314359 12500923
0.41121063 -0.015624562 0.1306477 12369337
0.39562148 -0.0052898843 0.13784556 12961474
0.40376624 -0.0049400409 0.13326751 12500924
0.41126671 -0.0058360673 0.13034117 12369081
0.39680326 0.0045461101 0.13811357 13093060
0.40481851 0.004869096 0.13354239 12764097
0.41085717 0.0082420362 0.13051394 12763841
0.39730236 0.014556766 0.13882299 13422025
0.4042972 0.015160362 0.13474403 13290439
0.41103449 0.014898913 0.13081127 13027267
0.39821428 0.022503436 0.13901591 13619404
0.40428692 0.024890173 0.13521814 13487818
0.41160718 0.025530281 0.13102628 13421768
0.40475011 0.034866307 0.13684615 13685197
0.4126552 0.035310365 0.1317222 13553354
0.40638065 0.044887029 0.136953 14079698
0.41269356 0.045042489 0.1318654 13816526
0.4067927 0.055006951 0.13717546 14736858
0.41328984 0.054805208 0.13241044 14276820
0.40798429 0.063822441 0.13704276 15000286
0.41331515 0.065743729 0.13262118 14605785
0.40881816 0.072346658 0.13918869 15197666
0.41447312 0.07493262 0.13517861 14869213
0.42068425 0.076694332 0.1308073 14605784
0.41579697 0.083847478 0.13708191 14276563
0.42180017 0.084840544 0.13221394 13750476
0.42775002 -0.1310398 0.1496841 12698043
0.43621436 -0.13136938 0.14753048 12763837
0.44000003 -0.13067357 0.14470187 12500664
0.41800001 -0.12022571 0.14969859 12829631
0.42606902 -0.12368442 0.14931488 12829630
0.43508002 -0.12519938 0.14660271 12961215
0.4428696 -0.12391977 0.14198472 13158594
0.45363638 -0.12216998 0.14025162 12697786
0.39600003 -0.11018987 0.14923607 12763836
0.41560605 -0.11402731 0.14904182 12829631
0.42443401 -0.11464733 0.14676036 12829630
0.43439588 -0.11552805 0.14424501 13027008
0.44381404 -0.11535373 0.1415379 13290181
0.45300004 -0.11862749 0.14026238 13158335
0.389 -0.10121701 0.14893974 12566457
0.39221433 -0.10484235 0.14875717 12698043
0.40660006 -0.10438017 0.14855902 12698043
0.41454726 -0.10510942 0.1466381 12698044
0.42378688 -0.10482586 0.14351331 12763838
0.43400002 -0.1059671 0.14164135 12829630
0.44042858 -0.10752978 0.14049737 12829630
0.3880218 -0.094366945 0.14881289 12500408
0.39415684 -0.094307236 0.14690317 12566457
0.40464443 -0.094115153 0.14499015 12632251
0.4146744 -0.095470957 0.14339407 12632251
0.42192316 -0.097156927 0.14148821 12698045
0.37857145 -0.081918679 0.14950439 13552583
0.38497257 -0.084455773 0.14798076 12697788
0.3947973 -0.084698148 0.14486052 12632251
0.403712 -0.085324287 0.14184645 12632251
0.4126429 -0.087844305 0.14073841 12566458
0.37764707 -0.074323982 0.14897358 14342355
0.38388294 -0.074508257 0.14574058 13224387
0.39419046 -0.075260408 0.14208244 12763837
0.40162501 -0.077675395 0.14065641 12698044
0.37763792 -0.064794309 0.14837927 15131614
0.38401797 -0.065089531 0.14389069 13684939
0.39193338 -0.065754682 0.1408197 12829887
0.37733787 -0.05458552 0.14776175 14868443
0.38401946 -0.055102848 0.14298198 13816526
0.39086667 -0.056300662 0.14040738 13027265
0.3783913 -0.04609127 0.14814501 13223879
0.38289124 -0.044682454 0.14340317 13948369
0.37860009 -0.035025943 0.14885679 7172471
0.38340288 -0.034818567 0.14380284 13882575
0.37883332 -0.028699512 0.14956574 3552828
0.38394412 -0.025018763 0.14458978 13816526
0.38537082 -0.015286929 0.14480014 13816783
0.39050001 -0.011300603 0.1403065 13487818
0.38654381 -0.0054293904 0.14560409 13356232
0.39132357 -0.0044791959 0.14111273 13224646
0.38769507 0.0041459934 0.14740676 13421768
0.39212504 0.0051196758 0.14245577 13290183
0.38869232 0.013589401 0.14853436 13816526
0.39309636 0.015216366 0.14393865 13750733
0.38900003 0.021071091 0.14933002 14211284
0.39419189 0.025053155 0.14492027 14145491
0.40000001 0.02915819 0.14044301 13882576
0.39533347 0.035054494 0.14592023 14343127
0.40004167 0.035365995 0.1410819 14079955
0.3963367 0.044742398 0.14614451 14803421
0.40090904 0.045266178 0.14150633 14606043
0.39820459 0.053564068 0.14805259 15263459
0.40182793 0.055620961 0.14349192 15132130
0.40314701 0.064929798 0.14488184 15263716
0.40633914 0.074665248 0.14509803 15263716
0.41028574 0.078893103 0.14076094 15132385
0.4084484 0.082298882 0.14799096 15197408
0.41190329 0.084759064 0.14370045 13881549
0.3860667 -0.1321256 0.15976766 12763838
0.39492691 -0.13270673 0.15851514 12632509
0.40212503 -0.13129756 0.15499836 12632252
0.41375002 -0.13086437 0.15252909 12632252
0.42321435 -0.13177308 0.15134844 12632252
0.38620931 -0.12439097 0.15929046 12961474
0.39455846 -0.12509292 0.15717217 12895680
0.40451443 -0.12517489 0.1542168 13027009
0.41444907 -0.12490211 0.15200095 12895424
0.42249998 -0.12745401 0.15095961 12829631
0.37569574 -0.1131658 0.15878198 12698045
0.38520342 -0.11471927 0.15652649 12829887
0.39425004 -0.11556394 0.15429574 12895422
0.40363643 -0.11610947 0.15225348 12895423
0.41192594 -0.1165175 0.15091179 12895424
0.36746147 -0.1038392 0.1596206 13552584
0.37463135 -0.10485689 0.1568272 12698045
0.38502637 -0.10538369 0.15249456 12632251
0.39150006 -0.10857227 0.1509293 12763837
0.40900001 -0.1099773 0.15030533 12829631
0.36685479 -0.094640918 0.158623 14407893
0.37406656 -0.094609439 0.15442842 13224388
0.38362274 -0.095294356 0.15146022 12566458
0.36674014 -0.084785081 0.15809363 15065822
0.37369812 -0.08517205 0.15340656 14013647
0.38125002 -0.088161953 0.1506667 12763324
0.36741975 -0.075569421 0.15790382 15263201
0.37237605 -0.074857481 0.15285312 14934236
0.36870834 -0.066449657 0.15901895 15460581
0.37254971 -0.064860724 0.15434936 15394787
0.36899999 -0.056461707 0.15979291 15132130
0.37263578 -0.055028837 0.154906 15065824
0.37605757 -0.045224581 0.1551687 8816774
0.3767269 -0.035155293 0.15519348 2699054
0.37788785 -0.026719658 0.15571271 5592918
0.38048965 -0.022180777 0.15371388 13290183
0.38156399 -0.015032602 0.15491359 13487818
0.38279983 -0.0053298129 0.15469027 12961218
0.38435778 0.0046807514 0.15508966 13027011
0.38597196 0.01465543 0.15503895 13684940
0.3880246 0.024297429 0.15545715 14079699
0.39037496 0.027943306 0.15122765 14277077
0.38874999 0.032927338 0.15759422 14211287
0.39115721 0.035737988 0.15370326 14342870
0.38900003 0.040650196 0.15934724 14540506
0.39288995 0.045055829 0.15510879 14737628
0.39606336 0.055059016 0.15488052 15066593
0.39791772 0.063979059 0.15615699 15263458
0.4002431 0.067415431 0.15255612 15263972
0.39900002 0.070651241 0.15924028 15328993
0.40238464 0.075166799 0.1547799 15197921
0.40596619 0.082768731 0.15472068 14407637
0.35879999 -0.13192561 0.16805907 13289929
0.36202988 -0.133598 0.16623127 12829633
0.37433341 -0.13362505 0.16345586 12764095
0.38100001 -0.1323062 0.16099569 12763838
0.35800001 -0.12462556 0.16807781 13816530
0.36394688 -0.12491351 0.16459011 13092803
0.37532794 -0.12482665 0.16194361 12961218
0.38122222 -0.12624009 0.16055523 13027010
0.3568542 -0.1145075 0.16724996 14408409
0.36376196 -0.11446542 0.16266005 13027010
0.37381479 -0.11685725 0.16076805 12895424
0.35782805 -0.10510491 0.16663481 14803423
0.36263171 -0.10533 0.1620194 14013648
0.35818586 -0.09511435 0.16677003 15000801
0.36156842 -0.094887473 0.16210125 14934751
0.35847363 -0.085597567 0.16785136 15198180
0.36187893 -0.084754094 0.16322471 15263715
0.35900003 -0.079724133 0.16932952 15066597
0.36285871 -0.074955538 0.16499233 15329509
0.3651298 -0.065072961 0.16499104 15395045
0.36732182 -0.055282261 0.16506639 15197669
0.37011111 -0.050807133 0.16142899 14934754
0.36899999 -0.049982939 0.1665802 14671581
0.37265083 -0.044841655 0.164956 7632757
0.37264892 -0.034950994 0.16497013 2305322
0.37565383 -0.025022734 0.16495724 7172464
0.38000003 -0.020337408 0.16010848 13421768
0.37862197 -0.015712036 0.16695195 13224392
0.38038975 -0.01407827 0.16249026 13290439
0.37900001 -0.0094151273 0.1687814 13027267
0.38101518 -0.0050984249 0.16485091 12764095
0.38212764 0.0049420423 0.16511256 12829632
0.38404405 0.015292997 0.16520405 13553354
0.38536137 0.025241489 0.16515143 14013905
0.38700011 0.035022046 0.16493657 14277078
0.38861299 0.042459834 0.16521801 14671835
0.39104772 0.047485404 0.16439682 14869214
0.39354926 0.055011451 0.16515391 15066593
0.39577767 0.06484127 0.16521999 15198179
0.39809623 0.072428182 0.16593696 15132129
0.40044105 0.076918818 0.16429409 15000543
0.40200004 0.08129105 0.16456792 12762302
0.35864708 -0.1407879 0.17659445 12565686
0.36033335 -0.14075521 0.17234702 12631739
0.35888582 -0.13699663 0.17622408 12960446
0.36038074 -0.13469417 0.17525014 13552579
0.35825416 -0.12406636 0.1728531 13486789
0.36044449 -0.12597169 0.17765254 13618373
0.3576608 -0.11474723 0.17517906 14013648
0.36000001 -0.11955623 0.17865023 14145489
0.35829413 -0.10597966 0.17405622 13948113
0.36018413 -0.1026858 0.17776568 14671836
0.3585484 -0.09676183 0.17140512 14276824
0.36167431 -0.094496123 0.17630738 14211030
0.35900003 -0.08728797 0.17059016 14868961
0.36302438 -0.08505103 0.17544447 14013908
0.3635439 -0.074075587 0.17457139 14276825
0.36266673 -0.064131059 0.17414151 13882324
0.36589611 -0.055175908 0.17414582 14013910
0.36872512 -0.044985015 0.1768069 6975340
0.37055552 -0.045277193 0.1741026 7172209
0.36815804 -0.034835964 0.17706183 2107429
0.37059742 -0.035016268 0.17219524 2305065
0.36832005 -0.027988922 0.17777629 2435880
0.37328109 -0.02438654 0.17441045 7566708
0.37789482 -0.014879346 0.1751149 13027012
0.37883043 -0.0076929983 0.17565274 12632256
0.38014686 -0.0030433305 0.17446055 12632254
0.38102284 0.0049931617 0.1748507 12698303
0.38168761 0.01541292 0.17481808 13487817
0.38325515 0.025348922 0.17516553 13882319
0.38449964 0.035134479 0.17523764 14211284
0.38659695 0.045030229 0.17530248 14803421
0.39019999 0.048905719 0.17079991 15000800
0.38832951 0.054479934 0.17669496 15066593
0.39106908 0.055784818 0.17204577 15132129
0.38894114 0.06155939 0.17833662 15132129
0.392075 0.065412842 0.17460313 15197667
0.39575425 0.074529037 0.17515148 15131360
0.40000001 0.079099908 0.17103232 15261921
0.39866671 0.080391712 0.17777139 6641758
0.40010005 0.081242822 0.17288531 6246997
0.35885009 -0.13639505 0.18143997 12895170
0.36042866 -0.13231307 0.18139403 13881546
0.360697 -0.12485678 0.18152939 13618888
0.35854548 -0.11487956 0.18044651 12171960
0.36000001 -0.11955623 0.18033578 13948110
0.35875005 -0.10864222 0.18054947 9803930
0.36050007 -0.103333 0.18086755 9935000
0.3630909 -0.094298527 0.18087755 12171706
0.36619049 -0.086742625 0.18131247 12631999
0.37200001 -0.081985362 0.18622255 10132632
0.36841667 -0.075346701 0.18038338 13355464
0.37160873 -0.075827859 0.18437646 10987944
0.36744446 -0.065733813 0.18100677 10263963
0.37220001 -0.069411889 0.18505564 10133145
0.36785719 -0.055477683 0.18119456 10001046
0.37046149 -0.051382031 0.18224195 9606802
0.36729726 -0.042270672 0.18231536 2765357
0.37042102 -0.047985345 0.18186057 9212302
0.36662126 -0.03506954 0.18236357 1778207
0.36750972 -0.027004361 0.18271366 2896433
0.37312815 -0.021822525 0.18308109 10263965
0.37677765 -0.014910019 0.18397753 12106426
0.37779501 -0.0053290995 0.18501808 11843510
0.38000005 -0.0016560844 0.18107732 12304061
0.37836626 0.004067176 0.18701366 12238268
0.38040251 0.0057671401 0.18250489 12566463
0.37900004 0.012876924 0.18841167 12764098
0.38047382 0.015672063 0.18419003 13224646
0.38089418 0.025091976 0.18500403 13619404
0.38158661 0.035172295 0.18511324 13948112
0.38322431 0.044974133 0.18519127 14737628
0.38569209 0.055035781 0.18497011 15066336
0.38732499 0.064529993 0.18525043 15132384
0.39027274 0.068732508 0.1813798 15197920
0.38872728 0.071231693 0.18769293 14868956
0.3927106 0.074844085 0.18417859 14803164
0.39720002 0.080095962 0.18223219 4801610
0.35821423 -0.04079476 0.19788897 2567976
0.35841158 -0.034938097 0.19768941 2238755
0.36000001 -0.030855056 0.19655901 2238755
0.35888889 -0.028262351 0.19882257 2369827
0.36047363 -0.025420045 0.19789383 3682091
0.377 -0.0073796744 0.19061674 9869203
0.37772724 0.0062343255 0.19050182 11778231
0.3786667 0.013716948 0.19163691 12764614
0.38033336 0.018228197 0.19286397 12830406
0.38159314 0.025336066 0.19425264 12961221
0.3816061 0.034962814 0.19473682 13422028
0.38150015 0.044889197 0.19495502 14277336
0.38286218 0.054897826 0.19466524 14737629
0.38477421 0.064789712 0.19495362 14868703
0.38793588 0.073340826 0.19504631 14736859
0.39091668 0.077000581 0.19139706 14210514
0.35800001 -0.040670812 0.20084475 2107426
0.35799989 -0.034664541 0.2015432 1581082
0.35855889 -0.026594941 0.20136285 2367516
0.36000001 -0.023480849 0.20056216 3608336
0.385261 0.027378315 0.20165673 10263450
0.38619727 0.035305586 0.20419919 11316651
0.38436362 0.045113549 0.20198879 13685200
0.38336363 0.054866012 0.20146281 14606044
0.38393551 0.065364689 0.2011676 13882324
0.38599998 0.072216682 0.2006887 11447215
