# .PCD v0.7 - Point Cloud Data file format
VERSION 0.7
FIELDS x y z rgb
SIZE 4 4 4 4
TYPE F F F U
COUNT 1 1 1 1
WIDTH 961
HEIGHT 1
VIEWPOINT 0 0 0 1 0 0 0
POINTS 961
DATA ascii
0.78900003 -0.1244212 0.12925881 12369332
0.79192859 -0.12521394 0.12430473 12303539
0.78869236 -0.11492856 0.12807173 11974832
0.79149997 -0.11499429 0.12318023 12500918
0.78855562 -0.10537781 0.12836508 11975347
0.78900003 -0.09552785 0.12899494 12699070
0.78900003 -0.084709331 0.12925881 14474711
0.78900003 -0.075474016 0.12925881 14737622
0.78900003 -0.065315172 0.12925881 14934487
0.78900003 -0.05515632 0.12925881 15197917
0.78816676 -0.04372111 0.12789129 14080465
0.78605002 -0.03415788 0.12711293 13027778
0.78640735 -0.024904015 0.12664478 12435385
0.79200006 -0.024773622 0.1214057 11250851
0.78592592 -0.014871522 0.12711143 12566714
0.78559995 -0.0052629584 0.12777604 13093056
0.79193336 -0.0053060488 0.1223205 10855837
0.77900004 0.007546945 0.1294442 13553352
0.78577781 0.0045467415 0.12647459 12566198
0.79108334 0.0048840493 0.12126548 11250337
0.77740002 0.01480967 0.12917833 13487559
0.78540003 0.014962647 0.12498164 12303025
0.79079998 0.01506684 0.12029729 11053215
0.7775557 0.025736706 0.12859631 13355972
0.7855556 0.024775926 0.12459859 12237489
0.79033333 0.025231935 0.1202263 10790557
0.77700007 0.034810729 0.12820122 13355971
0.78535002 0.035185073 0.12405685 12237747
0.79000002 0.035394575 0.1201756 10856351
0.7771818 0.044414837 0.128314 13553092
0.78539133 0.045100264 0.12442306 12698298
0.79100001 0.044699978 0.12032773 10987682
0.77850008 0.052193511 0.12936112 13683909
0.78549999 0.055419553 0.12637784 13553351
0.79108334 0.054888781 0.12126511 10987682
0.78736836 0.064286686 0.12675607 13158080
0.79108334 0.065537483 0.12172785 10987168
0.78900003 0.071059659 0.12864311 11053218
0.78861111 -0.14456579 0.13627094 13947851
0.7902 -0.14625455 0.13222997 14145486
0.78754544 -0.13489102 0.13583213 14540243
0.79000002 -0.13844942 0.13127203 14935257
0.78670001 -0.12498005 0.13532196 14408658
0.78575772 -0.11513198 0.13490976 14474452
0.78412122 -0.10487844 0.13512683 14539988
0.78419363 -0.09503071 0.13473755 14606037
0.77830005 -0.084655449 0.13734446 13684423
0.78422737 -0.085446388 0.13314301 14803416
0.77678281 -0.075018324 0.1371382 13750216
0.78439999 -0.075034305 0.13217328 14935001
0.77670592 -0.065740749 0.1370829 13684422
0.78440005 -0.064567074 0.13253914 14671572
0.778 -0.057117272 0.13747363 13618629
0.78420836 -0.054363877 0.1339716 14276815
0.78268754 -0.045212332 0.1344009 14079180
0.77804357 -0.035069562 0.13577923 13223614
0.78112507 -0.035864495 0.13139592 14277072
0.77735019 -0.025225382 0.13553803 12894907
0.7808333 -0.025338693 0.13127129 13750987
0.77664745 -0.014988736 0.13568103 12566200
0.78000003 -0.01892028 0.13143636 13750731
0.77626663 -0.0052011735 0.13534594 12566200
0.77538866 0.0047878604 0.13519472 12434615
0.77456659 0.01475678 0.13505395 12171186
0.7747221 0.024735196 0.13508184 12039600
0.77436668 0.034693684 0.13502006 12105393
0.7745834 0.044678025 0.13505805 12170929
0.77582139 0.054544512 0.13494806 12105136
0.77811122 0.061174437 0.13516594 12039342
0.78425008 0.065984674 0.13453743 12302770
0.78833336 0.072641589 0.13550544 10921887
0.7903077 0.078103848 0.13431102 10987425
0.79192597 -0.15527108 0.14498052 11710381
0.78824145 -0.14565186 0.1449783 14342098
0.78525919 -0.13537468 0.14498627 14407891
0.7831074 -0.12499757 0.14498879 14342098
0.78452003 -0.11545012 0.14505401 14013132
0.78280014 -0.10512114 0.14473683 13815754
0.78132004 -0.094860226 0.14446415 13749959
0.77884632 -0.084741794 0.14204158 13487043
0.78064287 -0.085640766 0.14694843 13684422
0.77775991 -0.075492263 0.14453502 13552836
0.78000003 -0.074613094 0.14969629 13552836
0.77765024 -0.06528502 0.14396806 13552836
0.78042859 -0.064474352 0.14899564 13487043
0.77855557 -0.058070634 0.1419268 13487043
0.78154993 -0.054084908 0.14523762 13487043
0.78227592 -0.044773024 0.14476624 13289664
0.7789377 -0.032456975 0.14436409 12894650
0.78057152 -0.036816176 0.1452383 13092028
0.77816677 -0.025253257 0.14479239 12565941
0.77663344 -0.015203368 0.14541583 12434868
0.77632022 -0.0052009542 0.14535704 12500406
0.77646691 0.0047962083 0.14538589 12303028
0.77640015 0.014791362 0.14537214 12171185
0.7761336 0.024779577 0.14532198 12105136
0.77624011 0.034778271 0.14534131 12236722
0.77646703 0.04478579 0.14538431 12434101
0.77733344 0.055048343 0.14514209 12565687
0.77880007 0.060417365 0.14399739 12631479
0.78349996 0.065040402 0.14536472 12631735
0.78850007 0.072656475 0.14445695 10921631
0.7906 0.077867553 0.14543875 10987425
0.7881999 -0.1455171 0.15496041 14473684
0.78589994 -0.13497286 0.15451021 14473684
0.78496015 -0.12470355 0.15432683 14407891
0.78499997 -0.11511263 0.15453674 14342098
0.78384399 -0.10474288 0.15462315 14079180
0.78316677 -0.095083408 0.15489048 14013387
0.78285289 -0.085181057 0.15509808 13881801
0.78321737 -0.075079754 0.1554995 13750215
0.78380769 -0.064602569 0.1546651 13684422
0.78435987 -0.054831024 0.15420948 13684422
0.78379434 -0.044486549 0.15474512 13618373
0.78176916 -0.034661792 0.15531762 13224128
0.77900004 -0.024366984 0.15132803 12697527
0.78138095 -0.025529867 0.15614849 12763577
0.77890927 -0.014169857 0.15230507 12500661
0.78136843 -0.015921609 0.15698898 12632504
0.77880019 -0.0052168188 0.15311283 12697784
0.78030014 -0.0052275695 0.15797435 12764090
0.77900016 0.0046291002 0.15278694 12566198
0.77999997 0.0050002416 0.15736547 12763834
0.77894753 0.014744327 0.15400532 12500148
0.78000003 0.015164942 0.15821759 12697527
0.77875018 0.024863377 0.15219127 12368307
0.78077781 0.02492971 0.15715797 12434355
0.77855557 0.035286564 0.15205221 12565687
0.78131241 0.034776218 0.15703723 12697528
0.77884221 0.046122193 0.1537929 12697273
0.78063643 0.042948559 0.15729541 12829115
0.77868003 0.054940194 0.15491253 12762809
0.77900004 0.060432881 0.15315168 12236722
0.78395838 0.065029718 0.15534703 12960189
0.78850007 0.071322866 0.15501939 10724254
0.78841662 -0.14524847 0.16438551 14604757
0.79000002 -0.14954583 0.16641071 14604757
0.78769457 -0.13527964 0.16500431 14473428
0.78763354 -0.12512778 0.16499186 14407891
0.7874167 -0.11495575 0.1649472 14473683
0.78653854 -0.10484208 0.16547149 14407891
0.78592312 -0.095205933 0.16569617 14342097
0.78624129 -0.085173182 0.1654945 14144975
0.78733331 -0.075177677 0.16544186 14078925
0.78755552 -0.065195337 0.16497618 13881803
0.78740007 -0.055044632 0.16494378 13881802
0.7868126 -0.045104627 0.16539612 13750216
0.78512007 -0.034668054 0.16538568 13487300
0.78540748 -0.025075844 0.16565228 13092798
0.78500003 -0.015040099 0.16516455 13026749
0.78248 -0.0052442793 0.16482908 12895165
0.7815333 0.0048276577 0.16462846 12895165
0.78183991 0.014896226 0.16469435 12631993
0.78290021 0.024996674 0.16491707 12500407
0.7832402 0.035090964 0.16498813 12698042
0.77900004 0.049490962 0.16044629 13026492
0.78182751 0.04493545 0.16481648 12895164
0.7790001 0.054050099 0.16190521 13223617
0.78061116 0.055278879 0.16656616 13026238
0.78446162 0.064678021 0.16503327 13421253
0.78860009 0.071147084 0.16463932 10461083
0.78895223 -0.14345495 0.17551295 15328480
0.79000002 -0.14892936 0.17524678 15262687
0.78838456 -0.13468793 0.17515789 14999515
0.7886799 -0.12529343 0.17536524 14736599
0.78853321 -0.11511876 0.17533264 14605270
0.78820002 -0.10492083 0.17525834 14473684
0.78800005 -0.094748333 0.17521459 14473684
0.7880401 -0.084605798 0.17522249 14342098
0.78863627 -0.075102657 0.17501973 14276305
0.78806674 -0.065238073 0.17522772 14210512
0.78792006 -0.055081196 0.17519531 14078926
0.78716683 -0.044893585 0.1750271 14013133
0.78744006 -0.034769282 0.17508984 13749961
0.78796673 -0.024646951 0.17520609 13420996
0.78788 -0.014501167 0.17518719 13223617
0.78571993 -0.0052664531 0.17470886 13157824
0.78426677 0.0048440727 0.17438599 13157824
0.78519994 0.014960711 0.1745937 12960445
0.78523332 0.02506984 0.17459989 12631736
0.78511995 0.035175562 0.17457348 12829372
0.78350013 0.045189008 0.17421485 12631993
0.7826153 0.055569332 0.17528692 12631479
0.78544009 0.064615563 0.17464465 13158080
0.78900003 0.070443973 0.17543539 10657691
0.78899986 -0.14289181 0.18467067 15262943
0.79000002 -0.14862114 0.18490477 14999515
0.78899986 -0.13516332 0.18379578 15196894
0.79000002 -0.13290121 0.18767886 15000028
0.78899997 -0.12521277 0.18269171 14802649
0.79000002 -0.12567173 0.18742666 14868442
0.78899986 -0.11513726 0.18301809 14605270
0.79000002 -0.11541593 0.18776292 14671063
0.78900009 -0.10536286 0.18215199 14539477
0.79035711 -0.10494281 0.18697138 14539477
0.78900003 -0.094868183 0.1819001 14473684
0.79033333 -0.09502954 0.18683349 14539477
0.78899992 -0.084709339 0.18305452 14407891
0.79000002 -0.084816702 0.18778157 14407891
0.78899992 -0.075148061 0.18325824 14342098
0.79000002 -0.076263204 0.18791002 14342098
0.78853327 -0.065277405 0.18456241 14342098
0.78800005 -0.054959193 0.18519993 14276305
0.78780568 -0.044928804 0.18531424 14210512
0.78800005 -0.034794472 0.18535899 13881547
0.78805566 -0.024649916 0.1853718 13486789
0.78813344 -0.014505452 0.18538979 13420996
0.78723335 -0.0052758898 0.18517885 13420996
0.78630549 0.0048576612 0.18496116 13289410
0.78740013 0.015002999 0.18521896 13026238
0.78755563 0.025143834 0.18525606 12894906
0.78676665 0.035248924 0.18507108 12960699
0.78608334 0.045339514 0.1849103 12894906
0.78549999 0.055278536 0.18548043 12828600
0.78656673 0.064705737 0.18502313 13092028
0.78885716 0.070958957 0.18542817 10723994
0.78900003 -0.14196829 0.19021188 15262943
0.79028153 -0.14509065 0.19543552 15000029
0.79056686 -0.13484672 0.19521786 15065309
0.79106081 -0.1247739 0.19519861 14868442
0.79070997 -0.1146889 0.19510387 14802649
0.79148167 -0.10556214 0.19492792 14671063
0.791394 -0.094904684 0.19500005 14605270
0.79006696 -0.084824085 0.19509277 14539477
0.79000038 -0.074644953 0.19507645 14407891
0.78899997 -0.062280711 0.19364212 14342098
0.79000002 -0.066322654 0.19611675 14407891
0.78892285 -0.055293288 0.19552119 14407891
0.78820008 -0.044952866 0.19555493 14276305
0.78800005 -0.034794472 0.19550495 14078926
0.78800005 -0.024648501 0.19550493 13684168
0.78800005 -0.014502529 0.19550499 13552581
0.78776008 -0.0052780597 0.19544621 13552837
0.78730005 0.004863238 0.19533308 13487043
0.78788012 0.015011207 0.1954757 13158080
0.78800005 0.025158999 0.19550492 13026492
0.78796005 0.035302993 0.1954952 13223871
0.78733349 0.045411408 0.19534029 13355200
0.78684008 0.055514894 0.19521776 13026492
0.78780001 0.064805575 0.19545665 12960956
0.78900003 0.071367502 0.19482954 11513770
0.79080951 0.076690063 0.19540796 10527132
0.79041964 -0.14514959 0.20517689 14868186
0.78900003 -0.1336565 0.20868251 14868442
0.79030442 -0.13488324 0.20500438 14933978
0.78900003 -0.12165061 0.20868251 14934235
0.79048163 -0.12558 0.20468599 14868442
0.7901727 -0.11519737 0.20541969 14934235
0.79077792 -0.10492007 0.20476235 14868442
0.79078799 -0.095336914 0.20494591 14671063
0.79000014 -0.084816694 0.20524821 14605270
0.79000026 -0.074804388 0.20512061 14473684
0.78899997 -0.063863911 0.20670353 14473684
0.79000002 -0.065552071 0.2035529 14407891
0.78887987 -0.0551484 0.20495676 14407891
0.78810006 -0.044946656 0.20475437 14342354
0.78785187 -0.034992382 0.20509921 14079183
0.78800005 -0.024648499 0.20472863 13816267
0.78800005 -0.01450253 0.20472856 13684936
0.78800005 -0.0052789189 0.20472865 13750215
0.78800005 0.0048670536 0.20472857 13684423
0.78800005 0.015013025 0.20472865 13552836
0.78800005 0.025158999 0.20472862 13355457
0.78800005 0.035304971 0.20472856 13420995
0.78796005 0.044526134 0.20471844 13486532
0.78786671 0.054665461 0.20469455 13421251
0.78859991 0.064871095 0.20488507 13356228
0.78900003 0.070905738 0.20267954 12829886
0.79074091 0.076018333 0.2055773 10856097
0.79192311 -0.15561907 0.21480109 11973040
0.78882128 -0.14457449 0.21542753 15000027
0.79000002 -0.1484362 0.21190605 14736857
0.78845447 -0.13499011 0.2152485 14934235
0.7888664 -0.1253231 0.21511026 14934233
0.78899974 -0.115454 0.21583249 14933978
0.79000002 -0.11366739 0.21116629 14868442
0.78900003 -0.1054888 0.2183796 14934234
0.79000002 -0.1048519 0.21326226 14868698
0.78900003 -0.095422305 0.2197649 14999769
0.79000026 -0.094988436 0.21449523 14802648
0.79000014 -0.084816702 0.2144952 14605270
0.79007161 -0.074982293 0.2147131 14605270
0.78899974 -0.064391643 0.21460591 14605270
0.79000002 -0.06817206 0.21726932 14671063
0.78836662 -0.055113371 0.21497434 14539477
0.78791678 -0.044936046 0.21485157 14473684
0.78739291 -0.03457002 0.21503732 14342098
0.78763908 -0.024637043 0.21477449 13947340
0.78790009 -0.014500455 0.21484672 13881802
0.78790009 -0.0052780146 0.21484667 13881802
0.78800005 0.0048670531 0.21487458 13881545
0.78800005 0.015013026 0.21487461 13749959
0.78800005 0.025158999 0.21487455 13618630
0.78800005 0.035304971 0.21487461 13684423
0.78800005 0.04452857 0.21487455 13815752
0.78797227 0.054672655 0.21486685 13816008
0.78871411 0.064616583 0.21513495 13684422
0.79000002 0.068683848 0.21449521 13618629
0.79093349 0.075248614 0.21474892 11513768
0.78900003 -0.1512036 0.22530608 14736343
0.79084009 -0.15600185 0.22472018 11644073
0.78839993 -0.14555307 0.22513479 14999769
0.78800005 -0.13533184 0.2250205 14999769
0.78812003 -0.12520446 0.22505435 14736854
0.78896642 -0.11518081 0.22529642 14802646
0.7889998 -0.10502703 0.22530611 14933976
0.78899974 -0.094868191 0.22530605 14802646
0.79000002 -0.092214309 0.22004344 14868442
0.78900003 -0.087611862 0.22662541 14802903
0.79000002 -0.08397606 0.22391038 14736855
0.78900003 -0.071779892 0.22900021 14737110
0.79008853 -0.074871182 0.22441956 14671062
0.7889998 -0.064314686 0.22569084 14671062
0.79000002 -0.06817206 0.22189283 14671063
0.78816003 -0.055098251 0.22506641 14670806
0.78783345 -0.044931758 0.22497249 14539475
0.78616679 -0.034715552 0.2254142 14341840
0.78467745 -0.025284451 0.22483715 14210511
0.78614289 -0.015255 0.22553943 14078926
0.78711122 -0.0054768063 0.22517532 14013133
0.78758073 0.004834672 0.22507754 14078926
0.78686661 0.014990495 0.22561477 13881547
0.78677773 0.025120365 0.22559009 13815754
0.78772002 0.035293173 0.22493984 13881547
0.7873438 0.045526445 0.22546469 14078926
0.78641945 0.055307254 0.22533736 14144975
0.78757143 0.064589791 0.22548775 14079181
0.78887504 0.071587235 0.22688599 13881802
0.79078591 0.076225705 0.22416286 11381926
0.78900003 -0.1512036 0.23454139 14736343
0.79110008 -0.15623882 0.23516686 11644072
0.78853565 -0.14538033 0.23499633 14933976
0.78800005 -0.13533184 0.23516652 14933720
0.78800005 -0.12518588 0.23516652 14999512
0.78846866 -0.11499154 0.23553622 15065562
0.78896135 -0.10516381 0.23474286 14999770
0.78896749 -0.094775043 0.2347104 15000027
0.7889998 -0.084709331 0.2345414 14868442
0.78896135 -0.075328439 0.23474285 14802904
0.78847212 -0.065272301 0.23530605 14934234
0.78773344 -0.05506856 0.23508574 14933978
0.78663892 -0.044864684 0.23475806 14736856
0.78467995 -0.034649841 0.23509406 14473426
0.78380007 -0.025434012 0.23483311 14407634
0.78600007 -0.015382622 0.2354912 14276305
0.78696436 -0.0050743311 0.23518685 14342098
0.78625709 0.0048805359 0.23477656 14276305
0.78463995 0.01494742 0.23507994 14210511
0.7845332 0.025049644 0.2350474 14013388
0.78566664 0.035201207 0.23446687 14210512
0.78484851 0.045015767 0.23463914 14276305
0.7826668 0.055219531 0.23540299 14342354
0.78430009 0.064520307 0.2351578 14276816
0.788077 0.073627733 0.23561361 12961214
0.79012501 0.078637019 0.233257 10724253
0.78900003 -0.1512036 0.24377671 15196893
0.79178274 -0.15601268 0.24536085 12104624
0.78851849 -0.14578007 0.24506375 15131355
0.78800005 -0.13533184 0.24531251 15197148
0.78784007 -0.12516092 0.24526197 15262941
0.78632361 -0.11479668 0.24543591 15328991
0.78682864 -0.10478895 0.24525714 15328992
0.78788573 -0.094813265 0.24448401 15197662
0.78800005 -0.084601969 0.24438816 15197662
0.7879656 -0.075502448 0.24453661 15131613
0.78728133 -0.064944312 0.24543181 15197406
0.78556657 -0.054917797 0.24547091 15263200
0.78425002 -0.044727001 0.24505885 15000028
0.77900004 -0.030749768 0.24980529 14736856
0.78363353 -0.034602363 0.24486566 14736856
0.77828568 -0.02447607 0.24905519 14473684
0.7833572 -0.025616009 0.24445061 14473684
0.77799994 -0.015643077 0.24865566 14407891
0.78409684 -0.015199454 0.24426825 14342098
0.77900004 -0.007042279 0.24980529 14342098
0.78470016 -0.0052558752 0.24519612 14407891
0.78422225 0.0048414445 0.24504992 14342098
0.77900004 0.018488863 0.24980529 14013387
0.7822668 0.014902155 0.24444021 14144973
0.77900004 0.024871647 0.24980529 13816008
0.78172225 0.024958692 0.24426974 13947595
0.77900004 0.034901742 0.24980529 14079180
0.78186685 0.035030331 0.24431334 14144974
0.77892315 0.045558393 0.24851808 14210766
0.78175867 0.044806194 0.24330281 14276561
0.77852648 0.055024367 0.24706236 14276558
0.78027284 0.054884657 0.24224247 14342355
0.77866679 0.062078115 0.24681114 14342351
0.78204554 0.066414744 0.24429022 14407888
0.78736663 0.075526029 0.24474488 12368564
0.78900003 0.081526354 0.24562378 10921632
0.7904802 0.086121768 0.2449736 10987425
0.78900003 -0.1512036 0.25485912 15394273
0.7915771 -0.15576445 0.25526226 11907245
0.78855997 -0.14558262 0.25471696 15131355
0.7877059 -0.13511932 0.25509071 15065306
0.78603327 -0.12487523 0.25481874 14999770
0.7838462 -0.11549476 0.25481635 14999770
0.78320032 -0.10517086 0.25481826 15131614
0.78476661 -0.095277041 0.25440601 15065821
0.78458977 -0.084944263 0.25484118 15065821
0.78371429 -0.0749688 0.25497812 15065564
0.77900004 -0.063940257 0.25855881 15065308
0.78324252 -0.065423131 0.25410393 15131614
0.77864295 -0.054823071 0.25750223 14933979
0.78183341 -0.054960828 0.25315177 15131614
0.77782357 -0.044842802 0.25670955 14802649
0.78126663 -0.045348871 0.25211594 14999772
0.77685308 -0.034999005 0.2557461 14605270
0.78016669 -0.036579695 0.25078809 14868442
0.77529991 -0.025159683 0.25496891 14145232
0.77494442 -0.015168094 0.25485185 14211025
0.77620018 -0.005198074 0.25526413 14342352
0.78050005 -0.0024873428 0.25028631 14342098
0.77743781 0.0046317242 0.25623909 14210767
0.78060007 0.0053691464 0.25104874 14276559
0.77792329 0.015170663 0.25583026 13947594
0.78050011 0.013347304 0.25089499 14079180
0.77761787 0.024613209 0.25546205 13750215
0.77760017 0.034838263 0.25481549 13881544
0.7772001 0.044828009 0.25468549 13881288
0.77700019 0.054820813 0.25462088 13881288
0.778 0.063089147 0.25494844 13881288
0.78141671 0.068548612 0.25439164 14012873
0.78681493 0.075711593 0.25490248 12105647
0.78900003 0.081526354 0.25301203 10724253
0.79100001 0.085943535 0.2557587 10856096
0.78900003 -0.15120362 0.26501793 14670806
0.79142863 -0.15617159 0.26517147 11249571
0.78836662 -0.14554685 0.26480526 14933976
0.78771889 -0.13545673 0.2651647 14867928
0.78667998 -0.12497813 0.26516166 14670806
0.78473085 -0.11527108 0.26464608 14473684
0.78338736 -0.10487165 0.26428762 14473684
0.78306693 -0.095072053 0.26485819 14407891
0.78193933 -0.085118331 0.26489133 14276305
0.77893764 -0.072574124 0.2658549 14210255
0.78025007 -0.076768309 0.26420894 14276049
0.77760011 -0.065283202 0.26482853 14407634
0.77702802 -0.05522906 0.26463449 14407891
0.77679336 -0.045336805 0.26471144 14276305
0.77568972 -0.035316713 0.26496157 14078926
0.77462488 -0.024684733 0.26472279 13749961
0.77432352 -0.015368937 0.26525959 13749961
0.77551985 -0.0051940023 0.26502907 13881547
0.77600032 0.0047929361 0.26519293 13749961
0.77607429 0.01465107 0.26481405 13618375
0.77612531 0.025007593 0.26489434 13355202
0.7767669 0.034802146 0.26454487 13421251
0.77691692 0.044811957 0.26459679 13552836
0.77780014 0.054878432 0.26490009 13618374
0.77869248 0.061811641 0.26401079 13683910
0.78188241 0.067119621 0.26526442 13552324
0.78721428 0.075818643 0.26507586 11973807
0.78900003 -0.1512036 0.27332973 14736856
0.79139131 -0.15585373 0.27520403 11117986
0.78843999 -0.14556046 0.27498156 14736854
0.78820002 -0.13536565 0.2748974 14736598
0.78800005 -0.12518588 0.27482808 14539477
0.78617638 -0.11455961 0.27484152 14539477
0.78464282 -0.10457963 0.2749027 14407634
0.78248 -0.095001526 0.27473435 14276305
0.78176659 -0.084848948 0.2744846 14078669
0.7790001 -0.071964324 0.274607 14078926
0.78049999 -0.076374412 0.27541026 14078670
0.77788007 -0.065307215 0.27494186 14013133
0.77750015 -0.055262271 0.27480823 14013133
0.77716005 -0.04523265 0.27468714 13947596
0.77597082 -0.034959074 0.27490696 13750475
0.77493089 -0.025272217 0.27496186 13421253
0.77490604 -0.014941248 0.27536359 13618888
0.77593112 -0.005322787 0.27500385 13882060
0.77683359 0.0047992142 0.27457201 13618631
0.77760023 0.014814976 0.27484494 13092288
0.77746683 0.024822535 0.27479789 13157824
0.77712023 0.034817792 0.27467349 13355459
0.7779001 0.044870377 0.27494952 13486788
0.77900016 0.054440878 0.27481538 13552580
0.78000003 0.057771467 0.27842885 13552582
0.78125942 0.064201623 0.2750507 13684165
0.78721869 0.074667841 0.27490032 12566199
0.78900003 -0.1512036 0.28718272 14407893
0.78735489 -0.14524367 0.28494486 14802648
0.78507507 -0.13505837 0.28459695 14999513
0.78516233 -0.12503181 0.2851074 14868185
0.78497052 -0.11535579 0.28511786 14736855
0.78308851 -0.10488849 0.28524557 14473684
0.78203315 -0.094946057 0.28464672 14341842
0.78169429 -0.084839955 0.28452215 14276049
0.7790001 -0.071864851 0.28644413 14210512
0.78072226 -0.07620658 0.28447282 14210512
0.7786333 -0.065369256 0.28523156 14342098
0.7786386 -0.055343848 0.28523281 14144719
0.77743345 -0.045249294 0.2847921 14013133
0.77625024 -0.035413165 0.28492618 13881547
0.77482134 -0.024949329 0.28532484 13355460
0.77458322 -0.015161842 0.28556007 13619146
0.77548277 -0.0052564153 0.28535843 14145488
0.77686131 0.0048004985 0.28458038 14079695
0.77859098 0.01392332 0.28604373 13882059
0.78025007 0.017377283 0.28354135 13421253
0.78149998 0.024951896 0.28536874 13223874
0.77900004 0.035813566 0.28080741 13486789
0.78133339 0.034831487 0.28600535 13355203
0.77900004 0.044931829 0.28080741 13618375
0.7806251 0.04502444 0.28596297 13552582
0.78036016 0.055058066 0.28495246 13684168
0.78200012 0.065361343 0.28520712 13750216
0.78739995 0.075774334 0.28481725 12435127
0.79120004 0.085461006 0.28520525 10658717
0.78900003 -0.1512036 0.2954945 14275794
0.7851786 -0.14496343 0.29497957 14671063
0.78191984 -0.13520281 0.294673 14802393
0.78266686 -0.12525313 0.29495478 14605013
0.78292012 -0.11521496 0.29504988 14605270
0.78276688 -0.10511442 0.29499224 14671063
0.78153837 -0.094746903 0.29474005 14605270
0.77900004 -0.0850541 0.29661238 14605270
0.78026932 -0.084685512 0.29405087 14539477
0.7790001 -0.074358873 0.29595166 14671063
0.78000003 -0.07753469 0.29175863 14539477
0.77863997 -0.065370083 0.29525971 14605526
0.77759379 -0.055043768 0.29520223 14670807
0.77623367 -0.045178432 0.29525504 14210257
0.77561104 -0.035156593 0.29501858 14144463
0.77429628 -0.025328716 0.29502234 13487046
0.77346689 -0.015141264 0.29510802 13487559
0.77359271 -0.0049803802 0.29475269 14211282
0.77458328 0.0047855182 0.29462618 14277331
0.77630019 0.014792455 0.29527873 14145486
0.77826679 0.023453301 0.29742488 13750729
0.78113627 0.025690101 0.29337987 13487814
0.7814666 0.035012413 0.2954146 13618887
0.77900004 0.04903505 0.29767621 13684681
0.78090632 0.044525847 0.29480386 13618631
0.77900016 0.054260518 0.29736054 14013133
0.78035301 0.055595264 0.29279265 13815753
0.78166676 0.064970069 0.29507548 13881801
0.78688884 0.075581923 0.29511246 12829372
0.79103583 0.085245229 0.29499951 10658717
0.78900003 -0.15189625 0.30542246 11907502
0.78519225 -0.14510766 0.30488536 14736854
0.78206646 -0.13522863 0.30479881 14934235
0.78263903 -0.12524879 0.30502164 14802392
0.78246677 -0.11514921 0.30495358 14736856
0.78199983 -0.10501064 0.30477199 14539733
0.78179294 -0.095043875 0.30484906 14342611
0.78033346 -0.084693722 0.30503625 14408147
0.77893102 -0.074385405 0.30530494 14342355
0.78000003 -0.078265086 0.30855778 14342098
0.77766669 -0.06528841 0.30490178 14736855
0.77641207 -0.05540007 0.30467805 14802649
0.77527982 -0.045122761 0.30487543 14736600
0.77536654 -0.035143085 0.30491051 14144463
0.7745384 -0.024995912 0.30479357 12961217
0.77325022 -0.01513743 0.30498275 13290182
0.77300018 -0.0051784315 0.30488384 14013391
0.77336138 0.0047781649 0.30502594 14473685
0.77451724 0.014632563 0.30532479 14276305
0.77660018 0.024927288 0.30461314 13881803
0.77875018 0.033797398 0.30596587 13684682
0.78000009 0.036975425 0.30389133 13685193
0.77900004 0.047211401 0.30291918 13750218
0.78045458 0.044186261 0.30566606 13619145
0.77900016 0.054701407 0.30256099 13947340
0.78109097 0.055442512 0.30782649 14078926
0.78174996 0.065339446 0.30496168 13749961
0.78707403 0.075872354 0.30507681 13092544
0.78900003 0.081526354 0.30472979 10592924
0.7907728 0.086507231 0.30490828 10658717
0.78864288 -0.15245448 0.31527343 10986914
0.79113334 -0.1572938 0.31493622 9408141
0.78577781 -0.14486758 0.31493047 14802393
0.78284019 -0.13536236 0.31517985 14934235
0.78293359 -0.12529768 0.31521663 14736856
0.78175002 -0.11484795 0.31532666 14539477
0.78149998 -0.10515794 0.31528422 14473941
0.78157687 -0.094751202 0.31488162 14408148
0.77900004 -0.081812054 0.31636861 14276306
0.78025937 -0.085936777 0.31461403 14342356
0.7775625 -0.075066432 0.31521413 13947855
0.77603364 -0.065150261 0.31516361 13750219
0.77600044 -0.055285595 0.31502047 14276050
0.77593356 -0.045160733 0.31512359 14671320
0.77575004 -0.035161424 0.31504855 14605272
0.77451718 -0.025259595 0.31470349 12960961
0.77260602 -0.014878816 0.31516853 12960961
0.77183324 -0.0051705376 0.31526366 13487561
0.77290928 0.0045283218 0.31529176 14342356
0.77384621 0.014883467 0.3149713 14473942
0.7750833 0.024748582 0.31477648 13816268
0.77750015 0.03464241 0.31543159 13684425
0.78000003 0.038598534 0.31038377 14277075
0.77900004 0.040828612 0.31773636 13882317
0.78163338 0.045391284 0.31487668 13684938
0.78336012 0.05527094 0.31539115 13947596
0.78407699 0.064710215 0.31546816 13881545
0.78706664 0.075190075 0.31497702 13421251
0.78900003 0.081988119 0.3144269 10592667
0.79045004 0.086396009 0.31518999 10658460
0.78864288 -0.15285029 0.32463649 9934487
0.79108328 -0.15793164 0.32575086 9408142
0.78622222 -0.14521998 0.32499394 14473685
0.78468972 -0.13492177 0.32523692 14934236
0.78306681 -0.1244655 0.32504746 14605271
0.77899998 -0.11229311 0.32665926 14342098
0.78105003 -0.11603884 0.32414913 14342355
0.77900004 -0.10843738 0.32676345 14407891
0.780963 -0.10388713 0.32457957 14276562
0.78213781 -0.095084533 0.32512587 14210768
0.77900004 -0.081812054 0.3227514 14211026
0.78118175 -0.086199373 0.32573441 14210769
0.7772122 -0.075342767 0.32487696 14144975
0.7760002 -0.06514731 0.32514173 14013134
0.77667767 -0.05505662 0.32524884 13684169
0.77628022 -0.045181718 0.32525855 14013904
0.77569997 -0.035160773 0.32501617 14079444
0.77425003 -0.024931535 0.32499114 13553098
0.77284867 -0.015376382 0.3251377 12960962
0.77139992 -0.0051689297 0.32502076 13027013
0.77148473 0.005012806 0.32456172 13750476
0.7730335 0.014728893 0.32480282 14473942
0.77441174 0.024513707 0.32511556 14276563
0.77618533 0.034978166 0.32481468 13947597
0.77776682 0.044376064 0.32575804 13816524
0.78100008 0.047791153 0.32175022 13684938
0.77855563 0.053310849 0.32823673 13947853
0.78216678 0.055567231 0.32398334 13882316
0.78343338 0.064447217 0.32550105 14079181
0.78706068 0.074630097 0.32474986 13684423
0.78900003 0.082218997 0.32574013 10526874
0.79078948 0.086974114 0.32490721 10592924
0.78866673 -0.15206325 0.33506513 9670287
0.78664291 -0.14516453 0.33532116 14407892
0.78491175 -0.13507208 0.33508763 14934235
0.77900004 -0.1210206 0.33916429 14473684
0.78227597 -0.1247845 0.3352825 14539477
0.77883339 -0.11385402 0.3351413 14276306
0.78033334 -0.11787891 0.33274165 14342099
0.77900016 -0.10790432 0.33369333 14210512
0.7813158 -0.10303929 0.33526355 14276305
0.78344011 -0.095115557 0.33559701 14276305
0.78196156 -0.08564695 0.33517277 14210512
0.77694309 -0.075156733 0.33509648 14407634
0.77520013 -0.0650803 0.33478561 14473428
0.77536124 -0.055109952 0.33485472 14605526
0.77580035 -0.045152351 0.33504575 14342868
0.775778 -0.035163958 0.33503687 14342868
0.77429634 -0.025328632 0.33490014 14013903
0.77313358 -0.01513466 0.33479992 13750474
0.77206665 -0.0051726466 0.33524221 13684938
0.77141654 0.0047653103 0.33495981 13684938
0.77260715 0.014527293 0.33515272 14079697
0.77415633 0.02494587 0.33490244 14211027
0.77566683 0.034753647 0.33498895 14079441
0.77608371 0.044763561 0.33516896 13881804
0.77742863 0.054918196 0.33464387 13947340
0.77891678 0.061490212 0.33517694 13947340
0.78185719 0.06684608 0.33482891 14144462
0.78689998 0.075664707 0.33474332 13815755
0.78900003 0.082449883 0.33520636 10460825
0.79013336 0.087192908 0.33476248 10658717
0.78850007 -0.15203132 0.34514633 9407112
0.78553855 -0.14502858 0.34476775 14342099
0.77900004 -0.13178015 0.34682363 14999515
0.78143996 -0.1357062 0.34417602 14933979
0.77810717 -0.12491567 0.34540939 14867929
0.78100008 -0.12833993 0.34125277 14868442
0.77823329 -0.11537369 0.34459966 14473684
0.77900004 -0.10916685 0.34463525 14407891
0.7818622 -0.10394786 0.34514356 14342098
0.78365529 -0.095079929 0.34561566 14342099
0.77800012 -0.082921825 0.34631538 14276306
0.78175002 -0.087134764 0.34429392 14407892
0.77566659 -0.075192735 0.34480911 14210514
0.77383345 -0.064966045 0.34506619 14473429
0.77347243 -0.054976214 0.34490409 14868699
0.77410007 -0.045053102 0.34518275 14934492
0.77383333 -0.035075754 0.34506389 14539734
0.77218181 -0.024894822 0.34490079 14144976
0.76900005 -0.010552363 0.34921241 13882319
0.77156103 -0.015214215 0.34481987 13882061
0.76821429 -0.0039919154 0.34731248 14013904
0.77064717 -0.005906011 0.34337929 14013648
0.76733333 0.004739874 0.3466557 14079697
0.7705 0.0047589657 0.34177604 14013904
0.76833338 0.011940703 0.34710979 14013903
0.77116007 0.015416127 0.34434131 14079696
0.77347237 0.024697207 0.34490538 14211283
0.77481467 0.034513857 0.34499934 14145490
0.77590024 0.044753376 0.34507972 14013904
0.77767855 0.054871026 0.34496063 13947341
0.77900004 0.061344709 0.34509116 13881547
0.7817083 0.066594049 0.34484145 13816010
0.78727996 0.075823925 0.34498012 13947598
0.78900003 0.081526354 0.34259459 10460313
0.79054183 0.085696489 0.34526989 10527132
0.78885716 -0.15170397 0.3537454 9209990
0.78603709 -0.14505331 0.35476708 14276564
0.77900016 -0.13217294 0.35431466 14868186
0.78120005 -0.13690875 0.35536125 14868186
0.77899987 -0.12452085 0.35540059 14736856
0.7790001 -0.11530098 0.35400221 14736599
0.78000009 -0.1121764 0.35785961 14605271
0.77900004 -0.10460772 0.35466534 14605271
0.78054553 -0.10478673 0.35522878 14539477
0.7782501 -0.093850866 0.35641724 14473685
0.78099996 -0.09573558 0.35207006 14473684
0.77616143 -0.085208885 0.35498139 14276307
0.78000003 -0.089221045 0.35055563 14342098
0.77474272 -0.075147957 0.35466957 13947341
0.77352011 -0.06494052 0.35488632 14276306
0.76900005 -0.050757784 0.35761356 14736858
0.77154553 -0.055196814 0.35452545 14671064
0.76900005 -0.045014154 0.3576993 14934237
0.7711305 -0.044802297 0.35347342 15065566
0.76900005 -0.038456127 0.35821363 15197409
0.77076489 -0.034724593 0.3542563 14605271
0.76884621 -0.023565054 0.35703373 14078926
0.77018768 -0.026120042 0.35313165 14276305
0.76780015 -0.014551601 0.35573447 13816267
0.77000004 -0.017475991 0.35206994 13750218
0.76648289 -0.0052596526 0.35450223 14013905
0.76610023 0.0047330763 0.35507071 14013904
0.76800007 0.012385777 0.3537029 14013903
0.77092868 0.016880477 0.3555018 14013903
0.77348405 0.024551596 0.35504532 14013904
0.77446425 0.034893584 0.35473683 14211026
0.77522206 0.044714972 0.35475954 14144976
0.77648407 0.054903109 0.35513052 14144719
0.7781924 0.063524656 0.35478646 14079183
0.78130007 0.068843029 0.35333365 13882317
0.78686208 0.075657777 0.35477906 14014160
0.78888893 -0.15179799 0.36563089 8947335
0.79123813 -0.15666261 0.36486587 9276555
0.78586209 -0.14502636 0.36498541 14079186
0.77835304 -0.13276453 0.36589107 14802650
0.78084618 -0.13740847 0.36401159 14802650
0.77812123 -0.12494015 0.36494359 14539477
0.77829039 -0.11523788 0.365771 14539477
0.78000003 -0.11204597 0.36242461 14605270
0.77846152 -0.10460483 0.36605316 14539477
0.78011119 -0.10567006 0.36257729 14539477
0.77700019 -0.094806701 0.36504868 14407892
0.77457142 -0.08478047 0.365017 14210513
0.77355576 -0.074902937 0.3648608 14013134
0.77200013 -0.064813316 0.36502832 14078928
0.76839286 -0.053202983 0.36576626 14671065
0.77045459 -0.057631895 0.36298963 14407893
0.76745725 -0.044667583 0.36467639 14934237
0.76765013 -0.034974597 0.36503682 14671064
0.77000004 -0.031295799 0.36048201 14407891
0.76696968 -0.02505336 0.36477178 14144719
0.76586133 -0.014992408 0.36481795 13816267
0.76600015 -0.0051315376 0.36488566 14079696
0.76738244 0.0045309793 0.36527938 14079698
0.76900005 0.012573834 0.36569154 14013903
0.7705884 0.016274152 0.36436418 14013903
0.77286863 0.024583749 0.36515462 14013903
0.77451718 0.034577064 0.3651596 14145490
0.77533317 0.044721041 0.36479503 14145490
0.77640015 0.054779787 0.36529651 14145232
0.7783159 0.063066542 0.36389631 14013645
0.78136367 0.068432912 0.36580241 14079439
0.7860741 0.075777523 0.36466536 14276563
0.78900003 0.081526354 0.3656829 10657949
0.78860003 -0.15272774 0.37485081 9210762
0.79049999 -0.15781453 0.37547624 9145225
0.78471428 -0.14500974 0.37484589 13882319
0.77807701 -0.13461021 0.37498257 14802905
0.78000003 -0.13852289 0.37064159 14868442
0.77720016 -0.12528957 0.37477031 14605270
0.7767275 -0.11496601 0.37503672 14408404
0.77596688 -0.10510913 0.37508103 14342612
0.77525008 -0.095030911 0.37473467 14342611
0.77380013 -0.08489047 0.37512058 14144975
0.7718057 -0.074735671 0.37487617 13947340
0.76833344 -0.063905731 0.37648839 13947341
0.77020001 -0.06646391 0.37319675 14013133
0.76545715 -0.055306152 0.37519121 14276563
0.76266652 -0.04528258 0.37489599 14868444
0.76223803 -0.034548935 0.37468696 14605272
0.7629714 -0.024758276 0.37504753 14079184
0.76307142 -0.014937283 0.37509751 13882318
0.76314282 -0.0051117954 0.37513044 14277075
0.76497561 0.0047065718 0.37528807 14342869
0.76697141 0.014767834 0.37506557 14145490
0.76818186 0.023790212 0.37605867 14145489
0.77086669 0.026838668 0.37279621 14145491
0.76900005 0.031453304 0.37921643 14474455
0.77256674 0.034856662 0.37488168 14342870
0.77489752 0.044488739 0.37505084 14342869
0.77678585 0.054612726 0.3751533 14277076
0.77870017 0.063235097 0.3759473 14211026
0.78129411 0.067498535 0.37383729 14210767
0.77900004 0.071374804 0.37928465 14145491
0.78558075 0.075661682 0.37512776 14276560
0.78887504 0.081975207 0.37624323 11973808
0.78885716 -0.15170397 0.38461208 9144712
0.79105556 -0.15653776 0.38546386 9210760
0.78474075 -0.14474759 0.38507107 13552586
0.77880967 -0.13362375 0.38492227 14802650
0.78000003 -0.13852289 0.38524953 14605271
0.77829993 -0.12546729 0.38532135 14408405
0.77660626 -0.11544453 0.38489512 14211282
0.77519989 -0.10500575 0.38469356 14277075
0.77425718 -0.094779864 0.38500205 14276819
0.77255183 -0.084754623 0.3851853 14079183
0.76755005 -0.073962823 0.38682267 13816525
0.77046674 -0.076708123 0.38294503 13881804
0.76497638 -0.065120511 0.38498378 13948112
0.76149982 -0.055208955 0.38445041 14145493
0.76029038 -0.045283955 0.38458511 14736859
0.76037037 -0.034958709 0.38425544 14736858
0.76053572 -0.025251014 0.38472766 14210513
0.76089984 -0.014894922 0.38472193 14013648
0.76071423 -0.0052865031 0.38519973 14145491
0.76181805 0.0049515036 0.38469869 14342870
0.76407707 0.015660521 0.38494837 14342870
0.76509118 0.025162077 0.3847194 14211283
0.76777267 0.033420708 0.38541737 14342869
0.7705 0.038129199 0.3843157 14343126
0.77323341 0.045325827 0.38480276 14408661
0.77524143 0.054698668 0.38471133 14342868
0.77647251 0.064781986 0.38441449 14145234
0.77850008 0.072058454 0.38541931 14145234
0.78355008 0.076931052 0.38461578 14145492
0.78833336 0.08371447 0.38567379 11053477
0.79081815 0.088110529 0.38385913 10461338
0.78900003 -0.1512036 0.39523593 8881285
0.78514814 -0.14495839 0.39514065 13223877
0.77868432 -0.13339674 0.39448211 14671324
0.7806251 -0.13772088 0.39538026 14605786
0.77823818 -0.12519695 0.39453101 14211030
0.78000003 -0.12574093 0.39985749 14144725
0.77719247 -0.11479254 0.39429188 14079700
0.78000003 -0.11752396 0.39985749 13947859
0.77591997 -0.10510374 0.39413476 14211030
0.77456659 -0.094948247 0.39495763 14079444
0.76900005 -0.080761835 0.39421847 13684940
0.77217394 -0.085184827 0.39482403 14079443
0.76654536 -0.075205378 0.39418438 13619147
0.7630834 -0.064958461 0.39386868 13684944
0.76238096 -0.054822929 0.39363399 14014165
0.7633 -0.045228668 0.39371443 14474460
0.76288891 -0.034579173 0.39287546 14342873
0.76273322 -0.02475095 0.39279535 14013907
0.76309991 -0.014578248 0.39334345 13882321
0.7637648 -0.0048019029 0.39469635 14079443
0.76450002 0.0042271069 0.39380562 14014163
0.77000004 0.0092623364 0.39833626 13816783
0.76518178 0.015066501 0.39307746 13882319
0.77139997 0.014699101 0.39906049 13685197
0.76660001 0.024834858 0.39316934 13882319
0.77183336 0.025244281 0.39838222 13817040
0.76820004 0.033700109 0.39129037 14013906
0.77221441 0.035631444 0.39574051 13882065
0.77395654 0.044838946 0.39439878 13882322
0.77552176 0.054954279 0.39424935 13882577
0.77704024 0.064356536 0.39404976 13882063
0.78050005 0.066946082 0.39919963 14014164
0.77850008 0.071328998 0.39271045 10657181
0.78314292 0.075950056 0.39518255 10921379
0.78807694 0.084981672 0.39498633 10264216
0.79000002 0.0890273 0.3901886 10527131
0.78900003 0.091500498 0.39745238 10527131
0.79024017 0.095196791 0.39430207 10527131
0.78880006 -0.15208881 0.40436846 8948362
0.7910589 -0.15726426 0.40487143 9145228
0.78616667 -0.14552735 0.40493703 12500925
0.78389484 -0.13525259 0.40523842 14342615
0.78458822 -0.12475181 0.40556303 13750480
0.78450006 -0.11510407 0.40595561 13553101
0.77825004 -0.10268539 0.40123814 14079445
0.78257143 -0.10508597 0.40575871 13750481
0.77720004 -0.093995757 0.40279016 13750480
0.78200001 -0.096467815 0.40759644 13355980
0.77546674 -0.085073307 0.40407148 12829635
0.78000003 -0.087395057 0.40898743 9211022
0.77405006 -0.075131461 0.40523809 11382188
0.76900005 -0.061859287 0.40141946 13092809
0.77307695 -0.065317899 0.40563917 11382192
0.76866674 -0.057333037 0.40124545 13488337
0.77360004 -0.054442 0.40599716 12830150
0.77373338 -0.045034502 0.40498224 13751252
0.77335304 -0.034891345 0.40359002 14080216
0.77400011 -0.025116559 0.40403417 13620180
0.77370596 -0.015303105 0.40430656 13094091
0.77393341 -0.0051851515 0.40581 11447982
0.77415794 0.0046396796 0.40459302 11777461
0.77520007 0.014042743 0.40411481 12435905
0.77600002 0.025077596 0.40325892 12238011
0.78350008 0.028684285 0.40898848 8882825
0.77700007 0.034816816 0.40195751 13948369
0.78280002 0.035072461 0.40715808 9277069
0.778 0.045787618 0.40065351 14014423
0.78375006 0.045207467 0.40636885 11185065
0.77900004 0.051314622 0.4011685 14409439
0.78335714 0.055530701 0.40538126 10658724
0.78410524 0.065369152 0.4049612 10395806
0.78678262 0.075292729 0.40541896 10000789
0.78866661 0.084921628 0.40403697 10329753
0.79000002 0.088410832 0.40806618 10461339
0.78900003 0.091377355 0.40139279 10461338
0.79031831 0.095034249 0.40556851 10592924
0.78900003 -0.15194242 0.41149005 9868950
0.79120004 -0.15607247 0.41541657 10132120
0.78847057 -0.14447927 0.41386437 10724259
0.79000002 -0.1453847 0.41839203 10132375
0.7881875 -0.13536279 0.41305098 11052967
0.79016668 -0.13416179 0.41770959 9935253
0.78850007 -0.12526529 0.41252193 9671314
0.7906363 -0.12509947 0.41742566 9869461
0.78849995 -0.11458557 0.41291758 9868952
0.79033333 -0.11568914 0.41728404 9869461
0.78786665 -0.10487602 0.4138521 10197916
0.79000002 -0.10516014 0.41885439 10000789
0.78716671 -0.094750673 0.41510341 9737362
0.79000002 -0.096837826 0.41977909 9934994
0.78518754 -0.08521916 0.41515887 9803153
0.77900004 -0.079988405 0.41028675 9342859
0.78440011 -0.075035401 0.41588813 9869461
0.77900004 -0.06539917 0.41211042 9539988
0.78500003 -0.064984038 0.41712227 9934742
0.77900004 -0.059016392 0.41211042 9605780
0.78444451 -0.054428183 0.41601372 9737365
0.77900004 -0.042603515 0.41028675 11185584
0.78600001 -0.044823457 0.41673598 9671827
0.7856155 -0.035536271 0.4150486 9803929
0.79000002 -0.033033378 0.41977909 9540238
0.78616667 -0.024589596 0.41529134 9212564
0.79000002 -0.023786359 0.41977909 9343629
0.77900004 -0.013425065 0.41028675 8817805
0.78538471 -0.015300583 0.41577563 9015183
0.78400004 -0.0052542286 0.41567579 9145996
0.77900004 0.003899639 0.41028675 9473935
0.78446668 0.0053979447 0.41537341 9277067
0.78619999 0.014979357 0.41481942 9080459
0.79000002 0.015051129 0.41977909 9277836
0.78680003 0.024387244 0.41329136 9211274
0.78788894 0.035710976 0.41230512 9342604
0.78837508 0.045242421 0.41222587 9408654
0.78850007 0.054709245 0.41252193 9868948
0.78850007 0.064861655 0.41252193 9803922
0.79049999 0.065026172 0.41726947 9935507
0.78888893 0.074538641 0.41180146 9935766
0.78900003 0.081526354 0.41001242 10198938
0.78900003 -0.081938744 0.42109478 10066580
0.78900003 -0.075474024 0.42109481 9934994
0.78900003 -0.065315172 0.42109481 9803410
0.78900003 -0.055156328 0.42109481 9869203
0.78900003 -0.047768071 0.42109478 9934996
0.78880006 -0.0041767424 0.42228097 9277836
0.79020005 -0.0060341987 0.42703858 9278349
0.78876919 0.0036649199 0.4223924 9277836
0.79000002 0.0058041089 0.42706791 9344142
0.78900003 0.0085673565 0.43494776 9672594
0.7900002 0.0043103592 0.43443203 9607314
0.79038483 0.01520216 0.43457144 9672594
0.79064012 0.015064728 0.44418183 9803665
0.79024017 0.074549593 0.44343796 10001558
