# .PCD v0.7 - Point Cloud Data file format
VERSION 0.7
FIELDS x y z rgb
SIZE 4 4 4 4
TYPE F F F U
COUNT 1 1 1 1
WIDTH 982
HEIGHT 1
VIEWPOINT 0 0 0 1 0 0 0
POINTS 982
DATA ascii
0.78900003 -0.14104477 0.12925881 12304055
0.79203224 -0.14508511 0.12508431 12500921
0.78900003 -0.13458005 0.12925881 13949139
0.79238468 -0.13494243 0.12409968 12237748
0.78900003 -0.12534472 0.12925881 12303542
0.79235733 -0.12494958 0.12423848 12303284
0.78890002 -0.11517092 0.12850359 11974321
0.78900003 -0.10502703 0.12925881 12237751
0.78900003 -0.094868183 0.12925881 13027267
0.78857148 -0.083872728 0.12866087 13750987
0.78850007 -0.075426191 0.12825336 13422020
0.78858346 -0.065280192 0.12826701 13882571
0.78900003 -0.055156328 0.12925881 15132638
0.78862506 -0.044053875 0.1287356 14869724
0.78769231 -0.034355544 0.1274824 13488585
0.78711104 -0.024724612 0.12720543 12764862
0.78550011 -0.014684477 0.12752883 12830398
0.7856499 -0.0052627074 0.12778376 13093312
0.77900004 0.0084587717 0.1294442 13422020
0.78539127 0.0047313459 0.12730126 13027263
0.7775715 0.015594567 0.12868579 13619399
0.78565001 0.014969073 0.12520769 12303282
0.79162502 0.014385929 0.12111662 10921886
0.7772308 0.025164332 0.12802887 13553606
0.78569227 0.025226951 0.12347384 11908268
0.79033333 0.022457436 0.1202263 10658714
0.7768001 0.034802552 0.12725717 13487557
0.78615791 0.035027765 0.12249066 11579303
0.79000002 0.039093386 0.1201756 11119265
0.77700007 0.043908074 0.12785077 13553093
0.78519046 0.04541871 0.12416323 12697785
0.7906 0.044676907 0.12026687 11184804
0.77850008 0.052193511 0.12936112 13289151
0.78556001 0.055202838 0.1261851 13421764
0.79145455 0.055336054 0.12123771 11053218
0.78725004 0.064070418 0.12724063 13158594
0.79200006 0.065644443 0.12245487 11184804
0.78875005 0.071806952 0.12875608 10921889
0.78847361 -0.14391458 0.1352915 14145229
0.79012501 -0.14864479 0.13383573 13684679
0.78642428 -0.13520204 0.13519168 14540244
0.78496873 -0.12504762 0.13525158 14474195
0.78503036 -0.11502361 0.13478203 14539988
0.78445458 -0.10492152 0.13518338 14474196
0.77900004 -0.090930313 0.13856246 13552836
0.7844668 -0.095179446 0.13462748 14474453
0.77887511 -0.084990323 0.13785635 13881802
0.78379989 -0.085105151 0.13346371 14737112
0.77823532 -0.075086974 0.13671102 13684423
0.78406662 -0.075002424 0.13211833 14934746
0.77830011 -0.06533923 0.13752683 13684422
0.78362495 -0.064868324 0.13295786 14539987
0.7790001 -0.05536909 0.13765062 13684422
0.78450006 -0.054841746 0.1331059 14211023
0.778 -0.044862289 0.13684276 13487043
0.78447372 -0.045368146 0.13247506 14342865
0.77682608 -0.035013471 0.13556443 13092286
0.78245455 -0.035049956 0.1311817 14342865
0.77654189 -0.025047852 0.13615385 12829114
0.78177786 -0.025776807 0.13092126 13685192
0.77641183 -0.014984127 0.1356397 12631737
0.78000003 -0.01892028 0.13143636 14014157
0.77593327 -0.0051986291 0.13528772 12631736
0.775361 0.0047878516 0.13519005 12499894
0.77466667 0.014758529 0.1350712 12302515
0.77447224 0.024727181 0.13503799 12039343
0.77450001 0.034700368 0.13504472 12105136
0.77493542 0.04455236 0.1343883 12170929
0.77640009 0.054780163 0.13446437 12039086
0.77829999 0.061472535 0.13515842 11973548
0.78271437 0.066307709 0.13442104 12105390
0.78725797 0.074928723 0.13485686 10921632
0.78863645 0.083167717 0.13591242 11053218
0.79078579 0.087001391 0.13417819 11184804
0.78824145 -0.14565186 0.14497827 14210512
0.78452009 -0.13565594 0.14505525 14407889
0.78266686 -0.12525353 0.14471175 14342352
0.78288019 -0.11520916 0.14475128 13947595
0.78250009 -0.10507783 0.14468187 13750216
0.77900004 -0.090930313 0.14038612 13552836
0.7819168 -0.095085464 0.1447272 13749959
0.7790001 -0.084630422 0.14171241 13487044
0.78072232 -0.085040145 0.14668792 13618630
0.77895254 -0.075294554 0.14272223 13487045
0.78016669 -0.074628256 0.1483586 13487044
0.7790001 -0.065730743 0.14154662 13487045
0.78057146 -0.064572729 0.14658719 13487045
0.77888894 -0.054450013 0.14097397 13486788
0.78082347 -0.054906968 0.14576995 13486789
0.77833337 -0.044693574 0.14398809 13289410
0.78039998 -0.047613073 0.14831181 13420996
0.77786118 -0.035257053 0.14473647 12894652
0.77768195 -0.025236672 0.14470229 12500150
0.78000003 -0.026224257 0.14969629 12697528
0.7765668 -0.015202845 0.14540388 12499893
0.77591997 -0.005197525 0.1452828 12499894
0.77676696 0.0047989604 0.14544258 12368307
0.77664018 0.014796218 0.14541845 12105391
0.77583349 0.02477066 0.14526562 12039597
0.77644014 0.034787882 0.14537868 12171184
0.77791446 0.045000136 0.14487597 12302770
0.77823341 0.054908771 0.14480521 12499893
0.77900004 0.060797609 0.14257449 12565941
0.78357154 0.065074146 0.14549056 12631478
0.78826314 0.073973253 0.14370735 10855839
0.79070002 0.076705113 0.14712256 10856096
0.78900003 0.08214204 0.14095686 11053218
0.79200006 0.085706443 0.14515093 11119011
0.78827995 -0.14553148 0.15497643 14473426
0.78596669 -0.13498546 0.15452299 14539218
0.78475988 -0.12467086 0.15428708 14408145
0.78520674 -0.11479013 0.15450099 14342352
0.78457153 -0.10443794 0.15451239 14079180
0.78336692 -0.095108867 0.15492848 13947594
0.78244108 -0.085136928 0.15501513 13881801
0.78248018 -0.074849769 0.15567037 13750215
0.78227252 -0.064509161 0.1551284 13684167
0.78199977 -0.054666985 0.15465687 13618375
0.77900004 -0.042603515 0.15132803 13421250
0.78149992 -0.04541507 0.15575515 13553094
0.77900004 -0.036828615 0.15132803 13289664
0.78144002 -0.034868702 0.15568249 13224128
0.78280014 -0.025402309 0.15573503 12697785
0.7787143 -0.013551071 0.15179358 12631734
0.78204346 -0.015826525 0.1565388 12697783
0.77855557 -0.0056203846 0.15205222 12631734
0.78156245 -0.0050069583 0.15708841 12763320
0.77900004 0.0011641593 0.15132803 12631734
0.78253567 0.0050963755 0.15594462 12697527
0.77900004 0.016665211 0.15132803 12302769
0.78218192 0.014651687 0.15611102 12565941
0.77826679 0.025879685 0.15288717 12368562
0.78113335 0.023901679 0.15735136 12499891
0.77842867 0.03487625 0.15416905 12631734
0.78000003 0.034946542 0.15882626 12631734
0.77892876 0.043886039 0.15287726 12631480
0.78025001 0.045918092 0.15705089 12828858
0.77900004 0.052226447 0.15132803 12631221
0.78065223 0.055316973 0.155623 12763064
0.78448147 0.064470395 0.15497606 12697269
0.78900003 0.070443973 0.15511768 10790301
0.79219055 0.075413644 0.15503748 10790303
0.78843325 -0.14555924 0.16515805 14605268
0.78761125 -0.13526647 0.16498664 14473425
0.787 -0.125027 0.16485955 14407889
0.78719461 -0.11492264 0.16489938 14407889
0.7862857 -0.1048642 0.16503806 14473682
0.78507996 -0.095316924 0.16537647 14342352
0.78530002 -0.085229687 0.16542362 14144973
0.78624016 -0.075209625 0.16562158 14078924
0.78523344 -0.065005735 0.16541056 13947338
0.78347993 -0.054770812 0.16504084 13881545
0.78350008 -0.044683293 0.16504496 13815752
0.78460002 -0.034643125 0.1652763 13486532
0.78600007 -0.025095936 0.16577469 13223617
0.78557146 -0.015050196 0.16528311 12960958
0.78487992 -0.0052578296 0.16533519 12895165
0.78543335 0.0048515517 0.16545035 13025981
0.78483999 0.01495198 0.16532469 12763066
0.78290004 0.024992537 0.16491644 12631479
0.78100002 0.035185989 0.16510323 12763066
0.78131431 0.04493596 0.16536483 12894652
0.78110355 0.054984886 0.16529317 13091773
0.78485191 0.064772844 0.16491713 13420995
0.78900003 0.07044398 0.16527653 10460826
0.7923637 -0.15446633 0.17483401 12433332
0.78861898 -0.14488988 0.17517509 15262687
0.79000002 -0.14954583 0.17658243 15262173
0.78800005 -0.13533185 0.17521302 14999515
0.78800005 -0.12518588 0.17521301 14670550
0.78800005 -0.11503989 0.17521307 14604757
0.78768003 -0.1048516 0.17514309 14539220
0.78758633 -0.094857059 0.1752497 14473684
0.78753853 -0.084764726 0.17497025 14276305
0.78782612 -0.075200811 0.17493445 14276305
0.78776675 -0.065213583 0.17516202 14210256
0.78663999 -0.054991536 0.17491193 14144462
0.78676689 -0.044870153 0.17493986 14013133
0.78684008 -0.034743074 0.17495586 13749961
0.78710014 -0.024619846 0.1750132 13355203
0.78723997 -0.014489012 0.17504536 13157824
0.78660017 -0.0052701943 0.17490326 13157824
0.78596658 0.0048530516 0.17476147 13092031
0.78516001 0.014958734 0.17458229 12763579
0.78420001 0.025033848 0.17437002 12566457
0.78199995 0.034831181 0.1753041 12763323
0.77900004 0.047059424 0.17746705 12763066
0.78050005 0.044353977 0.17412597 12697273
0.77900016 0.05383968 0.17643832 12434101
0.78053856 0.056477603 0.17355411 12565687
0.78462958 0.064346276 0.17487068 13091774
0.78900003 0.070443973 0.17543539 10591898
0.78880936 -0.1444847 0.18480223 15262687
0.79000002 -0.14954583 0.18490475 14801879
0.78824145 -0.13521373 0.18436688 15131614
0.7886399 -0.12528707 0.18458761 14868442
0.78846657 -0.11510857 0.18454723 14605270
0.7880401 -0.10489943 0.18444616 14539477
0.78800005 -0.094747953 0.18535902 14473684
0.78800005 -0.084601976 0.18535902 14407891
0.78800005 -0.075378373 0.18535897 14276305
0.78769451 -0.065208107 0.18528612 14276305
0.78703344 -0.055018689 0.18513179 14276305
0.78708357 -0.04488847 0.18514389 14144719
0.78700012 -0.034750327 0.18512382 13881547
0.78711134 -0.024619915 0.18515033 13486789
0.78796673 -0.01450176 0.18535128 13355460
0.78800005 -0.0053448016 0.1850296 13355203
0.78761125 0.0048638061 0.18526906 13289410
0.78673345 0.014988344 0.18506247 13026495
0.78583312 0.02508878 0.18485014 12828859
0.78420007 0.035132658 0.18538541 12960446
0.77900004 0.048032038 0.18123594 12829114
0.78180003 0.04446898 0.18540357 12828859
0.77900004 0.053138275 0.1814183 12565941
0.78163159 0.055726573 0.18564464 12697271
0.78542864 0.064811662 0.18508328 13091772
0.78850007 0.071138158 0.18547603 10657945
0.79120004 0.076662198 0.18499859 10592924
0.78899997 -0.14239453 0.1924852 15131101
0.79000008 -0.1462491 0.19640324 14933722
0.78899997 -0.13484392 0.19192703 15131101
0.79000002 -0.13451943 0.19761938 14999514
0.78900003 -0.12472903 0.19175111 14933979
0.79000002 -0.12591454 0.19713134 14934234
0.78899974 -0.1153013 0.1942523 14802393
0.79000002 -0.11440717 0.19969998 14671062
0.7889998 -0.10518096 0.19375207 14671063
0.79000002 -0.10454368 0.19939174 14671063
0.78867847 -0.094566472 0.19541053 14605270
0.79000002 -0.098687232 0.19969998 14605270
0.78816009 -0.084619619 0.19554533 14605270
0.78800005 -0.075378366 0.19550499 14407891
0.78773344 -0.065210156 0.19543968 14407634
0.78808004 -0.055091452 0.1955262 14407634
0.78796667 -0.044939756 0.19549792 14276305
0.78752017 -0.03477338 0.19538732 14013389
0.78790009 -0.024644947 0.19548056 13684168
0.78800005 -0.014502531 0.19550495 13486789
0.78866655 -0.0052138474 0.1952595 13487045
0.78829998 0.0048674629 0.19557954 13421252
0.78732008 0.014998946 0.19533643 13157824
0.7863667 0.025105797 0.19510053 13092030
0.78595996 0.035213195 0.19500035 13158078
0.78526658 0.045292202 0.19483067 13289664
0.78552002 0.055423256 0.19489361 13091772
0.78712004 0.064750388 0.19528797 13092029
0.7887646 0.072378673 0.19504306 11184804
0.79041177 0.077863395 0.19490583 10658972
0.79221433 -0.15553319 0.2048948 11710123
0.78900009 -0.14297579 0.20733923 14933977
0.79000002 -0.14594437 0.20388544 14868441
0.78900009 -0.13424422 0.20750713 14933977
0.79000002 -0.1350148 0.20326667 14999769
0.78899997 -0.12547664 0.20696743 14868440
0.79000002 -0.12533547 0.20272627 14999769
0.78899986 -0.11703294 0.2043727 14868442
0.79000002 -0.11255776 0.2061729 14934235
0.78900003 -0.10872115 0.20129426 14868442
0.79000014 -0.10500603 0.20540231 14868442
0.78900003 -0.090619937 0.20388015 14605270
0.79000014 -0.095839165 0.20547013 14671064
0.7886799 -0.084676102 0.20490564 14473685
0.78800005 -0.075378373 0.20472862 14407891
0.78839993 -0.065264501 0.20483352 14407891
0.7889998 -0.05515632 0.20498842 14473684
0.78873318 -0.044983592 0.20491904 14276561
0.78800005 -0.034794472 0.20472862 14144973
0.78800005 -0.024648501 0.20472856 13816010
0.78800005 -0.014502531 0.20472859 13618889
0.78832 -0.0052803131 0.20481136 13553352
0.78806674 0.0048670755 0.20474569 13553607
0.78784007 0.015009415 0.20468755 13421764
0.78721893 0.025363434 0.2048717 13289920
0.78723085 0.035129234 0.20474221 13421250
0.78751868 0.044910971 0.20446827 13486787
0.78785717 0.054994393 0.20482373 13552836
0.78820008 0.064837821 0.20478094 13355714
0.78900003 0.071829267 0.20452662 11908785
0.79089475 0.077533931 0.20547991 10658717
0.78900003 -0.1512036 0.2197649 14867931
0.79142314 -0.15552022 0.21466659 11973039
0.78899974 -0.14460695 0.21527915 15065307
0.79000002 -0.14954583 0.21079642 14604757
0.78899974 -0.13458005 0.21514721 14999514
0.78899974 -0.12534472 0.21514726 14933721
0.7889998 -0.11631464 0.21559183 14999258
0.79000002 -0.1119413 0.21408422 14999514
0.78900009 -0.10519495 0.21842156 15130585
0.79000002 -0.10506279 0.21352184 14933977
0.78899974 -0.094010606 0.21600485 14802648
0.79000002 -0.097993702 0.21241462 14802906
0.78899974 -0.084709339 0.21514724 14671062
0.78892839 -0.075401388 0.21519412 14605269
0.78897196 -0.065312713 0.21513981 14539733
0.78893304 -0.055151887 0.21512869 14539476
0.78822219 -0.044954419 0.21493393 14408148
0.78736681 -0.03476667 0.21470025 14276305
0.7876668 -0.024637423 0.21478237 13947594
0.78800005 -0.01450253 0.21487452 13881801
0.78796673 -0.0052788509 0.2148653 13816265
0.78780568 0.0048658201 0.2148205 13750472
0.78756672 0.015004536 0.21475473 13618886
0.78732371 0.024920128 0.21496011 13618629
0.7879656 0.035430804 0.21502422 13750215
0.78800005 0.044528581 0.21487458 13815752
0.78800005 0.054674551 0.21487457 13815752
0.78829998 0.064845994 0.21495603 13618884
0.78900009 0.071283549 0.21523118 13355971
0.79071438 0.076857589 0.21468914 10724508
0.78900003 -0.1512036 0.22530608 14407636
0.79082614 -0.1560633 0.22469956 11578794
0.78896528 -0.1448919 0.22523256 14999771
0.78892291 -0.13477995 0.22535531 14933978
0.7889998 -0.12534474 0.22530611 14802135
0.78899974 -0.11518587 0.22530606 14867672
0.78883982 -0.10500621 0.22525974 14933721
0.78813338 -0.09476468 0.22505821 14867928
0.78828001 -0.084631383 0.22509958 14802392
0.78863984 -0.075439684 0.22520199 14671062
0.7883333 -0.065260068 0.22511452 14671318
0.78808004 -0.055092286 0.225043 14671062
0.78793335 -0.044937029 0.22500171 14539476
0.78728002 -0.034762967 0.2248161 14342097
0.78700012 -0.024617223 0.22473502 14144718
0.78716004 -0.01448707 0.22478002 13947596
0.78669995 -0.0052709123 0.22556829 14013388
0.78624994 0.0048556919 0.22543897 14013388
0.78636658 0.01498253 0.2254723 13816009
0.78693771 0.024895722 0.22506163 13816008
0.78800005 0.035304967 0.22502054 13947338
0.78800005 0.044528581 0.22502059 14078926
0.78793341 0.054669611 0.22500119 14144718
0.78792006 0.064814791 0.22499679 14079180
0.78891677 0.071821831 0.22574365 13815752
0.79050004 0.07730855 0.22447196 10789789
0.78900003 -0.1512036 0.23177081 14605270
0.79129171 -0.1558146 0.23522241 11973551
0.78899974 -0.1447389 0.2345414 14868183
0.78892285 -0.13485081 0.2350153 14868183
0.78891981 -0.12533231 0.23451771 14868183
0.78845704 -0.11497565 0.23517001 15065562
0.78793341 -0.10488559 0.23514588 15000028
0.78738904 -0.094675571 0.23498304 15000027
0.78730017 -0.084526353 0.23495631 14999515
0.78756678 -0.075336978 0.23503552 14802649
0.78680545 -0.065134391 0.23480707 14934234
0.78666675 -0.054993048 0.23476525 14934234
0.78727794 -0.044898544 0.23494877 14736854
0.78763336 -0.034778439 0.23505552 14473682
0.78675759 -0.025028644 0.23454262 14276560
0.78609073 -0.014969155 0.23484509 14210767
0.78531981 -0.0052610589 0.23528412 14342097
0.78489989 0.0048472434 0.23515882 14210512
0.78472006 0.014950722 0.23510464 14144973
0.78579408 0.02530659 0.2347766 14013387
0.78683341 0.035253312 0.2348159 14210766
0.78702945 0.045123305 0.23509073 14210510
0.78609383 0.055115443 0.23436372 14407889
0.78579998 0.064641044 0.23450638 14276559
0.78823078 0.073570885 0.23516287 13092286
0.79014289 0.079266302 0.23408785 10855839
0.7917037 0.08572112 0.23493154 10987424
0.78900003 -0.1512036 0.24839437 15196894
0.79176933 -0.15551813 0.24491647 12302260
0.7884838 -0.14538951 0.24438971 15131099
0.78790915 -0.13506399 0.24477968 15065563
0.78816676 -0.12521236 0.24444081 15131355
0.78774214 -0.1151522 0.24505268 15328734
0.78704 -0.10476631 0.24501343 15394783
0.78700012 -0.094956703 0.24480374 15328734
0.78621435 -0.084673032 0.24514964 15262942
0.78569996 -0.075159274 0.24551354 15196893
0.78463894 -0.064954892 0.24518077 15197150
0.78440011 -0.054834675 0.24510726 15197407
0.78469431 -0.04475157 0.24519791 15000028
0.78403354 -0.034620333 0.24499059 14736856
0.78283334 -0.025404453 0.24461485 14407891
0.77900004 -0.014336891 0.24950135 14342353
0.78208578 -0.015335706 0.2442506 14342098
0.77900004 -0.0061304523 0.24980529 14342352
0.7821334 -0.0052390704 0.24439679 14342097
0.78288901 0.00483516 0.24463497 14342352
0.78246695 0.014907212 0.2445035 14144973
0.78291678 0.024998486 0.24464229 13947594
0.78353328 0.035104927 0.24483363 14144973
0.77900004 0.04766731 0.24980529 14078667
0.78313893 0.045169547 0.24471007 14342095
0.77900004 0.055645801 0.24912143 14210253
0.7821483 0.054979499 0.24389304 14408145
0.77900004 0.062256534 0.24980529 14144458
0.78290009 0.064403974 0.24463797 14407888
0.7876786 0.074084163 0.24501345 12894651
0.79000002 0.079780273 0.24501038 10855839
0.79161537 0.085363142 0.24479921 10855839
0.78880006 -0.15208879 0.25479382 15065308
0.79141188 -0.15733494 0.25498265 10131091
0.78627592 -0.14503671 0.25473821 15065562
0.78457147 -0.13487257 0.25421104 15065562
0.78577429 -0.12500888 0.25488085 14933977
0.78622234 -0.11478093 0.25487947 15065819
0.78563315 -0.10457926 0.25468972 15131612
0.78543317 -0.095358685 0.25462431 15131356
0.78525704 -0.085358858 0.25469887 15197148
0.78328019 -0.074928075 0.25484475 15065562
0.78233343 -0.064763218 0.25453705 15065564
0.78224117 -0.054557368 0.25526381 15065564
0.78169698 -0.044996902 0.25499225 14933979
0.78154534 -0.035007399 0.25544292 14671064
0.7790001 -0.022725696 0.25564095 14210512
0.78059995 -0.026611269 0.25424704 14342098
0.77823341 -0.015234922 0.2550233 14276561
0.78000003 -0.019833278 0.25012597 14407891
0.77807993 -0.005212089 0.25497296 14276560
0.78000003 -0.0015733372 0.25012597 14408145
0.77883339 0.0046582702 0.25605676 14210767
0.78041679 0.005125036 0.25132474 14342352
0.77852172 0.01506899 0.25543523 13947595
0.78057152 0.014087255 0.25083128 14079180
0.77788901 0.024533533 0.2553148 13750215
0.7803334 0.025828386 0.25084153 13881801
0.77847826 0.035116438 0.25542095 13816008
0.78028578 0.034175772 0.25073931 14079180
0.77786678 0.044864904 0.25490275 13881544
0.78000003 0.042250518 0.25012597 14079180
0.77653366 0.054787796 0.25537443 13815752
0.77742869 0.062739506 0.25545201 13881544
0.78200001 0.068412222 0.25442633 14078665
0.78734785 0.074948274 0.25496513 12565428
0.79000002 0.079780273 0.25425741 10724253
0.78883332 -0.1520952 0.26496273 14671063
0.79093754 -0.15701559 0.26508969 9868175
0.78644443 -0.14519513 0.26508009 14868183
0.78293359 -0.13537884 0.26481217 14868183
0.78277797 -0.12527132 0.2647585 14670804
0.78408843 -0.11473696 0.26498488 14473939
0.78489286 -0.10500469 0.26508147 14473684
0.78383362 -0.09516561 0.26511633 14407891
0.78316694 -0.085000597 0.26488918 14276305
0.78290039 -0.074890584 0.26480076 14276305
0.78333366 -0.064845696 0.26494896 14473684
0.78215384 -0.054820802 0.26525348 14473684
0.77900016 -0.043880064 0.26567107 14276049
0.7802223 -0.048251599 0.26440278 14341841
0.77851611 -0.035434529 0.26587456 14078926
0.78000003 -0.034441229 0.26108193 14342353
0.77760714 -0.025039477 0.26515317 13749961
0.78000003 -0.028050251 0.26108193 13947594
0.77672261 -0.015204913 0.26452824 13816010
0.77730012 -0.0052069258 0.26472643 13947340
0.77786112 0.0048030335 0.26491752 13815753
0.77713341 0.014804665 0.26466957 13618629
0.7764169 0.024789527 0.26442504 13355457
0.77696687 0.034810796 0.26461381 13487043
0.77669483 0.044798028 0.26452121 13552836
0.77656007 0.054789953 0.26538575 13618629
0.77745461 0.063210204 0.26519477 13552580
0.78172737 0.068964221 0.26482132 13618116
0.78722215 0.075886965 0.26459005 11907499
0.79000002 0.079780273 0.26997736 10658460
0.79157698 0.085359797 0.26517019 10855839
0.78900003 -0.15151145 0.27456108 14539732
0.79178953 -0.15652189 0.27536911 10592410
0.78607416 -0.14505965 0.27490366 14736598
0.78185171 -0.13512383 0.27491969 14802390
0.7820667 -0.12515727 0.27459016 14605267
0.78389674 -0.11459626 0.27535993 14671061
0.78486663 -0.10453753 0.27471557 14407891
0.78348017 -0.09512303 0.27508533 14210512
0.78175759 -0.084599741 0.27497813 13947340
0.7790001 -0.073423244 0.27770719 14013133
0.78094995 -0.075251773 0.27346411 14144719
0.77900004 -0.066918887 0.27837583 14078669
0.78146666 -0.064203203 0.27449781 14013133
0.78131044 -0.054745745 0.27507961 14078926
0.77899998 -0.042473253 0.27429435 14078926
0.78052634 -0.046678912 0.27597249 13947596
0.77721202 -0.034984533 0.27519897 13881547
0.77479994 -0.025143767 0.27475682 13420996
0.77447218 -0.01515999 0.27464065 13684168
0.77526677 -0.0051929131 0.27492231 13947340
0.7760281 0.0047938558 0.27519247 13618888
0.7761789 0.014593412 0.27492341 13027263
0.77646679 0.024791157 0.27444232 13158592
0.77764016 0.034842778 0.27485749 13355458
0.77855992 0.044724878 0.27445331 13420996
0.78059995 0.045939218 0.27955672 13487559
0.77871442 0.054941542 0.27454197 13487302
0.78000003 0.055032477 0.27934185 13487302
0.77900016 0.062598467 0.27476656 13684423
0.78178579 0.067972198 0.27566475 13618886
0.787 0.074743897 0.27474201 12566201
0.79000002 0.079780273 0.27552557 10724253
0.78900003 -0.15120362 0.28533563 14407892
0.78551728 -0.14502631 0.28499371 14868184
0.78196412 -0.13527602 0.2849488 14934234
0.78261125 -0.12524398 0.28485766 14868184
0.78447068 -0.11479279 0.28531769 14736599
0.78434378 -0.10475253 0.28571582 14473684
0.7827 -0.095027544 0.28488782 14342098
0.77900004 -0.08363571 0.28992566 14473684
0.78127277 -0.085045539 0.28478411 14276305
0.77900004 -0.072693788 0.28171924 14013133
0.77999991 -0.075189732 0.28568476 14210512
0.77900016 -0.065601803 0.2838468 14276305
0.78030777 -0.062978499 0.28619668 14342098
0.78130776 -0.05447695 0.28508541 14013133
0.77890915 -0.042847328 0.28674185 14079183
0.78088242 -0.0467401 0.28460389 13881804
0.77669698 -0.035457522 0.284935 13881804
0.77418524 -0.024922023 0.28491181 13355459
0.77400011 -0.015150849 0.28534693 13684168
0.77483988 -0.0051900088 0.28474978 14210769
0.77563351 0.004792193 0.28504148 14210512
0.77688909 0.015005003 0.2850993 13684425
0.77813888 0.024844842 0.28505388 13158338
0.77893353 0.033440147 0.28357962 13290180
0.78000009 0.037137736 0.28609806 13290180
0.78000015 0.044989508 0.28481987 13487045
0.77900004 0.055691391 0.28956094 13749959
0.78012508 0.054965805 0.28471333 13684424
0.77900004 0.060432881 0.28992566 13816008
0.78150016 0.065434031 0.28502539 13881546
0.78734779 0.075028278 0.28493789 12894909
0.79040003 0.07982067 0.28491536 10658460
0.78862506 -0.15182438 0.29604581 13092033
0.79161918 -0.15673862 0.29461959 9999762
0.78499997 -0.14499885 0.29508308 14605783
0.77900004 -0.13348223 0.29681501 14736856
0.78071433 -0.13551655 0.29413009 14737112
0.7816875 -0.12532361 0.29492691 14670806
0.78312021 -0.11524411 0.29512507 14605013
0.7823751 -0.10483421 0.29518658 14605270
0.7790001 -0.092905946 0.29676434 14736856
0.78094453 -0.095930889 0.29369399 14605270
0.77856004 -0.0854109 0.29522881 14605270
0.7802 -0.084861539 0.29037228 14407891
0.77899992 -0.075689793 0.29559207 14605270
0.78000009 -0.07383053 0.29108042 14407891
0.77900016 -0.065138653 0.29591769 14605270
0.78009105 -0.064660124 0.29182565 14473171
0.77887511 -0.054752652 0.29610851 14736343
0.7802223 -0.055557925 0.29139498 14538964
0.77776015 -0.04526832 0.29492471 14144206
0.78000003 -0.048136182 0.29029784 14013133
0.77656692 -0.03520013 0.29447433 13946827
0.77539289 -0.025357153 0.29526183 13486789
0.7749331 -0.015169271 0.29566902 13618632
0.77486646 -0.0051910933 0.29473549 14276562
0.77561122 0.0047918991 0.29501769 14407891
0.77740747 0.01461162 0.29519507 14210512
0.77889645 0.024711577 0.29548281 13749960
0.78000003 0.029468562 0.29212382 13948364
0.7790001 0.03535765 0.29767618 13881546
0.77999997 0.034642212 0.29273251 13355716
0.77899998 0.045422815 0.29588765 13684166
0.78000009 0.043711312 0.29121083 13552580
0.77900004 0.05496192 0.29539669 13947594
0.78000003 0.053206485 0.29029784 13750215
0.77900004 0.060432881 0.29357296 13881801
0.78141385 0.065544985 0.29517585 13881801
0.78734612 0.075688675 0.29508698 12894907
0.79000002 0.079780273 0.29032081 10724253
0.78880006 -0.15208881 0.30465326 11644587
0.79106247 -0.15727191 0.30517879 9605005
0.78522229 -0.14497243 0.3051084 14736598
0.77900004 -0.13196252 0.30269122 14934232
0.7807368 -0.13586597 0.30577156 15000026
0.78129411 -0.12481719 0.30476597 14802648
0.78236687 -0.11513395 0.30491468 14802648
0.77900004 -0.10004858 0.30451488 14342098
0.78129029 -0.10559651 0.30470178 14671063
0.77899998 -0.094367199 0.30507606 14473684
0.78000003 -0.098351024 0.3012538 14802649
0.77895021 -0.086183213 0.30394846 14473684
0.78000009 -0.082525738 0.30734044 14407892
0.7790001 -0.073757589 0.30405897 14276562
0.77999997 -0.075472392 0.30555028 14407891
0.77860701 -0.065106928 0.30540162 14539990
0.78000003 -0.069135115 0.30399281 14868442
0.77747232 -0.055261891 0.30482554 14802649
0.77686685 -0.045214757 0.30458954 14802393
0.7769447 -0.035215404 0.3046205 14341586
0.77592003 -0.025180366 0.30512705 13092031
0.77427781 -0.015157387 0.30538714 13355718
0.77390015 -0.0051846947 0.30523828 14013134
0.77425003 0.0047831349 0.30537617 14473684
0.77572405 0.014843401 0.30467245 14210512
0.7774446 0.024824779 0.3048144 13881547
0.77900016 0.03408109 0.30424133 13684168
0.78000009 0.036511682 0.30725345 13749961
0.77900016 0.045337096 0.30279255 13749961
0.78016669 0.044390459 0.30755851 13684168
0.77900016 0.053979956 0.30269122 13881801
0.78041679 0.056127623 0.30704856 14013132
0.7819286 0.064716645 0.30520251 13815752
0.78732258 0.075056076 0.30497286 13224129
0.79076934 0.085556075 0.30519927 10724253
0.78883332 -0.1520952 0.31482133 11118246
0.79093754 -0.15701559 0.31508288 9538958
0.78529638 -0.144917 0.31507614 14605271
0.78093106 -0.13490774 0.31516641 14934235
0.78196782 -0.12528719 0.31500515 14736856
0.78316015 -0.11525035 0.31530848 14539477
0.78118193 -0.10465523 0.31500989 14473684
0.77900016 -0.093034536 0.31587765 14342098
0.77999997 -0.096159831 0.31440097 14342098
0.7790001 -0.085824087 0.31655103 14144719
0.77999997 -0.084490068 0.31386977 14407893
0.77865386 -0.074906528 0.31580693 14078927
0.78000003 -0.076804295 0.31111416 14144721
0.77700013 -0.065232083 0.31485578 13749963
0.77636695 -0.055182885 0.31438968 14276307
0.77607167 -0.044973902 0.3148548 14671063
0.77577811 -0.035163566 0.31505835 14539477
0.77466679 -0.025139363 0.31460676 13092032
0.77340019 -0.015139957 0.31499851 12960703
0.77304006 -0.0051785125 0.3148528 13487307
0.7736668 0.0047793044 0.31510714 14342614
0.77443469 0.015385536 0.31376442 14276562
0.77566671 0.024767566 0.31501347 13881804
0.77809101 0.034117952 0.31574917 13749961
0.78000009 0.037555106 0.31220978 13684168
0.77900004 0.040980581 0.31849623 13881547
0.78054553 0.045381986 0.31480831 13815754
0.78113341 0.055113148 0.31540567 13947596
0.7822727 0.065017805 0.31544879 13947082
0.78720683 0.075690433 0.31477502 13355202
0.78900003 0.081526354 0.31765926 10592411
0.79080009 0.085639067 0.31490296 10592924
0.78860009 -0.15205047 0.32488316 10460313
0.79118752 -0.15718114 0.32502255 9539470
0.78561538 -0.14511392 0.32492608 14539222
0.78223091 -0.13539807 0.32571146 14868442
0.78288579 -0.12515627 0.32540861 14605270
0.78303355 -0.11523292 0.32533732 14342355
0.7790001 -0.10170645 0.3252382 14342098
0.78095454 -0.10670006 0.32430655 14342098
0.77900016 -0.095793404 0.32335928 14210512
0.78020012 -0.092896618 0.32690197 14144720
0.7790001 -0.083453335 0.32366323 14210512
0.78013331 -0.086923219 0.32565641 14210512
0.77788889 -0.075324424 0.32502115 14210512
0.77700025 -0.065231271 0.32480803 13947341
0.77697253 -0.055224918 0.32463965 13684170
0.77648163 -0.045395818 0.32493922 14210256
0.77499986 -0.034983404 0.32489771 14276305
0.77393347 -0.025114708 0.32518181 13618376
0.7730003 -0.01513127 0.32478964 12960445
0.77290004 -0.0051781526 0.32474709 13157825
0.77261114 0.0047723944 0.32462469 13881550
0.77353352 0.014738343 0.32501242 14539478
0.77469695 0.024489271 0.32508945 14276306
0.77641404 0.034912203 0.32456112 13947340
0.77744108 0.044628575 0.32509926 13881547
0.78000003 0.048641495 0.32133973 13881547
0.77840012 0.054919969 0.32614514 13947340
0.78000003 0.055032481 0.32133973 13881547
0.77881265 0.062697753 0.32631943 14013389
0.78115791 0.067147009 0.32364419 14013389
0.78586215 0.075562045 0.32489312 13618630
0.78900003 0.082054086 0.3258391 10394774
0.79060012 0.086782448 0.32487375 10658460
0.78900003 -0.15146747 0.33586603 9671569
0.79152381 -0.15645516 0.33508712 9276556
0.78639281 -0.14511938 0.33521548 14341843
0.7826001 -0.13532282 0.33523515 14999772
0.78169447 -0.12509875 0.33575872 14539478
0.78132153 -0.1150464 0.33527341 14276306
0.77900016 -0.1051548 0.33150491 14276305
0.78011763 -0.10470355 0.33675054 14210512
0.77900004 -0.09822493 0.33004603 14210514
0.780577 -0.09441793 0.33493069 14276305
0.77833325 -0.0846285 0.33492485 14210513
0.78000003 -0.088612385 0.33260003 14144719
0.77630591 -0.07516899 0.3352637 14407891
0.77626699 -0.06516923 0.33524719 14473685
0.77658355 -0.055197474 0.33538312 14605271
0.77583331 -0.045155622 0.33505961 14473685
0.77471417 -0.035245176 0.33470619 14407891
0.77380008 -0.02511063 0.33508813 14210512
0.7731002 -0.015133811 0.33478591 13749961
0.77224135 -0.0050504864 0.33516118 13749961
0.77108324 0.0047630565 0.33481362 13684682
0.77227598 0.014590748 0.33517534 14210770
0.77415156 0.024965668 0.33474532 14342099
0.77526665 0.034735497 0.33481535 14078927
0.77586132 0.044751391 0.33507264 13881549
0.77704024 0.054825131 0.33467293 13815755
0.77857161 0.06317798 0.33463857 13881804
0.78100014 0.068567283 0.33504871 14145232
0.78577781 0.075748719 0.33509663 13355972
0.78900003 0.082449883 0.33520636 10526874
0.79040009 0.087222658 0.33487523 10527131
0.78863645 -0.15230931 0.34554145 9210760
0.79058826 -0.15717024 0.34486195 9342602
0.78592324 -0.14509922 0.34493673 14276306
0.77900004 -0.13105069 0.34554708 15000028
0.78139997 -0.13555443 0.34430608 14868442
0.77899992 -0.12466792 0.34463528 14736856
0.77900016 -0.11520772 0.346003 14473684
0.78036368 -0.11384206 0.34224841 14342098
0.77900004 -0.10916685 0.34645891 14407891
0.78068763 -0.10431924 0.34458163 14342098
0.77900004 -0.091614187 0.34531912 14407891
0.78059995 -0.096234664 0.34424621 14342098
0.77690011 -0.085231401 0.34461319 14342098
0.77508825 -0.074838057 0.34535748 14276305
0.77456665 -0.065026753 0.34539163 14473684
0.77430558 -0.055036031 0.34527409 14934235
0.77403343 -0.045049846 0.34515303 14934235
0.77336138 -0.035054639 0.344854 14539735
0.77231252 -0.025005689 0.34478033 14013648
0.77242142 -0.014931056 0.34476703 13882062
0.76855558 -0.004149823 0.34801042 13948112
0.77095455 -0.005740406 0.34386304 13948112
0.76866668 0.0021986633 0.34681073 14079698
0.77020854 0.0060350182 0.34412622 14013905
0.77159262 0.014702512 0.34496933 14079698
0.77330583 0.024691302 0.34483057 14276564
0.77437925 0.03463345 0.34515348 14210770
0.77593338 0.044757836 0.34509525 14144719
0.77818519 0.054703981 0.34468064 13947340
0.7790001 0.061709434 0.34445289 13881545
0.78133339 0.066888154 0.34505719 13947338
0.78666669 0.075841218 0.34488085 14079181
0.78900009 0.082869671 0.34452561 10460825
0.79023534 0.087204263 0.34547147 10658460
0.79192001 0.094808079 0.34479043 10658717
0.78870004 -0.15225436 0.35372755 9145223
0.79059994 -0.15694048 0.35581368 9276811
0.78642315 -0.14526223 0.35471725 14210513
0.77900004 -0.13105069 0.35101801 14868442
0.78140008 -0.13540907 0.3550624 14802650
0.77900016 -0.12527578 0.3521325 14868442
0.78013331 -0.12466606 0.35731214 14671065
0.7790001 -0.11430626 0.35333899 14671063
0.78000009 -0.11569797 0.35877264 14671063
0.77900016 -0.10612742 0.35618502 14539477
0.78040004 -0.10266366 0.35317066 14473684
0.77840006 -0.093631677 0.35522857 14407891
0.78016669 -0.097763382 0.35276082 14407891
0.77556676 -0.0850849 0.35491645 14276305
0.77400005 -0.075172938 0.35476604 13947340
0.77292877 -0.06469626 0.35519561 14276305
0.77219445 -0.054886177 0.35517958 14671063
0.77186668 -0.044923902 0.35502857 14934235
0.76836371 -0.031638756 0.35660747 14407892
0.77107424 -0.035987545 0.35382915 14605272
0.76757705 -0.024562828 0.35547432 14013392
0.7704286 -0.026546072 0.35114866 14211028
0.76694137 -0.014591977 0.35545498 13750476
0.7705 -0.016886085 0.35079482 13684939
0.76534295 -0.0051288069 0.35471323 14079441
0.76587808 0.0046245866 0.35482922 14079440
0.76810008 0.012117061 0.35653371 14013903
0.77071446 0.015801812 0.35377014 14013904
0.77296883 0.024455406 0.3549726 14013904
0.77438462 0.034765728 0.35507435 14145490
0.77586126 0.044753082 0.35505226 14144719
0.77800006 0.055088434 0.3545334 14210511
0.77900016 0.062621281 0.35484767 14079180
0.78164291 0.068351395 0.3541691 14079180
0.78728575 0.075824179 0.35475057 14145232
0.78900003 0.081526354 0.35090637 10263702
0.78900003 -0.15120362 0.36475933 9013384
0.791381 -0.15616201 0.36519867 9276556
0.7864483 -0.14500786 0.36494061 14013392
0.77899998 -0.13209277 0.36651906 14802393
0.78109092 -0.13605841 0.36409381 14736856
0.77886683 -0.12653022 0.36645585 14605270
0.78063166 -0.12324495 0.36343881 14605271
0.77886677 -0.11303817 0.36633411 14473685
0.78016669 -0.11633193 0.36402407 14539478
0.77815628 -0.10506441 0.36498019 14473686
0.77626485 -0.094889313 0.36485487 14342100
0.77426666 -0.084941491 0.36519697 14144721
0.77316684 -0.074865684 0.36467838 13947341
0.76900005 -0.060959164 0.36901507 13948112
0.77160013 -0.06496083 0.36502126 14013135
0.76866668 -0.053495791 0.36717507 14605528
0.77038109 -0.055572923 0.36315009 14539478
0.76900005 -0.045207042 0.36766493 14868443
0.77027786 -0.044530656 0.36301586 14868442
0.76796567 -0.033850584 0.3655414 14539477
0.77012503 -0.038287211 0.36301938 14802649
0.76573342 -0.024849784 0.36475724 14079182
0.76511753 -0.015187941 0.36472815 13750731
0.76436007 -0.0051219552 0.36499989 14079954
0.7647419 0.0048709228 0.36500877 13948369
0.76739293 0.014174202 0.36522645 14013905
0.77000004 0.018275257 0.36318588 13948111
0.77240562 0.024641071 0.36507523 13948111
0.77464283 0.034513645 0.36505127 14145489
0.7760002 0.044759564 0.36510786 14211025
0.77710366 0.054704197 0.36456054 14144719
0.778889 0.061437402 0.36363056 14013132
0.78183341 0.066247724 0.36500418 14144716
0.78719991 0.07526426 0.3652159 14342352
0.78900003 -0.1512036 0.37491822 8881796
0.79152387 -0.15627845 0.37496915 9145225
0.78524148 -0.14510316 0.37490201 13882062
0.77896154 -0.13420042 0.37498757 14737113
0.78000003 -0.1380664 0.37338054 14802649
0.77893925 -0.12479602 0.37461361 14539477
0.7774688 -0.11475624 0.37489638 14408147
0.77586681 -0.10509636 0.37503344 14408148
0.77465713 -0.095088214 0.37457812 14407892
0.77326685 -0.084831409 0.37558752 14144977
0.7719444 -0.074748367 0.37494409 13816269
0.76831251 -0.063154235 0.37666523 13881806
0.77040011 -0.066361159 0.37377366 13816526
0.76694888 -0.054627981 0.37484032 14342613
0.76719356 -0.044825003 0.37457728 14868700
0.76641679 -0.034741253 0.3749488 14539992
0.76466674 -0.024815641 0.3749887 13947854
0.76323819 -0.014941077 0.3751803 13816782
0.76327282 -0.00516704 0.37487334 14145748
0.7633093 0.0047146929 0.37521487 14277334
0.76547068 0.014957391 0.37532794 14211540
0.7686429 0.022613393 0.37604046 14079697
0.77119052 0.026730061 0.37427601 14145489
0.77293754 0.034801383 0.37502784 14277075
0.7748462 0.044485476 0.3750253 14277076
0.77733344 0.054847058 0.37537637 14342356
0.77900004 0.061040763 0.37867677 14276305
0.78259271 0.064922988 0.37512958 14276304
0.78733331 0.074991114 0.37518632 14341837
0.78900003 0.081526354 0.37491822 12368305
0.79134786 0.086523958 0.37482205 10460826
0.78872734 -0.15215883 0.38603446 9013640
0.79147375 -0.15694596 0.38447896 9079688
0.77900004 -0.14016895 0.38840294 14211284
0.78392869 -0.14473377 0.38482645 13553099
0.77900004 -0.134546 0.38490757 14605784
0.78000003 -0.13852289 0.38159755 14736856
0.77873075 -0.12539715 0.38483268 14408405
0.77658844 -0.11540755 0.38474011 14211282
0.77531999 -0.10502229 0.38475278 14211282
0.7743333 -0.094671771 0.38475776 14211027
0.77272004 -0.084771834 0.38527218 14079185
0.77079999 -0.075238861 0.38491535 13881806
0.76645958 -0.064934716 0.38505599 13882319
0.76267737 -0.055218469 0.3845222 14145491
0.76342857 -0.045325134 0.38420555 14671580
0.76328194 -0.034805004 0.38454592 14540250
0.76193327 -0.024725616 0.3843497 14013905
0.76116645 -0.01489983 0.38485637 13948369
0.76159245 -0.0050355089 0.38467431 14145748
0.76126653 0.0047015459 0.38490674 14211541
0.7632162 0.015752668 0.38477963 14211541
0.76726681 0.025397697 0.38524416 14145748
0.77000004 0.02909076 0.38031045 14408661
0.76900005 0.031573322 0.38737756 14145748
0.77056015 0.035102021 0.38448265 14408662
0.7729395 0.044831585 0.38488707 14342869
0.77465516 0.054594509 0.38479605 14342612
0.77690643 0.064421803 0.38513926 14144975
0.78125012 0.067695156 0.38152197 14210511
0.77900004 0.071374804 0.38749111 13948365
0.78517252 0.075622767 0.38456535 14210769
0.78874999 0.082424052 0.38495418 11841966
0.79106253 0.087412491 0.38481003 10395288
0.78823525 -0.1530122 0.39539459 9013385
0.79063642 -0.15808012 0.39470845 9079176
0.77900004 -0.14016895 0.39205027 14211284
0.78320837 -0.14520957 0.39492878 12763584
0.77900016 -0.13437617 0.3924793 14606042
0.78050011 -0.13564239 0.39760187 14540249
0.77893764 -0.12477209 0.39258873 14211284
0.78063643 -0.12584502 0.39735997 14211284
0.77770013 -0.11453885 0.39385569 14079955
0.78000003 -0.1141763 0.39924884 14211541
0.7769168 -0.10508674 0.39449093 14145490
0.78000003 -0.10930698 0.39985749 14277077
0.77525002 -0.095161498 0.39437774 14145234
0.77340013 -0.084846884 0.3946645 13948112
0.76900005 -0.071760617 0.39421847 13750733
0.7711305 -0.076200344 0.3950758 13684940
0.76634628 -0.065376803 0.39430776 13619404
0.76304764 -0.054872662 0.39397922 13882835
0.76368177 -0.045338955 0.39393646 14343130
0.76349998 -0.03460693 0.39318979 14277080
0.7626667 -0.024749724 0.39276057 14013908
0.76318175 -0.014612614 0.39367878 13816530
0.76389998 -0.0051166499 0.39429411 13948372
0.76382357 0.0044568432 0.39325181 13817555
0.77000004 0.0092623364 0.39833626 13619921
0.76518178 0.015067991 0.39307728 13685711
0.77120006 0.014695292 0.39895704 13685714
0.76691675 0.024186693 0.39285317 13619917
0.77175003 0.025315266 0.39811411 13554640
0.76900005 0.031453308 0.39121807 13816783
0.77258825 0.035148226 0.39552942 13750992
0.77437496 0.044667948 0.39425787 13882577
0.77615786 0.054761894 0.3942571 13882321
0.77706259 0.063808583 0.39289632 13816784
0.78125006 0.067238659 0.39775577 13817042
0.77900004 0.071374804 0.3902266 14342100
0.78527296 0.076049924 0.39478824 11447980
0.78860009 0.082408562 0.39503598 10132376
0.79094118 0.087174349 0.39500982 10395288
0.78833336 -0.15353793 0.40433422 9013641
0.79000002 -0.15826447 0.40577644 9211019
0.78509086 -0.14519463 0.40480903 12566207
0.78439122 -0.13490868 0.40498778 14276823
0.78528565 -0.12501639 0.40519932 13882064
0.78505003 -0.11525141 0.40566778 13553099
0.77900004 -0.10004859 0.4011685 14014162
0.78333336 -0.10488512 0.40523675 13750991
0.77812505 -0.093788981 0.40185711 13816783
0.78290004 -0.095600791 0.40721074 13356491
0.77584618 -0.0846963 0.40289932 13750733
0.78033334 -0.086215854 0.40794411 12434873
0.77522218 -0.075066335 0.40467095 12171445
0.7741251 -0.065103009 0.40534556 11974840
0.7735557 -0.054980159 0.40561303 12830407
0.7735455 -0.044693362 0.40445292 14080729
0.773 -0.035036948 0.40351206 13883094
0.7730667 -0.025086431 0.4035469 13685458
0.77338469 -0.01576367 0.40412882 13553359
0.77388901 -0.0047812108 0.4047778 12895171
0.77394456 0.0047836867 0.40400407 12172477
0.77520007 0.014405598 0.40393248 12830406
0.78033334 0.015477185 0.40916219 8817032
0.77570009 0.024219308 0.40328494 12106939
0.78300005 0.029581904 0.4087275 8882827
0.77700007 0.033906747 0.40195751 13751250
0.78316671 0.035698254 0.40698263 9869722
0.778 0.041232698 0.40065348 13882323
0.78431249 0.045698188 0.40597373 11974583
0.78505558 0.055695847 0.40551785 11382449
0.78588247 0.064322859 0.40514967 10922148
0.78780001 0.075429581 0.40452158 10198682
0.78900003 0.081895769 0.40299359 10001302
0.79066676 0.086371794 0.40541267 10264475
0.78900003 -0.15268126 0.41149005 9803157
0.79068422 -0.15600884 0.41536978 10066327
0.78843749 -0.14521298 0.41352791 10658724
0.79000002 -0.14492233 0.41792968 10066329
0.78846663 -0.13559528 0.4130584 11053225
0.79028571 -0.13400574 0.41755241 9934998
0.78900003 -0.12534472 0.41185945 10065045
0.79100007 -0.12531452 0.41672415 9868692
0.78874999 -0.11515027 0.41265249 9999510
0.79045451 -0.11497822 0.41716143 9934742
0.78813338 -0.10491276 0.41325352 10592673
0.79000002 -0.10516014 0.41792971 10000536
0.78784209 -0.094972111 0.41504309 9934742
0.79000002 -0.094988421 0.41977909 9934996
0.78594732 -0.084962539 0.41501689 9737361
0.78566664 -0.07515578 0.41564265 9606290
0.7849232 -0.065331168 0.41595447 9540499
0.7847001 -0.054853618 0.41604751 9671572
0.77900004 -0.045338996 0.41028675 11514804
0.78625005 -0.044840157 0.41686821 9606036
0.78506255 -0.035006847 0.4152092 9606550
0.785375 -0.025139796 0.41560462 9343634
0.77900004 -0.013425065 0.41028675 8948620
0.78576922 -0.015589844 0.41612026 9014669
0.77900004 -0.005218626 0.41028675 8947848
0.78610003 -0.0052664247 0.41678888 9145741
0.77900004 0.00025233286 0.41028675 9079177
0.78511769 0.0051207407 0.41546026 9211532
0.78630769 0.014697339 0.41527227 9146251
0.79000002 0.015975831 0.41977909 9146250
0.78671426 0.024594063 0.41382632 9277068
0.79075003 0.027100008 0.41832644 9277066
0.78800005 0.035715684 0.41236338 9211790
0.79149991 0.03484492 0.4171797 9408908
0.78816676 0.043922316 0.41173235 9342862
0.79164284 0.044997968 0.41707996 9475215
0.78900003 0.054743942 0.41185948 9672084
0.79105556 0.054886363 0.4166379 9737874
0.78900003 0.064902782 0.41093597 9803924
0.79088241 0.065383978 0.41611123 9738387
0.78900003 0.073214568 0.41001242 9869973
0.79100007 0.07553608 0.41532707 9935766
0.79088014 0.085424282 0.41469339 10264730
0.79090005 -0.0052993996 0.42488775 9277837
0.78900003 0.0030261669 0.42109478 9343629
0.79052186 0.0050836508 0.42512649 9343629
