# .PCD v0.7 - Point Cloud Data file format
VERSION 0.7
FIELDS x y z rgb
SIZE 4 4 4 4
TYPE F F F U
COUNT 1 1 1 1
WIDTH 1086
HEIGHT 1
VIEWPOINT 0 0 0 1 0 0 0
POINTS 1086
DATA ascii
0.78900003 -0.13088591 0.12925881 13486789
0.78900003 -0.12534472 0.12925881 12762808
0.79207152 -0.12490596 0.12419528 12303284
0.78900003 -0.11518588 0.12925881 12171696
0.79253864 -0.11498698 0.12440939 12238004
0.78900003 -0.10595056 0.12925881 12172469
0.78900003 -0.091174051 0.12925881 13422793
0.78862506 -0.083977304 0.12850472 13225413
0.78850007 -0.075426191 0.12825336 13290177
0.78855562 -0.066200875 0.12857029 14276559
0.78900003 -0.05515632 0.12925881 15198174
0.7881667 -0.04372111 0.12789129 14211793
0.7860952 -0.034186535 0.12693563 12896447
0.79216677 -0.03544217 0.12189379 11383464
0.78553855 -0.024923559 0.12691487 12567483
0.79242849 -0.024786694 0.1218677 11053731
0.78504544 -0.014948387 0.12785202 13027778
0.7923333 -0.01458228 0.12238152 10790559
0.78540003 -0.0052612661 0.1277422 13027522
0.79273337 -0.0053100036 0.12244299 10790302
0.77825004 0.0066266819 0.12931956 13487558
0.78550005 0.0048523927 0.12653229 12698041
0.79235715 0.0043621366 0.12185651 11053215
0.77727276 0.015138519 0.12799774 13750729
0.78557897 0.014771733 0.12394879 11776424
0.79040003 0.015057345 0.12023644 10856091
0.77661109 0.024794273 0.12722646 13553607
0.78620833 0.025100963 0.12235302 11316130
0.77633339 0.034782268 0.12718132 13553607
0.785375 0.034956913 0.12291392 11645095
0.79000002 0.036319278 0.1201756 11053218
0.77678573 0.044285495 0.12777549 13553609
0.78526312 0.045049742 0.12409258 12566713
0.79099995 0.045316529 0.12063596 11119011
0.77820003 0.053448904 0.12894654 13092288
0.78533328 0.055495389 0.12584855 13487817
0.79150009 0.054917395 0.12132847 10921890
0.78711766 0.063992761 0.12699513 13158595
0.79150003 0.065769933 0.12225436 10987682
0.78900003 0.070443973 0.12925881 10921889
0.78853339 -0.1434845 0.13607258 14013389
0.79038465 -0.14719966 0.13347006 14144718
0.78703028 -0.13502681 0.13546324 14670806
0.78545171 -0.12495856 0.13525294 14605012
0.78530288 -0.11506296 0.13482802 14671317
0.78503036 -0.10499788 0.13528228 14605780
0.78550005 -0.095022283 0.13488282 14539989
0.78337502 -0.085022651 0.13474762 14473940
0.77837509 -0.074915037 0.13685647 13684423
0.78331262 -0.075158946 0.13221943 14671831
0.77773345 -0.065292515 0.1365149 13618629
0.78405267 -0.064662948 0.13230777 14671831
0.77885723 -0.057572532 0.13749495 13552836
0.78392011 -0.054361928 0.13414241 14211023
0.78342432 -0.045097917 0.1345071 14013643
0.77830011 -0.033730343 0.13524912 13223871
0.78140008 -0.037977587 0.13386299 13948107
0.77675027 -0.02501158 0.13510688 12829370
0.7759167 -0.015189243 0.13528603 12697529
0.77566653 -0.0051962952 0.13524225 12500664
0.77541667 0.00478891 0.13520068 12434614
0.77496654 0.014763775 0.13512468 12171442
0.77450007 0.024728106 0.13504404 11974063
0.77465522 0.034582116 0.1349158 12105392
0.77496666 0.044700012 0.13421819 12171185
0.77574086 0.054665193 0.13475454 12039599
0.778 0.060876347 0.13448076 12039343
0.78445458 0.065703221 0.13493842 12236978
0.78855562 0.071225211 0.13513401 10921632
0.79187506 0.076032333 0.13506001 10855839
0.79268003 -0.15510724 0.1450019 11841708
0.78821427 -0.14551957 0.14514391 14276560
0.79000002 -0.14954583 0.14051905 13882317
0.78519237 -0.13555899 0.14531969 14408145
0.78296578 -0.12514529 0.14464077 14342352
0.78303856 -0.11501925 0.14492382 14013387
0.78399992 -0.10511858 0.1448352 13750215
0.78503996 -0.095311403 0.14515439 13684422
0.78299999 -0.084985018 0.14477658 13618629
0.77880001 -0.073769554 0.14144425 13487043
0.78113341 -0.075210318 0.14613603 13552579
0.77831578 -0.065149769 0.14285369 13552836
0.78036368 -0.064185239 0.14760765 13552836
0.77875006 -0.058997162 0.14125289 13487043
0.78182608 -0.054333895 0.14479564 13487043
0.78303355 -0.044657774 0.14477929 13355200
0.77875006 -0.03210764 0.14079697 12894906
0.78118187 -0.034744434 0.14526853 12894650
0.77788895 -0.025041165 0.14372863 12500149
0.78033346 -0.026337299 0.14874583 12697527
0.7767241 -0.015048331 0.14530887 12499894
0.78000003 -0.019833278 0.14969629 12565941
0.77616012 -0.0051995073 0.14532776 12499894
0.77680027 0.0047996719 0.14544763 12368308
0.77652007 0.014792996 0.14539394 12105136
0.77610028 0.024779255 0.14531454 12039343
0.77761549 0.034982145 0.14538875 12170929
0.77852774 0.044903979 0.14485973 12302771
0.77837038 0.054849785 0.14499943 12500406
0.78000003 0.058684465 0.14969629 12828859
0.77900004 0.060432881 0.14129794 12434355
0.78426087 0.064840071 0.14524554 12631734
0.78850007 0.071322866 0.14486699 10921887
0.79168755 0.076130442 0.14487223 10856094
0.7927084 -0.155323 0.15522675 11578537
0.78800005 -0.14548007 0.15492092 14473681
0.78590006 -0.13497184 0.15450972 14473682
0.78548014 -0.12478551 0.15442875 14408145
0.78656667 -0.11482864 0.15464275 14408145
0.78760004 -0.1048402 0.15484403 14144973
0.78783339 -0.094728805 0.15488863 14013130
0.78592002 -0.084380701 0.15451348 13881288
0.78377771 -0.074771754 0.15450214 13749959
0.78276473 -0.064800233 0.15508023 13749447
0.7821666 -0.054678552 0.1546896 13683911
0.78230554 -0.044615593 0.15471679 13618374
0.78258634 -0.034680791 0.1549332 13223871
0.78325003 -0.025341129 0.15567198 12763320
0.77900004 -0.013425065 0.15132803 12565686
0.7826156 -0.01560257 0.15626201 12697527
0.77900004 -0.005218626 0.15132803 12631480
0.78164995 -0.0052366126 0.1564202 12829114
0.77899998 0.0044206828 0.15158854 12565687
0.78143477 0.0049450304 0.15649615 12763321
0.77856261 0.01540209 0.15340847 12368308
0.78100008 0.013863658 0.15801491 12763066
0.77800018 0.024840014 0.15386778 12368308
0.78033334 0.024912661 0.15889412 12565687
0.77880013 0.034893252 0.15311281 12565431
0.78030008 0.034959752 0.15797433 12763066
0.77900016 0.045296557 0.15351644 12697016
0.78030008 0.044275597 0.15815693 12828859
0.77900004 0.052454405 0.15337965 12762553
0.78070587 0.056266706 0.15606725 12828603
0.78464288 0.064354405 0.15485048 12631736
0.78900003 0.07136751 0.15511768 10592923
0.79170591 0.076357022 0.15499461 10724765
0.79285204 -0.1558674 0.16474168 11578281
0.78832138 -0.14567058 0.16487157 14539219
0.78761131 -0.13526461 0.16498719 14473426
0.78803337 -0.12519056 0.1650756 14407633
0.7885555 -0.11512041 0.16518493 14407889
0.78863323 -0.10497845 0.16520105 14473426
0.78811115 -0.094761759 0.1650909 14341839
0.78770006 -0.08457046 0.16500561 14144717
0.78689277 -0.075470269 0.16516671 14013387
0.78549987 -0.065027259 0.16546515 13947594
0.78384012 -0.054796081 0.16511592 13947083
0.78416669 -0.044720773 0.1651849 13749961
0.78548002 -0.03468217 0.16545983 13552582
0.78663349 -0.024850583 0.16564147 13223617
0.78626907 -0.01468362 0.1654852 12960700
0.78527999 -0.0052614463 0.16541843 12960700
0.78433359 0.0048428457 0.16521955 12960699
0.78272009 0.014911121 0.16487993 12763321
0.78209996 0.024969645 0.1647484 12565687
0.78195989 0.035034362 0.16471796 12763067
0.78166664 0.045085248 0.16465646 12894653
0.78127998 0.055124097 0.16457453 13157824
0.78437036 0.064731605 0.16481493 13421509
0.78846663 0.072489232 0.16682607 10461338
0.79079998 0.077147044 0.16448058 10856096
0.78886938 -0.14419331 0.17532656 15262687
0.79000002 -0.14917597 0.17713726 15196894
0.78885162 -0.13496445 0.17519778 14999515
0.78899986 -0.12626825 0.17461443 14736343
0.79000002 -0.12312579 0.17777133 14736343
0.78900003 -0.11444703 0.17248008 14539220
0.79025006 -0.11573796 0.17719401 14605270
0.78899992 -0.10502703 0.17358831 14539219
0.79000002 -0.10516014 0.17843184 14539477
0.78886187 -0.094692923 0.17527789 14473683
0.79000002 -0.099611931 0.17935653 14473684
0.78812003 -0.084615327 0.17524019 14276560
0.78795838 -0.075297713 0.17512701 14276304
0.78693336 -0.065145962 0.17497635 14210511
0.78619993 -0.054959938 0.17481336 14144718
0.78653324 -0.044856098 0.17488784 13947595
0.78676003 -0.034739636 0.17493835 13684423
0.78740013 -0.024628412 0.17508031 13355203
0.78760004 -0.014495356 0.17512541 13223617
0.78724009 -0.0052750437 0.17504553 13223617
0.78599995 0.0048529059 0.1747694 13157824
0.78523988 0.014959787 0.17460082 12894906
0.78393346 0.025027364 0.17431071 12631736
0.78323102 0.035091117 0.17436542 12763324
0.78293771 0.045387708 0.17443286 12697274
0.78269982 0.055222824 0.1749534 12565687
0.78442311 0.064388901 0.17463098 13157567
0.78822219 0.072836637 0.17495485 10526874
0.79049999 0.078509606 0.17537311 10724510
0.78899986 -0.14298418 0.18430129 15262687
0.79000002 -0.14843619 0.18564451 14933722
0.78899986 -0.13496889 0.18369858 15196894
0.79000002 -0.13351768 0.18798707 15065308
0.78900003 -0.12903886 0.1819001 14867929
0.79039299 -0.12430894 0.18519525 14867929
0.79175997 -0.11466139 0.18531813 14670807
0.79136002 -0.10534192 0.18522497 14539477
0.78900009 -0.091929674 0.18332739 14407891
0.79026324 -0.096724756 0.18574581 14473684
0.78891981 -0.084701121 0.18465225 14407891
0.78810722 -0.075191379 0.18505505 14276305
0.78669447 -0.065126821 0.18505162 14342098
0.78616661 -0.05495755 0.18492793 14342098
0.78708345 -0.044886902 0.18514417 14144719
0.78780001 -0.034785725 0.18531308 13881547
0.78791672 -0.024645733 0.18533987 13486790
0.78800005 -0.014502531 0.18535899 13355203
0.78800005 -0.0052789184 0.18535903 13355203
0.78747243 0.0048625912 0.18523641 13289410
0.78713334 0.014996514 0.18515779 13026237
0.78644431 0.025107777 0.18499595 12828858
0.78568953 0.035201136 0.18497653 12960445
0.78576475 0.045106087 0.18510604 12894652
0.78551996 0.055421188 0.18569694 12762809
0.78641379 0.064819843 0.18514635 13025979
0.78863645 0.071586914 0.18425021 10526615
0.79114288 0.076325469 0.18543793 10593179
0.79070616 -0.14483503 0.19498004 15065308
0.79053372 -0.13484158 0.19520974 15065308
0.79036391 -0.12505604 0.19491348 14868442
0.79072756 -0.11501629 0.19550572 14802649
0.79120004 -0.10531926 0.19537014 14736856
0.78900003 -0.090250522 0.19113541 14473684
0.79038268 -0.095308006 0.19538826 14605270
0.78899974 -0.084709339 0.19482957 14473684
0.78851843 -0.075634487 0.19522342 14407891
0.78766668 -0.065205656 0.19542363 14407634
0.78772002 -0.055066194 0.19543758 14407891
0.7881667 -0.044949755 0.19554745 14276305
0.78808004 -0.034798101 0.19552518 14013133
0.78806674 -0.024650432 0.19552155 13684168
0.78800005 -0.014502531 0.19550496 13486789
0.78800005 -0.0052789189 0.19550495 13552582
0.78800005 0.0048670536 0.19550499 13420997
0.78800005 0.015013027 0.19550501 13223617
0.78800005 0.025158999 0.19550498 13026492
0.78776008 0.035293743 0.1954464 13158079
0.78706682 0.045396421 0.19527368 13289409
0.78628016 0.055474814 0.19507831 13091774
0.78748012 0.064780094 0.19537674 13092287
0.78900003 0.07070785 0.19416988 12434357
0.79142863 0.075251423 0.19520795 10526618
0.78900009 0.14566982 0.19860759 11316646
0.79180956 0.14466307 0.19388685 11316390
0.78900003 0.15386966 0.19883151 11382437
0.79132134 0.15540244 0.19427447 11382438
0.79176676 0.16522214 0.19550882 11448230
0.79100025 -0.14533828 0.20515946 14933722
0.7904802 -0.13483295 0.20537159 14933722
0.78900003 -0.1238055 0.20806684 14867929
0.79000002 -0.12599026 0.20427479 14933722
0.78899974 -0.11492201 0.20525229 14933979
0.79000002 -0.11903067 0.20154938 15065308
0.78900003 -0.10810546 0.20652761 14934235
0.79000002 -0.10418675 0.20476148 14868442
0.78900003 -0.090250522 0.20775899 14342868
0.79000026 -0.095318682 0.20505002 14671063
0.7889998 -0.084709331 0.20498839 14473941
0.78883988 -0.075459279 0.2049474 14408147
0.78866661 -0.06528727 0.2049031 14408147
0.7889598 -0.05515334 0.20497818 14408148
0.78896642 -0.04499577 0.20497958 14342354
0.78828001 -0.034807209 0.2048007 14144719
0.78803337 -0.024649739 0.20473716 13881547
0.78800005 -0.01450253 0.20472856 13749961
0.78800005 -0.0052789189 0.2047286 13684168
0.78800005 0.0048670536 0.2047286 13684169
0.78800005 0.015013027 0.20472859 13486789
0.7879678 0.025306549 0.20489852 13355201
0.7877931 0.035295453 0.2054369 13421251
0.78708357 0.045397595 0.2054114 13552581
0.78669989 0.055506445 0.20531265 13487044
0.78807998 0.064828798 0.20475005 13289923
0.78900003 0.070443973 0.20406485 13619403
0.7915653 0.075268522 0.20533189 10724511
0.78900003 0.13878532 0.20314133 11382183
0.7918666 0.1340954 0.20505317 11316390
0.78833324 0.14512652 0.20481592 11316390
0.7886799 0.15534687 0.20490544 11382437
0.78900003 0.16095006 0.20406486 11382181
0.79009527 0.16557761 0.20544949 11382180
0.79096895 0.1753553 0.20515221 11513767
0.79116136 0.18528987 0.20447187 11513768
0.78900003 -0.18168014 0.2197649 11513001
0.78890002 -0.17519322 0.21881351 11447210
0.78900003 -0.1687507 0.2197649 11119015
0.79153854 -0.15554214 0.21469638 11973037
0.7889998 -0.14421688 0.21663293 15131100
0.79000002 -0.14630938 0.21218343 14999515
0.7886427 -0.1345187 0.21570778 14999515
0.79000002 -0.13660002 0.21079642 14933722
0.78896642 -0.1253393 0.21513797 14999515
0.78899974 -0.11518587 0.2151473 14933722
0.78899974 -0.10515441 0.21530648 14933979
0.79000002 -0.10146134 0.21079642 14802649
0.78899974 -0.094616309 0.21556698 14867929
0.79000002 -0.097762525 0.21079642 14802649
0.78899974 -0.084709331 0.21514729 14671063
0.7889998 -0.075400144 0.21518423 14539733
0.78899974 -0.065315165 0.21514726 14539734
0.78899974 -0.055156317 0.21514723 14539733
0.78819442 -0.044952735 0.21492644 14408148
0.78696674 -0.034749709 0.21459025 14276562
0.78702796 -0.024617407 0.21460794 13947340
0.78716677 -0.014487197 0.21464631 13815754
0.78726679 -0.0052736164 0.21467331 13815754
0.78797227 0.0048670452 0.21486682 13881547
0.78800005 0.015013026 0.2148746 13684168
0.78742868 0.025007581 0.21484943 13618375
0.78673083 0.03524819 0.2152354 13749961
0.78700012 0.045393277 0.21552305 13749961
0.78756005 0.055567279 0.21567664 13815753
0.78843325 0.06485758 0.21499273 13684166
0.79108018 0.074336737 0.21478817 11645098
0.7926451 0.1346347 0.21503456 11250853
0.78900003 0.14617357 0.2105296 11316389
0.79123813 0.14456008 0.2155398 11251108
0.78900003 0.15356182 0.21052958 11316644
0.79146171 0.15525229 0.21546532 11382437
0.79203993 0.16527885 0.21505171 11448230
0.79160726 0.17504878 0.21473484 11447974
0.79176927 0.18504085 0.2150493 11579303
0.7927407 -0.19440164 0.22493041 11382184
0.78878564 -0.18242267 0.22550876 11447719
0.79021436 -0.18711342 0.22419922 11513513
0.78800005 -0.17499337 0.22502056 11381927
0.78876185 -0.16654471 0.22497445 10987684
0.79000002 -0.16220716 0.22431129 10263190
0.78900003 -0.1512036 0.22530608 14736598
0.79008019 -0.15584984 0.22450425 11775657
0.7886799 -0.14560457 0.22521444 15065562
0.78800005 -0.13533184 0.22502056 14999513
0.78875983 -0.12530568 0.22523764 14802136
0.78899974 -0.11518587 0.22530608 14802136
0.78859985 -0.10497406 0.22519056 14867929
0.78833324 -0.094788022 0.22511448 14802136
0.7886399 -0.084670208 0.22520207 14802136
0.78887975 -0.075462818 0.22527127 14670807
0.78879988 -0.06529893 0.22524817 14736599
0.78867984 -0.055134416 0.22521394 14671063
0.78803343 -0.04494324 0.22503017 14539477
0.78720009 -0.034760281 0.22479351 14276305
0.78686684 -0.024612665 0.2246975 14144719
0.78665537 -0.01460452 0.22539721 14013133
0.78688467 -0.0051300852 0.22491409 14013133
0.78711432 0.0048886379 0.22555496 14078926
0.78683341 0.014990015 0.2256058 13881546
0.7862221 0.025101386 0.22543198 13750216
0.78599989 0.035215363 0.22536942 13947339
0.78677791 0.045380585 0.22559129 14078925
0.78680015 0.055512182 0.22559667 14210511
0.78746426 0.064580821 0.22545762 14079180
0.78890002 0.071727991 0.22638531 13881544
0.79075009 0.076232709 0.22434007 11316132
0.7925455 0.16481915 0.22524889 11250854
0.79173344 0.1744822 0.22515704 11382440
0.78900003 -0.1813723 0.23146296 11250597
0.79194117 -0.18568571 0.23487316 11316647
0.78900003 -0.17562589 0.23166817 11382183
0.79153848 -0.17463674 0.23601021 11250854
0.78900003 -0.16967425 0.23084728 11250854
0.79219055 -0.16506039 0.23452184 10592924
0.78900003 -0.1512036 0.23361787 14802392
0.79071438 -0.15594141 0.2352284 11776428
0.7888146 -0.14521848 0.23469208 14868183
0.78846425 -0.13508137 0.23418577 14933976
0.78855544 -0.12507011 0.23481925 14933720
0.78830302 -0.11500077 0.23550726 15065562
0.78800005 -0.10489392 0.23516652 15065562
0.78763896 -0.094705477 0.23505756 14999770
0.78786671 -0.084587112 0.23512621 14999514
0.78803343 -0.075381622 0.23517632 14933721
0.78800005 -0.065232381 0.23516652 14933978
0.78800005 -0.055086419 0.2351665 14933978
0.78797227 -0.044939019 0.23515807 14736856
0.78746682 -0.034772024 0.23500572 14473684
0.78648406 -0.025343752 0.2345634 14276305
0.78587085 -0.015234224 0.23527154 14276305
0.78648269 -0.0053963801 0.23487075 14276561
0.78558069 0.0048217913 0.2351841 14276304
0.78500009 0.014955308 0.23518831 14144974
0.78503323 0.025064399 0.2351995 13947595
0.78548002 0.035191879 0.23533243 14210766
0.78499991 0.04527767 0.23518768 14210766
0.78452009 0.055350628 0.23504387 14342352
0.78548151 0.064820655 0.23492329 14276559
0.78827995 0.073407754 0.23521231 13092287
0.79012501 0.079099372 0.23418172 10855839
0.79227585 0.085704848 0.23474617 10987425
0.79156005 0.17444424 0.23530366 11382183
0.79140747 -0.15516904 0.24493183 12565431
0.78899974 -0.14465973 0.24467389 15131355
0.78899974 -0.13458006 0.2447003 15131355
0.78846419 -0.12545869 0.24486296 15131868
0.78763336 -0.11498734 0.24519736 15394527
0.78763998 -0.10484609 0.24519911 15328991
0.78700012 -0.094628014 0.24500082 15262941
0.78768003 -0.084566399 0.24521291 15197148
0.78831995 -0.075407945 0.24541165 15197148
0.78826672 -0.065255634 0.24539536 15131612
0.78718519 -0.054826658 0.24546583 15263199
0.78527802 -0.044787865 0.24537833 15000028
0.78383344 -0.034611423 0.24492583 14605784
0.77885723 -0.024493279 0.24923845 14277075
0.7830357 -0.0256065 0.24435006 14342612
0.77811784 -0.014963605 0.24780649 14276818
0.78252 -0.015500455 0.24287006 14276305
0.7785002 -0.0052143401 0.24873313 14342098
0.78276002 -0.0052430653 0.24367593 14342098
0.77890927 0.0050594779 0.24894719 14276559
0.78225815 0.004741875 0.24369706 14342097
0.77899998 0.014320514 0.24928425 14210766
0.78182137 0.015025823 0.24397266 14144973
0.78241682 0.024981285 0.24448599 14013388
0.77900004 0.037637219 0.24980529 13947594
0.78220004 0.035044253 0.24441862 14144974
0.77900004 0.044384737 0.24980529 14013387
0.78186125 0.045096949 0.2443126 14211023
0.77900004 0.05678558 0.24980529 14210509
0.78176677 0.05515705 0.24428272 14342351
0.77900004 0.060432881 0.24980529 14210764
0.78333348 0.064440556 0.24477315 14342350
0.78782141 0.074097253 0.24505723 12829371
0.79000002 0.079780273 0.24501038 10724510
0.79249996 0.085460298 0.24507257 10856096
0.79269433 0.12520547 0.24491157 11184804
0.79227579 0.13488407 0.24440338 11119011
0.78900003 -0.1512036 0.25485912 15131101
0.79152173 -0.15644291 0.25494695 11315365
0.78842294 -0.14541537 0.25488475 15131354
0.78752792 -0.1352514 0.25530314 14999769
0.78696662 -0.12502208 0.25511941 14934233
0.7864725 -0.11481754 0.25496078 15000282
0.78596652 -0.10462349 0.25479728 15131868
0.78587091 -0.095233291 0.25467694 15131612
0.7860288 -0.085178375 0.25489438 15131355
0.78609693 -0.075078428 0.2550419 15131355
0.78478575 -0.064968407 0.25532439 15065820
0.77880007 -0.052985288 0.25849235 14868696
0.78303576 -0.055199474 0.25423422 15065820
0.77816671 -0.044987589 0.25621593 14868442
0.78166676 -0.045952644 0.25203165 15065821
0.77813327 -0.035268608 0.25499013 14605270
0.78033334 -0.035370898 0.25023288 14606040
0.77756017 -0.025233204 0.25480267 14276561
0.77653158 -0.015087405 0.25480834 14276305
0.77696019 -0.0052047735 0.25460786 14342098
0.77723348 0.0048009055 0.25469658 14210512
0.77788001 0.014819753 0.25490752 14013133
0.77839983 0.024853898 0.2550779 13815753
0.78049999 0.024921296 0.25028631 13881801
0.77891678 0.034974288 0.2554006 13816010
0.78000003 0.03312055 0.25058246 13947594
0.77899992 0.04493184 0.25527626 13816008
0.78000003 0.047728501 0.25012597 14079180
0.77900004 0.055113897 0.25542819 13881287
0.78000003 0.051989157 0.25073466 14144460
0.7790001 0.061344706 0.25527626 13947080
0.7816667 0.066742204 0.25485247 14013129
0.78733337 0.075487465 0.25506997 12237234
0.79000002 0.079780273 0.25148329 10987682
0.78900003 0.081526354 0.25855324 10658717
0.79221439 0.085836776 0.2549679 10790303
0.79233319 0.15513802 0.25500688 11119011
0.78900003 -0.15120362 0.26501796 14867930
0.79100007 -0.15608613 0.26502874 11315109
0.78789651 -0.14558819 0.2648055 14868183
0.77900004 -0.13105069 0.26986548 14539731
0.78412896 -0.13541012 0.26506436 14802390
0.77876937 -0.12470085 0.26852304 14605012
0.78217858 -0.12498023 0.26370341 14604757
0.78350008 -0.11464971 0.26478487 14473684
0.78499991 -0.1049027 0.26493269 14408147
0.78459257 -0.095054001 0.26486284 14407890
0.78280562 -0.084962942 0.26476735 14276305
0.77900004 -0.070870131 0.26804185 13947340
0.78125924 -0.07514029 0.26414132 14276048
0.77891678 -0.065088622 0.26626539 14276305
0.78083342 -0.066773146 0.26196992 14605525
0.77808321 -0.055305395 0.26499277 14407891
0.77693361 -0.045219023 0.26460221 14210768
0.77697253 -0.03521578 0.26461434 14078926
0.77686679 -0.025210833 0.26457751 13684425
0.77629447 -0.015303303 0.26465094 13750218
0.77700019 -0.0052049155 0.26462519 13947340
0.77805549 0.0048054368 0.26498568 13750216
0.77736682 0.014809426 0.26475027 13552837
0.77708364 0.024810752 0.26465309 13289665
0.7778334 0.034849938 0.26490626 13421250
0.77824998 0.044890039 0.26504904 13487043
0.7790001 0.054089736 0.26558381 13618373
0.78000009 0.057901897 0.26473394 13683654
0.77900004 0.060432881 0.26986548 13815495
0.78116143 0.065324418 0.2649509 13618115
0.78688896 0.075991683 0.26481941 11842219
0.78900003 0.081526347 0.26501796 10658717
0.79114294 0.086248316 0.26507553 10724510
0.78900003 -0.1512036 0.27240619 14736601
0.79162508 -0.15572542 0.27531978 11315110
0.78746158 -0.14524081 0.27485281 14736597
0.77900004 -0.13105069 0.27168912 14605011
0.78226095 -0.13558377 0.27489844 14736597
0.778889 -0.12556155 0.27266353 14670804
0.78060013 -0.12437531 0.27602494 14605012
0.78203994 -0.11508284 0.27458131 14605012
0.78425723 -0.10518129 0.27456975 14407891
0.78382152 -0.095361307 0.27461347 14276049
0.78219992 -0.084896244 0.27463648 14013133
0.77900004 -0.070870131 0.27168912 14736856
0.78072006 -0.074756511 0.27477586 14210255
0.77869564 -0.065057591 0.27499148 14078926
0.78000003 -0.069135115 0.27842885 14144462
0.77813333 -0.055307172 0.27503073 14013133
0.77748019 -0.045251556 0.27480105 14013390
0.77612156 -0.034931686 0.27481449 13881805
0.77540004 -0.025162227 0.27496997 13355717
0.77577794 -0.015184673 0.27510491 13487559
0.77646691 -0.0052011083 0.27534857 13816268
0.77697092 0.0045857253 0.27525938 13618631
0.77780008 0.014820193 0.27491295 13092287
0.77760005 0.024825543 0.27484307 13157823
0.77700019 0.034812134 0.27462947 13355202
0.77743351 0.044843215 0.27478296 13421252
0.77867991 0.054939911 0.27522296 13618117
0.7790001 0.061952587 0.2756404 13815239
0.78142864 0.066809371 0.27436581 13814982
0.78696293 0.075589053 0.27487522 12303028
0.79172003 0.085518293 0.27501363 10724510
0.78900003 -0.1512036 0.28995332 14473173
0.79177773 -0.15565316 0.28499925 11249573
0.78820688 -0.14564557 0.28520784 14802647
0.78514284 -0.13517156 0.28505844 14934489
0.78340757 -0.12486333 0.2840299 14868185
0.78321457 -0.11506217 0.28475061 14736599
0.78291708 -0.10513415 0.28496826 14473684
0.78263336 -0.095019288 0.28486413 14407634
0.78222221 -0.084897324 0.2847136 14276305
0.78174984 -0.074976988 0.2848697 14144975
0.77900016 -0.06346824 0.28531289 14342098
0.78027284 -0.067996867 0.28508481 14210769
0.77900004 -0.056572694 0.28430885 14013390
0.78000009 -0.052179456 0.28690672 14013390
0.77890003 -0.044968911 0.28186554 13947853
0.7802667 -0.045656186 0.28662258 13947597
0.77741957 -0.035211582 0.28499338 13816011
0.78000003 -0.039919212 0.28847185 14342098
0.77507687 -0.025013026 0.28504568 13224130
0.77469432 -0.015164339 0.28560123 13619146
0.77516651 -0.0051924004 0.28577435 14145489
0.77551442 0.0047651553 0.28515038 14210769
0.77710015 0.014807153 0.28466886 13815754
0.77844435 0.024853455 0.28516257 13223617
0.7772668 0.034823611 0.28473264 13420996
0.77788889 0.044870082 0.28496042 13421509
0.77889997 0.054955106 0.28533047 13619144
0.77900004 0.060888793 0.28308696 13684681
0.78153592 0.066057496 0.28518474 13750730
0.7873928 0.076032385 0.285083 12303286
0.79246432 0.085798405 0.28506267 10724253
0.78876919 -0.15272227 0.29583377 12170675
0.79068756 -0.15719652 0.29439047 9867663
0.7864483 -0.14506789 0.29529646 14736855
0.78360593 -0.13516121 0.2943579 14802649
0.78352958 -0.12512203 0.29457545 14539477
0.78359276 -0.11551896 0.2948944 14539477
0.78290021 -0.105132 0.29504296 14605269
0.78230774 -0.094840631 0.29503006 14605269
0.77892315 -0.083347067 0.2957879 14539732
0.7804445 -0.086835288 0.29381126 14539477
0.77848154 -0.075682737 0.29560387 14605525
0.78025013 -0.073953137 0.29107565 14473684
0.77879173 -0.065229714 0.29546863 14670806
0.78000003 -0.068526454 0.29090652 14407891
0.77900016 -0.057861414 0.29600447 14605013
0.78031582 -0.053106677 0.29426065 14605270
0.77900004 -0.043059427 0.29858804 14078926
0.7810384 -0.045808788 0.29462057 14078926
0.77706468 -0.034549419 0.29554111 14013390
0.78000003 -0.039919212 0.29303682 14342098
0.77475858 -0.025267914 0.29485041 13355973
0.77366692 -0.015145412 0.29518461 13553353
0.77336013 -0.0051806555 0.29506701 14145490
0.77396971 0.0050289333 0.29480541 14277076
0.77546668 0.014776033 0.29496276 14079439
0.77706075 0.024562893 0.29515541 13684681
0.77787995 0.034851283 0.29497251 13553095
0.77796662 0.044872738 0.2950049 13618888
0.77888006 0.054954022 0.29535091 13815754
0.77900004 0.060432881 0.29539663 14013133
0.78162503 0.065291442 0.2944091 13816522
0.78731036 0.075128607 0.29543275 12895422
0.79086679 0.085424446 0.29526612 10658717
0.78850007 -0.15218523 0.30530572 11578537
0.79035717 -0.15714733 0.30498976 9604748
0.78460723 -0.14479189 0.30506518 14736342
0.78131032 -0.1350978 0.30466145 15000026
0.78202748 -0.12515229 0.3047832 14868440
0.78256679 -0.11516205 0.30499184 14605527
0.78275037 -0.10511157 0.30506331 14408403
0.78186214 -0.095053047 0.30487487 14408403
0.77900016 -0.083270974 0.30560908 14474197
0.78007698 -0.087684788 0.30493566 14342612
0.77883315 -0.075413078 0.3053619 14342355
0.7779333 -0.065310173 0.30500829 14736856
0.77811104 -0.055304866 0.30507553 14802907
0.77766687 -0.0452624 0.30490017 14671063
0.77618778 -0.035409529 0.3048912 14144720
0.77459258 -0.024935937 0.30500817 12961214
0.77280569 -0.015129449 0.30480543 13290180
0.77209991 -0.0051719332 0.30452701 13948111
0.773278 0.004778008 0.30499318 14342869
0.77431041 0.0146283 0.30524376 14079697
0.7761516 0.025031298 0.30472144 13816524
0.77866662 0.034887899 0.30529594 13684938
0.77777773 0.044860881 0.30494639 13684681
0.77793336 0.054887913 0.30500686 13947340
0.77890927 0.061420545 0.30646816 13881546
0.78178275 0.06630151 0.30480632 13619144
0.78745157 0.075305693 0.30502281 13224386
0.78900003 0.081526354 0.30565333 10658460
0.79004759 0.086038381 0.30495849 10724253
0.79125935 0.094934531 0.3051914 10790303
0.79246879 0.17499021 0.30537212 11053475
0.79155898 0.18490647 0.30456984 11053476
0.79133326 0.19477215 0.30470088 11053477
0.78847069 -0.15305729 0.31494808 10526619
0.79045451 -0.15787545 0.31504831 9474188
0.78519994 -0.14496489 0.31502643 14670550
0.78248 -0.13530038 0.31503591 15065307
0.78162491 -0.1248616 0.31503206 14736343
0.77883345 -0.11430988 0.31660444 14473684
0.78099996 -0.11538822 0.31215158 14539477
0.77900016 -0.1051548 0.31764519 14342098
0.78090477 -0.10447238 0.31309241 14605270
0.77900016 -0.094172381 0.31657127 14276305
0.78041673 -0.095359065 0.31207144 14539477
0.7790001 -0.087131046 0.31606472 14342098
0.77999991 -0.083469175 0.31494874 14276562
0.77891678 -0.074357904 0.3155753 14078926
0.78000003 -0.078265086 0.31220976 14013133
0.77776009 -0.065296486 0.31495556 13815756
0.77706695 -0.055232055 0.31467399 14342101
0.77652025 -0.045195211 0.31445304 14671064
0.77642453 -0.035000183 0.31490964 14605014
0.77460712 -0.025332404 0.31490761 13092032
0.77206057 -0.01486899 0.31494719 13026495
0.77129996 -0.0051661069 0.31504726 13553096
0.77273542 0.0045617018 0.315366 14277077
0.77392322 0.014885024 0.31500244 14342870
0.77544451 0.024760662 0.31492388 13684939
0.77751869 0.034635253 0.31525937 13619145
0.7778666 0.044865679 0.31499782 13684938
0.77756006 0.054861445 0.31487378 13881804
0.77866673 0.062230669 0.3153218 13947340
0.7815001 0.067832477 0.31498134 13816010
0.78682148 0.075715415 0.3151347 13289665
0.78900003 0.081526347 0.31488866 10460824
0.79090482 0.086221948 0.31498873 10592924
0.7918666 0.15504713 0.31510505 10922146
0.79166669 0.17539184 0.31502593 10987938
0.79040027 0.18528952 0.31452322 11053475
0.79036021 0.1945326 0.31450713 10987683
0.78853339 -0.15296091 0.32485572 10131861
0.79072726 -0.1580984 0.32525471 9408395
0.78688002 -0.14527309 0.3249118 14408405
0.78544831 -0.13505326 0.32555202 14933978
0.78269231 -0.1245565 0.32484633 14605013
0.7787779 -0.11359276 0.32377401 14342356
0.78100008 -0.11754437 0.3272377 14473686
0.77900016 -0.10595374 0.32388034 14342356
0.78000009 -0.10159722 0.32661483 14211027
0.77900004 -0.094577633 0.32123169 14210769
0.78089476 -0.094806559 0.32642451 14145233
0.77900004 -0.089106664 0.32092774 14342098
0.78103453 -0.084610455 0.32555133 14079696
0.77900004 -0.072997727 0.32153562 14079183
0.7808947 -0.075179204 0.32632893 14145232
0.77887511 -0.064249486 0.32178807 13619146
0.78078949 -0.065453678 0.32676518 13947853
0.77829629 -0.054881737 0.32394621 13487047
0.78000003 -0.058179155 0.32864371 14078926
0.77700025 -0.045223217 0.32465121 14144721
0.77596998 -0.035365749 0.32463208 14211026
0.77416676 -0.02512267 0.32527918 13552584
0.77309114 -0.0153807 0.32523945 12960447
0.77224016 -0.0051740892 0.3253749 13157826
0.77181238 0.0049941507 0.32485437 13750476
0.77290004 0.014726354 0.32474682 14408662
0.7744 0.024597427 0.32524696 14211026
0.77600002 0.034963474 0.3245562 13816524
0.77686143 0.044809144 0.32459199 13816524
0.7776897 0.054745801 0.32478228 13816524
0.77900016 0.062126271 0.32483557 13948110
0.78177768 0.067869112 0.3249197 14079182
0.78630769 0.075731561 0.32485673 13552582
0.78900003 0.081526354 0.32504749 10329239
0.79209095 0.08648508 0.32539222 10592667
0.7905668 0.1446117 0.32476667 10856354
0.79033363 0.15474674 0.3246702 10856610
0.79123342 0.16511096 0.32503936 10791074
0.79199994 0.17454058 0.3248772 10922402
0.79217231 0.18493763 0.32462946 11053475
0.79176003 0.19487642 0.32433292 11053474
0.78858346 -0.15204728 0.33502904 9670542
0.79100001 -0.1571437 0.33513021 9539214
0.78750008 -0.14558472 0.33489746 14276306
0.7860834 -0.13500386 0.33580452 14868442
0.78350019 -0.12467062 0.33502841 14539478
0.77900004 -0.11190232 0.33278152 14276307
0.78061903 -0.11574803 0.3357777 14276307
0.77900004 -0.10774846 0.33207229 14342100
0.78082609 -0.10393653 0.33558825 14210514
0.78284001 -0.095041968 0.33533996 14210512
0.78360027 -0.085046783 0.33566523 14210512
0.78308022 -0.074908286 0.33544177 14342098
0.78187096 -0.064579882 0.33509976 14407891
0.77841669 -0.053430717 0.3352637 14605270
0.7801429 -0.057407241 0.33287826 14407891
0.77613348 -0.04517363 0.33518913 14342611
0.77466655 -0.035114054 0.3345558 14277075
0.77372009 -0.025108224 0.33505335 14013903
0.77306688 -0.015132965 0.3347711 13619145
0.77258623 -0.0051143086 0.33531123 13684682
0.77199978 0.00476823 0.33521307 13750475
0.77269238 0.014583442 0.33481795 14145489
0.77393562 0.02485721 0.33497196 14211026
0.7754333 0.03474335 0.33488828 14013647
0.77611148 0.044765655 0.33518064 13816525
0.77725017 0.054775082 0.33495662 13750733
0.778889 0.062247787 0.33455709 13882318
0.78175008 0.067854218 0.33521342 14013903
0.78610349 0.07571131 0.33489394 13487047
0.78900003 0.08214204 0.33612987 10395034
0.79094744 0.086796977 0.334521 10592923
0.79072016 0.14464009 0.33501253 10856096
0.79006696 0.15469418 0.33473498 10921889
0.79100013 0.16506323 0.33513096 10921889
0.79255551 0.17487067 0.3353765 10987682
0.78850007 -0.15203132 0.34514636 9275786
0.79100001 -0.15703487 0.34504229 9342349
0.78603566 -0.14492118 0.34465769 14407636
0.78275019 -0.13515213 0.34504837 15000028
0.78077793 -0.12495454 0.34450555 14736856
0.77900004 -0.11372598 0.34281161 14342098
0.78016669 -0.11503765 0.34507561 14407891
0.78123528 -0.10469058 0.34497851 14342098
0.77840006 -0.092318736 0.34874237 14342098
0.78200001 -0.095144652 0.34453586 14342098
0.77726674 -0.085270606 0.34750569 14276305
0.78234774 -0.085110173 0.34324667 14342098
0.77635735 -0.074914925 0.34683615 14210512
0.78213334 -0.074818268 0.3423579 14473171
0.77609682 -0.065038532 0.34586406 14407892
0.78111118 -0.06598375 0.3408955 14539222
0.77521956 -0.055212744 0.3449049 14868700
0.77423346 -0.04506164 0.34524253 14868956
0.773278 -0.035050642 0.34481728 14539735
0.77176493 -0.024938816 0.34488344 14079439
0.76900005 -0.017753335 0.34921241 13881547
0.77134162 -0.015032999 0.34472167 13947853
0.77125806 -0.0052251364 0.34551716 14013904
0.77108335 0.0047622109 0.34564316 14079697
0.77219993 0.014713875 0.34469759 14079698
0.77355576 0.02469912 0.34494206 14211283
0.77482128 0.034521561 0.34518218 14145489
0.77583337 0.044749837 0.34504983 14079696
0.77660739 0.054989573 0.34480903 13816524
0.77800018 0.062541932 0.34528339 13750474
0.7815333 0.068315282 0.34465823 13882060
0.78628004 0.075727709 0.34491047 14013391
0.78900009 0.082869664 0.34469354 10395547
0.79011768 0.087191008 0.34531105 10658717
0.79183996 0.094798602 0.34475482 10724510
0.78900003 0.13755395 0.34782794 10856097
0.79080784 0.13440245 0.34416008 10790304
0.78899997 0.14432649 0.34760809 10856097
0.79029411 0.14488959 0.34266597 10790304
0.79060024 0.15493195 0.34500709 10856097
0.79169232 0.1650645 0.34490448 10921890
0.79199988 0.17454067 0.34482434 10987683
0.79236656 0.18482526 0.34498376 10921890
0.78885716 -0.15170395 0.35374537 9078920
0.79188234 -0.15666676 0.35545939 9276555
0.78707701 -0.145382 0.35501206 14276307
0.78235728 -0.13534731 0.35508054 14868443
0.77900004 -0.12466791 0.35922453 14670807
0.78030008 -0.12487645 0.35434294 14802392
0.77900004 -0.1146378 0.35841402 14605527
0.78019041 -0.11481243 0.35359776 14671063
0.77900016 -0.10455406 0.35675716 14539733
0.78031248 -0.10569732 0.35252208 14539477
0.7768572 -0.09483996 0.3549079 14342355
0.77466661 -0.084985524 0.35450476 14276562
0.77371895 -0.075145602 0.35463676 13882061
0.77324015 -0.064915702 0.35475707 14145233
0.77244139 -0.054691821 0.35502779 14671063
0.77153355 -0.044904735 0.35487488 15000028
0.76900005 -0.030355034 0.35821363 14473686
0.77091438 -0.035072505 0.35446188 14605270
0.76808 -0.02427852 0.35540909 14078926
0.77020001 -0.028238837 0.35228091 14407891
0.76747251 -0.015022446 0.35480312 13750475
0.76791304 -0.0049091312 0.3562195 13948112
0.77000004 -0.0059308698 0.35198408 13947853
0.76834488 0.0046529016 0.3562316 13948112
0.77000004 0.0051421453 0.35172656 14013904
0.76837504 0.013515878 0.35679674 14079442
0.77050006 0.015694885 0.35248536 14013649
0.77214712 0.024443088 0.3548927 14079441
0.77403712 0.034881841 0.35472071 14145490
0.77508312 0.044706669 0.35469618 14013904
0.77586681 0.054741304 0.35505468 14079439
0.77707165 0.06366469 0.35521492 14144718
0.78100008 0.069273219 0.35466087 14013646
0.78664291 0.075698629 0.3548536 14079697
0.78900003 0.081526354 0.35090637 10263704
0.7915715 0.085414052 0.3554039 10395546
0.79134393 0.1251841 0.35501614 10856096
0.78900003 0.13693826 0.35275346 10724511
0.79025 0.13426462 0.35620376 10724511
0.7889998 0.14491419 0.35342512 10790305
0.79000002 0.1451259 0.35844049 10856098
0.79074073 0.15534249 0.35558948 10856097
0.79196543 0.16539106 0.35516638 10921890
0.79163641 0.17496496 0.35511023 10921890
0.7919091 0.18513912 0.35472634 10921890
0.78900003 -0.1512036 0.36752996 9078660
0.79211551 -0.15594244 0.36484215 9210247
0.78703576 -0.14523925 0.36496806 14078927
0.77900004 -0.13141543 0.36578962 14868442
0.78170848 -0.13600741 0.36481798 14802392
0.77874184 -0.12483273 0.36492652 14605270
0.77812129 -0.11500558 0.36544076 14539477
0.77783328 -0.105363 0.36505729 14473684
0.77590925 -0.095195651 0.36489806 14407891
0.7742334 -0.084937371 0.36518207 14144719
0.77355903 -0.074796684 0.36502302 13881804
0.77247089 -0.064745665 0.36509284 13947598
0.76900005 -0.052317999 0.36865503 15065823
0.77096981 -0.055374626 0.36443362 14539478
0.76800001 -0.044340014 0.36754388 14934494
0.77006686 -0.045300063 0.36243597 14934235
0.76763654 -0.034440834 0.36601534 14736857
0.77000004 -0.036202833 0.36128318 14671064
0.76618767 -0.024865599 0.36497137 14013390
0.7641905 -0.014959381 0.36491328 13816268
0.76529044 -0.0052408893 0.36474666 14145490
0.76627803 0.0047331471 0.36501664 14079698
0.7671876 0.014787035 0.36505544 14013905
0.76885718 0.02107675 0.36714628 13947855
0.77162093 0.02548103 0.36435422 14013392
0.77451849 0.03450102 0.36481366 14145490
0.77566689 0.04473925 0.36495087 14145490
0.77535993 0.054705847 0.36480549 14079439
0.77685726 0.064296938 0.3651855 14013390
0.78000003 0.069640435 0.3642506 14210512
0.78562063 0.075603709 0.36487204 14210770
0.78900003 0.081526354 0.36660641 10723487
0.79244447 0.086147249 0.36500821 10461082
0.79225004 0.12511148 0.36480519 10790304
0.79218525 0.13522583 0.36551216 10790305
0.79236639 0.15514466 0.36539 10856098
0.79247993 0.16536991 0.36544198 10856098
0.79116684 0.17528149 0.36483473 10921891
0.79084015 0.1853936 0.36468384 10856098
0.79199994 0.19514255 0.3648065 10856098
0.79213786 -0.19522393 0.37442696 10790305
0.79212135 -0.16495267 0.37487873 10132375
0.78900003 -0.15212715 0.37491822 9079431
0.79088897 -0.15712097 0.37488884 9145223
0.7857334 -0.14506622 0.37501749 13882062
0.77894139 -0.13286445 0.37528688 14802649
0.7808333 -0.13730101 0.37438795 14802649
0.77851844 -0.12570614 0.37500006 14539990
0.7769357 -0.11509807 0.37481707 14342868
0.77593344 -0.10510515 0.37506527 14408404
0.77452773 -0.094943404 0.3746877 14407892
0.77280015 -0.08478085 0.37535915 14079183
0.76885718 -0.073547535 0.37871721 13816267
0.77136678 -0.075352766 0.37399948 13881804
0.76739293 -0.064748295 0.37593958 13947596
0.770625 -0.066275381 0.37204894 13947597
0.76507497 -0.054873496 0.37459743 14276563
0.76258957 -0.044979349 0.37490344 14868699
0.76261902 -0.03456603 0.37487346 14671065
0.76276463 -0.024857247 0.37510464 13947855
0.76227766 -0.014921125 0.37560269 13882318
0.76326466 -0.0050070402 0.37535122 14277076
0.76390243 0.0048274444 0.37537399 14342869
0.76511109 0.015227292 0.37525478 14211282
0.76786959 0.024322737 0.37542737 14211282
0.7712 0.028053608 0.37313795 14145489
0.76900005 0.031453308 0.37921643 14540247
0.77283877 0.034860853 0.37464443 14342868
0.77412194 0.044540189 0.37496105 14342868
0.77459991 0.054652579 0.37442145 14277075
0.77594614 0.064863309 0.3748987 14211025
0.77816671 0.071905948 0.3767525 14276561
0.78388894 0.076178685 0.37452257 14210513
0.78853339 0.082955472 0.37580311 11184293
0.79085714 0.087802388 0.3746089 10461339
0.7920689 -0.18529712 0.38488141 10724513
0.79140013 -0.17482182 0.38532326 10527390
0.79236013 -0.16483144 0.38579133 10197911
0.78900003 -0.15146747 0.38441738 9013381
0.79126322 -0.1564167 0.38545129 9210759
0.78488898 -0.14477475 0.38514316 13618634
0.77866679 -0.13281828 0.38459101 14802650
0.78054547 -0.13778977 0.38502029 14605271
0.77817857 -0.12564187 0.38493481 14539478
0.77705735 -0.11539379 0.38483456 14276562
0.77539992 -0.1050333 0.38479277 14276819
0.77391189 -0.094867207 0.38495994 14211026
0.77144456 -0.084433228 0.3850368 13948110
0.76845831 -0.074860297 0.38494495 13816524
0.77000004 -0.079064272 0.3857182 13684938
0.76597238 -0.06520585 0.38489476 13882317
0.76233333 -0.055277076 0.38505033 14211026
0.76096654 -0.045180336 0.384756 14671578
0.76063329 -0.034475677 0.38458648 14539993
0.7611199 -0.024698131 0.3848331 14013907
0.7614997 -0.014905651 0.38502437 13948114
0.76171994 -0.0051026787 0.38513577 14145493
0.76212883 0.0045637055 0.38517118 14211286
0.76370597 0.015500971 0.38493115 14277078
0.76666677 0.025377529 0.3849448 14211284
0.76881826 0.031991538 0.3849619 14408662
0.77047062 0.036430147 0.3851051 14343126
0.7729677 0.044732593 0.38522026 14277333
0.77442306 0.054500971 0.38451725 14277075
0.77506644 0.064664245 0.38462755 14144976
0.77707702 0.072459511 0.38408524 14145232
0.78278583 0.077615187 0.3849203 13816525
0.78799999 0.08338479 0.38516489 11184808
0.79059994 0.088170215 0.38493279 10395291
0.79231995 -0.18522814 0.3950443 10659233
0.79263324 -0.17509338 0.39520153 10396317
0.78900003 -0.1512036 0.39523593 8816007
0.79136378 -0.15612261 0.39507172 9079432
0.78553855 -0.14510043 0.39512655 13092549
0.7790001 -0.13270856 0.39271337 14671835
0.78107136 -0.1366255 0.39583492 14474456
0.77877277 -0.12454902 0.39417362 14210771
0.78000003 -0.12847993 0.3980315 14474199
0.77708024 -0.11457447 0.3942152 14145491
0.78000003 -0.11661096 0.39985749 13948112
0.77624011 -0.10514699 0.3942982 14145490
0.77499998 -0.094900146 0.39474273 14079697
0.77287513 -0.08486516 0.39492467 13948112
0.76866674 -0.073979631 0.39314786 13685197
0.77075011 -0.077187702 0.39631966 13619147
0.76658338 -0.065256692 0.39417747 13685197
0.76495254 -0.055009492 0.394963 14014164
0.76384205 -0.045493234 0.3935554 14408666
0.76299989 -0.034583684 0.39293268 14342617
0.76313335 -0.024763308 0.39300156 14079445
0.76299989 -0.014935781 0.39293277 13816530
0.76293331 -0.0051105255 0.39289755 13948373
0.7651875 0.0042809942 0.3938348 14013909
0.77149999 0.008377918 0.39911222 13948118
0.76633334 0.015795192 0.39265326 13882323
0.77155566 0.01510082 0.39833987 13750738
0.76711112 0.02499382 0.39225262 13750737
0.77154547 0.024387306 0.39782372 13619922
0.76900005 0.031453308 0.39121807 14014163
0.77282357 0.03515904 0.39565003 13750737
0.77470833 0.044687465 0.39442745 13816784
0.77616668 0.054914188 0.39441416 13882574
0.77640015 0.064594731 0.39365268 13882318
0.78000003 0.064162448 0.39985749 14277076
0.77825004 0.072217911 0.39167219 11381414
0.7834211 0.076225221 0.39552888 10790048
0.78806674 0.083276197 0.39476871 10263960
0.79033333 0.088140152 0.39497793 10395547
0.79250008 0.094877526 0.3953163 10395803
0.78900003 -0.15173134 0.40473509 8947591
0.79100001 -0.15668133 0.40484744 9145224
0.78683329 -0.14541927 0.40497372 12631998
0.78447825 -0.13492556 0.40503266 14342613
0.78500015 -0.12497133 0.40505236 13947342
0.78499997 -0.11541196 0.40599287 13618890
0.77900004 -0.10278407 0.4011685 13816781
0.78314286 -0.10542623 0.40540004 13750990
0.77766675 -0.095326401 0.40108895 13948368
0.78236365 -0.094984725 0.40656653 13553611
0.77658343 -0.085044019 0.40341055 13750479
0.78133339 -0.086326338 0.40846691 12369082
0.77505565 -0.075049736 0.40458366 12105913
0.77314287 -0.065166801 0.4037146 12830149
0.77406675 -0.055563666 0.40551788 13027530
0.77300024 -0.04473177 0.40364075 14014681
0.77358836 -0.034902144 0.40371233 13948888
0.77400005 -0.025116559 0.40403414 13619924
0.77341187 -0.015085762 0.40362021 13553872
0.77369237 -0.0051832492 0.40359476 13421773
0.77506673 0.0042426502 0.40422761 12830406
0.78100002 0.0057379859 0.40951177 9014413
0.77680004 0.014800578 0.40458417 13422030
0.77610004 0.025140161 0.40331116 12172220
0.78100002 0.028593346 0.40768349 8948620
0.77720004 0.033367321 0.40242571 13027271
0.78257143 0.035322275 0.40693524 9803416
0.77833337 0.042161804 0.40082514 13948373
0.7840001 0.045772552 0.40594909 11843251
0.78453332 0.05535233 0.40585855 10921890
0.78422219 0.065324441 0.40518817 10198423
0.78658336 0.075371131 0.40545988 9935765
0.78870583 0.083777487 0.40421233 10198680
0.79000002 0.088333763 0.405215 10396058
0.79100013 0.094903328 0.40508434 10396315
0.78900003 -0.1512036 0.41001242 9276809
0.79165232 -0.15542078 0.41509894 10066582
0.78876919 -0.14476787 0.41301772 10855844
0.79040003 -0.14629193 0.4172166 10197915
0.78850001 -0.13568048 0.41291744 11118760
0.79062504 -0.13416165 0.41756651 9935256
0.78900003 -0.12534472 0.41185945 9999509
0.79158831 -0.12510042 0.41702786 9868693
0.788625 -0.11420891 0.4121255 10394524
0.79114288 -0.11536678 0.41681615 9737621
0.788077 -0.10447935 0.41294003 10593187
0.79028571 -0.10599178 0.41755244 9868950
0.78793758 -0.094970502 0.41430414 10132378
0.79000002 -0.094988428 0.41885439 9869461
0.78647059 -0.084761657 0.41498414 9605778
0.79000002 -0.087590799 0.41977909 9804180
0.78619993 -0.075206332 0.41592443 9540756
0.77900004 -0.061751872 0.41028675 9673113
0.78600001 -0.065525375 0.41604912 9475220
0.77900004 -0.052633602 0.41028675 12369086
0.7865001 -0.054981787 0.41700071 9737365
0.77900004 -0.047162648 0.41028675 12369086
0.78566664 -0.04425716 0.41600993 9803416
0.78572732 -0.03502867 0.41500404 9803674
0.79000002 -0.034882784 0.41977909 9605778
0.78591663 -0.024581678 0.41515943 9277845
0.79000002 -0.024711061 0.41977909 9343119
0.78550011 -0.015243771 0.41515994 9014927
0.79000002 -0.011765231 0.41977909 9211790
0.78619999 -0.0052668601 0.41500148 8882827
0.78635705 0.0053813783 0.41469139 9145484
0.78649998 0.014524241 0.41377977 9014412
0.79000002 0.016900534 0.41792968 9146511
0.78658342 0.02511484 0.41336191 9145740
0.79016668 0.025229149 0.41801786 9080459
0.78770006 0.035290826 0.41284209 9343117
0.79087496 0.036128186 0.41769904 9474443
0.78840005 0.044551652 0.4124698 9539981
0.79129994 0.044715758 0.41769201 9540493
0.78850001 0.054709252 0.41252196 9672336
0.79108328 0.054888006 0.41757789 9672335
0.78850007 0.064861655 0.41252193 9869971
0.79049999 0.065026172 0.41726947 9869714
0.78881818 0.074793309 0.41226828 10001557
0.79042864 0.07572595 0.41683546 10132630
0.78900003 0.082449883 0.41093597 10198679
0.79042864 0.085903727 0.41498542 10330009
0.79144007 0.094749033 0.41498706 10395803
0.7920357 0.17454754 0.415032 10724512
0.79179305 0.18484928 0.41504228 10724511
0.79192859 0.19511743 0.41464475 10724255
0.79257691 -0.095440395 0.42514694 9804180
0.79187489 -0.045161784 0.42541301 9738130
0.79257137 0.11529167 0.42459038 10592924
0.79166681 0.1249967 0.42465121 10592924
0.78900003 0.13632256 0.42848301 10658717
0.79100025 0.13475366 0.42401043 10592924
0.78900003 0.14284885 0.42811361 10527133
0.79112017 0.14501068 0.42414925 10592926
0.79174298 0.15489148 0.42520362 10658719
0.79186195 0.17527561 0.42441279 10593183
0.79096794 0.18524346 0.42495221 10658719
0.79123348 0.12528288 0.43525422 10461851
0.78899986 0.13621995 0.43361375 10527645
0.79014289 0.13237998 0.4357104 10527901
0.78870577 0.14519672 0.43451428 10461853
0.78900003 0.15171476 0.43771833 10592924
0.79064006 0.15602995 0.43455532 10527390
0.79151613 0.18447438 0.43522993 10461854
0.79226661 -0.045181908 0.44509429 10067096
0.79211545 0.13497955 0.44444129 10396316
0.78900003 0.1470971 0.44141248 10462108
0.7904737 0.14410852 0.4450627 10396316
0.79080015 0.15483993 0.44427177 10527645
