# .PCD v0.7 - Point Cloud Data file format
VERSION 0.7
FIELDS x y z rgb
SIZE 4 4 4 4
TYPE F F F U
COUNT 1 1 1 1
WIDTH 1114
HEIGHT 1
VIEWPOINT 0 0 0 1 0 0 0
POINTS 1114
DATA ascii
0.77466673 -0.11490783 0.098799489 15066846
0.78611118 -0.11486648 0.096270613 13026234
0.79363638 -0.11527429 0.093530819 12500146
0.77410007 -0.10485721 0.098727219 15264224
0.78400004 -0.10486286 0.096400924 13420993
0.79366666 -0.10471747 0.093478471 12500659
0.76480001 -0.092494503 0.09950836 15461605
0.77277786 -0.09563075 0.098257169 15395810
0.78727281 -0.095078699 0.09479399 11974319
0.76491684 -0.084808826 0.099344015 15264482
0.77359998 -0.084865555 0.097759701 15066845
0.78650004 -0.085821249 0.095245674 11711148
0.79262507 -0.084403537 0.093435198 12106418
0.76250005 -0.077401064 0.099927038 15527396
0.77291673 -0.074838959 0.098575808 15132638
0.7854445 -0.074521862 0.095983215 12632760
0.76557148 -0.062989935 0.099558033 15395557
0.77441674 -0.06546738 0.097405821 14671833
0.78618187 -0.065335132 0.094662093 11777198
0.79320002 -0.064735346 0.091878161 12303538
0.76522231 -0.055685028 0.099483684 15658729
0.77416664 -0.054119173 0.09752503 15066846
0.78633332 -0.055377245 0.094866768 11579819
0.76455563 -0.045094222 0.099596344 15395558
0.77509099 -0.044779904 0.097612694 15066845
0.78680009 -0.045055546 0.095743939 11513766
0.76300001 -0.038156077 0.099992566 15329765
0.77212501 -0.035901651 0.098927587 15001055
0.78436369 -0.035131268 0.096445173 13026748
0.77350003 -0.025781568 0.098876595 14738397
0.78622228 -0.025101416 0.096284397 11776680
0.77380002 -0.014420511 0.098870032 14475480
0.78545457 -0.014956447 0.096580051 12171694
0.76300001 -0.0033252432 0.099992566 14541276
0.773 -0.0050139218 0.098337866 14277588
0.78587508 -0.0054905913 0.095857881 11579044
0.76300001 0.0011402485 0.099992566 14343897
0.77219999 0.0040463251 0.098665506 14343126
0.78525001 0.0048458739 0.095856749 12105648
0.77420008 0.014750576 0.098739855 14014673
0.78530002 0.014962288 0.096477464 12303282
0.76300001 0.028826298 0.099992566 14145748
0.77358335 0.024698025 0.098660827 14014674
0.78566664 0.02508489 0.096522547 11908781
0.76216668 0.035040651 0.099883355 14211541
0.771375 0.035236966 0.098830752 13817297
0.78700006 0.036046747 0.096292011 10527131
0.77344441 0.044307452 0.098743811 13882577
0.78563637 0.044894502 0.096602179 11316390
0.77410001 0.055521715 0.098908409 14211539
0.78554553 0.054919992 0.096424051 11381926
0.76300001 0.069015726 0.099992566 14342874
0.77407151 0.065486714 0.098073773 13093573
0.78530782 0.064882502 0.09541595 11250597
0.76577783 0.074145146 0.099356718 14211288
0.77300012 0.075993702 0.097941719 13290443
0.78553349 0.075528331 0.093867905 11316391
0.791125 0.074334845 0.09117648 11382440
0.77466673 0.08246202 0.098492227 12434619
0.78642857 0.084810473 0.095430866 11447977
0.7913 0.086581357 0.092029959 11514025
0.78900003 0.092608728 0.098474413 11579819
0.78833342 -0.16091906 0.10669532 10921380
0.79395843 -0.16594435 0.10435746 11184807
0.77588892 -0.15272951 0.10652395 12171704
0.78453851 -0.15572016 0.1035168 11184806
0.75840008 -0.14214349 0.10862084 14868957
0.76438463 -0.14470065 0.1062279 14474459
0.77406681 -0.14532298 0.10228361 14343127
0.78100002 -0.14967048 0.10052317 11645357
0.75740004 -0.13477594 0.10767803 15790318
0.76458341 -0.13548358 0.10332727 15263974
0.77300006 -0.13547014 0.10130309 14672092
0.75700015 -0.12469072 0.1071781 15658474
0.76263642 -0.12521493 0.10270135 15198437
0.77100009 -0.12519567 0.10104098 15132642
0.7575714 -0.11486214 0.10704754 15461350
0.76346678 -0.11520968 0.101716 15329765
0.75703347 -0.10520314 0.10629509 15724523
0.76409096 -0.10480013 0.10094531 15790316
0.75651598 -0.09453243 0.10553615 15856365
0.76179999 -0.097481847 0.10090282 15658729
0.75534374 -0.084963255 0.10539233 15593192
0.75658828 -0.075237066 0.10560772 15527399
0.76300001 -0.072630145 0.10070424 15001055
0.75724149 -0.064611249 0.10595909 15395813
0.76128578 -0.066461384 0.10103875 15264227
0.75634378 -0.054977126 0.10553244 15396070
0.75450015 -0.044798218 0.10505261 15395814
0.75440747 -0.035272691 0.10553371 15330022
0.76271433 -0.033165958 0.10071763 15066593
0.75590628 -0.025635248 0.10580624 14803678
0.76311123 -0.024367578 0.10079786 15001314
0.75576663 -0.014794362 0.10611823 14343127
0.76308328 -0.014937446 0.10089328 14540763
0.75603449 -0.0049428823 0.10542057 14408664
0.7626667 -0.0080838604 0.10054194 14606812
0.75582862 0.0045405282 0.10536538 14474713
0.76380002 0.0070410431 0.10045324 14343897
0.75546676 0.015278181 0.10607503 14474713
0.76325005 0.01543478 0.10091529 14474969
0.75550014 0.025194706 0.10550752 14145748
0.76333332 0.023776829 0.10062931 14277334
0.75433332 0.034678772 0.10502693 14079699
0.75443757 0.045061193 0.10559669 14540252
0.76312506 0.045577489 0.10067613 14343384
0.75543994 0.055067506 0.10606943 14606045
0.76375008 0.054780424 0.10098141 14343384
0.7547189 0.064954162 0.10563494 14474716
0.76275009 0.063634813 0.10084967 14409177
0.75553137 0.074918382 0.10558353 14474974
0.76200008 0.078736477 0.1007511 14606044
0.75785714 0.082871214 0.10666705 15132902
0.76300001 0.08547125 0.10419653 14935009
0.77260005 0.087430246 0.1019731 13750736
0.76599997 0.091702327 0.10800514 14079695
0.77380008 0.094327576 0.10611259 12040114
0.78581828 0.097086072 0.1033128 11777198
0.77750003 0.10127147 0.10917339 11448231
0.78633338 0.10441811 0.10749584 11711404
0.79268426 0.10554418 0.10290185 11711405
0.78900003 0.11107937 0.10894111 11711405
0.78900003 -0.162286 0.1144823 10657952
0.76900005 -0.15097131 0.11698106 13025730
0.77530003 -0.15439256 0.11322298 10723746
0.7853334 -0.15969332 0.11487106 10592159
0.75649995 -0.14308061 0.11533255 15395044
0.76187509 -0.14734416 0.11411393 14605531
0.75334299 -0.134799 0.11535262 15724523
0.75209689 -0.12493386 0.1154267 15724524
0.75238889 -0.1151264 0.11532912 15527144
0.75166678 -0.10485609 0.1149786 15658731
0.75181812 -0.095277019 0.11548427 15658731
0.75169456 -0.085103869 0.11522559 15592936
0.75257146 -0.074755758 0.11523259 15395814
0.7523548 -0.065093733 0.11546467 15198178
0.75150013 -0.055174779 0.11519371 15461349
0.75091684 -0.044582054 0.11510733 15132385
0.75276685 -0.034999572 0.11539192 14935010
0.75394428 -0.02534779 0.11557277 14606045
0.75336111 -0.014748891 0.11548253 13750734
0.75146675 -0.0050356588 0.11518942 13882577
0.75133336 0.0046416884 0.11516881 14211541
0.75172228 0.015200847 0.11522905 14145491
0.74880004 0.026536396 0.11741389 13816526
0.75050008 0.02396089 0.11372612 13948112
0.74843305 0.034408104 0.11560314 13947600
0.75000006 0.03448033 0.11057924 14013905
0.74839979 0.044743959 0.11629906 14343129
0.75045455 0.045442615 0.11144435 14408666
0.74839127 0.055620514 0.1165873 14408667
0.75046158 0.055244587 0.11172775 14342874
0.74839979 0.065067083 0.11559799 14277081
0.75000006 0.065206185 0.11057924 14540253
0.74850005 0.073156185 0.11658753 14342876
0.75072229 0.076498456 0.11322248 14474975
0.75500005 0.084967695 0.11521133 15329770
0.76000005 0.089204863 0.11027446 14540506
0.75849998 0.091914698 0.11693706 15921906
0.76231593 0.095396996 0.11464588 15592940
0.77200001 0.098927259 0.11165184 15066850
0.76675004 0.10121706 0.11843142 15922160
0.77471435 0.10518586 0.11551578 12171701
0.78316671 0.10811842 0.11210331 11645867
0.78695655 0.11439999 0.11506356 11645611
0.79000002 0.1180013 0.11154505 11645866
0.79212016 0.1245033 0.11493424 11645611
0.78900003 -0.162286 0.12464115 10262934
0.76900005 -0.15097131 0.12508217 12236726
0.77816671 -0.15641433 0.12475011 9802642
0.78580004 -0.15978822 0.12505446 10197654
0.75650001 -0.14320785 0.12481961 14408408
0.7622 -0.14785197 0.12486778 13487307
0.74900001 -0.13126406 0.12971945 15987442
0.75148153 -0.1351556 0.12525986 15592938
0.74899983 -0.12472859 0.12692994 15724269
0.75000006 -0.12592123 0.122995 15921648
0.74899989 -0.1134249 0.12667003 15461352
0.75000006 -0.11685298 0.1231397 15592682
0.74900001 -0.10521321 0.12558636 15592937
0.75000006 -0.10159135 0.1219917 15790063
0.75011116 -0.095459864 0.12552124 15263718
0.74900001 -0.080999292 0.12913497 15263719
0.75024247 -0.085285522 0.12519705 15132390
0.74900001 -0.074102506 0.12849204 15066340
0.75000006 -0.075781628 0.12392305 15066596
0.74900001 -0.065218486 0.12615414 14869216
0.75000006 -0.067061327 0.12140644 14803678
0.74899995 -0.05640642 0.12560567 14803422
0.75000006 -0.05137651 0.12480092 14737629
0.75008339 -0.044533558 0.12551671 14869215
0.75150007 -0.035075247 0.12507558 14803679
0.75356668 -0.025334101 0.12521738 14146265
0.75330001 -0.014748262 0.12517416 13684943
0.75048155 -0.0048342263 0.1250964 13158855
0.74899983 0.0043073678 0.12605317 13487819
0.75000006 0.0051339953 0.12437452 13619405
0.74899983 0.015377421 0.12778147 13487563
0.75000006 0.014908729 0.12276632 13750990
0.74834484 0.02488856 0.12537673 13422025
0.75000006 0.021312103 0.12111381 13882576
0.74783313 0.034380849 0.12514074 13290185
0.74799973 0.04489487 0.12516859 13816273
0.74797195 0.055399135 0.12516394 13619151
0.74763316 0.06500081 0.12510738 13619151
0.74783325 0.073773526 0.12514086 13882324
0.75000006 0.079252295 0.12550323 13816531
0.75296432 0.084923036 0.12492644 14803940
0.75757158 0.093989789 0.12524863 15330026
0.76020002 0.099194065 0.12560718 15527147
0.76446152 0.10239759 0.12468664 15921905
0.7735455 0.10742493 0.12409309 13487562
0.77900004 0.11149517 0.12518901 11711405
0.78641182 0.11581082 0.12439483 11645611
0.79000002 0.11861777 0.12942263 11579819
0.79228586 0.12433127 0.12482978 11579818
0.78900003 -0.162286 0.13479999 10000275
0.76900005 -0.15097131 0.13498349 11052706
0.77657145 -0.15557598 0.13475373 9803153
0.78533334 -0.15969333 0.13509434 10000276
0.75511765 -0.14284255 0.13493551 14012879
0.76200002 -0.14781319 0.1346467 12631738
0.74861538 -0.13294974 0.13571857 14803166
0.75064284 -0.13707595 0.13376783 15263203
0.74883336 -0.12509842 0.13494921 15329769
0.74900001 -0.11460657 0.13497974 15395561
0.74899989 -0.10503579 0.13483359 15329512
0.75000006 -0.10334711 0.13867146 15592941
0.74899983 -0.095717423 0.13505942 15263975
0.75000006 -0.094348826 0.13494046 15263974
0.74893326 -0.084791213 0.13496763 15000802
0.74899995 -0.07515455 0.13497971 15000801
0.74899989 -0.066270538 0.13299249 14737628
0.75000006 -0.064837366 0.1371498 14606043
0.74900001 -0.05726964 0.13182357 15263972
0.75000006 -0.054607108 0.135792 14868958
0.7511999 -0.044598721 0.13537796 14737630
0.75224155 -0.03485433 0.13483793 14803164
0.75302798 -0.025317267 0.13482399 14145492
0.75322235 -0.014744189 0.13485904 13290186
0.75246441 -0.0052316524 0.13503952 12895428
0.74900001 0.0075067943 0.1329758 13224393
0.75034791 0.0037550877 0.1358345 13158600
0.74893105 0.015175303 0.13484643 13027014
0.75000006 0.014289048 0.13867146 13092807
0.74824005 0.024765467 0.13484378 12895427
0.74844819 0.034258395 0.13476072 12895683
0.75000006 0.038869739 0.13867146 12895428
0.74868417 0.044705223 0.13335544 13092806
0.75000006 0.045413949 0.13787338 12829889
0.74883324 0.05604716 0.13421975 13421772
0.75000006 0.053208482 0.1380862 13224647
0.74848002 0.065073483 0.13488714 13158600
0.74826652 0.074691191 0.13484733 13684944
0.74900001 0.081338398 0.13717149 14211290
0.75200003 0.08538191 0.13432185 14343646
0.7561667 0.094130374 0.13508879 14672866
0.76000005 0.099879913 0.13607249 15527403
0.76372737 0.10297337 0.1345451 15658731
0.77336365 0.10789221 0.13525654 11908528
0.78641671 0.11501456 0.13466707 11645867
0.79000002 0.11861776 0.13497084 11645611
0.79333329 0.12489978 0.13512713 11514281
0.78900003 -0.162286 0.14495884 10065555
0.76866674 -0.15090586 0.14482047 12170678
0.77685708 -0.1558926 0.14519064 9999508
0.78540003 -0.15970688 0.14521533 9999764
0.75500011 -0.14292452 0.14489599 14013395
0.76116675 -0.14765155 0.14519069 12697279
0.74833333 -0.13289988 0.1444948 14934751
0.75025004 -0.13763064 0.14486401 14539996
0.74830544 -0.12500995 0.14448856 15197923
0.74900007 -0.11480454 0.14482151 15263716
0.75000006 -0.11353054 0.1435876 15263974
0.74900001 -0.10759286 0.14023997 15197926
0.75000006 -0.10491476 0.14513017 15132390
0.74900001 -0.094968222 0.14111669 15198183
0.75011545 -0.095595516 0.14619018 15198439
0.74899983 -0.084798366 0.1419934 14803424
0.75022227 -0.084936753 0.14749447 14671837
0.74900001 -0.076713152 0.14160375 14935007
0.75009102 -0.074385591 0.14627124 14606043
0.75040007 -0.065506615 0.14477019 14737629
0.75133348 -0.055160072 0.1450768 14737628
0.75280023 -0.044820685 0.14523233 14803165
0.75320017 -0.035021681 0.14455362 14869214
0.75326669 -0.025324756 0.14456661 14408663
0.75396651 -0.014758502 0.14470018 13684941
0.75320017 -0.0050466461 0.14543411 13224391
0.75175017 0.0046411734 0.14515629 13224393
0.74900001 0.016023418 0.14023997 12763842
0.7505455 0.015097657 0.14532341 13027270
0.74900001 0.025041018 0.14074095 12763842
0.75034779 0.024758499 0.14606856 12829635
0.74900001 0.031365864 0.14067832 12960964
0.75090635 0.034908149 0.14548877 12960965
0.75225013 0.045150381 0.14525446 12895428
0.75123543 0.055379756 0.14485158 12829635
0.74900001 0.068041623 0.14316234 13421772
0.75019234 0.064141452 0.14546248 13158600
0.74900001 0.074430525 0.14374681 13487566
0.75000006 0.07624241 0.14845358 13619153
0.74900001 0.081338398 0.14155504 14079704
0.75187498 0.085027896 0.14532651 14079961
0.75695831 0.094020821 0.14483142 14541023
0.76000005 0.098693788 0.14585793 14804450
0.76453847 0.10199587 0.1447967 15067366
0.77361542 0.1073844 0.14568281 11711664
0.77900004 0.11149517 0.14220977 11711404
0.78600001 0.11490775 0.14532408 11579818
0.79000002 0.11861777 0.14514256 11514281
0.79312015 0.12465981 0.14478855 11382952
0.78820002 -0.16212144 0.15495947 9999762
0.76666665 -0.15051322 0.15521233 12368570
0.77425003 -0.15472247 0.15493536 9868690
0.78233337 -0.15908329 0.15471922 9934482
0.75400001 -0.14273591 0.15499857 13882067
0.76059997 -0.14754163 0.15487456 13092550
0.74860853 -0.1337869 0.15548143 15000546
0.75000006 -0.13796072 0.15397167 14671582
0.74813867 -0.12498242 0.15496589 15066595
0.74899995 -0.11711144 0.15351591 15132389
0.75009102 -0.1131769 0.15640786 15263975
0.75066668 -0.10519668 0.15548985 15066853
0.75052774 -0.095511623 0.15546037 15000804
0.7517097 -0.085246265 0.15499695 15066338
0.75093544 -0.074895367 0.15517619 14737114
0.75052941 -0.06538485 0.15566611 14802652
0.75167668 -0.055392947 0.15543859 14671580
0.75300014 -0.044564229 0.15492004 14737628
0.75399983 -0.03505832 0.15441465 14606042
0.75397205 -0.025349079 0.15440908 14342870
0.75386095 -0.014757444 0.15438604 13816526
0.75288016 -0.0050442056 0.15506624 13684942
0.75240022 0.0046488107 0.1549674 13355979
0.75290012 0.015225222 0.15507109 12895684
0.75264025 0.024911005 0.15501858 13027014
0.75326663 0.034631908 0.15514778 13027014
0.75366664 0.045235302 0.15522948 13092807
0.75308013 0.054895096 0.15510853 13092550
0.75131255 0.064657353 0.15507454 12763842
0.75138718 0.074862808 0.15493158 13224651
0.75540739 0.085328996 0.15519688 14277083
0.75813055 0.093308263 0.1550692 14211290
0.76020002 0.098126546 0.15479547 14672097
0.76570004 0.10152842 0.1550169 14869476
0.77515382 0.10717905 0.15448894 12171960
0.78100002 0.10995308 0.15720154 11514026
0.78600001 0.11363388 0.15452734 11579818
0.79137504 0.1181304 0.15628047 11514281
0.78700012 -0.16187464 0.16485758 9933968
0.76500005 -0.15018602 0.16114455 12762302
0.77333331 -0.1548443 0.16546647 10920610
0.78000003 -0.15860882 0.16339125 9999762
0.75379997 -0.14331838 0.16531357 14144725
0.76200002 -0.14892986 0.1645292 13683917
0.74820691 -0.13450834 0.16533779 14934496
0.74829406 -0.12521386 0.16525082 15329255
0.74900001 -0.11899012 0.16215776 15066340
0.75032145 -0.11449367 0.1652666 15329511
0.75140005 -0.10529989 0.16531554 15329512
0.75130004 -0.095610246 0.16529593 15132133
0.75248587 -0.085065961 0.16480072 14803424
0.75193346 -0.074863464 0.16537626 14605786
0.75061542 -0.064976186 0.16501068 14671579
0.75231254 -0.055010989 0.1651884 14606044
0.75394428 -0.044762045 0.16499549 14605530
0.75413316 -0.03506491 0.16503525 14671580
0.75416642 -0.025354868 0.16504256 14277078
0.75430548 -0.014767122 0.1650741 13882320
0.75296676 -0.0050450838 0.16478108 13487818
0.75300002 0.0046518524 0.16478871 13619405
0.75377774 0.015244171 0.16495854 13421771
0.75493336 0.024987692 0.165213 12961221
0.75542873 0.034806084 0.16519435 13158600
0.75538903 0.045337893 0.16531204 13290442
0.75443333 0.054993305 0.16510259 13355978
0.75282365 0.06436082 0.16500849 12961219
0.75308585 0.07529939 0.16493231 13487563
0.75674069 0.085085265 0.1651132 14342874
0.75891668 0.09218698 0.16474923 14145239
0.76093346 0.096797414 0.16527708 14605531
0.76600003 0.10066843 0.1649435 15263717
0.77336365 0.10493276 0.16587196 13553356
0.78636366 0.11205003 0.16463917 11448233
0.79271424 0.11730534 0.16539207 11514025
0.78740007 -0.16195689 0.17508104 9933968
0.77162504 -0.1539728 0.17405231 11052452
0.78060007 -0.15873083 0.17539597 9868176
0.75375009 -0.14357366 0.17509304 14342102
0.76240003 -0.14967558 0.1748738 13421000
0.74823999 -0.13463578 0.17477985 15263459
0.75000006 -0.13846238 0.17905402 15000030
0.74812484 -0.12476138 0.17477465 15131618
0.74895442 -0.11563545 0.17601487 15197925
0.75000006 -0.11312921 0.17215636 15263718
0.74900001 -0.10846957 0.17881526 15197926
0.75048399 -0.10471621 0.17474787 15263719
0.75271893 -0.095734701 0.17491284 15461098
0.75360006 -0.085319154 0.17462231 15066595
0.75403321 -0.074775949 0.17472339 14671835
0.75404 -0.065069787 0.17472559 14540249
0.75449997 -0.055392008 0.17483155 14737374
0.75596696 -0.044883084 0.17516947 14737375
0.75564003 -0.035135038 0.17509483 14539482
0.75526673 -0.02539083 0.17500739 14342102
0.7561003 -0.014800107 0.1752011 13881809
0.75568008 -0.0050627775 0.175106 13684687
0.75560021 0.0046669361 0.17508759 13289929
0.75583351 0.015285792 0.1751401 13158853
0.75644022 0.025037246 0.1752803 13027267
0.75693548 0.034713812 0.17522253 13224648
0.75706667 0.045438744 0.17542449 13224649
0.75632012 0.055131465 0.17525239 13487563
0.75519997 0.064772986 0.17499521 13289927
0.75479996 0.075343482 0.17490192 13289926
0.75750005 0.085557409 0.17495528 14211284
0.75900006 0.090864323 0.17409535 14540763
0.76178271 0.095311932 0.17543049 14343129
0.76875007 0.10102984 0.17453325 15131874
0.77427781 0.10498366 0.17528026 12500667
0.78566664 0.112209 0.17530489 11382953
0.79178572 0.11756372 0.17459533 11448744
0.79313338 0.12465727 0.17542262 11382951
0.78750008 -0.16197746 0.18524313 9802382
0.76900005 -0.15277156 0.18629041 12894402
0.77200007 -0.15427351 0.18340497 11381160
0.78049999 -0.15871049 0.18542255 9802383
0.75400001 -0.14374521 0.18505208 14211031
0.76133341 -0.14946616 0.18443239 13092038
0.74818188 -0.13351022 0.18443227 15263716
0.75000006 -0.13802344 0.18607709 15066337
0.74805534 -0.12496945 0.18471971 15131875
0.74819422 -0.11448244 0.18475278 15198181
0.74890465 -0.10620137 0.18505374 15329513
0.75000006 -0.10217661 0.18490656 15592941
0.75245464 -0.095674165 0.18476327 15527146
0.7543053 -0.085398093 0.18449761 15132387
0.75566685 -0.074937344 0.18483014 14671835
0.75600034 -0.065238073 0.18491097 14540506
0.75600034 -0.055504125 0.18491097 14540250
0.75602812 -0.044886749 0.18491788 14474460
0.75603366 -0.03515302 0.18491933 14342617
0.75519431 -0.025390698 0.18471408 14079444
0.75619459 -0.014800714 0.18495806 13816271
0.75700003 -0.0050712451 0.18515557 13816271
0.75700003 0.0046755844 0.18515557 13750479
0.75688899 0.015305981 0.18512769 13553358
0.75696665 0.025054365 0.1851472 13290185
0.75700003 0.034802143 0.18515554 13553611
0.75713891 0.045442905 0.18518895 13750990
0.75706673 0.055186968 0.18517224 13553614
0.75744444 0.064967223 0.18526585 13553357
0.7571944 0.075580411 0.18520392 13487565
0.75817871 0.085253119 0.18512705 14080215
0.7624616 0.094924845 0.185048 14343130
0.77468431 0.10458555 0.18484965 12369083
0.78647625 0.11344767 0.18478028 11448488
0.79000002 0.11861776 0.18490474 11448488
0.79160005 0.12442007 0.1852801 11382695
0.78659999 -0.16179235 0.19515623 9802381
0.76749998 -0.15247355 0.19490582 12762815
0.77588898 -0.15696807 0.19633009 9933714
0.7544167 -0.14369625 0.19512071 14276567
0.76050013 -0.14930256 0.1949116 13223623
0.74900001 -0.13257913 0.19152758 15132386
0.75023818 -0.13541286 0.19550301 15000801
0.7486251 -0.12451804 0.19515616 15263972
0.75000006 -0.12968357 0.19661164 15527144
0.74805528 -0.11446173 0.19522658 15329765
0.74899989 -0.10693533 0.19503444 15329765
0.75061542 -0.10234945 0.19569302 15132386
0.75275767 -0.095393077 0.19461143 15527144
0.75436091 -0.08540386 0.19510545 15461095
0.75547206 -0.074918814 0.19539195 15066593
0.75593364 -0.065232083 0.19551216 14606042
0.75637519 -0.055751409 0.19507368 14342617
0.75730002 -0.044962242 0.19498071 14211288
0.75672007 -0.035185538 0.19483116 14211288
0.75570005 -0.025408247 0.19456878 13948370
0.75640017 -0.014805239 0.19474879 13685197
0.75680006 -0.0050707478 0.19485071 13882320
0.75628597 0.0047977879 0.1954761 13750735
0.75608373 0.015290045 0.19555108 13750991
0.7559669 0.025021033 0.19552067 13487563
0.75608361 0.03476062 0.19554977 14014162
0.75693548 0.045288641 0.19505692 14079955
0.75708008 0.055187985 0.19492263 13882579
0.75730002 0.064954787 0.19497842 13553872
0.75717849 0.075262688 0.19475804 13619921
0.75842315 0.084855638 0.19485876 14409439
0.76000005 0.08920487 0.19745398 15067368
0.76279998 0.094398811 0.19460642 14672095
0.77000004 0.099391535 0.19734816 15264231
0.77415383 0.10313652 0.19485749 12763839
0.78200006 0.10826319 0.19584984 11448233
0.78738469 0.11255621 0.19421726 11448487
0.79084617 0.11703677 0.19550054 11448487
0.78492302 -0.16229902 0.20533521 9868175
0.76333332 -0.15164579 0.20457244 12960447
0.77100009 -0.1549738 0.20481987 10788765
0.75507152 -0.1446463 0.20519818 14210771
0.74900001 -0.1330175 0.20730838 14869214
0.75018191 -0.13562287 0.20344447 14934750
0.7489655 -0.12497036 0.20522827 15132387
0.75000006 -0.12968357 0.20100106 14869214
0.74839991 -0.11451436 0.20495246 14934496
0.74874997 -0.10682627 0.20606999 15592170
0.75084215 -0.10290635 0.2035844 15658219
0.75230312 -0.095336385 0.20537737 15395304
0.75352782 -0.085310556 0.20547271 15658476
0.75421202 -0.075034261 0.20525825 15198181
0.75607169 -0.064674444 0.20547318 14935009
0.75690323 -0.054912519 0.20465189 14539996
0.75799984 -0.045004003 0.20491952 14211031
0.7572667 -0.035211213 0.20472099 14276824
0.75700003 -0.025450977 0.20464921 14013906
0.75700003 -0.014818074 0.20464918 13948111
0.75700003 -0.0050712451 0.20464921 13750732
0.75619382 0.0045268936 0.20514457 13816783
0.75563341 0.015279641 0.20516326 13750990
0.75426918 0.025032282 0.204996 13553612
0.75479996 0.03470334 0.20493689 13750991
0.75657159 0.045537282 0.20465901 14079698
0.75703335 0.055184457 0.20465845 14014162
0.75741667 0.064964727 0.20476344 13948114
0.75766665 0.074742071 0.20483045 13553615
0.75855553 0.083314665 0.20477363 14212316
0.7601251 0.088552341 0.20593926 15067881
0.76361901 0.09414681 0.20486389 14672609
0.77150005 0.099585153 0.20496069 15198440
0.7751112 0.10287637 0.20379718 12303288
0.78485715 0.1081357 0.20601293 11514026
0.78833342 0.11129335 0.20420146 11579819
0.77900004 -0.16022913 0.21606772 9736334
0.78566664 -0.16313531 0.21485321 9604748
0.79345453 -0.16793385 0.21492282 9605517
0.76339996 -0.15165904 0.21442291 13091520
0.77099997 -0.15527581 0.21505444 10854301
0.74900001 -0.14003117 0.21739058 14934754
0.7536819 -0.14412111 0.21449538 13947345
0.76000005 -0.1492044 0.21613529 13157572
0.74867851 -0.13446301 0.21491781 14935007
0.75000006 -0.13846238 0.21153565 14803421
0.74897236 -0.12512226 0.21475251 14869214
0.74836099 -0.11451034 0.21457714 14935008
0.74816638 -0.10484548 0.21452068 15066595
0.74857682 -0.096005954 0.21585125 15197926
0.75010002 -0.093526982 0.21191487 15263976
0.74900001 -0.08918193 0.21826728 15329512
0.75126475 -0.084794074 0.21519966 15527147
0.75342435 -0.074474223 0.21466535 15264231
0.75597245 -0.064347453 0.21499 15329766
0.75713331 -0.054700617 0.21532008 15000543
0.75738883 -0.044968829 0.21539168 14342614
0.75700003 -0.035197809 0.21528213 14277077
0.75700003 -0.025450977 0.21528214 13816785
0.75700003 -0.014818074 0.21528213 14013907
0.75640011 -0.0050681629 0.21511 13487818
0.75502771 0.0046621985 0.21471857 13750734
0.75350004 0.015236343 0.21428496 13619149
0.75224245 0.024950489 0.21480501 13421771
0.75344437 0.034640107 0.21426874 13750737
0.75602794 0.045379844 0.21500489 13816530
0.75740737 0.055015795 0.21490547 13948116
0.75799996 0.065014474 0.21467929 13882066
0.75782138 0.074946269 0.21519807 13947859
0.75849998 0.082815155 0.21482086 14277338
0.76054555 0.088460177 0.21491432 15395816
0.76468754 0.093340911 0.21455768 15263974
0.77211112 0.098461002 0.21566184 14934752
0.7761429 0.10200275 0.21514598 11579564
0.78588891 0.1075801 0.21684788 11316902
0.78900003 0.11107937 0.21052958 11382440
0.77900004 -0.16022913 0.22245049 9868176
0.78411126 -0.16230397 0.22492576 9605517
0.79227275 -0.16751455 0.22489028 9539980
0.76550007 -0.15207623 0.2248686 12631742
0.77280003 -0.15606132 0.22520335 9934229
0.74900001 -0.14003117 0.22089741 14408410
0.75285715 -0.14344469 0.22530526 14210774
0.76033336 -0.14926983 0.22513063 13223879
0.74837923 -0.13453975 0.22494312 14868961
0.75000006 -0.13846238 0.22997117 15132133
0.74852765 -0.12504713 0.22513792 15066593
0.74831396 -0.11462769 0.2249482 14803421
0.74796754 -0.104987 0.22511107 15066593
0.74799973 -0.09519165 0.22498018 15329764
0.74879992 -0.086002134 0.22616687 15526633
0.75009096 -0.082128093 0.22345376 15526891
0.75207698 -0.07478188 0.22491668 15395305
0.75557578 -0.064554125 0.22508667 15263716
0.75700003 -0.054691456 0.22502893 15066337
0.75700003 -0.044944633 0.22502893 14474456
0.75700003 -0.035197806 0.22502895 14277077
0.75700003 -0.025450978 0.22502892 13750990
0.75700003 -0.014818073 0.22502898 13422026
0.75566685 -0.0048669684 0.2250251 13290439
0.75361109 0.0046534161 0.224904 13553611
0.75277793 0.015222452 0.22465594 13553611
0.75180775 0.024746509 0.22504522 13356232
0.75252795 0.034597937 0.22458138 13619150
0.75511771 0.045118332 0.22509119 13816530
0.75724995 0.055390634 0.22453225 13816530
0.75755554 0.064975761 0.2243059 13816530
0.75714821 0.074493341 0.22467853 13882066
0.75849992 0.082815163 0.22458698 14408666
0.76050013 0.088373967 0.22517921 15067109
0.76491672 0.092769086 0.22484286 14803680
0.7718001 0.097096048 0.22545223 15132130
0.77709097 0.10130113 0.22504805 11382184
0.78653336 0.10705359 0.22521538 11382440
0.78433341 -0.16224772 0.23498775 9605002
0.79190916 -0.16760534 0.23489861 9605259
0.76620001 -0.15221529 0.23493949 12762558
0.77437502 -0.15701321 0.23563033 9538955
0.75390917 -0.14368372 0.23509869 14276308
0.7608 -0.14936146 0.23506472 13288901
0.74813038 -0.13362594 0.23533604 15066593
0.75000006 -0.13846238 0.23523843 14408920
0.74749988 -0.12487723 0.23532782 15000800
0.7468999 -0.11516011 0.23513958 14737372
0.74697208 -0.10555249 0.23516273 14803421
0.74755532 -0.095133841 0.23534591 15066337
0.7483713 -0.08485084 0.23547791 15329509
0.74900001 -0.078661397 0.23755491 15395047
0.75106454 -0.073939875 0.23489015 15329512
0.75453341 -0.06493102 0.23471431 15526890
0.75620025 -0.055391748 0.2346534 15395559
0.75694442 -0.044941138 0.2347583 15000544
0.75703335 -0.035199277 0.23478624 14210770
0.75700003 -0.025450977 0.23477575 13816524
0.75655568 -0.014810677 0.23463662 13422023
0.75553578 -0.0052518114 0.23463622 13356231
0.75388223 0.0048630936 0.23531313 13553611
0.75368571 0.015116083 0.23538491 13553611
0.75379997 0.024949024 0.2346665 13356233
0.75396657 0.034663353 0.23471938 13619407
0.75509375 0.04554344 0.23473778 13750993
0.75603348 0.055112038 0.23447517 13685457
0.75608361 0.064849466 0.23449019 13619664
0.75663346 0.074640468 0.23466153 13948116
0.75842863 0.082426779 0.2348381 14145495
0.76116675 0.088006645 0.23562302 15132900
0.76619995 0.092624515 0.23494227 14803679
0.77210009 0.09695287 0.234942 14737632
0.77560008 0.10011438 0.23418991 11053477
0.787 0.10669039 0.23507938 11382440
0.79000002 0.10937075 0.23483866 11382440
0.78540003 -0.16246814 0.24542026 9605002
0.79280007 -0.16770887 0.24495244 9605002
0.7665 -0.15227489 0.2448979 12565175
0.77514285 -0.15710412 0.24571469 9670540
0.74900001 -0.14003117 0.24895218 14868961
0.75352174 -0.14364485 0.24492958 14144723
0.76083332 -0.149368 0.24486931 12828347
0.74781471 -0.13475464 0.24466704 15000546
0.74667645 -0.12453441 0.24529979 14935009
0.74637043 -0.11527137 0.24497187 14803421
0.74693322 -0.10554711 0.2447684 14671836
0.74763322 -0.095144019 0.24499843 15263459
0.74861288 -0.084611699 0.24514933 15330022
0.74899983 -0.076240011 0.24536183 15461608
0.75033337 -0.072067104 0.24295425 15461096
0.7525714 -0.065340243 0.24530226 15658476
0.75549996 -0.055465721 0.24492104 15592938
0.75671434 -0.045052569 0.24518953 15198179
0.75776011 -0.035232387 0.2447688 14474456
0.75749999 -0.025247803 0.24501675 13619146
0.75525004 -0.01478704 0.24484038 13092802
0.7538386 -0.0049371696 0.24458086 13027265
0.75205278 0.0044568824 0.24523625 13224647
0.75194597 0.015327445 0.24536037 13290440
0.75379997 0.024950026 0.24437048 13356232
0.75566685 0.034742601 0.24497628 13684941
0.75600034 0.04537503 0.24508449 13751247
0.75600034 0.055108979 0.24508448 13685455
0.75580579 0.064826488 0.24502185 13685710
0.75679314 0.074533723 0.24518952 13816787
0.75833338 0.081908949 0.24495329 14277083
0.76135302 0.08747901 0.24477513 14803681
0.76780003 0.091917828 0.24441862 14803422
0.77340007 0.096212126 0.24499287 13816526
0.778 0.10042417 0.24311236 11119269
0.78600001 0.10525789 0.24537504 11316647
0.79000002 0.10937075 0.24593508 11316647
0.78472728 -0.16224588 0.25497463 9539209
0.79318184 -0.16770577 0.25485763 9539209
0.76383334 -0.15174513 0.2547732 12566200
0.77389997 -0.15664576 0.25523221 9802381
0.74900001 -0.14003117 0.25508916 14605785
0.75395465 -0.14521813 0.25508764 14079697
0.76000005 -0.1492044 0.25082919 13618375
0.7471332 -0.13443631 0.25445309 14934749
0.74609393 -0.12486035 0.25464463 15000286
0.74632156 -0.11488227 0.25448772 14737371
0.74705541 -0.10556404 0.25442687 14606042
0.74783301 -0.095170438 0.25469103 14671579
0.7480275 -0.08468736 0.25475609 14935008
0.74823326 -0.075077854 0.25482544 15198180
0.74852163 -0.066496707 0.25641078 15329766
0.75078577 -0.063656561 0.25280809 15527145
0.74900001 -0.058497038 0.2594727 15329765
0.7529189 -0.055298161 0.2548233 15592939
0.75638241 -0.045007899 0.25525746 15987183
0.75806671 -0.03524724 0.2546277 15066596
0.75761753 -0.025681986 0.25473717 14145493
0.75459993 -0.01464853 0.25510243 13750990
0.74900001 -0.0020952814 0.25888821 14277334
0.75193113 -0.0052822065 0.25453609 13948369
0.7484287 0.005310399 0.25583136 14079955
0.75012505 0.0022182136 0.2521795 13750990
0.74860001 0.013094675 0.25699684 14014162
0.75033337 0.016638312 0.25407863 13948369
0.75253135 0.024744267 0.25491148 13948369
0.75369459 0.034650985 0.25492004 14079956
0.75461107 0.045292262 0.25522932 14211286
0.75506663 0.05504103 0.25538445 14145493
0.75524998 0.064779818 0.25544712 14277080
0.75692594 0.074669965 0.25512889 14277082
0.75861114 0.081938952 0.25481021 14540255
0.76152945 0.087604523 0.2548967 15263978
0.76814288 0.091958866 0.25531018 15000805
0.77416676 0.096307665 0.25520012 13027270
0.77900004 0.10055325 0.25892356 11053475
0.78580958 0.10441925 0.25487661 11250597
0.79000002 0.10937075 0.25425738 11250854
0.77850008 -0.1601263 0.26513487 9605002
0.78659999 -0.16400531 0.26494947 9539210
0.79266667 -0.16799039 0.26408461 9539209
0.76350003 -0.15212867 0.26583728 12237238
0.7725001 -0.15636247 0.26490071 10197140
0.74887502 -0.14176093 0.26556462 14606042
0.75421059 -0.14630774 0.26480225 14013648
0.74714279 -0.1351877 0.26507571 15132386
0.74597239 -0.12462172 0.26453555 15263971
0.74590021 -0.11500517 0.26450977 15066593
0.74638897 -0.10546948 0.26468247 15000801
0.74666667 -0.095021993 0.26478064 14737373
0.74663889 -0.084530957 0.26477075 14935265
0.74666673 -0.074920431 0.26478067 15066594
0.74691653 -0.065327637 0.2648693 15132389
0.74793088 -0.055725336 0.26586282 15526891
0.75080001 -0.051957987 0.26255527 15592939
0.74900001 -0.047976501 0.26999325 15527148
0.7538684 -0.044659238 0.26496157 15790062
0.75719994 -0.035206635 0.26497063 15132389
0.75610524 -0.025238171 0.26491109 14145236
0.74862504 -0.012245081 0.26876247 13816526
0.75245458 -0.015240893 0.26440161 13684942
0.74780762 -0.0046066497 0.26572344 14079701
0.75066668 -0.0076651946 0.26180625 13948115
0.74680543 0.004612064 0.2648299 14145495
0.74738872 0.015116208 0.26503652 13948116
0.7486999 0.024255509 0.2670801 13816530
0.75030774 0.026050242 0.26222187 14013908
0.74900001 0.032023396 0.26802063 13882322
0.7504335 0.035026468 0.26365665 14079700
0.75188905 0.04513121 0.26487219 14342870
0.75313348 0.054900173 0.26531154 14079699
0.75333339 0.064614795 0.26538143 14211287
0.75568968 0.074671395 0.26459453 14342873
0.75843751 0.08180923 0.26485077 14737377
0.76105887 0.087653808 0.26480266 15066857
0.76600009 0.092216685 0.26561746 15264236
0.77321428 0.096448071 0.26462808 11974327
0.77900004 0.10055325 0.26378664 11250597
0.78669566 0.10563768 0.26444009 11250597
0.79000002 0.10937075 0.26812792 11119268
0.79215389 0.11538012 0.26493543 11119268
0.78475004 -0.16401778 0.27475658 9473418
0.79133338 -0.16832352 0.27506003 9473418
0.76300007 -0.152476 0.2750369 12434873
0.77399999 -0.15837902 0.27488419 9539214
0.74763644 -0.14232263 0.27522844 14013652
0.75459999 -0.14726381 0.27465934 13816526
0.74619454 -0.13514151 0.27509463 15000545
0.74525034 -0.1245013 0.27474669 15329766
0.74500018 -0.11486652 0.27465555 15395558
0.74519479 -0.10530161 0.27472618 15197922
0.74497247 -0.0948065 0.2746439 14934752
0.74500024 -0.08504869 0.27451348 15198180
0.74474329 -0.075474724 0.27468413 15132130
0.74519467 -0.065177195 0.27472571 15001059
0.74647224 -0.054803018 0.27519649 15263976
0.74796426 -0.045344446 0.2761218 15527146
0.75145459 -0.041814893 0.27231503 15527147
0.74900001 -0.038332678 0.27876034 15724523
0.75358832 -0.034933757 0.27501252 15132389
0.74900001 -0.020798454 0.27700689 13553354
0.75286478 -0.02586462 0.27490625 14211030
0.74714285 -0.014502788 0.27556849 13553354
0.75000006 -0.018485205 0.27093899 13553354
0.74580026 -0.0049969167 0.2749483 13685454
0.745278 0.004603181 0.27475661 13751249
0.74600011 0.015088249 0.27502295 13619150
0.74758613 0.024624748 0.27545694 13487565
0.74899983 0.032634791 0.27543804 13684941
0.75000006 0.03699692 0.27398232 13750734
0.75150013 0.045108583 0.27529153 13684941
0.75213355 0.054826654 0.27552328 13684942
0.75144458 0.064453043 0.27527031 13947857
0.75477421 0.074631758 0.27486712 14474456
0.75864285 0.08168859 0.27410296 14737375
0.7614736 0.086941324 0.27533391 15066341
0.76644444 0.092355616 0.27388635 15658477
0.77353859 0.096508905 0.27535164 11908531
0.78744447 0.10451231 0.27463663 11184804
0.79149997 0.10865283 0.27419725 11119011
0.77900004 -0.16022913 0.28992566 9407625
0.78591675 -0.16502911 0.28421655 9341832
0.79033333 -0.16811079 0.2867437 9539211
0.76462507 -0.15257661 0.28502011 11710380
0.77381819 -0.15784851 0.28503123 9407368
0.74683338 -0.14224903 0.28494561 13355466
0.75641662 -0.14761835 0.2850599 13223879
0.74505574 -0.13493538 0.28514016 14803168
0.74419367 -0.12502645 0.28466967 15263975
0.74419999 -0.11548958 0.28493705 15329510
0.74416667 -0.10515685 0.28480011 15197412
0.7439999 -0.094682612 0.28473723 14868958
0.74400002 -0.085103154 0.2847372 14803420
0.7439999 -0.075523704 0.28473723 14803165
0.74425006 -0.065094069 0.2848326 14868959
0.74516702 -0.054707844 0.28518277 15131876
0.74646878 -0.044919144 0.28529757 15395306
0.7475881 -0.035942677 0.28523245 15132134
0.75000006 -0.033116568 0.28088829 15132133
0.74752945 -0.024567762 0.2854673 13750479
0.75000006 -0.027498122 0.28123945 14474203
0.74561131 -0.014597156 0.2853525 13619147
0.74490005 -0.0049901856 0.28508109 13684940
0.7450003 0.0046014655 0.28511998 13619147
0.74558359 0.015079273 0.2853435 13487818
0.74686658 0.025245788 0.28513435 13355977
0.74812901 0.034536663 0.28453586 13750734
0.75000006 0.038869739 0.28176618 13487818
0.74868739 0.04449844 0.28762609 13421768
0.75035006 0.045388531 0.28312653 13553611
0.74900001 0.051968578 0.28928089 13684681
0.75041932 0.055381607 0.28540689 13553354
0.75083882 0.064600058 0.28505763 13882321
0.75434285 0.075175315 0.28503636 14342617
0.75840002 0.083454959 0.28569025 14802653
0.76156253 0.08783032 0.28432441 15460584
0.76642853 0.092010818 0.28652605 15065570
0.77464718 0.09647572 0.28520942 11447466
0.78755563 0.10391329 0.28655475 11053475
0.79188895 0.10716196 0.28421772 11053475
0.78550005 -0.16285694 0.29491642 9276552
0.79257149 -0.16779324 0.29524216 9276552
0.76319999 -0.1516193 0.29476434 9079173
0.77471435 -0.15701763 0.29481122 8947844
0.74609095 -0.14218715 0.29466626 13684429
0.75566667 -0.14747287 0.29538831 12236981
0.74416673 -0.13477385 0.29525268 14671580
0.74309999 -0.12501203 0.29482836 15197925
0.74261129 -0.1153677 0.29463378 15066339
0.74272215 -0.10495117 0.29467779 14737631
0.74380547 -0.094657183 0.2951099 14540251
0.74400002 -0.085103154 0.29518753 14342872
0.74425 -0.075548023 0.29528734 14277080
0.74472243 -0.065136708 0.29547429 14474458
0.74444461 -0.054654498 0.29536325 15000800
0.74544847 -0.045250487 0.29561082 15461096
0.74614722 -0.035360713 0.2945486 15000548
0.74575019 -0.025074467 0.2950075 14013652
0.74458349 -0.014576682 0.29541868 13553357
0.74400002 -0.0049841562 0.2951875 13816528
0.74486142 0.0046014208 0.29552898 14079956
0.74580663 0.01494242 0.29520005 13882320
0.74654293 0.025708748 0.29457313 13882320
0.74693322 0.03521394 0.29460275 14079956
0.74733317 0.044856213 0.29475969 14013906
0.74856234 0.054950967 0.29562762 14013649
0.75000006 0.059499957 0.29273969 14276563
0.75033343 0.065431558 0.29467377 13882321
0.7528109 0.075266004 0.29498887 14079700
0.75707144 0.085067093 0.29530841 15131357
0.76033336 0.089243986 0.29187736 16117480
0.75900006 0.090864323 0.29847363 16182496
0.76379991 0.092991516 0.29534751 12694440
0.77325004 0.097549416 0.29502019 10326665
0.77720004 0.10104897 0.29762298 10393741
0.78600019 0.10403723 0.29547045 10987422
0.791875 0.10847241 0.29610682 10856350
0.78590912 -0.16248982 0.30503598 9079429
0.76300001 -0.15157957 0.30451483 10000534
0.77375007 -0.15666108 0.30562678 9079432
0.74666673 -0.14212064 0.30372405 13618895
0.75577778 -0.14720005 0.30506477 12105655
0.76000005 -0.1492044 0.30954191 11382191
0.74376684 -0.1347027 0.30467126 14671583
0.74207997 -0.12484032 0.30397987 14935269
0.74099982 -0.11497726 0.30370593 14738146
0.74177408 -0.10495501 0.30402353 14737632
0.74413329 -0.094698325 0.30482236 14803425
0.74472016 -0.085185431 0.30506295 14474461
0.74490029 -0.075614728 0.30513605 14408668
0.74462515 -0.064911604 0.30534944 14342874
0.74421883 -0.054855958 0.30518329 14737631
0.74511552 -0.044976491 0.30502239 15132645
0.74591696 -0.03555534 0.30467871 14803680
0.74530327 -0.025296818 0.30482405 14079702
0.74493349 -0.014582186 0.30514959 13619665
0.74480009 -0.0049895155 0.30509564 13816787
0.7450335 0.0046018665 0.30519035 13817043
0.74608588 0.01521382 0.30487344 13553871
0.74702841 0.025474869 0.30500841 13553871
0.74736661 0.034942679 0.30527267 13882836
0.7476666 0.044875406 0.30452001 14145495
0.748577 0.054838799 0.30455273 13750736
0.75000006 0.05935365 0.30722475 13619150
0.75042862 0.064867049 0.30445343 13553100
0.75289667 0.07500428 0.30476722 13815760
0.75676 0.085285038 0.30468068 14933464
0.75900006 0.090864323 0.30469254 15788254
0.7633478 0.095664904 0.30483958 10456184
0.77166671 0.09960667 0.3016459 11442820
0.77468747 0.10340014 0.30554456 10785664
0.7849167 0.10744303 0.30406356 10592403
0.79000002 0.10937075 0.30141723 10987677
0.78800005 0.11172984 0.30750433 10856091
0.78689998 -0.1629623 0.3147853 9079687
0.76700002 -0.15117718 0.3153871 10921126
0.77487504 -0.15621006 0.31559628 9276814
0.78100002 -0.15881217 0.31992337 9211790
0.74900001 -0.14178459 0.31032196 14079447
0.75600004 -0.14444466 0.31277445 13092552
0.76100004 -0.14850998 0.31351221 12039864
0.74620008 -0.13427086 0.31090879 14671839
0.75588894 -0.13483112 0.31750467 15001319
0.74566674 -0.12456867 0.31068656 15066597
0.75328571 -0.1262228 0.31587836 15395563
0.74550003 -0.11465257 0.31119922 15132390
0.75260007 -0.11603926 0.31569165 15197927
0.7464 -0.10459603 0.31099209 15000804
0.75471431 -0.10551236 0.31647688 15066597
0.7486667 -0.096151255 0.3119365 15329769
0.7552222 -0.094636053 0.31585065 15329769
0.74783331 -0.084669597 0.3115893 15066598
0.75600004 -0.084044054 0.31742778 14408411
0.74677783 -0.074543744 0.31192774 14671840
0.75300002 -0.076145463 0.31697497 13224138
0.74626678 -0.065446764 0.31280202 14474718
0.75216669 -0.065790229 0.31838468 11645878
0.74627268 -0.054472432 0.31380084 13882839
0.74723816 -0.044988651 0.31400913 14474974
0.75000006 -0.040139623 0.31775934 14409437
0.74711764 -0.035354692 0.3129392 14738402
0.75280005 -0.034996904 0.31894562 14475230
0.74635726 -0.025344228 0.31222397 14145752
0.75025004 -0.024345277 0.31610891 14474716
0.74635714 -0.014107345 0.31222418 13751250
0.75080001 -0.015218757 0.31669369 13750737
0.74676472 -0.0046950402 0.31330591 13817043
0.75233334 -0.0068043298 0.31874791 13751246
0.74650002 0.0046118032 0.31365696 13817298
0.75100011 0.0072756805 0.31994113 11777200
0.74772221 0.014343323 0.31348968 13554128
0.75116676 0.017535636 0.31766835 12895684
0.74857146 0.024025884 0.31239781 13488592
0.75184625 0.025290988 0.3170546 12896455
0.74900001 0.033908326 0.31172469 13883093
0.75234997 0.034939807 0.31664482 13290956
0.74900001 0.044954885 0.31032196 14146265
0.75237495 0.045158092 0.31612772 13554128
0.74900001 0.051968578 0.31032196 13948886
0.75257897 0.054953244 0.31496179 13948630
0.75548142 0.065095246 0.31517386 13619150
0.7571429 0.074775122 0.31420547 13947858
0.76000005 0.077640235 0.31843778 14211284
0.7586 0.083535872 0.31234652 14079186
0.76120013 0.085663915 0.31632894 12960960
0.7649287 0.094522074 0.31397861 11445400
0.77100003 0.098168679 0.31763136 10326403
0.7749334 0.10390285 0.31441507 10193787
0.78100002 0.10812475 0.31489894 9735296
0.78718758 0.11278553 0.31474033 10526356
0.79072726 0.1177182 0.31515706 10658716
0.78800005 -0.16171136 0.32463783 9671571
0.77680004 -0.15323396 0.3240208 10921383
0.78425002 -0.15809652 0.32584485 9605778
0.76900005 -0.14917105 0.32040852 12499643
0.77250004 -0.14804155 0.3245824 12303034
0.77400005 -0.1347394 0.3297396 9146516
0.76050007 -0.12704769 0.32042763 15395564
0.76000005 -0.11362094 0.32021695 14869218
0.76099998 -0.10664437 0.3206383 14605789
0.76220006 -0.095037691 0.3211439 14474203
0.77400005 -0.090346679 0.3297396 9013643
0.76050007 -0.087881282 0.32042763 14408410
0.77233338 -0.086537607 0.32902956 8750471
0.75760001 -0.074247196 0.3209793 12105656
0.76328576 -0.074032597 0.32569042 9737880
0.77000004 -0.077261694 0.32983807 8751241
0.75800008 -0.066005282 0.32292327 11711928
0.76300001 -0.068521425 0.32683954 8751241
0.75555569 -0.054585543 0.32247415 11448754
0.7615 -0.054119967 0.32709008 9014413
0.75541657 -0.044848382 0.32270995 12040378
0.76133341 -0.045201913 0.32790792 9014412
0.75749999 -0.035809819 0.32300639 11975098
0.76200002 -0.036502473 0.32712659 12106683
0.75700003 -0.026084224 0.32097891 13948887
0.76275003 -0.025198041 0.32561991 12304319
0.75742859 -0.014444543 0.32141432 13290956
0.76500005 -0.01564303 0.32702821 12304832
0.75666666 -0.0044829771 0.32265139 12040889
0.76100004 -0.0051003825 0.32598281 12502469
0.75610006 0.0043199253 0.32353315 12633026
0.76100004 0.0038062546 0.32776436 13094091
0.75633335 0.015296178 0.3239882 12435130
0.76083344 0.015383471 0.3294737 12895681
0.75688231 0.025156768 0.32463923 12370109
0.76000005 0.024561554 0.32911283 12895939
0.75733346 0.034817472 0.32441446 12633027
0.76066667 0.034973446 0.32940149 13027784
0.7569167 0.045430142 0.32334861 12896197
0.76020002 0.044738226 0.32741982 13159625
0.75757134 0.055477861 0.32286897 12830662
0.7610001 0.0545827 0.32776436 13422025
0.75862503 0.063514672 0.32207987 12171963
0.76093334 0.065801382 0.32595551 13093576
0.76318175 0.074962601 0.32497439 11843255
0.76630008 0.083846673 0.32341126 10724255
0.7718572 0.086984403 0.3277953 9671823
0.76900005 0.090261236 0.32220876 10263704
0.77400005 0.095220864 0.32473272 9867913
0.77750003 0.1012697 0.32395184 8879729
0.7849167 0.10622122 0.32612142 9670531
0.78825003 0.11212789 0.32312497 10790301
0.79143751 0.11628863 0.32605153 10593437
0.78900003 -0.16043893 0.3305887 9868950
0.78766674 -0.15402341 0.33310339 10066072
0.778 -0.14272214 0.33144367 9146771
0.78666669 -0.1455387 0.33636487 9541012
0.79000002 -0.14954583 0.33840528 9869720
0.77500004 -0.13491349 0.33016559 9080979
0.7844286 -0.13511193 0.33628258 9277583
0.77650005 -0.12562853 0.33080465 8883089
0.7858001 -0.12483262 0.33623958 9343379
0.79100001 -0.12566246 0.33883366 9540757
0.77633333 -0.11515603 0.33073363 9013901
0.78733343 -0.11493904 0.33726299 9342863
0.77679998 -0.10522107 0.33093244 8882572
0.78720009 -0.10478508 0.33720589 9211533
0.77580005 -0.096007615 0.33050641 8619400
0.78587502 -0.094031118 0.33733067 9145739
0.77600002 -0.085136339 0.33240825 9211790
0.78400004 -0.085096046 0.33767051 9145996
0.77442867 -0.075636603 0.33328989 9211790
0.78325003 -0.074009821 0.33918107 9277583
0.77424997 -0.064319745 0.33415413 9014411
0.78000003 -0.06822212 0.33777368 9211790
0.76900005 -0.059158921 0.33120999 8553860
0.77580005 -0.055320729 0.3366825 9146253
0.76900005 -0.04295674 0.3330102 8553860
0.77440006 -0.045072667 0.33716151 9212043
0.76800001 -0.034809146 0.33077925 12369854
0.77470005 -0.034933858 0.33602542 9080204
0.77525008 -0.025838358 0.33458483 11252147
0.78050005 -0.022586152 0.33799019 10594217
0.77457154 -0.014511562 0.33387011 12502470
0.78160006 -0.016216356 0.33846655 10791595
0.77580011 -0.0059219683 0.33595723 11515574
0.78000003 -0.0033993314 0.33959967 8093311
0.76300001 0.0091781337 0.33041194 13028037
0.77311116 0.0050739627 0.33680272 8684933
0.76775002 0.014178332 0.33471629 8158075
0.77200007 0.013800463 0.33792388 8223868
0.76472735 0.024820738 0.33392957 8816776
0.77166671 0.024637902 0.33958444 8619653
0.76637506 0.034338146 0.33411765 11251889
0.77100009 0.036349799 0.33748615 8488583
0.76466674 0.044402409 0.33143374 13159369
0.77249998 0.045461137 0.33746618 12040632
0.76550007 0.054903705 0.33149457 13356489
0.7725001 0.055405196 0.33724043 13356491
0.76560009 0.064772531 0.33153787 13290439
0.77160007 0.065278277 0.33684725 13224903
0.76860011 0.074020997 0.33211738 13028042
0.77264291 0.075573698 0.33639863 11975095
0.77494448 0.084410995 0.3345795 9869715
0.78100002 0.088015407 0.33911973 10198679
0.7766667 0.091767438 0.33148274 10263959
0.78433341 0.096471772 0.33598152 10461337
0.78809094 0.10457934 0.333395 10790301
0.79100001 0.10765862 0.33698311 10592924
0.78850007 -0.081887402 0.34145454 9409424
0.78750002 -0.075323507 0.34194505 9409167
0.78800011 -0.065235898 0.34308276 9343629
0.78571433 -0.055188823 0.34314138 9409422
0.79216665 -0.055999231 0.34829757 9606801
0.78472733 -0.045173049 0.34450048 9343629
0.79025 -0.043219652 0.34961233 9475215
0.78584617 -0.034695048 0.34441254 9211788
0.79000002 -0.034882784 0.3495017 9212043
0.78762501 -0.025555767 0.34338126 8422790
0.79049999 -0.024726704 0.34756449 9014409
0.78840005 -0.014510828 0.34325689 8159104
0.79129994 -0.014563262 0.34729871 8817030
0.78712499 -0.0050421734 0.34408593 8355969
0.79100001 -0.0067813485 0.34772247 8948102
0.77750003 0.0048016156 0.34033135 8553090
0.78560007 0.0048491871 0.34571838 8816516
0.79050004 0.0048819091 0.34972292 9014664
0.77614295 0.015562668 0.34207463 8619651
0.78550005 0.014501874 0.34797031 8883079
0.77514297 0.025399301 0.34318933 8685445
0.78140002 0.024029892 0.34752631 8883078
0.77488899 0.034316197 0.34181008 8948618
0.78266668 0.035680536 0.34778532 9014665
0.7768333 0.044809397 0.34185812 8881798
