# .PCD v0.7 - Point Cloud Data file format
VERSION 0.7
FIELDS x y z rgb
SIZE 4 4 4 4
TYPE F F F U
COUNT 1 1 1 1
WIDTH 1117
HEIGHT 1
VIEWPOINT 0 0 0 1 0 0 0
POINTS 1117
DATA ascii
0.76511115 -0.055676486 0.099469386 15395812
0.77344453 -0.053867299 0.097938254 15198688
0.78611112 -0.055162981 0.095247321 11974831
0.773 -0.044989083 0.098586574 15264481
0.78527278 -0.04436693 0.096390225 12961469
0.77200001 -0.034991618 0.099364765 14935775
0.7863 -0.034718707 0.096600324 12763832
0.773875 -0.025794616 0.098924868 14935263
0.78689998 -0.024981519 0.096490026 11776681
0.77322221 -0.014228995 0.09891706 14409431
0.78500003 -0.014948933 0.096524112 12171181
0.76483339 -0.0036285918 0.099632747 14540506
0.7741819 -0.0060103866 0.09782812 14211280
0.78644443 -0.0048609003 0.09488029 11249822
0.76425004 0.0038214116 0.099706322 14409433
0.77438474 0.0051322207 0.097712986 14342866
0.78650004 0.0041214218 0.094968855 11052957
0.76300001 0.01096433 0.099992566 13488588
0.77330005 0.014733896 0.098625191 14145743
0.7847001 0.014951559 0.096403271 12303023
0.77340007 0.025057584 0.098818786 14079954
0.78618187 0.025185436 0.096502133 11777194
0.76300001 0.037757277 0.099992566 13817553
0.77257144 0.034614388 0.098919287 13948369
0.78610003 0.03522031 0.096575506 10724254
0.76280004 0.044890296 0.099966362 14409690
0.77066666 0.044448446 0.099193156 13883090
0.78472733 0.044838876 0.096489839 11447719
0.76300001 0.053237651 0.099992566 14212311
0.77392316 0.055438928 0.098072261 13422537
0.7865001 0.055125654 0.095335923 11250339
0.7943334 0.054554246 0.092565753 11250852
0.77500004 0.064924285 0.097823836 12830403
0.78750002 0.064779386 0.0949056 11053476
0.7938 0.065297864 0.091948137 11250854
0.77466667 0.074723855 0.098130606 12895941
0.78672737 0.074589811 0.095229648 11316391
0.79400009 0.075379878 0.092433773 11382183
0.7743333 0.08182203 0.099059552 12631999
0.78711116 0.084814094 0.097213469 11381928
0.78800005 0.090646639 0.099579424 11645357
0.78850007 -0.16033725 0.10794854 10855841
0.7766 -0.15210003 0.10649905 12434874
0.78539997 -0.15541783 0.10463895 11316393
0.79133338 -0.15844442 0.10123437 11645355
0.75850004 -0.14180669 0.1091684 14803421
0.76400006 -0.14407717 0.10658609 14606043
0.77385718 -0.14532268 0.1033511 14211541
0.78150004 -0.14702147 0.10104402 14408664
0.75777787 -0.13457663 0.10788021 15724780
0.76418191 -0.13522057 0.10372026 15132643
0.77390915 -0.13612512 0.10125389 14935264
0.7575652 -0.12497687 0.1071425 15527144
0.76350003 -0.12486547 0.1025858 15066850
0.77100009 -0.1251943 0.10104098 15132643
0.75688004 -0.11499707 0.10655641 15527144
0.76391679 -0.11509919 0.10130057 15330022
0.75680023 -0.10516996 0.10626116 15658729
0.76427287 -0.10482413 0.10096914 15724522
0.75699997 -0.094564065 0.10599466 15921901
0.76288897 -0.095797062 0.10096721 15527143
0.75674218 -0.084959872 0.10551003 15592937
0.75714296 -0.075212121 0.10555133 15527144
0.76200008 -0.071107402 0.1007511 14935263
0.75696868 -0.064489871 0.1054553 15395558
0.76133341 -0.068669833 0.10096026 15461351
0.75671881 -0.055003196 0.10558525 15395815
0.75536364 -0.045091618 0.10557694 15330279
0.76300001 -0.04441011 0.10058562 15330021
0.75467992 -0.035089001 0.10596628 15198436
0.76318187 -0.034996603 0.10082512 15264228
0.75540006 -0.025396874 0.10606747 14672348
0.76272738 -0.025235983 0.10092728 14935521
0.75553334 -0.014788819 0.10608502 14277335
0.76300007 -0.014936497 0.10088234 14541019
0.75620002 -0.0050662761 0.10529084 14408920
0.76400006 -0.008695215 0.10012362 14606299
0.75541687 0.0046646004 0.10518125 14474713
0.75497055 0.015267964 0.10537983 14540249
0.76314288 0.016071474 0.10051963 14541019
0.75510347 0.02493071 0.10528831 14211285
0.76416677 0.025590219 0.100442 14146518
0.75438887 0.03468119 0.10503421 14014165
0.76400006 0.033782557 0.10012362 13817553
0.75402772 0.045256827 0.10498505 14474459
0.75344002 0.054922938 0.10578759 14606044
0.7615 0.055733472 0.10090798 14277591
0.75363344 0.064638346 0.10581564 14474459
0.76227278 0.064973935 0.1008677 14474972
0.7542069 0.075132348 0.10601932 14606302
0.76318187 0.074798204 0.10082533 14212058
0.75733334 0.08357431 0.10704897 15067366
0.76321441 0.085879147 0.10409854 14672351
0.77200007 0.085797109 0.10177524 13948116
0.76533335 0.092220254 0.10865813 13751500
0.77399999 0.094171964 0.10641251 12040114
0.78563648 0.09606085 0.10379188 11645356
0.79225004 0.097627752 0.10104178 11645611
0.77900004 0.10055325 0.10938401 11382183
0.78650004 0.10305745 0.10828613 11645612
0.78783339 -0.1602017 0.1152342 10591901
0.76900005 -0.15097131 0.11788118 13223110
0.77283335 -0.15232903 0.11243385 11578541
0.78140002 -0.15706424 0.11520554 10591645
0.75537503 -0.14277291 0.11578833 15395302
0.76200002 -0.14736812 0.11412914 14605531
0.75380546 -0.13475388 0.11554722 15658987
0.75266659 -0.12486034 0.1153717 15527144
0.74900001 -0.11329149 0.1191989 15527401
0.75150001 -0.11515492 0.11464406 15527144
0.74900001 -0.10788509 0.11861444 15593194
0.75126672 -0.10445829 0.11451382 15527401
0.75242436 -0.095352888 0.11557727 15593194
0.75302792 -0.085254274 0.11543009 15527144
0.75255889 -0.074890032 0.11514871 15395558
0.74900001 -0.061127171 0.1191989 14540506
0.7517097 -0.065320954 0.11530992 15263972
0.74900001 -0.056743614 0.1191989 15066848
0.75184369 -0.054979686 0.11469617 15461351
0.75133348 -0.044606891 0.11516914 15066850
0.75303346 -0.035012435 0.11543258 14869728
0.75355554 -0.025335824 0.11551222 14474714
0.75325012 -0.014746389 0.11546523 13750735
0.75156671 -0.0050365631 0.11520424 13882577
0.75213897 0.0046479325 0.11529344 14277078
0.75222236 0.015209592 0.11530647 14145236
0.7485714 0.025776962 0.11712746 13750734
0.75056255 0.023962459 0.11296735 13882063
0.74853325 0.03441352 0.11561881 13881809
0.75000006 0.03448033 0.11057924 14079445
0.74899983 0.044447321 0.11716863 14342874
0.75000006 0.04558295 0.11233501 14474460
0.74888879 0.055304274 0.1160641 14408410
0.75000006 0.056037206 0.1111645 14474203
0.74831992 0.06505993 0.11558592 14211288
0.75000006 0.065206192 0.11057924 14606046
0.74844992 0.073219568 0.11621965 14342875
0.75068754 0.076800309 0.11320569 14474975
0.75470006 0.085055634 0.11533003 15198441
0.75840002 0.092213497 0.11661049 15921907
0.7622354 0.095556781 0.11447826 15527404
0.77150005 0.098682106 0.11194132 15263973
0.76525003 0.10101935 0.11819914 16053746
0.77433336 0.10458557 0.11567427 12369080
0.78430003 0.10747924 0.11269115 11711405
0.78723085 0.1135257 0.11677476 11711404
0.79213333 0.11659222 0.11320223 11579819
0.78760004 -0.16015425 0.12534046 10262934
0.76900005 -0.15097131 0.12508215 12236728
0.77900004 -0.15658183 0.12670872 9802387
0.78000003 -0.15678284 0.12139338 10196888
0.75487512 -0.14301127 0.1251027 14276825
0.76100004 -0.14761922 0.12467168 13487051
0.74900001 -0.13301748 0.12884276 15527145
0.75052178 -0.1353514 0.12448181 15527146
0.74899989 -0.12373467 0.12755345 15724523
0.75010532 -0.12655975 0.12353345 15856109
0.74874985 -0.11456899 0.12529315 15527146
0.74880761 -0.10547458 0.1255727 15592939
0.75000006 -0.10159135 0.12374747 15329766
0.75024998 -0.095477305 0.12554386 15329766
0.74900001 -0.080414817 0.12884274 15066597
0.75058824 -0.08523716 0.12539257 15132644
0.74899989 -0.074432552 0.12734717 15132388
0.75000006 -0.076200306 0.12286958 15001057
0.74877781 -0.065491796 0.1252982 14803935
0.74894124 -0.055191815 0.12506805 14803421
0.75000006 -0.051552087 0.12989265 14606042
0.74900001 -0.048414856 0.1222674 15132641
0.75003338 -0.044238184 0.12562566 14935006
0.75184023 -0.034956016 0.12492999 14869470
0.75310016 -0.025319271 0.12514023 14277335
0.75293344 -0.014741043 0.12511252 13619150
0.74900001 -0.0023875185 0.12270575 13356233
0.75031829 -0.0055067111 0.12587577 13092807
0.74900001 0.0072563053 0.12971945 13488333
0.75021219 0.0043951226 0.1251386 13553613
0.7487272 0.016335538 0.1268034 13488077
0.75050008 0.013293774 0.12320149 13750991
0.74778116 0.025077274 0.12513155 13356234
0.74811739 0.034651913 0.1251885 13290185
0.74900013 0.044954896 0.12533586 13750737
0.74869442 0.055451456 0.12528509 13750480
0.74809992 0.065040924 0.12518589 13618894
0.74817634 0.074424595 0.1254043 13816530
0.75000006 0.079252295 0.1219917 13684946
0.74900001 0.080900043 0.12884274 13684944
0.7522307 0.084979065 0.12485799 14803682
0.75703573 0.093924396 0.12515944 15395562
0.76000005 0.099168241 0.12557535 15790064
0.76457137 0.10253041 0.12448706 15987700
0.77336371 0.10772813 0.1245581 12829893
0.77880007 0.11146654 0.12576412 11711918
0.78635287 0.11612684 0.12460236 11645868
0.79344833 0.12458656 0.12518005 11448745
0.78900003 -0.162286 0.13664706 10131347
0.76880008 -0.15093204 0.13494933 10526108
0.7778334 -0.15604535 0.1344115 10131348
0.7856667 -0.1597611 0.13514857 10197141
0.75447071 -0.14271992 0.13482153 13882064
0.76133341 -0.14768387 0.13452969 12829119
0.74849999 -0.13351332 0.13518079 15000545
0.75075001 -0.13816188 0.13397738 15066336
0.74836665 -0.1250218 0.13486432 15198438
0.74811101 -0.11495752 0.13462453 15395560
0.74799985 -0.10538394 0.13498653 15263719
0.74899983 -0.09594512 0.1356477 15198183
0.75000006 -0.093983047 0.13359925 15197926
0.74900001 -0.08470767 0.13510065 14935011
0.74899995 -0.07515455 0.13497974 14869218
0.74899989 -0.066168256 0.13322629 14737629
0.75000006 -0.064845726 0.13716651 14671581
0.74900001 -0.058789272 0.13205735 15263972
0.75100011 -0.054711871 0.13566796 14803166
0.75240636 -0.044451434 0.13526611 14737885
0.75256675 -0.034991436 0.13474374 14672092
0.7530002 -0.025316497 0.13481916 14145492
0.7530002 -0.014739775 0.13481919 13290185
0.75155568 -0.0052328915 0.13505046 12961220
0.74899995 0.0072563044 0.13435347 13224649
0.75006253 0.0023279288 0.13572016 13224393
0.74833322 0.015132132 0.13486059 12961475
0.74823987 0.024765937 0.13484435 12961475
0.74883336 0.033258524 0.13261256 12764865
0.75011116 0.035266295 0.13674115 12961219
0.74900001 0.044829641 0.13197385 13224392
0.75017399 0.045062903 0.13610804 12895425
0.74899989 0.056123428 0.13414113 13224905
0.75000006 0.053417496 0.13791898 13355975
0.74899983 0.065358348 0.13474061 13158600
0.75000006 0.063450426 0.1369157 13093063
0.74819982 0.074682735 0.13483538 13619151
0.7486667 0.081643343 0.1353085 14342874
0.75142115 0.086255848 0.1343967 14540511
0.75600004 0.094588898 0.13522179 14869219
0.76000005 0.099879913 0.13162455 15987699
0.7632727 0.10291193 0.13446404 15724270
0.77290916 0.10782886 0.13451789 11908018
0.77900004 0.11149517 0.13126785 11711659
0.78691673 0.1155473 0.13459779 11514280
0.79050004 0.11869284 0.13598272 11580074
0.79338461 0.12484371 0.13533698 11514281
0.78850007 -0.16218315 0.14486521 10065553
0.79362506 -0.16683908 0.14522551 10065552
0.76766676 -0.15070952 0.14463086 11842483
0.77600002 -0.155376 0.1449801 9934228
0.78400004 -0.1594222 0.14495508 10000018
0.75458825 -0.1428463 0.14481628 13882066
0.76083344 -0.1475869 0.14512633 13092550
0.74820834 -0.13375393 0.14447014 14803167
0.75000006 -0.13846238 0.14481662 14539995
0.74758315 -0.12489002 0.1443484 15132388
0.74799973 -0.11445355 0.1444304 15132645
0.74862051 -0.10496898 0.14440009 15132388
0.75000006 -0.10334711 0.14920604 15198436
0.74899983 -0.09652961 0.14357983 15263975
0.75000006 -0.093748935 0.14627975 15066851
0.74899995 -0.084933236 0.14320731 14671839
0.75000006 -0.084560439 0.14850372 14869214
0.74900001 -0.076761849 0.14243175 14935011
0.75015008 -0.073776603 0.14651433 14671582
0.750853 -0.065411724 0.14477663 14868960
0.75258356 -0.055251475 0.14531611 14737375
0.75384831 -0.044997532 0.14515808 14671839
0.75348157 -0.034839649 0.14499888 14803168
0.7530002 -0.025316497 0.1453959 14277080
0.7530002 -0.014739775 0.14539589 13685197
0.75260013 -0.0050427835 0.14531894 13224646
0.75100017 0.0046365741 0.14501147 13158599
0.74900001 0.015385809 0.14119639 12961475
0.75016016 0.015064822 0.14635843 13027268
0.74900001 0.022598751 0.14067832 12895681
0.75069237 0.025185723 0.14556079 12829888
0.75224239 0.034344137 0.14485228 13026756
0.75213897 0.045141757 0.14523226 12960964
0.75041652 0.055579279 0.14489841 12895171
0.74900001 0.068125121 0.14299536 13487565
0.75004351 0.06429372 0.14532149 13093064
0.74838871 0.074701287 0.14450663 13422286
0.7486667 0.081643336 0.14329399 14014424
0.75155008 0.085752748 0.14546819 14145753
0.75686669 0.094986469 0.14472423 14671840
0.76000005 0.099879913 0.14852668 15395819
0.76490009 0.10321323 0.14411108 14803166
0.77257144 0.10695954 0.14490858 11710894
0.78527278 0.11390207 0.14468777 11579819
0.79166669 0.11804606 0.1457561 11579819
0.78760004 -0.16199803 0.15484104 9934483
0.79320008 -0.16686836 0.15470439 9803153
0.76600003 -0.15038234 0.15507893 12762813
0.77372724 -0.1547005 0.15524223 10131093
0.78133339 -0.15887995 0.15452263 9999764
0.75416666 -0.14276682 0.15503524 14078931
0.76040006 -0.14750282 0.15483665 13158085
0.74820828 -0.13375391 0.15498041 15000288
0.75000006 -0.13846238 0.15535122 14670811
0.74730539 -0.12484387 0.15479392 15001057
0.74799973 -0.11445354 0.15493698 15263972
0.74895221 -0.10612479 0.15525915 15066850
0.75000006 -0.10237169 0.15505858 15132643
0.75084376 -0.095771089 0.15497859 15001057
0.75120008 -0.085047461 0.15472426 15066337
0.7519334 -0.074566171 0.15487464 14605786
0.75272018 -0.064954549 0.15503496 14737628
0.75216144 -0.055081341 0.15508892 14737629
0.75285727 -0.044671636 0.15490854 14606045
0.75357145 -0.03522734 0.15464072 14474459
0.75356662 -0.025335582 0.15520933 14277079
0.75346661 -0.014749846 0.15518846 13685454
0.7530002 -0.0050444482 0.15509121 13487820
0.75283349 0.0046493406 0.15505759 13290186
0.7524668 0.015217201 0.15498379 12961221
0.75335997 0.024935585 0.15516706 12961220
0.75427258 0.034917708 0.15487331 13092806
0.75353336 0.045225967 0.15520285 13092550
0.75240022 0.054845624 0.15496923 12895428
0.7517668 0.064478792 0.1548402 12566720
0.74900001 0.075639777 0.1507605 14211288
0.7507931 0.074911833 0.15476061 13290443
0.75380772 0.085088685 0.15505679 14277338
0.757375 0.093331315 0.15510799 14277338
0.76000011 0.098767921 0.1540866 14606300
0.76387507 0.10173203 0.15554312 14935265
0.77218193 0.10608435 0.15493351 11777198
0.78527278 0.11323147 0.15488651 11645355
0.79218191 0.11810429 0.15523608 11514026
0.78783339 -0.16204602 0.16503312 9933969
0.76600003 -0.15038234 0.16314842 12959936
0.77270001 -0.15423207 0.16511574 11117732
0.78133339 -0.15887995 0.16550045 9933714
0.75427783 -0.14308321 0.16545781 14210518
0.76162505 -0.14841087 0.16533923 13749453
0.74847615 -0.13375954 0.16492373 14999776
0.75000006 -0.13846238 0.1650079 14868447
0.74796754 -0.12492631 0.164731 15197413
0.7481513 -0.11423848 0.16507931 15263719
0.74857134 -0.10606995 0.16536057 15263717
0.75000006 -0.10188398 0.16442265 15329509
0.75285292 -0.095596865 0.16501397 15066593
0.75472218 -0.085445434 0.16516675 14803421
0.75502771 -0.074875265 0.16523348 14606042
0.75446659 -0.065106854 0.16510954 14671835
0.75257152 -0.055381227 0.16481932 14606042
0.75123531 -0.044395402 0.16465887 14539993
0.75263351 -0.034993056 0.1647065 14671837
0.75449985 -0.025364969 0.16511622 14211286
0.75419432 -0.014765077 0.16504876 13816783
0.7530002 -0.0050444482 0.16478653 13487820
0.75302798 0.004651146 0.16479279 13553613
0.75363892 0.015241851 0.16492778 13290186
0.75523353 0.024998011 0.16527782 12961220
0.75603253 0.034615118 0.16473688 13224392
0.75555891 0.045555349 0.16508831 13355977
0.75483322 0.055023935 0.16519107 13422025
0.75438881 0.064702399 0.16509259 12895681
0.7530002 0.07516247 0.16478686 13355978
0.75577778 0.084978469 0.16490361 14212314
0.75866669 0.09215685 0.1646954 14146263
0.76085716 0.09681312 0.16561626 14540250
0.76530004 0.1014754 0.16479394 15198180
0.77430004 0.10665639 0.16437122 11514027
0.78050005 0.10988269 0.16897807 11711659
0.78727269 0.11368628 0.16533417 11645866
0.79200006 0.11799242 0.16497885 11579818
0.78720009 -0.16191575 0.17503281 9933968
0.76900005 -0.15277158 0.17548896 12170677
0.77622235 -0.15683401 0.17521928 9736592
0.78000003 -0.15860882 0.17160822 9868176
0.75408703 -0.14359857 0.1749602 14342360
0.76133341 -0.14946617 0.17552049 13354951
0.74852175 -0.1338477 0.17451006 15131617
0.75000006 -0.13846238 0.17466462 15263203
0.74845713 -0.12506096 0.17442891 15197156
0.74830282 -0.11473975 0.17466639 15132132
0.74881804 -0.10565381 0.17478819 15132387
0.75000006 -0.10159135 0.17466462 14869472
0.75255561 -0.095716119 0.1750136 15395305
0.75541383 -0.085369967 0.17516178 15197926
0.75643355 -0.075013638 0.17527811 14606043
0.75636017 -0.06527026 0.17526151 14539993
0.75396663 -0.055357374 0.17470767 14671580
0.75300014 -0.044707153 0.17448375 14606043
0.75371993 -0.035044547 0.17464952 14277079
0.75526685 -0.025389813 0.17500749 14211285
0.75506669 -0.014782884 0.17496207 13816526
0.75375992 -0.005049821 0.17465954 13684940
0.75423318 0.004658768 0.17476897 13355721
0.75510001 0.015272288 0.17497019 13027013
0.75624025 0.025030628 0.17523357 13027013
0.75700003 0.034928728 0.17464928 13290184
0.75696874 0.045211472 0.17506939 13290182
0.75632018 0.055131838 0.17525214 13356232
0.7555669 0.064803936 0.1750775 13290184
0.75393325 0.075255506 0.17469949 13158600
0.7571072 0.085514151 0.17486428 14145494
0.75900006 0.090864323 0.17498375 14408664
0.76136363 0.095444329 0.17512316 14474714
0.76650006 0.10073414 0.17492215 15263973
0.77347058 0.10538194 0.17496541 12040371
0.78760004 0.11364958 0.17512432 11514280
0.79309088 0.11807119 0.17499359 11448487
0.78657144 -0.16205034 0.18462901 9868174
0.76799995 -0.15257289 0.18335132 12697276
0.77700007 -0.15731932 0.18436104 9802382
0.78000003 -0.15860882 0.18986815 9670795
0.75404549 -0.14378785 0.18483347 14408154
0.76100004 -0.14940073 0.18524317 13552331
0.74831814 -0.13353424 0.18446578 15066340
0.75000006 -0.13802344 0.18607706 15066341
0.74786091 -0.1249374 0.18467075 15066083
0.74788868 -0.11443583 0.18467778 15197925
0.74899989 -0.10693533 0.18451387 15329255
0.75000006 -0.10284547 0.18570086 15592427
0.7522729 -0.095811702 0.18503897 15592939
0.75449991 -0.085417673 0.18454279 15132387
0.75661129 -0.075031005 0.18506014 14671836
0.75693333 -0.065318927 0.18513921 14474457
0.75555575 -0.055473249 0.18480344 14474458
0.75480533 -0.044813979 0.18462065 14474715
0.75563353 -0.035134654 0.18482284 14342871
0.75563908 -0.025404533 0.18482393 14013905
0.75594473 -0.014797739 0.18489765 13816527
0.75573361 -0.0050626034 0.18484679 13750734
0.75622249 0.0046716258 0.18496646 13684685
0.756639 0.015301999 0.18506831 13553355
0.75700003 0.025055313 0.18515556 13290182
0.75700003 0.034802139 0.18515559 13553357
0.75700003 0.045435056 0.18515556 13619663
0.75700003 0.055181872 0.18515559 13488333
0.75672239 0.064904556 0.18508893 13356493
0.75625002 0.075485989 0.18497422 13487310
0.75767857 0.085197456 0.18500544 14145496
0.75900006 0.090864323 0.18209109 14277336
0.76162499 0.095119864 0.18502384 14540252
0.76833338 0.10097507 0.18343246 14935011
0.77390903 0.10435044 0.18475629 11908530
0.78625005 0.11207595 0.18433292 11514026
0.79250002 0.11753803 0.1854872 11448233
0.78650004 -0.16177177 0.19513106 9802381
0.76600003 -0.15217556 0.19632122 12369083
0.77500004 -0.1566873 0.19772172 10131604
0.7539584 -0.14360909 0.1950018 14276822
0.76033336 -0.14926983 0.19486909 13223877
0.74900001 -0.13196543 0.19249196 15329511
0.75040001 -0.135727 0.19548641 14934753
0.74851841 -0.1246253 0.19414765 15263718
0.75000006 -0.12909831 0.19778216 15790063
0.74873674 -0.11479618 0.19295998 15395305
0.75000006 -0.11436054 0.19756936 15329254
0.74900001 -0.10759286 0.19196594 15066597
0.75000006 -0.10460123 0.19535753 15263976
0.74900001 -0.096780092 0.19927186 15527144
0.75103039 -0.095334679 0.19437501 15329768
0.75327772 -0.085280336 0.194824 15329511
0.75516665 -0.074887171 0.19531173 15000547
0.75616699 -0.065252528 0.19557174 14539994
0.75608605 -0.055636391 0.19542578 14342870
0.7563228 -0.044762064 0.19490039 14145748
0.75620025 -0.035160892 0.19469726 14211541
0.75640017 -0.025430804 0.19474934 13948369
0.75640017 -0.014807034 0.19474907 13685197
0.75620025 -0.0050658863 0.19469737 13816526
0.75686669 0.0046755397 0.19486824 13750734
0.75678128 0.015303955 0.1951776 13750736
0.75646693 0.025037276 0.19564889 13487820
0.75644469 0.034776803 0.19564317 13882577
0.75690323 0.045286894 0.19504853 14014164
0.75700003 0.055181872 0.19490236 13816786
0.75700003 0.064928696 0.19490239 13684943
0.75700003 0.075561613 0.19490236 13684946
0.75840914 0.084903903 0.19478111 14343389
0.76000005 0.089204863 0.19567481 15329769
0.76292002 0.094411954 0.19463907 14671837
0.77000004 0.099391535 0.19734816 15395303
0.77409101 0.10288778 0.19535108 13093059
0.78350008 0.10847086 0.19714038 11579819
0.78800011 0.1114663 0.19418697 11514026
0.79289478 0.11641889 0.19544931 11382440
0.77900004 -0.16022913 0.20877311 9736588
0.78530008 -0.16244709 0.20494573 9736589
0.76437503 -0.15230279 0.20530085 12368311
0.77216673 -0.15581268 0.20332469 10526107
0.7543928 -0.14451644 0.20501398 14079185
0.74900001 -0.1336551 0.20702945 14803165
0.75010532 -0.13561715 0.2029237 15066337
0.74900001 -0.12775722 0.20774674 15460580
0.75016671 -0.12479427 0.20385593 15197412
0.75166678 -0.11501341 0.20496824 15065570
0.75060004 -0.10518842 0.20467548 15395049
0.74900001 -0.097247675 0.20336318 15461098
0.75003451 -0.094996281 0.2049762 15395305
0.75202793 -0.085137233 0.20506547 15592938
0.75363636 -0.074975975 0.20510249 15329766
0.75588906 -0.064833894 0.20543049 14935009
0.7567932 -0.055103131 0.20511311 14474714
0.75697148 -0.045069691 0.20476797 14211284
0.75686669 -0.035191454 0.20461234 14277077
0.75700003 -0.025450975 0.2046492 14014162
0.75700003 -0.014818072 0.20464918 13882576
0.75700003 -0.0050712456 0.20464921 13750733
0.7568056 0.0046742205 0.20459585 13816783
0.75608844 0.015289398 0.20466161 13685197
0.75580019 0.025015876 0.20520864 13553356
0.75626683 0.034769442 0.20533687 13750737
0.75694287 0.045558542 0.20476048 14079702
0.75700003 0.055181872 0.20464921 13948116
0.75700003 0.064928688 0.20464925 13882579
0.75700003 0.074675545 0.2046492 13684944
0.7585001 0.082815163 0.20505472 14474205
0.76009101 0.088245079 0.20508081 15198441
0.76323807 0.094098985 0.20476024 14803169
0.77083331 0.099499106 0.20477928 15263719
0.7755 0.10300878 0.20420173 12369337
0.78500009 0.10822086 0.20578569 11448488
0.78860009 0.11102305 0.20488587 11448231
0.77900004 -0.16022913 0.21515588 9802382
0.78620005 -0.16355057 0.2153049 9670796
0.79290909 -0.16781804 0.21477686 9605259
0.76444453 -0.1524666 0.21451014 12170935
0.77000004 -0.1547728 0.21687615 10920611
0.75327593 -0.14424518 0.2147962 13947855
0.74846655 -0.13467637 0.21460751 15065823
0.74821192 -0.12533997 0.21487872 14868701
0.75000006 -0.12149 0.21124302 15066336
0.74855542 -0.1145379 0.21726094 14803166
0.75050002 -0.11483549 0.21255423 15197925
0.74900001 -0.10467049 0.21782891 15527146
0.75005555 -0.105306 0.21301439 14737375
0.74900001 -0.098606579 0.21717139 15592682
0.75007147 -0.094514258 0.21437773 15197925
0.75155878 -0.085291505 0.21523398 15526889
0.75387865 -0.074518494 0.21479525 15263975
0.75627786 -0.064374149 0.21507676 15329512
0.75700003 -0.054691449 0.2152821 14934753
0.7569167 -0.044940047 0.21525876 14342616
0.75670016 -0.035183623 0.21519801 14145238
0.75694442 -0.025448848 0.21526664 13882066
0.75700003 -0.014818074 0.21528213 14013908
0.75673336 -0.005070318 0.21520552 13422025
0.75533354 0.0046632742 0.21480589 13684941
0.75350004 0.015236799 0.21428436 13619404
0.75296968 0.024922557 0.21469207 13356232
0.75499994 0.034713052 0.21470934 13685198
0.75688893 0.045428973 0.21525002 13882321
0.7572 0.055195983 0.21533865 13816530
0.7570278 0.064930983 0.21528997 13816528
0.75725925 0.074505247 0.21486357 13882576
0.7585333 0.081930541 0.21483079 14211544
0.76056248 0.087602466 0.21507141 15066854
0.76478946 0.093824252 0.21452904 15132131
0.77214295 0.099152781 0.21584444 14407895
0.7750001 0.10185122 0.21496136 11710381
0.78760004 0.10903849 0.21568878 11448233
0.78900003 0.11107937 0.21145311 11448233
0.77900004 -0.16022913 0.22518599 9670797
0.78620005 -0.16355057 0.22450748 9670797
0.79281825 -0.16763058 0.2250452 9670797
0.76339996 -0.15165904 0.2251457 12499900
0.77162504 -0.15577891 0.22576365 9868434
0.75340009 -0.14396717 0.22472839 14144724
0.76000005 -0.1492044 0.22769992 12697022
0.74864 -0.13400608 0.22534743 15065823
0.75000006 -0.13846238 0.22470386 15065823
0.74797195 -0.12495556 0.22497188 15197666
0.74749976 -0.11437612 0.22483005 14737373
0.74856651 -0.10490069 0.22515014 15132386
0.74900001 -0.095961824 0.22580697 15197922
0.75000006 -0.09222728 0.22294809 15592937
0.74900001 -0.08830522 0.22966452 15461351
0.75055557 -0.084582053 0.22516115 15592938
0.75278389 -0.074769661 0.22482038 15461096
0.7548064 -0.064962 0.22511515 15263716
0.75615638 -0.055569686 0.22538458 15000801
0.75693333 -0.044940364 0.22500882 14343128
0.75700003 -0.035197806 0.22502893 14277079
0.75700003 -0.025450975 0.22502895 13816272
0.75683337 -0.014815397 0.22497882 13487563
0.75548279 -0.0049408018 0.22530769 13421769
0.7539165 0.0046555954 0.22499496 13487818
0.75288904 0.015224178 0.2246889 13619404
0.75144452 0.024870051 0.22474605 13290439
0.75263906 0.034603957 0.22461346 13619148
0.75566667 0.045117553 0.22511271 13816783
0.75695997 0.055178773 0.22501686 13816528
0.75713336 0.064940684 0.22506824 13816528
0.75796425 0.07496094 0.22474504 13882065
0.75872219 0.081950814 0.22465317 14408664
0.76066661 0.087503158 0.22522858 14869474
0.76491672 0.092769086 0.22469284 14803681
0.77190912 0.097340137 0.22518748 14803423
0.77655554 0.10124931 0.2257936 11316135
0.78542858 0.10690385 0.2252046 11381927
0.79296303 0.11514961 0.22499107 11316647
0.77850008 -0.1601263 0.23552218 9605260
0.78677773 -0.16428645 0.23510854 9605002
0.79275006 -0.16816248 0.23426206 9539466
0.76580006 -0.15213582 0.23481682 12631486
0.77340007 -0.15672645 0.23533407 9868176
0.75313044 -0.14356968 0.235067 14145237
0.76060009 -0.14932218 0.2350034 13158343
0.74822211 -0.13424261 0.23565365 15000544
0.75000006 -0.13846238 0.2326048 14145491
0.74786085 -0.12493576 0.23544264 15000287
0.74843729 -0.11473885 0.23507777 14868700
0.7489599 -0.10495694 0.23491241 14869214
0.74866664 -0.095038839 0.23529749 15000800
0.74889284 -0.085474536 0.23570462 15198181
0.75000006 -0.081839003 0.23216587 15329511
0.74900001 -0.078076921 0.23784715 15264230
0.75065625 -0.073945627 0.23434503 15329255
0.75357151 -0.065215789 0.2351602 15592683
0.75566673 -0.055290986 0.23476475 15329766
0.75661123 -0.044919979 0.23465551 14869214
0.75700003 -0.035197806 0.23477574 14145491
0.75700003 -0.025450977 0.23477575 13685198
0.75647235 -0.014809338 0.23461249 13356232
0.75465387 -0.005193918 0.23472723 13224646
0.7535882 0.004861691 0.23522145 13553611
0.75330311 0.015312433 0.23499168 13619404
0.75288481 0.024851033 0.23458466 13224903
0.75390011 0.034661774 0.23469912 13553870
0.75572747 0.0456011 0.23478392 13685456
0.75620025 0.055124104 0.23452713 13816273
0.7569167 0.064921908 0.23474956 13684687
0.75763333 0.074739248 0.23497178 13948117
0.75878948 0.082144953 0.23519062 14145497
0.7610715 0.087677702 0.23527472 14935269
0.76645452 0.092900656 0.23452879 14671841
0.77211118 0.097054571 0.23534591 14606305
0.7753334 0.10007996 0.23501803 11119016
0.78675002 0.10708266 0.23479155 11382695
0.79175001 0.1153752 0.23476098 11251110
0.78518194 -0.16267437 0.24476586 9539467
0.79155564 -0.16754831 0.24497883 9408395
0.76400006 -0.15177824 0.24498513 12500156
0.77560008 -0.1577141 0.2450836 9407626
0.74900001 -0.14003117 0.24544533 14671833
0.75375998 -0.14488256 0.24523781 13816272
0.76100004 -0.14940073 0.24136087 12829121
0.74781471 -0.13488358 0.24499094 15000799
0.74716657 -0.12482018 0.24484389 14935007
0.74811757 -0.11426382 0.24453601 14737628
0.74853325 -0.10489718 0.24441458 14803164
0.74824232 -0.095462069 0.24471925 15198179
0.74888456 -0.085054472 0.24378942 15263972
0.75000006 -0.083155833 0.24840668 15592937
0.74900001 -0.078661397 0.24106178 15856109
0.75003451 -0.074834295 0.24499705 15461098
0.75231439 -0.065669604 0.24516958 15592684
0.75572234 -0.055481769 0.24499361 15658476
0.75697148 -0.045069013 0.24527293 15197923
0.75755996 -0.035224121 0.24470478 14474200
0.7573871 -0.025436314 0.24481976 13684940
0.75686109 -0.014816754 0.24536361 13158595
0.75476664 -0.0050589372 0.24468423 13027011
0.75288904 0.0046486952 0.24524893 13158855
0.75325012 0.01493973 0.24507263 13290439
0.75451714 0.025035299 0.24475737 13356232
0.75627786 0.034770504 0.2451755 13619404
0.7565279 0.045404918 0.2452552 13816783
0.75560015 0.05507927 0.2449536 13882321
0.75638908 0.064878039 0.2452101 13816274
0.75736672 0.07471288 0.24552694 13882325
0.75866669 0.081944935 0.24506097 14276827
0.7611177 0.087451391 0.24469967 14935012
0.76742852 0.092130527 0.24455558 14868960
0.77307695 0.096171826 0.24484242 13750735
0.77800006 0.10042417 0.24402224 11250598
0.78652644 0.10589235 0.24513979 11250597
0.79000002 0.10937075 0.24870919 11316647
0.79096305 0.11485511 0.24479505 11250854
0.79219991 0.1245124 0.24476454 11185061
0.78622228 -0.16294497 0.25457469 9539214
0.79381824 -0.16783966 0.25506294 9408395
0.75900006 -0.15078494 0.25582966 12500154
0.76287508 -0.15267345 0.25534898 12434362
0.77500004 -0.1575921 0.25033689 9341579
0.7486667 -0.1417215 0.25497445 14211028
0.75288248 -0.14594555 0.25500795 14079442
0.74716651 -0.13531654 0.25446445 14934749
0.74694431 -0.12478396 0.25438881 14934749
0.74687082 -0.11498496 0.25422177 14671834
0.74737126 -0.10548325 0.2546584 14605785
0.74847221 -0.095250145 0.25490889 14671834
0.74899995 -0.085675083 0.25556123 14934751
0.75000006 -0.082629107 0.2542007 14671835
0.74900001 -0.07515455 0.25771928 15198179
0.75000006 -0.075254895 0.25430101 15329509
0.74899989 -0.066036746 0.25806993 15263972
0.75065225 -0.065003373 0.253167 15526890
0.74900001 -0.059373748 0.2594727 15395558
0.75300008 -0.055371962 0.2550081 15592939
0.75669694 -0.045003504 0.25521243 15921390
0.75779992 -0.035235155 0.25453722 15197922
0.75759995 -0.02549623 0.25459638 14145235
0.7565484 -0.01466866 0.25517398 13750734
0.75361294 -0.0049384511 0.25509235 13882576
0.74880004 0.0065527647 0.258176 14079957
0.75092858 0.0036939841 0.25417414 13816783
0.74900001 0.012297396 0.25793847 14014164
0.7511614 0.016184591 0.25448847 13882577
0.75338709 0.024824271 0.25501418 13817040
0.75411111 0.034669328 0.25505903 14014419
0.75399995 0.045136608 0.25518921 14211541
0.75426656 0.054982249 0.25511581 14211288
0.75469434 0.064732164 0.25525892 14211288
0.7560938 0.074975334 0.25562134 14342875
0.75847369 0.082952254 0.25481129 14606047
0.76157147 0.088117644 0.2545304 15330026
0.76749998 0.091881901 0.25599703 15066597
0.77447069 0.096452393 0.25496429 12960964
0.78547049 0.10334157 0.25501254 11184804
0.79066664 0.10864108 0.25580871 11250853
0.79269224 0.11531232 0.25512478 11184804
0.78611112 -0.16414779 0.26619393 9342346
0.79344445 -0.1681558 0.26434338 9473931
0.76359999 -0.15259609 0.26542154 12434104
0.77488893 -0.15857928 0.26500988 9407884
0.74808341 -0.14248739 0.26528296 14671065
0.75424999 -0.14719574 0.264817 13881550
0.74600017 -0.13510627 0.26454422 15132385
0.74588901 -0.1246075 0.26450485 15263715
0.74603355 -0.11502573 0.26455748 15000800
0.74669439 -0.10551271 0.26479107 15000799
0.74722207 -0.095092148 0.26497826 14737370
0.74733311 -0.084609695 0.265017 15066594
0.74749988 -0.075003795 0.26507559 15066338
0.74758315 -0.065386407 0.26510522 15197923
0.74833339 -0.056326836 0.26632091 15527145
0.75080001 -0.052367747 0.26349229 15592684
0.75415796 -0.044770595 0.26478472 15724270
0.75663352 -0.035180606 0.26477244 15197924
0.7565279 -0.025436237 0.26473498 14210771
0.74900001 -0.010277919 0.26999325 14014162
0.75436592 -0.014878225 0.26498592 13750733
0.74846661 -0.0038465352 0.26746371 14014164
0.75163168 -0.0061484971 0.26362285 14079956
0.74780542 0.004617786 0.26518366 14079701
0.74835289 0.014878108 0.26558527 13948116
0.75000006 0.019556338 0.26245278 14277081
0.74899989 0.02457135 0.26802063 13750737
0.75044447 0.02522916 0.26260689 14013909
0.74899989 0.034624942 0.26747748 13816530
0.75031585 0.034263823 0.26186913 14145238
0.74900001 0.040922016 0.26788911 14014164
0.75071883 0.045608815 0.26434913 14342872
0.75210011 0.054825313 0.26494473 14013907
0.75283355 0.064571708 0.265205 14211288
0.75451434 0.075293496 0.26506534 14408668
0.75800008 0.083537199 0.26469776 14671840
0.76081824 0.088492185 0.26486099 15330025
0.76550007 0.092361398 0.26608136 15264232
0.77320004 0.096549161 0.26459754 11908531
0.77866673 0.10051023 0.26610348 11316388
0.78622222 0.10455846 0.26510483 11250852
0.79037499 0.10896031 0.26455379 11185315
0.79271424 0.11538428 0.26513594 11185059
0.78540003 -0.16430674 0.27483517 9276809
0.7918334 -0.16842985 0.27523401 9342602
0.76318192 -0.15243103 0.27477741 12829121
0.77380002 -0.1582557 0.2753095 9342093
0.74681818 -0.1421669 0.27492735 14342359
0.75375003 -0.14709894 0.27523205 13947602
0.74469459 -0.1348699 0.27454194 15000802
0.74455565 -0.12438372 0.27449033 15329510
0.74520028 -0.11489728 0.2747283 15329765
0.74566686 -0.10536788 0.2748996 15132129
0.74583364 -0.094915919 0.27496025 14869214
0.74556279 -0.084954575 0.2746428 15198181
0.74529439 -0.075398266 0.27496782 15000546
0.7456947 -0.065220609 0.27490911 15132132
0.74686104 -0.054831311 0.27533996 15263975
0.74835289 -0.046645846 0.27666301 15461609
0.75121748 -0.042954858 0.27331242 15527146
0.75288582 -0.035006169 0.27491087 15197923
0.74900001 -0.022551877 0.27876034 13488074
0.7523846 -0.025500881 0.27432236 14211029
0.74796671 -0.014000551 0.276214 13488075
0.7507 -0.016629253 0.27183533 13422025
0.7468999 -0.0050045992 0.27535468 13685199
0.7464723 0.0046109804 0.27519667 13750993
0.74719447 0.015111592 0.27546319 13553357
0.74849999 0.024640543 0.27527046 13487820
0.74900001 0.034434352 0.27525344 13684943
0.74899995 0.044415373 0.27552322 13619151
0.75000006 0.047648557 0.27210948 13816529
0.74900001 0.056206014 0.27729917 13487565
0.75004351 0.05498033 0.2734229 13684944
0.74899995 0.064868756 0.27713218 14013653
0.75047064 0.065143958 0.27238253 13816530
0.75394297 0.075289898 0.27515075 14408410
0.75861537 0.083305411 0.27414182 14671838
0.76113343 0.087676391 0.27543572 15066594
0.76590002 0.092588842 0.27518976 15592937
0.77337509 0.096886277 0.27447987 10855586
0.78700006 0.10545816 0.27374256 11053473
0.79057151 0.10892146 0.27651912 11053474
0.79270822 0.11547124 0.27477065 11053472
0.78525013 -0.16427512 0.28489688 9211018
0.79040003 -0.16812496 0.28491816 9276810
0.76490915 -0.1529391 0.28500399 11645105
0.7743637 -0.15828845 0.28506801 9144969
0.74700016 -0.14228156 0.28500977 13552842
0.75619996 -0.14757605 0.28586408 12697792
0.74444455 -0.13482429 0.28490704 14737374
0.74400002 -0.12516266 0.2847372 15263974
0.74413896 -0.11560423 0.28478968 15329510
0.74441695 -0.1051915 0.28489506 15132386
0.74424994 -0.094714649 0.28483164 14869213
0.74416661 -0.085122213 0.28480002 14737628
0.7439999 -0.075523704 0.28473717 14803167
0.74430555 -0.065099388 0.28485301 14868960
0.74547255 -0.054729275 0.28529942 15131873
0.74722219 -0.044604581 0.28494668 15395305
0.74803579 -0.035030566 0.28540328 14935011
0.75000006 -0.035750214 0.28088829 15198179
0.74743581 -0.024929294 0.28477004 13816783
0.74648649 -0.014730844 0.28552157 13553355
0.74603355 -0.0049979337 0.28551522 13750479
0.74600023 0.0046076421 0.28550267 13750479
0.74650002 0.01487946 0.28514746 13487308
0.74789637 0.024875984 0.28462759 13290186
0.74861103 0.034416214 0.28474781 13684944
0.7486943 0.044936001 0.28478003 13487565
0.74877799 0.055459227 0.28481179 13553357
0.74856657 0.065081961 0.284733 13882322
0.75323534 0.075142935 0.28505301 14342874
0.75842863 0.083187424 0.28543952 14605789
0.7615 0.087823421 0.28497082 15395302
0.76660001 0.091774166 0.28531066 15658474
0.7741251 0.096304044 0.28539219 11447207
0.78760004 0.10424735 0.28538018 10987682
0.79250002 0.10855806 0.28497878 10987682
0.77850008 -0.1601263 0.29794133 9145480
0.78689998 -0.16461925 0.29562896 9145223
0.79140007 -0.16833767 0.29454204 9145223
0.76490009 -0.15267713 0.29487637 9802900
0.77455556 -0.15790778 0.29491276 9079431
0.74616671 -0.14212283 0.29517162 13684687
0.75558335 -0.14745633 0.29535493 12105398
0.74394441 -0.13473335 0.29516423 14606301
0.74286664 -0.12497223 0.29473621 15001059
0.74313897 -0.11544927 0.29484499 15000804
0.74369442 -0.10508845 0.29506591 14737631
0.7439999 -0.094682604 0.29518738 14605788
0.74420017 -0.085125647 0.29526788 14408665
0.74433345 -0.075557545 0.29532132 14276823
0.7439999 -0.065073408 0.2951875 14408920
0.74461138 -0.054666344 0.29542977 15000802
0.74558091 -0.045026157 0.29561576 15329768
0.74641681 -0.035579305 0.29439723 15000802
0.74618196 -0.025326185 0.29470244 14013905
0.74600023 -0.014602753 0.29510784 13553610
0.74600023 -0.0049975547 0.29510787 13750735
0.74613351 0.0046091676 0.29516092 14013908
0.74688226 0.015310236 0.29484001 13750736
0.74705696 0.025475888 0.29477614 13750991
0.7471934 0.035056435 0.29456317 14014162
0.7479164 0.044890679 0.29499042 14079701
0.74875748 0.055112939 0.29497755 13882578
0.75000006 0.0599389 0.29844594 13355975
0.74900001 0.062781341 0.29220328 13948369
0.75000006 0.065945454 0.29567364 13619403
0.75238895 0.07535065 0.29494178 14276820
0.75714821 0.084934711 0.29537922 15000028
0.76050001 0.089263543 0.29283112 16248552
0.76400006 0.09269499 0.29540053 13615799
0.77321428 0.097222619 0.29500824 10589322
0.77733332 0.10033812 0.29658201 10590606
0.78600007 0.10399082 0.2958591 10986909
0.79170001 0.10830965 0.2953921 10856096
0.79272228 0.12474775 0.29518139 10987680
0.77900004 -0.16022913 0.3049708 9014151
0.78633332 -0.16327399 0.3055419 9014407
0.79190004 -0.16751888 0.3049235 9014407
0.76437509 -0.15252782 0.30393088 10263451
0.77400011 -0.15738876 0.30527827 9079687
0.74640012 -0.14216657 0.30487922 13618381
0.75520003 -0.1473816 0.30493313 11776690
0.74366671 -0.13468455 0.30463111 14671839
0.74223989 -0.12486658 0.30404598 14935012
0.7433666 -0.11548322 0.30450803 14738146
0.74383336 -0.10510893 0.30469844 14672096
0.74413335 -0.094698481 0.30482167 14737632
0.74500006 -0.08521755 0.30517665 14540253
0.74500018 -0.075625233 0.30517665 14408667
0.74476695 -0.065140657 0.30508187 14277081
0.74500012 -0.05469621 0.30517691 14671839
0.74560004 -0.045139588 0.30542359 15132389
0.7461946 -0.03556871 0.30479348 14803421
0.74683326 -0.02510857 0.30505368 14079698
0.74708813 -0.01472675 0.30490255 13619663
0.74680001 -0.0050032274 0.30504149 13816786
0.74686104 0.0046134475 0.30506536 13882836
0.74699986 0.015106263 0.30512154 13554128
0.74708807 0.0253448 0.3049522 13553871
0.74751717 0.034698047 0.30512309 13948371
0.7486999 0.044938095 0.30494013 14014164
0.74900001 0.052260816 0.30360049 13882322
0.75004554 0.055952061 0.30524829 13750735
0.75103223 0.064445309 0.30481374 13487564
0.75300014 0.075013205 0.3048093 13750735
0.75651991 0.085258476 0.30458432 14802134
0.75900006 0.090864323 0.30380413 15722205
0.7633751 0.095490903 0.30510208 10718842
0.77166671 0.09960667 0.3016459 11310461
0.77526325 0.10380063 0.3056286 10851453
0.78558344 0.10753494 0.30340359 10855062
0.7876429 0.11260242 0.30723092 10723992
0.79068422 0.11618751 0.30323482 10790302
0.79073352 0.12520687 0.30539921 10856095
0.79190004 0.13559023 0.30492109 10921888
0.7851001 -0.16240643 0.31516859 8948359
0.79330003 -0.16781524 0.31474632 9013894
0.76600003 -0.15172726 0.31467897 10658209
0.77400005 -0.15661454 0.31447214 9079433
0.75400001 -0.14361891 0.31283188 13289160
0.76050007 -0.14930257 0.31241664 11447725
0.74620008 -0.13427085 0.31090879 14803169
0.75512505 -0.13410583 0.31683937 15132648
0.74615389 -0.12391348 0.31223309 15132391
0.75633335 -0.12368461 0.31808445 15263977
0.74757153 -0.11501084 0.31172967 15198698
0.75628573 -0.11559161 0.31738615 15066598
0.74666673 -0.1042487 0.31226587 14935013
0.75620002 -0.10561682 0.31720048 15066599
0.74900001 -0.099702463 0.31207538 14869220
0.7549091 -0.094703548 0.31550625 15132391
0.7475 -0.082879812 0.31145042 15066597
0.75511104 -0.084992915 0.31639403 14474461
0.74662507 -0.074261643 0.31174248 14606047
0.75387502 -0.075645469 0.317197 13421773
0.74613327 -0.064735614 0.31228048 14540254
0.75220001 -0.06490688 0.31798863 12171964
0.74616677 -0.05478055 0.31264317 14737632
0.75149995 -0.055174325 0.31839481 11645619
0.74738896 -0.044469271 0.31364155 14869729
0.75050008 -0.046316236 0.31797117 13355976
0.74759084 -0.035237562 0.31395623 14606813
0.74799997 -0.025905477 0.31317714 14080212
0.75228578 -0.024662746 0.3177228 14343384
0.74900001 -0.014223119 0.31163701 13685711
0.75216675 -0.014724243 0.31603822 13816783
0.74823081 -0.0043399064 0.31337249 13882834
0.75214291 -0.0062998463 0.31791344 13882833
0.74779171 0.004618464 0.31419978 13882579
0.74815392 0.014254415 0.31293643 13554386
0.75154549 0.016240681 0.31745532 13224905
0.74849999 0.023899026 0.31186706 13291728
0.75187498 0.02510662 0.3165766 12962250
0.74900001 0.034434352 0.31119865 13882837
0.75219059 0.034957491 0.31642702 13356750
0.74900001 0.042324752 0.31032196 14211802
0.7522223 0.045441866 0.31557539 13619921
0.75257152 0.05469228 0.31465808 13948886
0.7548148 0.065038323 0.31489536 13422028
0.75704998 0.07450477 0.31428102 13882319
0.76050007 0.077691898 0.31864727 14211798
0.75839996 0.083158664 0.31208667 14342612
0.76153338 0.085702412 0.3162297 12829632
0.76558334 0.094496004 0.31405571 11905436
0.77140009 0.098489299 0.31707528 10457473
0.77500004 0.1041242 0.31429085 10128247
0.78100002 0.10812476 0.31718206 9407101
0.78703845 0.11456532 0.31516695 10723992
0.79000002 0.11861777 0.31066424 10592924
0.79005599 0.12509975 0.31530961 10790303
0.79030025 0.1353142 0.31540599 10856353
0.78785717 -0.16231546 0.32483986 9474959
0.79335719 -0.16729769 0.32538077 9211532
0.77500004 -0.15305561 0.32321319 10789795
0.78259999 -0.15767297 0.32570985 9671824
0.76600003 -0.1467959 0.32095176 12368829
0.77433342 -0.14839055 0.32625845 12171706
0.76000005 -0.13586061 0.32021695 15067369
0.77400005 -0.13292746 0.3297396 8883598
0.76000005 -0.1296335 0.32021695 15133162
0.76100004 -0.11287968 0.3206383 14803427
0.76300001 -0.090848885 0.32148096 14474460
0.76100004 -0.087050058 0.3206383 13882325
0.77366668 -0.086686224 0.32959759 8684935
0.75849998 -0.073445454 0.32136059 12237500
0.76100004 -0.079030901 0.32241979 11118762
0.77000004 -0.071853936 0.32983807 8423046
0.75724995 -0.064456351 0.32171825 12106426
0.76520002 -0.06746608 0.32742563 9146255
0.75739998 -0.054721765 0.32266766 11974325
0.76100004 -0.052308179 0.32598284 11119017
0.75662506 -0.044035852 0.32278171 11908786
0.76242864 -0.045133002 0.32736263 11316652
0.75620002 -0.035159674 0.32215643 11843509
0.76140004 -0.036830883 0.32651281 12370623
0.75725001 -0.025462016 0.32171828 13159111
0.76333332 -0.021789523 0.32579544 12172732
0.75749999 -0.014830396 0.32093692 13685454
0.76528579 -0.016383706 0.32705516 12436161
0.75725001 -0.0041891858 0.32260376 11843253
0.76240003 -0.0029653891 0.32729891 12896712
0.75624996 0.0046690973 0.32306537 12435133
0.76114285 0.0053352532 0.32808071 13093064
0.75711101 0.015312294 0.32432008 12434872
0.76116675 0.015391772 0.32961801 12895424
0.75739998 0.02506871 0.32444304 12435386
0.76059997 0.025174469 0.32937264 13093058
0.75762516 0.034387253 0.32431734 12501696
0.7610001 0.035367124 0.32903752 13093831
0.75749999 0.045465056 0.32359749 12633541
0.76100004 0.044784371 0.32776436 13093577
0.75721443 0.055450995 0.32271665 12699076
0.76050013 0.054545086 0.32754901 13093577
0.75838459 0.063887849 0.32267815 12369854
0.7608183 0.066634104 0.3265534 13290956
0.76357895 0.075140692 0.32464635 11777205
0.76685715 0.084112696 0.32259411 11843508
0.77210009 0.085746884 0.32748502 9409422
0.76900005 0.092061482 0.32040852 8749695
0.77399999 0.094473884 0.32466894 9539719
0.78000003 0.098856337 0.32864371 10790555
0.77625 0.10156251 0.32161146 10062716
0.78371435 0.10549182 0.32588348 9801089
0.78830779 0.11325431 0.3239114 10658716
0.79045451 0.11700409 0.32699367 10593181
0.7908622 0.12506716 0.32568887 10724767
0.79080772 0.13518658 0.32593706 10725023
0.78900003 -0.16043893 0.3305887 9606031
0.78785717 -0.15467404 0.3337993 9869461
0.79155564 -0.15643029 0.33804291 9935253
0.778 -0.14272214 0.33144367 9277585
0.7858572 -0.14612761 0.3355836 9605779
0.79000002 -0.14954583 0.33840528 10000536
0.77550006 -0.13863203 0.33037859 9277585
0.78640008 -0.13597238 0.33686319 9277327
0.79200006 -0.13138358 0.33926204 9409169
0.77550006 -0.12773812 0.33037859 8817806
0.78537506 -0.12431381 0.33550879 9211792
0.79200006 -0.12582132 0.33926204 9540755
0.77700001 -0.11707194 0.33101764 9014413
0.78466666 -0.11424424 0.33551177 9343120
0.78611112 -0.10586943 0.33551461 9079948
0.79000002 -0.10238604 0.33840528 9342859
0.77724999 -0.093458012 0.33112416 8619655
0.78628576 -0.095195636 0.33681723 9211274
0.77700001 -0.083422542 0.3328366 8948618
0.78471428 -0.085559845 0.33745575 9408909
0.77425003 -0.074967571 0.33256695 8882826
0.78250003 -0.074840531 0.33794329 9343374
0.77457142 -0.064247824 0.33413032 8817030
0.7816667 -0.067455284 0.3384954 9146250
0.76850003 -0.051025212 0.33099461 8882055
0.77340007 -0.05569607 0.33419389 8685189
0.7752223 -0.04512094 0.33671522 8948360
0.76800001 -0.035706926 0.33077925 12040887
0.7766 -0.037198178 0.33739412 8882568
0.77400005 -0.022398636 0.33336347 12436932
0.78100002 -0.023515373 0.33820671 9738907
0.77450007 -0.015460868 0.33388236 12502469
0.78050005 -0.017106416 0.33799022 10923182
0.7753334 -0.0021718086 0.33696625 9540755
0.76900005 0.0092503075 0.33481047 8289663
0.77333337 0.0046781427 0.33710182 8816006
0.76749998 0.015517118 0.33415738 8355455
0.7736001 0.014737273 0.33862424 8026489
0.76600003 0.025353199 0.33350429 9605778
0.77099997 0.024614664 0.33748612 8092282
0.76660001 0.03470061 0.3334083 12304060
0.77242857 0.035897553 0.33759612 9672341
0.76580006 0.045067783 0.33162445 13158853
0.77380002 0.045176424 0.33780763 12106680
0.76466674 0.054840621 0.33113366 13224903
0.77260005 0.055230238 0.33710304 13553613
0.76528579 0.063974403 0.33191612 13356746
0.77277786 0.065374836 0.33766317 13159114
0.76800001 0.073064961 0.33167821 14212059
0.77333331 0.075802639 0.33573496 11975097
0.77628577 0.084628262 0.33422035 9738386
0.78166676 0.088089757 0.33788523 10001558
0.778 0.093141258 0.33053184 10198935
0.78529406 0.096070856 0.33628497 10264473
0.7881667 0.10450532 0.33377683 10724765
0.7906667 0.10802436 0.33663496 10461595
0.79231817 0.11500526 0.33518484 10593695
0.78900003 -0.081015207 0.34167105 9409422
0.78700006 -0.076206237 0.34080499 9277836
0.79272228 -0.074904867 0.34699592 9541008
0.78820008 -0.064328693 0.34316984 9541008
0.79229999 -0.064660959 0.34773764 9541008
0.78471434 -0.05406981 0.3421796 9277582
0.79150009 -0.056026082 0.34761891 9541008
0.78690004 -0.044140406 0.34518483 9409165
0.79000002 -0.048753314 0.34765232 9804180
0.78650004 -0.034959707 0.34381321 9145483
0.7906 -0.03342741 0.34754649 9145994
0.78800005 -0.024648502 0.34308276 8422276
0.79124999 -0.024752209 0.34727693 8883080
0.78785717 -0.013709973 0.34354827 8224641
0.79025 -0.015237466 0.34706876 8948616
0.78618187 -0.0052663125 0.34413543 8553346
0.79000002 -0.0080664232 0.34765232 9013894
0.77850008 0.0029853093 0.34076908 8816005
0.7856667 0.0051594451 0.34595242 8882312
0.79050004 0.0030307495 0.34972292 8948874
0.77700007 0.015708841 0.34193146 8816262
0.78466678 0.01433422 0.34683749 8750982
0.7761001 0.025507936 0.34226486 8750723
0.78380001 0.025218973 0.34786281 8817284
0.77620006 0.034780037 0.34157944 8948101
0.78280002 0.035077609 0.3463164 9145480
0.77900004 0.040372699 0.34281161 8948101
0.78450006 0.045247775 0.34615362 8882567
0.77900004 0.058609232 0.34281161 8882825
0.78450006 0.054428786 0.3463369 8948618
0.77716666 0.064840041 0.34200481 8948620
0.78316671 0.065338664 0.34647861 9080460
0.77833337 0.075564228 0.34130403 10330272
0.783889 0.075903133 0.34598473 9475217
0.78661114 0.085272767 0.34555101 10132887
0.78837508 0.092766263 0.34324694 10330266
