# .PCD v0.7 - Point Cloud Data file format
VERSION 0.7
FIELDS x y z rgb
SIZE 4 4 4 4
TYPE F F F U
COUNT 1 1 1 1
WIDTH 1050
HEIGHT 1
VIEWPOINT 0 0 0 1 0 0 0
POINTS 1050
DATA ascii
0.78870004 -0.16425607 0.10816087 11049098
0.78792858 -0.15442351 0.10707889 11906726
0.7924118 -0.15545863 0.1020976 12039597
0.78680003 -0.14479591 0.10743453 13816008
0.7921176 -0.14503622 0.10206017 12303026
0.78800005 -0.13532969 0.1078799 14276303
0.78828579 -0.12602286 0.10831475 14408659
0.78850001 -0.11511112 0.10887208 14803421
0.78900003 -0.10872115 0.10894111 14606040
0.78862506 -0.17190155 0.11581143 9864312
0.77775002 -0.16133684 0.11739854 15854051
0.78556013 -0.16584891 0.11427214 10389373
0.77535993 -0.1548337 0.11627267 15789285
0.78358334 -0.15551479 0.11109528 11379868
0.77348161 -0.14501101 0.11604652 15657955
0.78100002 -0.14549513 0.11123098 14802390
0.77350014 -0.13497344 0.11565342 15723748
0.7833637 -0.13494878 0.11082801 15066075
0.77428579 -0.12501064 0.11602779 15658469
0.78454548 -0.12513568 0.1111623 15198175
0.77419257 -0.11511516 0.11623004 15790311
0.78485715 -0.1143182 0.11151475 15527142
0.77399999 -0.10483896 0.1168292 15855847
0.785375 -0.1048857 0.11222763 15592933
0.77434778 -0.094720304 0.11699998 15855590
0.78670591 -0.094861142 0.11219508 15330016
0.77485001 -0.085003734 0.11695714 15460834
0.78637493 -0.084771633 0.11237125 14474452
0.77458316 -0.075002097 0.11691623 15526882
0.7864666 -0.075231366 0.11226923 14341839
0.77411771 -0.065310702 0.1173269 15460832
0.78557891 -0.065082856 0.11320511 13486787
0.77438903 -0.05503894 0.11779654 15724262
0.78628576 -0.055227268 0.11395203 12763576
0.79119998 -0.055309176 0.11109708 12171952
0.77566671 -0.045546081 0.11900262 15198433
0.78557897 -0.044655874 0.11630302 14277329
0.79184622 -0.044802163 0.11232662 11974574
0.78686678 -0.034743026 0.11785298 14672346
0.79385006 -0.035052195 0.11239211 11842731
0.78717637 -0.024894027 0.11779146 13947852
0.79387516 -0.024832711 0.11239565 11710632
0.78612489 -0.014811712 0.11785598 13026495
0.7924 -0.014585068 0.11311732 11513253
0.78660011 -0.0052692275 0.11781289 12105904
0.79160005 -0.0053033479 0.11300404 11447716
0.78683335 0.004861474 0.11784797 11777197
0.78744447 0.014799812 0.11876122 12237747
0.78800005 0.023314275 0.11987136 13223873
0.78818184 -0.17235091 0.12492966 8483689
0.79218191 -0.1767665 0.12472218 10064264
0.77500004 -0.16281125 0.12537275 13486791
0.78250003 -0.16781935 0.12452789 8154729
0.76638889 -0.15394901 0.12574922 13749451
0.77122229 -0.15642489 0.12233356 14670808
0.76427263 -0.14516319 0.12454637 15395046
0.76345932 -0.13505284 0.12462719 15461095
0.75900006 -0.12324402 0.12967452 15263972
0.76316667 -0.12535669 0.12456732 15263715
0.75900006 -0.11495214 0.12937839 15395560
0.76294124 -0.11484784 0.12408639 15263971
0.75900006 -0.10902935 0.12967452 15461098
0.76352966 -0.10468393 0.12459809 15395558
0.76426667 -0.095410898 0.12513915 15461094
0.77000004 -0.094386235 0.12073835 15262941
0.7646333 -0.084779114 0.12525915 15263971
0.77000004 -0.085373312 0.12073835 15000026
0.76462066 -0.074807949 0.12451334 15132384
0.77000004 -0.079064272 0.12073835 14934489
0.76472229 -0.065096095 0.12437508 15001311
0.76523358 -0.054925859 0.12464001 15329764
0.77000004 -0.053828102 0.12073835 16316658
0.76639134 -0.045616675 0.12648734 15066592
0.77160007 -0.044184458 0.12207148 15987693
0.76757145 -0.035303239 0.12805715 14671835
0.77369225 -0.035068862 0.1231207 15329507
0.78000003 -0.031702235 0.12048038 14606040
0.76800001 -0.024921859 0.12851414 14277077
0.77365005 -0.025105085 0.12402215 15000798
0.78060007 -0.025332134 0.12057306 14474454
0.7684167 -0.01504204 0.12858437 14474456
0.77383345 -0.015147778 0.12405137 14935004
0.78000003 -0.015268293 0.12048038 14079952
0.76825005 -0.0049221655 0.12878129 14671834
0.7736364 -0.0052650557 0.12443018 14803161
0.78000003 -0.0052253255 0.12048038 13882569
0.76723075 0.005082903 0.12817772 14276305
0.77375025 0.0044007692 0.12373544 14342097
0.7804001 0.0057349824 0.12054217 13619141
0.76686668 0.014729627 0.12766449 13683655
0.77437508 0.014980813 0.123459 13816268
0.78200001 0.014901522 0.1207893 13750728
0.76618177 0.024868028 0.12812826 13486532
0.77371436 0.02431261 0.12441859 13881804
0.78500003 0.026485169 0.12141593 13553353
0.76433331 0.035136357 0.12790018 13552840
0.77343762 0.034991533 0.1250066 13948110
0.78620011 0.035224792 0.12143305 12237749
0.76318187 0.045236252 0.12794922 13422025
0.77447075 0.044936497 0.12495365 14342868
0.78572732 0.044901557 0.12236591 13027006
0.7902 0.044653367 0.12020602 10921629
0.76199991 0.054654427 0.12839943 13224647
0.77362514 0.054920234 0.12503687 14474710
0.78590912 0.054946076 0.12222674 12698298
0.79000002 0.054813314 0.1201756 11316131
0.76488894 0.064316221 0.12809277 14013648
0.77431262 0.064712793 0.12537484 13092029
0.78616673 0.06497132 0.12219373 11974317
0.79033333 0.066863425 0.1202263 11316644
0.76800001 0.071267061 0.12941426 14869471
0.77491665 0.073874667 0.12770362 13027009
0.78628576 0.075194195 0.12499592 11842732
0.79272729 0.075670332 0.1219372 11382437
0.77800006 0.080389738 0.12927803 14013909
0.78677779 0.083345644 0.1280728 12632251
0.78657156 -0.17257504 0.13517383 9670540
0.791875 -0.17724533 0.13389917 9670794
0.77438903 -0.16442186 0.13461833 11512489
0.78200006 -0.16999958 0.13909608 9736590
0.76396292 -0.1550249 0.13482843 13683657
0.76030564 -0.1448155 0.1343465 15724013
0.75900006 -0.13212818 0.13322818 15527144
0.76004177 -0.13534927 0.13511586 15526889
0.75900012 -0.12486768 0.13488248 15526888
0.76000005 -0.1296335 0.13874124 15592684
0.759 -0.11524827 0.13500504 15461351
0.75899994 -0.10814094 0.13437043 15527145
0.76000017 -0.1032795 0.13573888 15527144
0.76068747 -0.095470227 0.13463622 15526889
0.76068002 -0.084803075 0.13473301 15526887
0.76086098 -0.075453818 0.13444485 15198179
0.76080543 -0.064762205 0.13443585 15198179
0.76168954 -0.054966912 0.13468489 15000800
0.76413894 -0.045365661 0.13502696 15066593
0.76447237 -0.034651879 0.13508254 14869214
0.76406687 -0.024794219 0.13500616 14342870
0.76405698 -0.01482853 0.13487548 14342870
0.76349998 -0.0051159603 0.13490374 14606042
0.76194441 0.0047041718 0.13463221 14277077
0.76122218 0.015393611 0.13450554 13224389
0.75900012 0.026390681 0.13779719 13092548
0.76104355 0.024801861 0.13335153 12829376
0.75899994 0.035338301 0.13700394 13487565
0.7608 0.034620188 0.132118 13093062
0.75884008 0.046006802 0.13561557 13421515
0.76044458 0.043565039 0.13110742 13224650
0.75832129 0.055467833 0.1354527 13355723
0.75883323 0.062569745 0.1363074 13750737
0.76104349 0.066399924 0.13350771 14145495
0.76590002 0.073944502 0.13524267 14277338
0.77199996 0.078504212 0.13351904 14342875
0.77480012 0.083084457 0.1352732 14606301
0.78420007 0.087089166 0.133791 14474715
0.78825003 0.091598928 0.13697542 13224647
0.78740007 -0.17473993 0.14546308 9736077
0.791125 -0.17892875 0.14442059 9670797
0.77422738 -0.16378585 0.14496367 12169905
0.78180009 -0.16995612 0.1445516 9604492
0.76526326 -0.15458016 0.14451061 13025215
0.77000004 -0.15837796 0.14867839 13486280
0.76061112 -0.14487475 0.14508569 15065825
0.76000017 -0.13497101 0.14496829 15000290
0.75900006 -0.12324402 0.14033552 15395560
0.76000017 -0.12540798 0.14552426 14802912
0.759 -0.11444061 0.14162776 15329509
0.76000017 -0.11507664 0.14690925 14737118
0.75899994 -0.10538685 0.1458437 15132388
0.76000017 -0.10472508 0.14271016 15395558
0.75899994 -0.094814703 0.1479505 14869217
0.76000017 -0.094939612 0.14294653 15527144
0.75900012 -0.086057447 0.14845817 15132133
0.76000017 -0.084844731 0.14384666 15592681
0.76019454 -0.075386912 0.14500523 15198180
0.76099986 -0.064778775 0.14515905 15132387
0.76255542 -0.055288538 0.14496015 15198180
0.7657001 -0.045459729 0.14515927 15001057
0.76383334 -0.034625784 0.14480552 14869214
0.761724 -0.024596147 0.14514324 14474456
0.76080543 -0.01489351 0.14512059 14342870
0.76030004 -0.0050937426 0.14502421 14474456
0.75900006 0.0020226871 0.14921968 14277077
0.76000017 0.0049367277 0.14456394 14277077
0.759 0.017303448 0.14779821 14079698
0.76000017 0.014616428 0.14380504 13816526
0.75851732 0.025226621 0.1448375 13421768
0.76000005 0.021596264 0.14052041 13421768
0.75733322 0.034816559 0.14445713 13684687
0.75730556 0.045453556 0.14445271 13684944
0.75729632 0.055007 0.1449454 13553359
0.75854176 0.063286297 0.14469041 14013909
0.76050001 0.068790175 0.14506371 14211289
0.76452637 0.074011281 0.14446199 14079704
0.77111113 0.078876764 0.14558274 14342876
0.77573341 0.083791129 0.14464036 14803682
0.78233337 0.087858997 0.14556469 14737632
0.78772736 0.091622323 0.14514457 12895426
0.79305559 0.096802942 0.1450787 11316646
0.78657895 -0.17361693 0.15493138 9605005
0.79049999 -0.17894144 0.156031 9605518
0.77505004 -0.16368529 0.15491277 13289675
0.78100008 -0.16856408 0.15537007 10855076
0.76527786 -0.15382661 0.15493342 13815761
0.77000004 -0.15837796 0.15498744 12960709
0.76109987 -0.14496759 0.15497836 14868704
0.76032013 -0.13502823 0.15482005 14671835
0.76000017 -0.12518558 0.15475382 14606043
0.76000017 -0.11451053 0.15475377 15000547
0.75900012 -0.10433345 0.15518476 14868961
0.76000005 -0.10828342 0.15831216 15132133
0.75900024 -0.094814688 0.15543859 14935011
0.75899994 -0.086374737 0.15481672 15132133
0.76000011 -0.082104146 0.1555163 15066340
0.76053333 -0.075420186 0.15486312 15066597
0.76116651 -0.064792074 0.15499166 15198183
0.7632857 -0.05495121 0.1548482 14935011
0.7658335 -0.045468111 0.15504517 14408409
0.76486117 -0.034671977 0.1548495 14342358
0.76250005 -0.024882402 0.15505783 13750478
0.76060718 -0.014890482 0.15487817 13290183
0.75900006 -0.0015309782 0.15099651 14408663
0.76004177 -0.0052399836 0.15491076 13224393
0.75900006 0.00024585446 0.15188491 13553356
0.76000017 0.0050118226 0.1549444 13422028
0.75900012 0.01623735 0.15543859 13355979
0.76000005 0.01092122 0.1547538 13421772
0.75843346 0.025101118 0.15532328 13158857
0.75738889 0.034819439 0.15511037 13159114
0.75769448 0.04547793 0.15517336 13224908
0.75840002 0.055284321 0.15531759 13224907
0.75891668 0.063316755 0.1554219 13684945
0.76050013 0.068790182 0.15485561 14211288
0.76488239 0.073771976 0.15511617 14211546
0.77190918 0.078940369 0.1548788 14277339
0.77500004 0.082802355 0.15508671 14803684
0.78245455 0.087346561 0.15516011 14803683
0.7881428 0.092509463 0.15560801 12434876
0.79083341 0.097144864 0.15424149 11316648
0.78705883 -0.1730538 0.16513897 9605260
0.79183334 -0.17800774 0.16432557 9671310
0.77405268 -0.16331892 0.16543472 13881552
0.78033334 -0.16781048 0.16254692 12763069
0.76654553 -0.15498056 0.16505751 14276826
0.76172209 -0.14508703 0.16491252 15197411
0.76099986 -0.13514861 0.16475576 14999774
0.76022232 -0.12522329 0.16458744 14868444
0.75900006 -0.11347143 0.16876484 14736605
0.76000017 -0.11453594 0.16441216 15066082
0.759 -0.1029585 0.16461891 15132133
0.76000017 -0.10637716 0.16555592 15197926
0.75900012 -0.094560862 0.16508424 15132133
0.76000005 -0.098497957 0.16720802 15592684
0.75899994 -0.085790254 0.16595931 15395304
0.76000011 -0.08297962 0.16206819 15263974
0.75900006 -0.07837899 0.16832063 15460838
0.76049995 -0.075027853 0.16414583 15263717
0.76116645 -0.064791933 0.16479118 15198182
0.76289999 -0.05511586 0.1651648 15592682
0.76391679 -0.045355711 0.16538221 14869215
0.76302779 -0.034586541 0.16519019 14474457
0.76239985 -0.024740292 0.16505679 14408407
0.76141638 -0.014906121 0.16484638 13487565
0.76096648 -0.0050979746 0.16474874 13158600
0.76041663 0.0046957429 0.16463073 13355979
0.75899994 0.017387064 0.16447957 13027014
0.76000017 0.01257331 0.16593719 13092550
0.759 0.025121512 0.16521116 12895943
0.75900012 0.03464026 0.16495731 13158858
0.76000005 0.038498417 0.16898718 13684944
0.75900006 0.045982841 0.16488215 13355979
0.76000005 0.041760232 0.16839413 13355979
0.759 0.055327673 0.16521116 13158343
0.75899994 0.062434994 0.1652112 13355979
0.76052946 0.068007529 0.16491573 13619151
0.76568747 0.073632501 0.16520925 14013909
0.77190912 0.07877586 0.16489924 13948116
0.77640015 0.083863296 0.16475593 14342874
0.78250003 0.087877773 0.16574386 15066598
0.78790909 0.093154266 0.16471218 12105910
0.79000002 0.097966082 0.16517776 11382440
0.79203331 0.10502 0.16498658 11382439
0.78642857 -0.17385899 0.1753885 9670541
0.79124999 -0.17849447 0.1750098 9671054
0.77378273 -0.1644394 0.17480765 14012626
0.78099996 -0.16978218 0.17365502 11051941
0.76525927 -0.15521964 0.175329 14473689
0.76097214 -0.14494313 0.17543709 15263203
0.75900006 -0.1325724 0.17898163 14736858
0.7602309 -0.13535462 0.17465043 15065566
0.75899994 -0.12441299 0.17736845 15000032
0.76000017 -0.12586585 0.17254555 14934237
0.75880772 -0.11487774 0.17555346 15065827
0.76000005 -0.11762409 0.17121117 15066082
0.75894475 -0.10546771 0.17497064 15066082
0.75897241 -0.094811387 0.17497715 14868962
0.7585668 -0.084994026 0.17488231 15066339
0.75887895 -0.07560692 0.17530519 15460582
0.76000005 -0.071513824 0.17135942 15591912
0.75900006 -0.067984521 0.17800438 15263204
0.76031041 -0.064442746 0.17488649 15394789
0.76142842 -0.054756079 0.17566971 15394789
0.76144421 -0.045209222 0.17554587 14671322
0.76097202 -0.034491744 0.17543823 14408409
0.76103318 -0.024695396 0.17545193 14539995
0.76113868 -0.01489958 0.17547637 13882320
0.76096654 -0.005097975 0.17543699 13355721
0.76088881 0.0046992772 0.17541918 13224136
0.75900006 0.018458389 0.17098589 12895171
0.76021886 0.014983545 0.17576586 13224393
0.75899994 0.025435073 0.17284112 12961222
0.76000017 0.024744034 0.17801991 12961220
0.75900006 0.030452011 0.17143008 12961221
0.76000017 0.035201706 0.17542364 13421770
0.75899994 0.047939785 0.17493698 13948112
0.76000017 0.042946354 0.17526659 13750734
0.75900012 0.055327669 0.17498374 13816783
0.75899994 0.062942669 0.17536449 13816527
0.76040012 0.068247102 0.17477199 14079702
0.76480955 0.074173078 0.17542565 14211288
0.77188891 0.079157151 0.1740396 14013909
0.77564293 0.083261587 0.17544954 13948114
0.78211117 0.087529622 0.17451464 14935009
0.78800011 0.092031538 0.17475183 12040116
0.7908572 0.096795075 0.17518732 11382440
0.77900004 -0.17117105 0.18871292 12038579
0.78550005 -0.17467284 0.18476903 9736080
0.79000002 -0.17913631 0.18490474 9736334
0.76800007 -0.1615624 0.18694556 13289156
0.77338099 -0.16580315 0.18463372 14473175
0.76279312 -0.155239 0.18493716 14473944
0.759 -0.14234497 0.1863851 14868961
0.76016682 -0.14627171 0.18395239 14803168
0.75871438 -0.13448943 0.18557362 15065825
0.76000005 -0.13852938 0.1814414 15000030
0.75833333 -0.12491156 0.18548025 15000033
0.75799996 -0.11528654 0.18508328 14934241
0.75860018 -0.10541877 0.18465942 14737375
0.75880665 -0.094648294 0.18488106 14606043
0.75799996 -0.084930062 0.18540017 14802910
0.75846875 -0.075437009 0.18495972 15065826
0.75900006 -0.068162203 0.18431212 15262948
0.76004559 -0.063403323 0.18517247 15197156
0.76067996 -0.054957055 0.18516406 15197411
0.75900006 -0.040621296 0.18831 15066340
0.76044828 -0.045303587 0.184985 14868701
0.759 -0.034806207 0.18685623 14013648
0.76000017 -0.035718549 0.18334767 14211285
0.75900006 -0.029960301 0.18831 14408663
0.76027596 -0.025406692 0.18494347 14145492
0.76099986 -0.014896372 0.18524313 14145491
0.76099992 -0.0050980421 0.18524314 13684940
0.76096648 0.0046999659 0.18523498 13553099
0.76043332 0.015376865 0.18510461 13290185
0.76000017 0.025154609 0.18499976 13158600
0.76000017 0.03494006 0.18499975 13224393
0.75899994 0.04675252 0.18498807 13816529
0.76000011 0.041675508 0.18423724 13619151
0.759 0.055327669 0.18475629 13948113
0.75899994 0.063027278 0.18446018 13947858
0.76000017 0.068299577 0.18544453 14211288
0.76331991 0.074876472 0.18523446 14276824
0.77025002 0.079588942 0.18298601 14211031
0.77547061 0.083763421 0.18513085 14211030
0.78260005 0.088193372 0.18500341 13948113
0.7874167 0.091502279 0.18522012 11250856
0.79168749 0.09674897 0.18495135 11448233
0.77780002 -0.17090738 0.19479282 13552588
0.78646672 -0.17625286 0.19536725 9538700
0.79000002 -0.17913631 0.19415176 9736334
0.76700002 -0.1620719 0.19550171 13092293
0.77307695 -0.16680948 0.19458635 15000547
0.75900006 -0.15078494 0.19630575 14276564
0.76096296 -0.1548726 0.19473435 14474201
0.75860012 -0.14508273 0.19442551 14803166
0.76000005 -0.1492044 0.19033727 14869214
0.75751615 -0.13550377 0.19486268 14737375
0.75779998 -0.12482256 0.19510756 14803168
0.75870389 -0.1150049 0.19494601 14868962
0.75900018 -0.10550263 0.19412509 14737376
0.76000005 -0.10116673 0.19923314 14408410
0.75897169 -0.094938211 0.19464864 14408665
0.75860006 -0.084997393 0.19531563 14408408
0.75870609 -0.075031601 0.19471422 14737375
0.75869703 -0.064824753 0.19485357 15065826
0.76000005 -0.062024903 0.19033726 15131363
0.75895649 -0.055064376 0.19571494 15197923
0.76000011 -0.054145701 0.19084561 15394791
0.75900012 -0.044589557 0.19529885 14671581
0.76000005 -0.047494981 0.19093035 14737375
0.75900012 -0.03541334 0.19437571 14211030
0.76000005 -0.031778947 0.19923314 13684687
0.759 -0.028716519 0.19292976 14079444
0.76000017 -0.024320107 0.1954011 14211029
0.76077765 -0.014890916 0.19498412 14079699
0.76113319 -0.0050989348 0.19507568 14013905
0.7608332 0.0046984144 0.19499883 13487564
0.75900006 0.019791014 0.19719416 13158600
0.76003045 0.014965233 0.19455022 13290186
0.75899994 0.025198769 0.19564913 13027014
0.76000011 0.024900446 0.19109978 13421772
0.75900012 0.03529235 0.19547859 13224393
0.76000011 0.033287976 0.19084561 13355979
0.75894475 0.04555149 0.19451438 13487565
0.75890011 0.055320766 0.19450314 13750737
0.75899994 0.062790364 0.19417356 13816530
0.76000017 0.068077169 0.19522998 14211288
0.76262057 0.075174853 0.1949309 14342874
0.77376926 0.083440155 0.19447915 14276824
0.78200006 0.088125765 0.19310102 13158343
0.78739995 0.091500908 0.19535658 11119015
0.79100001 0.096432708 0.19474474 11316647
0.77677774 -0.17129038 0.20545013 13750223
0.78592867 -0.17664044 0.20458218 9538957
0.76550001 -0.16193385 0.20515351 13025987
0.77191669 -0.16690566 0.20506603 15592427
0.75900006 -0.15078494 0.20696674 14144725
0.76095837 -0.15525877 0.20460536 14473946
0.75846684 -0.14535362 0.20504607 14803167
0.75741661 -0.13540025 0.20476234 14671582
0.75705552 -0.12470023 0.20466398 14671583
0.75816667 -0.11512079 0.20496392 14803168
0.75900012 -0.10617375 0.20506297 15066338
0.76000005 -0.10175978 0.20753594 15329508
0.75899994 -0.094370492 0.20230255 14342873
0.76000017 -0.095295444 0.20777318 15066593
0.759 -0.084449828 0.20437555 14276824
0.76000005 -0.087526388 0.20872207 15000802
0.75847238 -0.075218923 0.20504713 14145237
0.75755543 -0.06448663 0.20479834 14539736
0.75766671 -0.054738991 0.20482753 14934497
0.75858349 -0.045038018 0.2050758 15066593
0.75899988 -0.036421511 0.20535141 14540249
0.76000011 -0.032223739 0.20501544 14145235
0.76000017 -0.025551843 0.20546028 14079443
0.76027787 -0.014881387 0.2055344 14013394
0.76063335 -0.0050955075 0.20562983 13816273
0.76087081 0.0045558219 0.20497732 13487564
0.76005894 0.015579317 0.20521466 13158599
0.75899994 0.026052233 0.20413226 13158598
0.76000011 0.022980066 0.20793134 12764097
0.75900024 0.034894094 0.20518993 13224390
0.75836116 0.045515932 0.20501743 13421515
0.75873351 0.055309314 0.20511791 13684944
0.75899994 0.061888278 0.20594162 13684943
0.76013654 0.066896811 0.20485024 14013909
0.76315373 0.075358577 0.20486934 14211287
0.77366668 0.083326615 0.20511051 13816530
0.78100002 0.08801306 0.20473826 11052967
0.78736377 0.091412999 0.20506507 11119015
0.79220009 0.096695311 0.20458387 11316901
0.78850007 -0.18110384 0.21593325 9605004
0.77571434 -0.17174885 0.21541606 13683916
0.7841 -0.17706667 0.21380678 9473162
0.76599997 -0.16293956 0.21514878 13815503
0.77160007 -0.16773871 0.21491697 15657964
0.75900012 -0.15129261 0.21572399 15262949
0.7610476 -0.15602915 0.21452406 15000034
0.7582801 -0.14531755 0.21475825 14868704
0.75784367 -0.13564125 0.21496695 15000547
0.75756663 -0.12478486 0.21455769 15131877
0.7582801 -0.11513791 0.21475907 15066082
0.75899994 -0.10814094 0.2143279 15328997
0.7601251 -0.10329614 0.21583754 15262948
0.76076663 -0.095035516 0.21546386 15197667
0.75900006 -0.082909919 0.21211955 14606042
0.76020014 -0.085711017 0.21601471 14737629
0.75875878 -0.075093515 0.214772 14606042
0.76000005 -0.079816639 0.21880406 14671835
0.75763333 -0.064493962 0.21457599 14605528
0.75700003 -0.054691453 0.21528205 15000030
0.75765622 -0.04520376 0.21491401 15066080
0.75887495 -0.035432473 0.21500082 14671579
0.76000005 -0.031778947 0.21346653 14606042
0.759 -0.026584322 0.21762773 14408663
0.76000017 -0.02501809 0.21391132 14211284
0.75900006 -0.019299306 0.21851617 14277077
0.76000017 -0.01472342 0.21512303 13948112
0.75900006 -0.0068614762 0.21851617 14211284
0.76000017 -0.0050172103 0.21509744 14013906
0.76051426 0.004825376 0.21462721 13750735
0.76062495 0.015158959 0.21508852 13290183
0.75900006 0.02867518 0.21140884 12960964
0.76037508 0.025018273 0.21550144 13158596
0.75899994 0.036019422 0.21306719 13224389
0.76006681 0.033815932 0.21716267 13224389
0.75893348 0.045551009 0.21494392 13355977
0.75896001 0.055324934 0.21495134 13619150
0.75899994 0.063788779 0.21563937 13619151
0.76010013 0.068397693 0.21331623 13882580
0.76299995 0.07463178 0.2145904 14277081
0.77000004 0.079563104 0.21717659 13948116
0.7750625 0.083718292 0.21497478 13355977
0.78216672 0.088144541 0.21511751 10921890
0.78727281 0.091569401 0.21509442 11250854
0.79282361 0.096882187 0.21460414 11316645
0.7883001 -0.18151979 0.22510549 9670283
0.79335725 -0.18693183 0.22469221 9604745
0.77650005 -0.17319958 0.22461234 13486025
0.78350002 -0.17766242 0.22465123 9275527
0.76440006 -0.16295812 0.22525744 13552587
0.7715556 -0.1687336 0.22453904 15263460
0.75899994 -0.15187839 0.22507675 14737375
0.76035297 -0.15649904 0.22487332 15000547
0.7579667 -0.14525683 0.22442904 15000547
0.75782347 -0.13531502 0.22464781 15000547
0.75769436 -0.12480577 0.22434752 15066340
0.75826669 -0.11513565 0.2245172 15131876
0.75899994 -0.10780779 0.22606772 15328742
0.76015007 -0.1037665 0.22400753 15328742
0.76066661 -0.095022887 0.22522691 15263206
0.75900006 -0.082080729 0.22858489 14869214
0.76025933 -0.085513636 0.22467883 14868703
0.75890011 -0.074549466 0.22523838 14540249
0.76000005 -0.078927055 0.2223624 14605787
0.75808322 -0.064530998 0.22446336 14671321
0.75704002 -0.054694157 0.22504079 14868445
0.75802934 -0.044796467 0.22470899 15066594
0.7589668 -0.035289098 0.2247254 14934238
0.75900024 -0.02551822 0.22473505 14539736
0.75900024 -0.015066262 0.2249963 13948114
0.76000005 -0.011318451 0.22058322 14342870
0.75899994 -0.005676921 0.22604656 14013906
0.76000011 -0.0037075409 0.22196704 14277334
0.75899994 0.004476408 0.22680804 14079698
0.76000017 0.0049906424 0.2221252 14211285
0.75900012 0.013699017 0.22866949 13750733
0.76003462 0.015768755 0.22409022 13684940
0.76073325 0.025179815 0.22524755 13487561
0.7607221 0.034971967 0.22524527 13355976
0.75900006 0.046921883 0.22459839 13553354
0.76000011 0.042056758 0.22538698 13289925
0.75866687 0.055302512 0.22463536 13750733
0.75852793 0.065060176 0.22459364 13882320
0.75900006 0.071615301 0.22621576 14277335
0.76283336 0.075156949 0.22477585 14211544
0.77100009 0.079666436 0.22377588 13948373
0.77545458 0.08343032 0.22391209 13816530
0.78299999 0.087454878 0.22568692 11514029
0.78790009 0.091558203 0.22499385 11250855
0.79111117 0.096562237 0.22498229 11185061
0.78788894 -0.18173267 0.23421113 9670540
0.79254538 -0.18629366 0.23508586 9538952
0.77452946 -0.17349933 0.23556934 13289158
0.78260005 -0.17819341 0.2337406 9341833
0.76380765 -0.1644697 0.23475122 14276052
0.77000004 -0.16919346 0.23159726 15328997
0.759 -0.15359825 0.23598833 14737374
0.76000011 -0.15810028 0.23437181 15460328
0.75806248 -0.14494158 0.23532742 15132133
0.75802934 -0.13524748 0.23488647 14934498
0.75727773 -0.12473794 0.23486301 15000292
0.75763327 -0.11503949 0.23497239 15131619
0.75871438 -0.10556161 0.2354338 15328997
0.76000005 -0.10116673 0.23125826 15657960
0.75900012 -0.095449276 0.23958431 15329252
0.76000017 -0.094786242 0.23469391 15394533
0.759 -0.084375806 0.23606239 15131873
0.76000005 -0.087822914 0.23303743 15197410
0.75900024 -0.075269543 0.23539604 14802651
0.7581389 -0.064536631 0.23512906 14605786
0.75700003 -0.054691453 0.23477583 14408663
0.75738883 -0.044966742 0.23489515 14671837
0.75786668 -0.035237715 0.23504277 14671835
0.75800008 -0.025484595 0.23508398 14408663
0.7583611 -0.01484384 0.23519614 14079955
0.75893348 -0.0050839623 0.23537496 14145493
0.75900024 0.0046879356 0.23539607 14013906
0.75900024 0.015139892 0.23565735 13816526
0.76000005 0.018927503 0.23125826 13487561
0.75899994 0.024825372 0.23746902 13816526
0.76000017 0.025599405 0.23259266 13750733
0.7587142 0.035261147 0.23746347 13750476
0.7601335 0.034411814 0.23272218 13487562
0.75813901 0.045502525 0.23512663 13618636
0.75766671 0.055230476 0.23498102 13619151
0.75822216 0.065034963 0.23515493 13685457
0.75900012 0.071573004 0.23476148 14080216
0.76292866 0.07539314 0.23533501 14211546
0.77149999 0.079718098 0.23566237 13619410
0.77570003 0.082696535 0.23476534 13948375
0.7858001 0.087636545 0.23451111 11382190
0.78875005 0.09073291 0.23354472 10921890
0.79199994 0.095374212 0.23543485 11119268
0.78661543 -0.18332981 0.24572745 9473931
0.7918182 -0.18780728 0.24447465 9408136
0.76875007 -0.17071846 0.24561827 14868444
0.77413338 -0.17493887 0.24522397 12500157
0.78200006 -0.17915295 0.24161394 9209993
0.76237494 -0.16484585 0.2449175 14276050
0.75889295 -0.15488835 0.24532412 14868959
0.76000005 -0.15987946 0.2419333 15196896
0.75814813 -0.14489599 0.24469578 15132133
0.75803566 -0.13519272 0.24504712 14935009
0.75777769 -0.12481977 0.24565965 15000288
0.75785714 -0.11513786 0.24536893 15065826
0.75840002 -0.1053909 0.24497434 15131619
0.75876677 -0.094785735 0.24509223 15131874
0.75838459 -0.084905185 0.24517298 15263459
0.75866675 -0.075236253 0.24505976 15263715
0.75803125 -0.064305983 0.24518731 14803165
0.75689995 -0.054684617 0.2453758 14540251
0.75630581 -0.044903439 0.24518211 14474457
0.75630033 -0.035165183 0.24518028 14342870
0.75630575 -0.025427664 0.24518183 14277334
0.75655574 -0.014808401 0.24526279 14145491
0.75739992 -0.0050735353 0.24553643 14145748
0.75780553 0.0046810471 0.24566732 14013905
0.75794435 0.015327324 0.24571191 13684940
0.75773335 0.025079196 0.24564393 13750733
0.75708324 0.034804698 0.24543442 13882319
0.75552779 0.045345023 0.24492738 13750477
0.75480008 0.055021584 0.24469037 13421772
0.75641668 0.064882472 0.24521536 13750994
0.75871426 0.071799986 0.24583684 13948374
0.76318759 0.075514451 0.24450929 14146009
0.77183336 0.079752542 0.24479622 14014424
0.7766667 0.083082512 0.24480939 13158860
0.78691667 0.087761186 0.24497151 10724518
0.78573078 -0.18503912 0.25507256 9276553
0.76833338 -0.17062593 0.25447807 14539993
0.77423537 -0.17567147 0.25488636 11908276
0.75900006 -0.16144593 0.25760648 14276053
0.76200008 -0.16512069 0.25478727 14276051
0.75825012 -0.15507516 0.25468767 14934498
0.75766665 -0.14519858 0.25449193 15394791
0.75747222 -0.13540953 0.25442666 15066082
0.75658631 -0.12477698 0.25489309 14869215
0.75667858 -0.11502054 0.25479183 15066593
0.75749981 -0.10526723 0.25443563 15066336
0.75722224 -0.094592862 0.25434291 14935007
0.75689673 -0.084867463 0.25438517 15066336
0.75738883 -0.07510931 0.25439829 15131616
0.75738233 -0.06468045 0.25465745 14934750
0.75672007 -0.054672074 0.25506109 14869214
0.75596696 -0.044883478 0.25480705 14540249
0.75529623 -0.035183877 0.25497353 14342613
0.75580662 -0.025382536 0.2549243 14013648
0.75600034 -0.014798503 0.25481847 13948369
0.75592023 -0.0050642914 0.25479114 14014163
0.75552779 0.0046668476 0.25554112 13816783
0.75574303 0.01515802 0.25548691 13422025
0.75648016 0.025038475 0.25497887 13421768
0.75612915 0.034903094 0.25503203 13816783
0.7539165 0.045248915 0.2549988 13619404
0.75306684 0.054894917 0.25471163 13422026
0.75424993 0.064696699 0.25511092 13816531
0.75833338 0.072144933 0.25471714 14014168
0.76420009 0.076283343 0.25489673 14079961
0.77180004 0.079749092 0.25472361 14013909
0.77563643 0.082788296 0.25466883 11645361
0.78549999 0.087603673 0.25464505 10921891
0.78900003 0.090761669 0.25762969 11250856
0.79342312 0.095275506 0.25507009 11053475
0.77900004 -0.18028931 0.26895365 9341832
0.78595656 -0.18526693 0.26467207 9342089
0.76749998 -0.1713406 0.26498652 14013138
0.77346665 -0.17551123 0.26444706 12697534
0.75858331 -0.16239378 0.26530784 13815244
0.76186669 -0.16728988 0.26500005 14407895
0.75691676 -0.1548022 0.26487219 14803168
0.75700003 -0.14507112 0.26490229 15263719
0.75700003 -0.13532431 0.26490226 15263718
0.75632375 -0.12484166 0.26477036 14869216
0.75473523 -0.11475734 0.26436654 15132129
0.75518435 -0.10512971 0.26458848 15066080
0.7562356 -0.094730124 0.26442507 14868701
0.75506252 -0.084933139 0.26444253 14868957
0.755108 -0.074811362 0.26440316 15000287
0.75575751 -0.065001503 0.26443592 14868957
0.75544119 -0.055203408 0.26456174 14803421
0.75480539 -0.044814497 0.26413167 14606042
0.7550357 -0.035043012 0.26452878 14342613
0.7557717 -0.025434621 0.26459774 13947598
0.75613916 -0.014800926 0.26460111 13619146
0.75603366 -0.0050649256 0.26456419 13553356
0.75529987 0.0046637179 0.2651926 13750734
0.75487083 0.015408346 0.26486942 13290440
0.75520021 0.024995582 0.26426956 13224392
0.75525701 0.034595743 0.26441678 13684942
0.75520009 0.045326617 0.26515844 13684942
0.7539199 0.054957174 0.26470733 13487565
0.75415152 0.064446621 0.2652685 13619667
0.75800002 0.072032839 0.2648479 14211803
0.76200002 0.075168766 0.26486817 14211546
0.77316672 0.079890311 0.26513064 14079704
0.77633339 0.08233887 0.264397 11908534
0.78540003 0.086920135 0.26509452 11053220
0.78900003 0.090761669 0.2631709 11184804
0.79208696 0.095473818 0.26528785 11053218
0.77840006 -0.18015046 0.27512294 10196628
0.78659993 -0.1857352 0.27495107 9407624
0.76650006 -0.17201318 0.27540174 13158597
0.77308339 -0.1762069 0.27505109 13223619
0.75858825 -0.1632394 0.2745983 13421000
0.76083344 -0.16807061 0.27514821 14935007
0.75675005 -0.15476805 0.27544376 14671581
0.75633353 -0.14494316 0.27529123 15066340
0.75630575 -0.13520074 0.27528039 14935011
0.75571883 -0.1250342 0.27484509 14934754
0.7535938 -0.11525646 0.27479073 15000546
0.753353 -0.10448217 0.27446622 15000546
0.75429988 -0.095110267 0.27455094 14803165
0.75413871 -0.085380852 0.27449331 14671836
0.75377136 -0.074827403 0.27448642 14737374
0.75351727 -0.064902335 0.27442035 14737885
0.75374985 -0.055338241 0.27435258 14606042
0.75452757 -0.044796973 0.27463692 14606299
0.75489986 -0.035100397 0.27477232 14342870
0.7546109 -0.025371116 0.27466437 14013649
0.75488877 -0.014774929 0.27476484 13619148
0.75596696 -0.0050641671 0.27515894 13750733
0.75561118 0.0046653789 0.27502987 13750733
0.75424981 0.015251607 0.27453437 13421768
0.75399983 0.024956021 0.2744433 13027012
0.75402761 0.034665655 0.27445319 13487820
0.75449985 0.045285329 0.27462319 13487564
0.75356668 0.054931063 0.27428406 13487565
0.75366682 0.06488651 0.27472213 13750737
0.75730771 0.072115824 0.27516744 14014166
0.76330012 0.076014996 0.27604061 14211288
0.77649999 0.082052544 0.27899671 11448239
0.78642857 0.085470133 0.27480268 10790050
0.79050004 0.088390119 0.27639523 10987682
0.78640008 -0.18556561 0.28518915 9210504
0.79000002 -0.18838333 0.28384787 9144968
0.76500005 -0.17239618 0.2856085 13027010
0.77390003 -0.17766388 0.28458276 12829118
0.75849992 -0.16400422 0.28495955 13618637
0.7608 -0.16895297 0.28493261 14474458
0.75633347 -0.155241 0.28509575 14473689
0.75462848 -0.14537327 0.28539577 14868960
0.75402766 -0.13479461 0.28504297 14934753
0.75336671 -0.12497491 0.28479302 14934754
0.75305575 -0.11522742 0.28467679 15066339
0.75275016 -0.104606 0.28456014 15000802
0.75373328 -0.095038734 0.28493226 14803422
0.75333339 -0.08528956 0.28477988 14671835
0.75352776 -0.074726179 0.28485358 14671580
0.75393319 -0.065059975 0.28500873 14737629
0.75432348 -0.05558715 0.28489697 14474457
0.75596696 -0.044882461 0.28489342 14343127
0.75592017 -0.035148341 0.28487554 14079955
0.75427759 -0.025360687 0.2851392 13948112
0.75458813 -0.014976529 0.28499752 13816527
0.75588489 -0.0049274541 0.28506598 13750734
0.75555581 0.0046662726 0.28562057 13684941
0.75486088 0.015264745 0.28535947 13355975
0.75416654 0.024960754 0.28509724 13092803
0.75344443 0.034636989 0.28482306 13487564
0.75247228 0.045162681 0.28445473 13618894
0.75223351 0.054835036 0.28436396 13487565
0.75350004 0.064631037 0.28484502 13750738
0.75671434 0.072498798 0.28593341 14145497
0.76233345 0.076393224 0.28431499 13882325
0.77200001 0.07976976 0.28280225 13882325
0.7753334 0.081929259 0.28311503 11776949
0.78527278 0.085656837 0.28540251 10856098
0.79133338 0.088869326 0.28463557 10987682
0.77716666 -0.18168437 0.29560697 8750212
0.78569233 -0.18637016 0.29481897 9145224
0.76425004 -0.17240565 0.2951667 12960964
0.77291673 -0.17797835 0.29489595 13289928
0.75836372 -0.16381364 0.29515693 13552587
0.76066667 -0.16892338 0.294678 14474203
0.75631052 -0.1556866 0.29491323 14407895
0.75352943 -0.14508158 0.29517972 14671579
0.75294465 -0.13459991 0.29521042 14803165
0.7523002 -0.12479773 0.29495633 14803167
0.75230575 -0.11511269 0.29495847 14737118
0.75134391 -0.10496108 0.29436132 14934752
0.75173527 -0.095407315 0.29494062 14869215
0.75149989 -0.085082129 0.29464221 14671837
0.75202787 -0.074575603 0.29485083 14803422
0.75303352 -0.064981915 0.29524562 14803422
0.75388891 -0.055346206 0.29499021 14671835
0.75611138 -0.044890754 0.29468116 14342870
0.75616699 -0.035159759 0.29470384 14079955
0.75553346 -0.025403148 0.29534313 13816783
0.75565654 -0.014569412 0.29505891 13816527
0.75555176 -0.0051847296 0.29461616 13619152
0.75413322 0.0046571745 0.29479399 13816529
0.75409985 0.015250347 0.294781 13553356
0.75353581 0.025128189 0.29512674 12763839
0.75219464 0.034578454 0.29491553 13355978
0.7519725 0.045133188 0.29482999 13421772
0.7518335 0.054805402 0.29477605 13487308
0.75378126 0.064436771 0.29498821 13619151
0.7575714 0.071945421 0.29411268 13684946
0.76250011 0.075578377 0.29538614 13619152
0.77500004 0.08189404 0.29750839 11053224
0.78477788 0.085789025 0.29452369 10921890
0.79100007 0.089139991 0.29439318 11053475
0.77600002 -0.18141162 0.30515879 8684420
0.78552943 -0.18721467 0.30468193 9079176
0.76525009 -0.17263015 0.30451608 12434364
0.77220005 -0.17781354 0.30456764 12894914
0.75887501 -0.16275197 0.30331019 13289157
0.76087499 -0.16629939 0.30566835 12960963
0.75728571 -0.15519631 0.30508167 13816016
0.75389284 -0.14498246 0.30478626 14013652
0.75248158 -0.13500708 0.30471852 14145239
0.75110716 -0.12516402 0.30416274 14408411
0.75223345 -0.11510054 0.3046197 14342874
0.75174075 -0.10495594 0.3046163 14605789
0.75121433 -0.095286496 0.30401969 14539996
0.75135279 -0.084858082 0.30488363 14539995
0.7519716 -0.074595362 0.30526578 14539993
0.7528891 -0.065165035 0.30527413 14606042
0.75315642 -0.055074364 0.30466074 14737628
0.75472206 -0.04480654 0.30474102 14540506
0.75593364 -0.035148051 0.30523077 14079699
0.75575012 -0.025409766 0.30515611 13882320
0.75530577 -0.01478572 0.30497494 13684943
0.75506651 -0.0050586062 0.30488089 13553359
0.75461107 0.0046614134 0.3046996 13290188
0.75491667 0.015266846 0.30482364 13158343
0.75425917 0.024766918 0.30504701 12500670
0.7524668 0.034591544 0.30471331 12961221
0.75283349 0.045185395 0.30486107 13093065
0.75292015 0.054884184 0.30489606 13355979
0.75490618 0.064754635 0.30481678 13619151
0.75900006 0.071319163 0.30202729 13882323
0.76371437 0.074066877 0.30530047 13619151
0.77250004 0.078918673 0.30604416 11250600
0.77700001 0.082105368 0.30555344 10724255
0.78670001 0.086079821 0.30531329 10921889
0.79216671 0.089271463 0.3050254 10921889
0.778 -0.18187919 0.31232107 8684678
0.78600001 -0.18692501 0.3153238 9013641
0.76800007 -0.171152 0.31160244 12961221
0.7742666 -0.17581265 0.31474969 11710898
0.76450008 -0.16428344 0.31482536 11776177
0.77149999 -0.1686206 0.3187404 10328988
0.75790483 -0.15369505 0.31342107 13289929
0.76033336 -0.15787272 0.31620523 12829123
0.75639999 -0.14495839 0.31427658 13619149
0.75520003 -0.13482565 0.31395665 13355980
0.75589293 -0.12482412 0.31514305 13553360
0.75592583 -0.11517417 0.31476894 13883095
0.75489998 -0.104908 0.31453699 14014167
0.75407702 -0.094878308 0.31432942 13882581
0.75380772 -0.085274644 0.3146916 13816788
0.75309688 -0.074656852 0.31537598 13882580
0.75292861 -0.064783148 0.31490946 14014165
0.75429022 -0.055518419 0.31445214 14211286
0.75553352 -0.044857241 0.31479925 14408665
0.75536001 -0.035121743 0.31472671 14145748
0.75513339 -0.025389075 0.31463262 13816783
0.75417119 -0.014637361 0.31498724 13553615
0.7543999 -0.0050531244 0.31520733 13487565
0.75571889 0.0044477978 0.31520584 13224394
0.75636685 0.015296265 0.31514588 12829634
0.75612015 0.025025535 0.31504425 12369083
0.75459993 0.034689773 0.3144111 12895686
0.75402927 0.04546446 0.31479529 12698051
0.75389987 0.054955747 0.31499994 12698050
0.75645459 0.064968713 0.31501988 13290188
0.76323539 0.073614456 0.31495392 14079960
0.77272725 0.078859352 0.31521741 10790306
0.77666664 0.082070149 0.31541866 10856097
0.78586668 0.086235777 0.31577972 10856096
0.79066676 0.089102425 0.31277657 10856096
0.78900003 0.090761669 0.31950632 10658717
0.79193759 0.094925016 0.31495449 10790303
0.78790009 -0.18364087 0.32404229 8816004
0.79087496 -0.18650992 0.32720932 9013637
0.77680004 -0.1714157 0.32329744 9999510
0.78400004 -0.17675667 0.3254371 9210249
0.76700008 -0.16135204 0.32227087 11118764
0.77345461 -0.16518155 0.32605293 9605266
0.76454544 -0.15498036 0.32311109 11776692
0.77020007 -0.15481393 0.32812071 11447984
0.76372737 -0.14505747 0.32260358 13027015
0.77250004 -0.14532714 0.32910052 12238013
0.76363641 -0.13512798 0.32321584 12368830
0.7713334 -0.13698609 0.32860354 12368827
0.75866669 -0.12230265 0.32143119 12368318
0.7628001 -0.12511288 0.32568637 11710901
0.75871426 -0.11444338 0.32195905 12829637
0.76133341 -0.11524627 0.32648379 12369086
0.75819993 -0.10483287 0.32265446 13224395
0.76085722 -0.10560634 0.32719448 12763842
0.75794125 -0.094943725 0.3227953 13290445
0.76085722 -0.094411269 0.32744867 12764100
0.75739998 -0.085394949 0.32213715 12830664
0.76150006 -0.08460775 0.327268 12830407
0.75791663 -0.07516259 0.32377622 13224908
0.76200002 -0.074676983 0.32819504 12764357
0.75690913 -0.06483236 0.32342646 13619665
0.7601667 -0.064708829 0.32740545 12764357
0.75742865 -0.054974806 0.32352692 14013909
0.7615 -0.054126404 0.32976237 13290186
0.75744444 -0.044675574 0.32406878 13751251
0.76000005 -0.047791511 0.32911283 13159370
0.75743997 -0.035218075 0.32446095 13422287
0.75733346 -0.025463508 0.32441452 13290187
0.75660014 -0.014987838 0.32480919 13422287
0.7559002 -0.0050651641 0.32468599 13027786
0.7566787 0.0049273889 0.32438686 12961224
0.75756663 0.015320139 0.32451436 12303293
0.7572 0.025061937 0.32435596 12500927
0.75696671 0.034799945 0.32425684 12830150
0.75653863 0.045133982 0.32461837 12830409
0.75560009 0.055079825 0.3245568 12040635
0.75746161 0.064698614 0.32426357 12632773
0.76033336 0.069071442 0.32866409 12107456
0.76384628 0.073706046 0.3244513 13619410
0.77272737 0.07902386 0.32508695 11579567
0.7772001 0.083038107 0.32473364 10592926
0.78600001 0.087574571 0.32431042 10658719
0.78900003 0.091289401 0.32531136 10592925
0.79021055 0.095964298 0.32515675 10658717
0.79172224 0.104978 0.32524139 10658717
0.7879231 -0.17412648 0.33482024 9210759
0.791125 -0.17823493 0.3368037 9276807
0.77700007 -0.16345711 0.3324728 9013383
0.78314292 -0.16684686 0.33599335 9408396
0.77580011 -0.15430248 0.33323276 10526881
0.78500003 -0.15686899 0.33993888 9408395
0.77560008 -0.14500284 0.33223692 12172733
0.78166676 -0.14522079 0.33666554 11448241
0.77520007 -0.13513137 0.33315739 11908535
0.78350008 -0.13639495 0.33928931 10855847
0.76850003 -0.12298928 0.33189356 11513522
0.77340001 -0.12431599 0.33636746 9934490
0.76639998 -0.11457916 0.33188429 11974842
0.77218187 -0.11495031 0.33718342 10592931
0.76620001 -0.10468209 0.33269712 11711667
0.77250004 -0.10554037 0.33784232 10921639
0.76544452 -0.095916398 0.33207002 11974585
0.77266675 -0.093808703 0.33761427 11119277
0.76775002 -0.086919114 0.3324689 11975100
0.77412504 -0.085603736 0.33772272 11645879
0.77400011 -0.074945129 0.33698738 11975098
0.76500005 -0.060642082 0.33127803 12830407
0.77500004 -0.06415271 0.33833104 11975101
0.76625001 -0.054907352 0.3331666 12566721
0.77200007 -0.05487584 0.33762345 12237757
0.76390916 -0.044950802 0.33340973 12961480
0.77099997 -0.043070018 0.33929107 12369343
0.75900006 -0.031737134 0.33045661 13290958
0.76343757 -0.035050869 0.33440486 12566979
0.75900006 -0.025518218 0.33045661 12632258
0.76350009 -0.024775829 0.33509982 12238014
0.75900006 -0.014857224 0.33045661 12238014
0.76291674 -0.014935549 0.33484367 11975099
0.75900006 -0.0050846436 0.33045661 12501442
0.7615 -0.0051013911 0.33422086 11711926
0.75900006 0.0046879365 0.33045661 12698566
0.76333338 0.004719188 0.33502606 11975099
0.76276934 0.014940745 0.33333918 11514549
0.77000004 0.016472673 0.338851 10132896
0.75900006 0.027786762 0.33045661 11646905
0.76330006 0.024910105 0.333942 11383220
0.77000004 0.023683008 0.338851 10527654
0.75900006 0.03489409 0.33045661 11844284
0.76475006 0.035156 0.33564928 11712698
0.7585001 0.045523319 0.33023891 12106941
0.76309997 0.044907488 0.33492473 11843769
0.75860006 0.055299915 0.33028248 11909820
0.76383346 0.054787681 0.33524668 11843771
0.75900006 0.060658168 0.33045661 11515065
0.76360011 0.064601935 0.33371466 11580858
0.77066666 0.065200396 0.33914438 10660012
0.76725006 0.072096124 0.33315074 12172737
0.77336371 0.075798988 0.33572301 12501700
0.77680004 0.080993325 0.33348042 10461598
0.7855714 0.086431682 0.33559042 10396061
0.7916317 0.095065318 0.33559361 10461596
0.79262495 0.10509554 0.33489278 10593182
0.78900003 -0.17152131 0.34167105 10000530
0.78800005 -0.16445278 0.34176573 9605773
0.7913571 -0.165417 0.34653109 10066323
0.78780001 -0.15466636 0.34225968 9803413
0.79214287 -0.15432116 0.34727246 9934739
0.78783339 -0.1445235 0.3414737 10395295
0.79293334 -0.14514987 0.34709066 9474445
0.78672731 -0.13369034 0.34403861 9342605
0.79133338 -0.1365235 0.34793082 9540237
0.778 -0.12359487 0.34146205 9210762
0.78511119 -0.12574942 0.34632078 9540238
0.77633333 -0.1151576 0.34163809 9013894
0.78339994 -0.11436832 0.3475011 9540237
0.77650005 -0.10495295 0.34239531 9013896
0.78324997 -0.10448929 0.3476643 9540238
0.77666664 -0.09519875 0.34178481 8750471
0.78399998 -0.094259582 0.3468473 8751239
0.77750003 -0.082564004 0.34033135 11909307
0.78550005 -0.085247733 0.34641036 9474194
0.79000002 -0.081117891 0.3495017 8618883
0.77900004 -0.079988405 0.34098795 11646133
0.78450006 -0.075041912 0.34431756 10790567
0.79100001 -0.079368822 0.34994411 8618883
0.778 -0.064405739 0.34055021 11711674
0.78530008 -0.065006658 0.34558773 11316914
0.79050004 -0.065439925 0.34972292 9211024
0.77640003 -0.053553529 0.34203121 11776949
0.78360003 -0.054782104 0.34703785 11119019
0.7752223 -0.045116261 0.34296679 11514034
0.78200006 -0.047345836 0.34779313 8750473
0.77433342 -0.035096992 0.343631 11053740
0.78100002 -0.035401307 0.3491767 8488069
0.77507699 -0.024732284 0.3447209 10198175
0.7744 -0.015098745 0.34417704 10790312
0.78000003 -0.017094286 0.34872964 8684676
0.76900005 -0.0042515136 0.34021118 11185584
0.77436358 -0.0055163731 0.34505916 10395810
0.76900005 0.00024909366 0.34021118 11777721
0.77452952 0.0050528641 0.34458214 10067359
0.77490008 0.01476485 0.34373015 9803931
0.78166676 0.013063247 0.34947479 8027518
0.77550006 0.024759902 0.34399629 10264740
0.77466667 0.034706291 0.34352607 10922670
0.77416664 0.044652268 0.34340528 10462374
0.78200006 0.046935547 0.34962383 8882827
0.77454561 0.055141807 0.34349072 10528166
0.77590007 0.064912356 0.3438116 10857132
0.78100002 0.068816721 0.34734839 10067099
0.77649999 0.07326787 0.34201539 12107198
0.78387499 0.076180734 0.34702316 10527649
0.78761542 0.083797224 0.34476021 10198939
0.79057139 0.088034563 0.34631824 10330524
0.78860009 -0.12380494 0.35109788 9803151
0.79162502 -0.12587762 0.35578215 9934737
0.78825009 -0.11507609 0.35241869 9803408
0.79079998 -0.11544842 0.35633606 9737615
0.78816676 -0.10553179 0.3526887 9737615
0.79111105 -0.10489603 0.3565791 9803151
0.78837508 -0.095714673 0.35109016 9606030
0.79218745 -0.094787546 0.35626745 9671822
0.7924 -0.085073315 0.35520476 9474444
0.78833342 -0.054803435 0.35122517 8816262
0.79323089 -0.055880483 0.3567915 9408650
0.78710002 -0.044154856 0.35264257 8816518
0.79212511 -0.046103764 0.35739699 9343372
0.78762507 -0.034086727 0.35467517 9145480
0.79000002 -0.037656888 0.35689932 9343629
0.78736365 -0.025045829 0.35487255 9013894
0.78718185 -0.014989939 0.35462296 9013637
0.78600001 -0.0048049255 0.3546364 8882565
0.78600001 0.0045019276 0.35438764 8817028
0.78666669 0.01498424 0.35355496 8685444
0.78616667 0.025102608 0.35240945 8685446
0.78639996 0.035231408 0.3525143 9277584
0.7865715 0.043662276 0.35298535 9211791
0.78627276 0.054973647 0.3525407 9343377
0.78730005 0.064763643 0.3529169 9606549
0.78814298 0.075376891 0.35184315 9804180
0.79166669 0.075315513 0.35641837 9869973
0.78900003 0.081526354 0.35090637 10396317
