# .PCD v0.7 - Point Cloud Data file format
VERSION 0.7
FIELDS x y z rgb
SIZE 4 4 4 4
TYPE F F F U
COUNT 1 1 1 1
WIDTH 595
HEIGHT 1
VIEWPOINT 0 0 0 1 0 0 0
POINTS 595
DATA ascii
0.79360002 -0.63487637 -0.42448971 12696007
0.78900003 -0.62174296 -0.42162776 13880533
0.7906667 -0.62557548 -0.42431891 13683154
0.78900003 -0.61560804 -0.42169374 13683924
0.79049999 -0.61431962 -0.42492813 13881560
0.78900003 -0.60742825 -0.42116603 13749973
0.79100001 -0.60447007 -0.42448351 14012376
0.79135305 -0.59496194 -0.42438564 13748947
0.79275 -0.58460414 -0.42502722 13223115
0.79428571 -0.57545388 -0.42443448 13552336
0.79594451 -0.56525499 -0.42487559 13355214
0.79606664 -0.53521788 -0.42493978 13551826
0.79616678 -0.52503121 -0.42499408 13223117
0.79233342 -0.63508403 -0.41481781 11907004
0.78839999 -0.62450105 -0.41484761 13749205
0.79000002 -0.62854153 -0.41985044 13617361
0.78776675 -0.61477655 -0.41497543 13617876
0.78824997 -0.60441166 -0.41523045 13552596
0.78851497 -0.5946365 -0.41436297 13683925
0.78874981 -0.58527553 -0.41424015 13617876
0.79000002 -0.58230644 -0.41985044 13881300
0.78899992 -0.57683623 -0.41285425 13683668
0.79050004 -0.57365209 -0.41583797 13749461
0.79093122 -0.56485802 -0.41472986 13683667
0.7912308 -0.55485839 -0.41502252 13749460
0.79119235 -0.54521412 -0.41493103 13815511
0.79120696 -0.53503686 -0.41493896 14407135
0.78900003 -0.52200156 -0.41054541 14407392
0.79123813 -0.52535522 -0.41557235 14604771
0.78900003 -0.51507509 -0.41100723 14605025
0.79146665 -0.51544929 -0.41667938 14407903
0.78900003 -0.50583971 -0.41054547 14604769
0.79194117 -0.50455987 -0.41564983 14473694
0.79247832 -0.49491775 -0.41455829 14801888
0.79400009 -0.4853012 -0.41555968 14867682
0.79381841 -0.47505474 -0.41529495 14867938
0.79429173 -0.46468088 -0.41539463 14342109
0.79488009 -0.45460173 -0.4153769 14144731
0.79526097 -0.44493407 -0.41423163 14407646
0.79609525 -0.40477759 -0.41484129 13552847
0.79573691 -0.39524832 -0.41408005 14078935
0.79525012 -0.38487673 -0.41321981 14210520
0.7925455 -0.6352942 -0.40492409 11841212
0.78840917 -0.62425649 -0.40516165 14078170
0.79000002 -0.62854153 -0.40135637 14078425
0.78819448 -0.61511099 -0.40505102 14144219
0.78865707 -0.60452604 -0.4051567 14210012
0.78899992 -0.59507596 -0.40604317 14144220
0.79009998 -0.59384739 -0.40214673 14407391
0.78900003 -0.5860551 -0.40770885 13683669
0.79042882 -0.58473617 -0.40315875 14341597
0.78900003 -0.57972229 -0.40823659 13552083
0.7908237 -0.57458138 -0.40454909 14210011
0.79112929 -0.56479716 -0.40485477 14012632
0.79076684 -0.5551042 -0.4045203 14210011
0.79038739 -0.54540634 -0.40417764 13947353
0.79003257 -0.53525805 -0.40489256 14341854
0.78899986 -0.52338678 -0.40454251 14473696
0.79000002 -0.52867371 -0.40505514 14605282
0.78847998 -0.51473701 -0.4042756 14539232
0.788077 -0.50503469 -0.4042114 14670305
0.78831029 -0.49508768 -0.40406254 14670305
0.78899986 -0.48582989 -0.40331113 14933477
0.79008335 -0.48341396 -0.4069477 15065063
0.7906366 -0.47424427 -0.40487707 15394029
0.79150009 -0.46482447 -0.40489835 14999271
0.79184371 -0.45494738 -0.40449429 14473697
0.79211998 -0.44479123 -0.40428829 14473440
0.79233325 -0.435224 -0.40460408 14539489
0.79221445 -0.4250401 -0.40414047 14079707
0.79192311 -0.41480511 -0.40433285 14079192
0.79124022 -0.40502891 -0.40384051 14473436
0.79064995 -0.39537895 -0.40446481 14868193
0.78900003 -0.3836697 -0.40137607 14670815
0.79037499 -0.38575879 -0.40513271 14736607
0.78900003 -0.37469825 -0.40177187 14670816
0.79090905 -0.37509859 -0.4065322 14671071
0.78900003 -0.36615559 -0.40154099 14999524
0.79126662 -0.36428806 -0.40607685 15263208
0.78900003 -0.35992175 -0.40084833 15657709
0.79483336 -0.35598382 -0.40481889 13750225
0.79261917 -0.63513565 -0.39508593 11840700
0.78899992 -0.6227479 -0.39585042 14341598
0.79000002 -0.62654984 -0.39296293 14407392
0.78899986 -0.61530256 -0.39627936 14407134
0.79000002 -0.61374629 -0.39171299 14538977
0.78899997 -0.60558116 -0.39755005 14407133
0.79005259 -0.6040526 -0.39301142 14538977
0.79054314 -0.59486687 -0.39502087 14473183
0.79219985 -0.58485389 -0.39505467 14670562
0.79321885 -0.57475477 -0.39451721 14670562
0.79345149 -0.56519747 -0.39501938 14605282
0.79234606 -0.55457246 -0.39527065 14539232
0.79148 -0.54448819 -0.39469662 14341340
0.79031062 -0.53430539 -0.39487889 14736097
0.78899992 -0.52270967 -0.39481458 14604767
0.79000002 -0.52737916 -0.39654797 14802403
0.7889598 -0.51504916 -0.39528695 14407390
0.78820002 -0.50532758 -0.39490578 14736355
0.78800005 -0.4950527 -0.39480621 14802147
0.78883988 -0.48542285 -0.39522719 15196904
0.79000002 -0.48058921 -0.39950696 15525612
0.78900003 -0.47998086 -0.39438361 15262953
0.79024267 -0.47451285 -0.3945843 15460333
0.79185176 -0.46461812 -0.39481372 15394284
0.79271412 -0.45500007 -0.39537805 14933989
0.79207993 -0.44476941 -0.39499584 14868454
0.79234612 -0.43542945 -0.39498493 15197161
0.79217231 -0.42518875 -0.3951692 14933987
0.79223067 -0.414965 -0.39492768 14605021
0.79176915 -0.40510008 -0.39476871 14736349
0.79090023 -0.39534986 -0.39533046 15131107
0.78900003 -0.38229173 -0.39756471 14933986
0.7902801 -0.38603652 -0.39417121 14999264
0.7889998 -0.37454435 -0.39546105 14999778
0.79000002 -0.37748492 -0.3907223 15130850
0.7889998 -0.36546296 -0.39530715 14934243
0.78900003 -0.35910082 -0.39489666 15132393
0.79386675 -0.35506842 -0.39507505 13158860
0.79315996 -0.63521791 -0.38483796 12498630
0.79073346 -0.62449712 -0.38444996 14538978
0.7911877 -0.61501515 -0.38459271 14670564
0.79164714 -0.60510498 -0.38436761 14604770
0.7922973 -0.59467584 -0.38497645 14538976
0.7935757 -0.58477139 -0.38543716 14670562
0.79459387 -0.57540315 -0.38491172 14605026
0.79388458 -0.56458485 -0.38495871 14605026
0.79276657 -0.55465275 -0.385131 14670818
0.79150003 -0.54470068 -0.38484606 14341597
0.79020017 -0.53435808 -0.3848092 14604255
0.78899974 -0.52418303 -0.38530755 14934245
0.79000002 -0.52867371 -0.38101292 15065574
0.78899974 -0.51507509 -0.38514826 14275804
0.78846663 -0.50549906 -0.38488743 14605026
0.78824997 -0.4952091 -0.38478109 14999782
0.78893077 -0.4856067 -0.38527355 15263211
0.79000002 -0.4812057 -0.38162938 15592689
0.78900003 -0.47998086 -0.38699538 15328748
0.7904197 -0.47421712 -0.38473597 15460334
0.79255545 -0.46451542 -0.38502789 15526126
0.79354835 -0.45470208 -0.38535857 15328746
0.79361773 -0.44486624 -0.38488421 15131367
0.79427493 -0.43526188 -0.38506776 15328745
0.79370964 -0.4253062 -0.38537639 15262694
0.7929998 -0.4147872 -0.38537708 14999266
0.79203218 -0.40413031 -0.38462511 15065572
0.79236662 -0.39484659 -0.38493687 15131108
0.79179996 -0.38529676 -0.38466081 15064802
0.78900003 -0.37161982 -0.38915026 15196643
0.79048014 -0.37532741 -0.3846482 15196644
0.78899992 -0.3653475 -0.38768798 14934243
0.79033333 -0.36443442 -0.3830229 15066086
0.78900003 -0.35992175 -0.3888424 15461358
0.79494125 -0.35654694 -0.38525143 13422286
0.79407418 -0.63571018 -0.37512851 12564934
0.79203695 -0.62466788 -0.3749899 14604771
0.79274988 -0.61528605 -0.37471598 14670564
0.7925185 -0.60498309 -0.37501299 14604771
0.79283327 -0.59460241 -0.37495601 14670563
0.79538482 -0.58431363 -0.37534899 14736613
0.79618192 -0.57458007 -0.37518272 14736613
0.79438466 -0.56522679 -0.37547478 14736357
0.7927199 -0.55461997 -0.37490234 14605027
0.79188883 -0.54456276 -0.37492001 14473441
0.79083347 -0.53478622 -0.37493357 14802149
0.78900003 -0.52123195 -0.37806788 14605538
0.79030776 -0.52567792 -0.37439999 15000040
0.78899986 -0.51454741 -0.37551716 14276317
0.79000002 -0.518502 -0.37269062 14341854
0.78899974 -0.5050754 -0.3751168 14670562
0.79000002 -0.50093263 -0.37176591 14934504
0.78900003 -0.49521911 -0.37729827 15000296
0.79065001 -0.49449506 -0.37271827 15066090
0.78900003 -0.48829263 -0.3786836 15263723
0.79083878 -0.48504034 -0.37490502 15395053
0.7916286 -0.47522452 -0.37517786 15460845
0.79436851 -0.46493956 -0.37465015 15395052
0.79362971 -0.41508868 -0.37471026 15197158
0.79217845 -0.40462169 -0.3748436 15197158
0.79199988 -0.39466384 -0.37456119 15065572
0.79199988 -0.38539341 -0.37456116 15065059
0.79122233 -0.37482852 -0.37511897 15065059
0.79190916 -0.3643913 -0.37507841 15131622
0.79373926 -0.63418442 -0.36496124 13551828
0.79199988 -0.62457061 -0.36529079 14473953
0.79231995 -0.61554885 -0.36543953 14605539
0.79199988 -0.6051026 -0.36529076 14605026
0.79222566 -0.5939967 -0.36521533 14670563
0.79380006 -0.58473325 -0.36482182 14801893
0.79426092 -0.57534164 -0.36463872 14867942
0.79291308 -0.564843 -0.36555213 14802150
0.79171997 -0.55503154 -0.36516303 14670819
0.7913931 -0.54502219 -0.36481363 14670819
0.79186654 -0.53455698 -0.36522892 14933990
0.79149991 -0.52435189 -0.36505958 14802403
0.78900003 -0.5124892 -0.36834005 14341854
0.79000014 -0.51513606 -0.36459026 14276574
0.78900003 -0.50830251 -0.3682169 14407647
0.79061311 -0.50400567 -0.36494857 14737125
0.79253322 -0.49530131 -0.36528769 15329261
0.79308313 -0.48524952 -0.3648605 15592433
0.79416203 -0.47462648 -0.36517912 15460590
0.79593343 -0.41525954 -0.36505201 15328745
0.79363322 -0.40476844 -0.36511248 15394538
0.79276657 -0.3950457 -0.36471504 15131108
0.79219234 -0.38563034 -0.36516482 15065572
0.79136676 -0.37489751 -0.36499873 15131622
0.7924062 -0.36402261 -0.36513001 15067112
0.79419053 -0.63480043 -0.35487962 13354450
0.79130006 -0.62401927 -0.35477993 14605541
0.79133338 -0.61478215 -0.35479593 14539747
0.79141188 -0.60492492 -0.35504892 14473954
0.79221618 -0.59461462 -0.35486442 14539491
0.79291999 -0.58445907 -0.35457793 14670820
0.79173076 -0.57417345 -0.35426059 14736614
0.79093117 -0.56460559 -0.3547748 14867943
0.79062092 -0.55487287 -0.35463488 14604771
0.79113907 -0.5451777 -0.354707 14867942
0.79205537 -0.53468448 -0.35511801 15196650
0.79223329 -0.52460545 -0.35519689 14933992
0.7911669 -0.5146386 -0.35471782 14342366
0.79070401 -0.50466889 -0.35564435 14933989
0.79179305 -0.49529266 -0.35458615 15460590
0.79320008 -0.48531953 -0.35470399 15592175
0.79496562 -0.47539327 -0.35536373 15526125
0.79468 -0.40530235 -0.35536525 15394537
0.79307997 -0.39520344 -0.35464957 14933730
0.79172415 -0.38513225 -0.35481098 15262438
0.79106265 -0.37498361 -0.35525194 15262952
0.79190332 -0.36399296 -0.35519895 15263977
0.79422724 -0.63469565 -0.34493583 13749208
0.79124016 -0.62397194 -0.34456462 14605541
0.79100013 -0.61452323 -0.34446031 14539492
0.79100013 -0.60526443 -0.34446034 14408162
0.79168755 -0.59518921 -0.34493408 14473954
0.79264277 -0.58485049 -0.34497732 14605026
0.79184008 -0.57439524 -0.34482452 14605283
0.7912693 -0.56457603 -0.3447898 14736611
0.79141384 -0.55510992 -0.34463882 14407391
0.79188883 -0.54517919 -0.34505236 14933992
0.79283321 -0.53520906 -0.34525827 14999528
0.79251993 -0.52479559 -0.34512234 14802918
0.79140007 -0.51479071 -0.34463492 14473952
0.79000026 -0.5046314 -0.34494945 14868198
0.79084402 -0.49521667 -0.34473863 15394798
0.79299998 -0.48494321 -0.3448233 15592432
0.79469454 -0.47507158 -0.34513769 15460332
0.79548395 -0.46451992 -0.34473172 15329003
0.79576927 -0.43508995 -0.34474802 15066343
0.79476196 -0.42510051 -0.34494901 15197928
0.79354161 -0.41439605 -0.3451829 15395307
0.79276913 -0.40454113 -0.34509036 15263721
0.79219991 -0.39476454 -0.34498408 14671329
0.79080009 -0.38481084 -0.34437385 14934500
0.78900003 -0.37248176 -0.34248117 15198185
0.79000002 -0.37565985 -0.34597155 15394794
0.78900003 -0.36678228 -0.34253389 15198699
0.7905001 -0.36430454 -0.34624735 15329513
0.79391998 -0.6350829 -0.33465436 13157327
0.79199988 -0.62457067 -0.33469835 14605541
0.7918666 -0.61519665 -0.33464134 14539748
0.79170591 -0.60515022 -0.33435452 14539490
0.79184371 -0.59513474 -0.33486331 14670820
0.7923888 -0.58499312 -0.33486307 14736356
0.79349989 -0.5749411 -0.3351123 14736611
0.79361302 -0.56501281 -0.33546773 14671075
0.79287082 -0.55490381 -0.33521536 14473953
0.79306442 -0.5453974 -0.33511811 14605539
0.79308546 -0.53524768 -0.3351835 15065577
0.7923333 -0.52467185 -0.33483949 15065577
0.79129636 -0.51492888 -0.33491519 14539490
0.79032022 -0.50483531 -0.33491266 14868711
0.79167652 -0.49528834 -0.33483315 15460847
0.79387885 -0.48598689 -0.33506939 15592432
0.79587501 -0.47560209 -0.33505383 15263723
0.79586214 -0.45447469 -0.3346265 15263721
0.7947917 -0.4445869 -0.3350257 15197928
0.79361534 -0.43469891 -0.33438256 15000551
0.79258609 -0.42451605 -0.33478624 15197928
0.79196769 -0.4148632 -0.33453411 15395305
0.79197127 -0.4047139 -0.3348175 15394536
0.79236662 -0.39484644 -0.33485168 14736863
0.79100013 -0.38511494 -0.33478865 14868450
0.7889998 -0.37365428 -0.33547834 15263208
0.79000002 -0.37856373 -0.33416137 15263208
0.78899986 -0.36678225 -0.33567339 15395307
0.79141182 -0.36210912 -0.33384699 15066598
0.79387999 -0.63527358 -0.32519639 13815258
0.79199988 -0.62457061 -0.32450086 14736355
0.79257143 -0.61514711 -0.32453492 14604769
0.79240727 -0.60489857 -0.32487243 14670562
0.79234624 -0.59495121 -0.32449868 14802148
0.79234469 -0.58480132 -0.32476929 14802405
0.79366666 -0.57478797 -0.32518408 14736869
0.79408002 -0.56486613 -0.32535386 14473954
0.79295999 -0.55478704 -0.32489437 14539748
0.79272002 -0.54534 -0.32479697 14802663
0.79296654 -0.53529966 -0.32489711 15000297
0.79235983 -0.52468938 -0.32464781 14934503
0.79149997 -0.5146569 -0.32489067 14737124
0.79100019 -0.50509077 -0.32486731 15131882
0.79180646 -0.4956778 -0.32489938 15526896
0.7931332 -0.48527896 -0.32496634 15526640
0.79506451 -0.47520256 -0.32497692 15263466
0.79432255 -0.43469149 -0.32436916 15197928
0.79475754 -0.4250153 -0.32461116 15263723
0.79529417 -0.414922 -0.32491344 15395051
0.79442865 -0.40490761 -0.32482824 15263207
0.79330766 -0.39546016 -0.3248215 14671070
0.79150003 -0.38495326 -0.32489118 15065571
0.78900003 -0.37192768 -0.3288129 14999777
0.79034501 -0.37533674 -0.32426789 15328742
0.78900003 -0.36823356 -0.3288129 15262949
0.79327923 -0.36453819 -0.32471657 14803426
0.79421741 -0.6345669 -0.31498012 14604772
0.79223067 -0.62489629 -0.31510812 14736355
0.79269975 -0.61522526 -0.31544831 14670562
0.79296654 -0.60497463 -0.31474897 14671075
0.79333305 -0.5949769 -0.3148317 14671332
0.79418182 -0.58488065 -0.31491289 14737125
0.79436374 -0.57487208 -0.31549311 14671333
0.79403341 -0.56483239 -0.31511015 14408160
0.79293323 -0.55476886 -0.31467324 14539746
0.79236662 -0.54509753 -0.31444746 14802917
0.79269421 -0.53511506 -0.31457818 14934504
0.79272407 -0.52499437 -0.31475016 15065832
0.79188454 -0.51524794 -0.31497014 14737124
0.79153341 -0.50468314 -0.31504399 15329260
0.7924999 -0.49489674 -0.3148323 15526895
0.79311085 -0.48526642 -0.31474319 15395309
0.7933225 -0.47482127 -0.31461903 15197930
0.79522592 -0.46478739 -0.31459528 15263722
0.79337949 -0.39522478 -0.31469041 14671071
0.79214817 -0.38567284 -0.31487611 14868706
0.7912001 -0.37481695 -0.31491143 15329257
0.79513156 -0.36437201 -0.31495422 14211804
0.79449999 -0.63491344 -0.30506539 14736871
0.79293317 -0.62499684 -0.30508152 14736869
0.79262054 -0.61533493 -0.30511063 14670562
0.79199988 -0.6051923 -0.30458435 14802148
0.79316658 -0.59485042 -0.30455443 14802148
0.79493338 -0.5850119 -0.3052325 14803175
0.79511541 -0.57505238 -0.30508682 14671590
0.79427999 -0.56500953 -0.30498147 14474211
0.79312003 -0.55489939 -0.30453625 14473696
0.79300004 -0.54553276 -0.30448991 14933734
0.79306656 -0.53536713 -0.30451515 15065321
0.79292303 -0.52498984 -0.30467409 15065319
0.79217231 -0.51516432 -0.30493882 15066088
0.79205537 -0.50501704 -0.30505416 15460845
0.79331243 -0.49490452 -0.30466574 15592175
0.79544115 -0.4854309 -0.3043825 15329002
0.79463321 -0.47503731 -0.30418321 15197416
0.79365516 -0.4649373 -0.30474007 15197930
0.7948668 -0.45470658 -0.30520695 15329515
0.79549998 -0.44442651 -0.30485037 15395307
0.79495656 -0.40511924 -0.30499908 15000549
0.79339999 -0.39536297 -0.30464351 14539998
0.7920714 -0.38523045 -0.30472955 14934755
0.79113907 -0.37478736 -0.30470127 15263720
0.79510528 -0.36475185 -0.30495143 14408924
0.79463649 -0.63519174 -0.29531029 14802663
0.79322231 -0.62512058 -0.2954981 14737125
0.79307139 -0.61487299 -0.29503575 14736866
0.7929644 -0.60451311 -0.29459625 14736868
0.79359996 -0.5950433 -0.29463345 14671077
0.79477781 -0.58489692 -0.29494011 14737381
0.79486209 -0.57459795 -0.29481125 14671587
0.7937308 -0.56476188 -0.29526612 14474208
0.79283994 -0.55470341 -0.29514888 14408158
0.79280001 -0.5453946 -0.2951341 14868198
0.79385716 -0.53550065 -0.29483569 15131627
0.79350001 -0.52544403 -0.2946634 15065320
0.79266661 -0.51520133 -0.29487678 15263210
0.79334289 -0.50458759 -0.294696 15460846
0.79476666 -0.40534624 -0.29493463 14868963
0.79375875 -0.39567015 -0.29472011 14671328
0.79259992 -0.38568664 -0.29505858 15066087
0.79183328 -0.37511623 -0.29477292 15263722
0.79516673 -0.36458606 -0.29508194 14342617
0.79330438 -0.63496882 -0.28474334 14867942
0.79155564 -0.62463081 -0.28520063 14868454
0.79249984 -0.6147598 -0.28509152 14736868
0.79347056 -0.60480356 -0.28462046 14802662
0.79475999 -0.59511679 -0.28469947 14802662
0.79411542 -0.58512503 -0.28461185 14737125
0.79370379 -0.5749892 -0.28439116 14671332
0.79309994 -0.56453991 -0.2847859 14540003
0.79212892 -0.55438554 -0.28453541 14474210
0.79213321 -0.54493588 -0.28468621 14671333
0.79284364 -0.53544861 -0.28436187 15131881
0.79299998 -0.52496934 -0.28428334 15131368
0.79319417 -0.51502687 -0.28506649 15263724
0.79556012 -0.4448615 -0.2849867 15526892
0.79503709 -0.43484846 -0.28500649 15461099
0.79534799 -0.40531912 -0.28515333 14737375
0.79376924 -0.39540416 -0.28455955 14671326
0.79264498 -0.38552815 -0.28496072 15131879
0.79199988 -0.37506348 -0.28455859 15197929
0.79482049 -0.36461768 -0.28500503 14342875
0.79310006 -0.63565242 -0.27482134 14605542
0.79080576 -0.62455422 -0.27495286 14802919
0.7912693 -0.61487424 -0.27440184 14868198
0.79262853 -0.60465109 -0.27465919 14802661
0.7953667 -0.59501255 -0.27486098 14802661
0.79469573 -0.58544523 -0.27561677 14736868
0.79284012 -0.57512027 -0.27473244 14539747
0.79219985 -0.56538332 -0.27451125 14539748
0.79178566 -0.55522317 -0.27456591 14671589
0.79185182 -0.54515409 -0.27418372 14803175
0.79199988 -0.53464729 -0.27444059 15132138
0.79231995 -0.52466077 -0.27455163 15131881
0.79425716 -0.51483643 -0.27474281 15460846
0.795394 -0.45475334 -0.27510771 15197673
0.79496157 -0.43536487 -0.27525088 15461357
0.79360002 -0.3954635 -0.27499497 14802654
0.79223067 -0.38529238 -0.27466333 15197413
0.79199988 -0.37503606 -0.2743127 15197927
0.79525816 -0.3654705 -0.27508721 14343902
0.79307687 -0.63484913 -0.26531592 14671335
0.79084015 -0.62365574 -0.26478136 14802919
0.79100013 -0.61452323 -0.2648353 14802918
0.7921291 -0.60498887 -0.26533285 14868967
0.79415393 -0.59573501 -0.26532057 14868711
0.79368001 -0.5850212 -0.26573512 14671332
0.79167998 -0.57427913 -0.265064 14473952
0.79068017 -0.56429869 -0.2647289 14539745
0.7907601 -0.55509788 -0.2647554 14605539
0.79170001 -0.54556364 -0.26506981 14671333
0.79199988 -0.53464729 -0.26517007 15066089
0.79282135 -0.52439553 -0.26504636 15263723
0.7949999 -0.5150646 -0.2652168 15461102
0.79514819 -0.48516867 -0.26457137 15066086
0.79489291 -0.47485957 -0.26408005 15197671
0.79489285 -0.46475777 -0.2648766 15000037
0.79533333 -0.4552274 -0.26493263 15131880
0.79540002 -0.44477162 -0.26444772 15592686
0.79503453 -0.43513241 -0.26509511 15592686
0.79388881 -0.39581388 -0.26538917 14737375
0.79172003 -0.38525808 -0.26507694 15000544
0.79065549 -0.37471843 -0.2648488 15263975
0.79463643 -0.36529982 -0.26497912 14212315
0.79259253 -0.63445443 -0.25526726 14736869
0.79115641 -0.62425154 -0.25446936 14933991
0.79257119 -0.61494756 -0.25502253 14868455
0.79372215 -0.60486817 -0.25552425 14868710
0.79335469 -0.59424621 -0.25555733 14934503
0.79207683 -0.5844084 -0.25471225 14802917
0.79135305 -0.57469463 -0.25498104 14540001
0.7905668 -0.56421745 -0.25450951 14474207
0.7906335 -0.55500889 -0.25453174 14473951
0.79163891 -0.54552144 -0.2548562 14671588
0.79199988 -0.53464729 -0.25497264 15000040
0.79274178 -0.52476078 -0.25530246 15197674
0.79366666 -0.51496017 -0.25458372 15329516
0.79534489 -0.50508964 -0.25499356 15329516
0.79548001 -0.49509773 -0.25516322 15132137
0.79460001 -0.48524848 -0.25487852 15066344
0.7944001 -0.47489694 -0.25481388 15066087
0.7944001 -0.46466863 -0.25481635 14934243
0.79423338 -0.45434386 -0.25476333 15329257
0.79496002 -0.44452503 -0.25499499 15526893
0.79448009 -0.43495807 -0.25484163 15526893
0.79536664 -0.4251999 -0.2551254 15461100
0.79483342 -0.40522575 -0.25480115 14934754
0.7931785 -0.39505342 -0.25502077 15000804
0.79160005 -0.38520014 -0.25484303 15132133
0.79045492 -0.37488422 -0.25422108 15197926
0.79409105 -0.36645883 -0.25521722 14869471
0.79422724 -0.64542919 -0.24529514 11315379
0.79143482 -0.6349203 -0.24435993 14605540
0.79093349 -0.62465459 -0.24444589 14802918
0.7924332 -0.61470753 -0.24490963 14802917
0.7942667 -0.60497338 -0.24547686 14802660
0.79396003 -0.59452039 -0.24538171 14868453
0.79304004 -0.5845474 -0.2450965 14802917
0.79219991 -0.57465607 -0.24483655 15000039
0.79155999 -0.56492639 -0.24463801 14802661
0.79203326 -0.55506432 -0.24478407 14605538
0.79239982 -0.54512 -0.24489732 14737124
0.79239976 -0.53491729 -0.24489734 15197417
0.79207987 -0.52450311 -0.24479946 15263466
0.7912001 -0.51465917 -0.24452859 15197930
0.7913667 -0.50457597 -0.24458131 15329516
0.79356664 -0.49483112 -0.24526082 15066344
0.79537141 -0.48491937 -0.24475248 15132136
0.7947942 -0.45439142 -0.24492496 15329257
0.79500002 -0.44454756 -0.24477173 15592686
0.79483336 -0.43515095 -0.24471968 15592428
0.79520696 -0.41500801 -0.24499628 14934755
0.79299998 -0.40444523 -0.24508484 15000547
0.79211998 -0.3947238 -0.24481279 15132133
0.79199988 -0.38539344 -0.24477516 15066597
0.7917667 -0.3750855 -0.24470215 15001316
0.79350001 -0.64470303 -0.23520699 11250101
0.79052019 -0.63450909 -0.23506491 14539747
0.7901113 -0.62451893 -0.23514892 14737382
0.79117244 -0.6150378 -0.23519647 14802918
0.7925666 -0.60516346 -0.23567466 14802918
0.7926296 -0.59462172 -0.235762 14736868
0.79223073 -0.58452106 -0.23550409 14736611
0.79192299 -0.57466829 -0.23533994 15197417
0.79219985 -0.56451607 -0.23513092 14934245
0.79303122 -0.55518401 -0.23499873 14605793
0.79303211 -0.54537511 -0.23473351 14802917
0.7929998 -0.53518975 -0.23500647 15263466
0.79290313 -0.52486885 -0.23469403 15329259
0.79245174 -0.51499432 -0.23461786 15329515
0.79286116 -0.50490886 -0.23482674 15329258
0.79429412 -0.49501178 -0.23547141 15000292
0.79556674 -0.48490512 -0.23470192 15000548
0.79500002 -0.43524206 -0.23453568 15395305
0.79515386 -0.41470882 -0.23479475 14934755
0.79339987 -0.40464851 -0.23499075 15132132
0.79289991 -0.3951129 -0.23484339 15131877
0.79240614 -0.38524365 -0.23446481 15000547
0.79252917 -0.37517288 -0.23495142 15132647
0.79447061 -0.64501041 -0.22453138 11775673
0.79071444 -0.63466531 -0.22507325 14473953
0.7889998 -0.62455553 -0.22504149 14605796
0.79000002 -0.6248427 -0.22504652 14671589
0.79013926 -0.61477834 -0.22477835 14737125
0.79112923 -0.60518336 -0.22521025 14671589
0.7910859 -0.59501225 -0.22491539 14605796
0.79136372 -0.58465785 -0.22487229 14539746
0.79190904 -0.57494944 -0.2255339 15066089
0.79215616 -0.56494474 -0.22529401 14934758
0.79281473 -0.55509692 -0.2244055 14671586
0.79338461 -0.54558194 -0.22491497 14802659
0.79343319 -0.53524178 -0.22453792 15328744
0.79470974 -0.52474123 -0.2249653 15263208
0.79524004 -0.44468385 -0.22530004 15527148
0.79350001 -0.43457642 -0.22496153 15461098
0.79396546 -0.42499515 -0.22500406 15000547
0.79477781 -0.41506675 -0.22496155 14934755
0.79400003 -0.40495491 -0.22494696 15263719
0.79374999 -0.39493856 -0.2248762 15197669
0.79299998 -0.38443607 -0.22466353 14868961
0.79275995 -0.3746281 -0.22459659 15132647
0.7920953 -0.63497925 -0.21486764 14342623
0.78900003 -0.62220472 -0.21983616 14737125
0.79026932 -0.62484223 -0.21449628 14539746
0.79037964 -0.61480582 -0.21479598 14671589
0.79107702 -0.60510886 -0.21471557 14737125
0.79141384 -0.59523088 -0.21507703 14474466
0.79196656 -0.58468288 -0.2151006 14408416
0.79183996 -0.57439464 -0.21506698 14802917
0.79140007 -0.56481206 -0.21494877 14934504
0.79155177 -0.55488622 -0.21511772 14868966
0.79259264 -0.54525048 -0.21520403 15000294
0.79388565 -0.53472203 -0.21541008 15329257
0.79521215 -0.52454454 -0.21502399 15197928
0.79531044 -0.47451136 -0.21459782 14868962
0.79410726 -0.46469808 -0.21508634 15000292
0.79396296 -0.45498219 -0.2155761 15395050
0.79330784 -0.44495848 -0.21489409 15592685
0.79267991 -0.43582863 -0.21529381 15395305
0.79196656 -0.42523804 -0.21510124 14868705
0.79309994 -0.4147048 -0.21541017 15000804
0.79328001 -0.4045884 -0.21545865 15197926
0.79295999 -0.39514244 -0.21537071 15197926
0.79255998 -0.38566604 -0.21526328 15065823
0.79186654 -0.37513277 -0.215074 15132132
0.7937308 -0.63494247 -0.20528652 13553619
0.79190314 -0.62467378 -0.20503411 13685464
0.79173332 -0.61509264 -0.204842 13882586
0.79219425 -0.60525072 -0.2049616 14211806
0.79249996 -0.59493244 -0.20480742 14145757
0.79229015 -0.58507162 -0.20513524 13948634
0.79122591 -0.57472593 -0.20480078 14014425
0.79017264 -0.56450999 -0.20491788 14343391
0.78900003 -0.55571043 -0.2041361 14474463
0.79004174 -0.55428618 -0.20517594 14540256
0.79072243 -0.54488969 -0.2045819 14605792
0.79270267 -0.53489256 -0.20476672 15066344
0.79482144 -0.52505493 -0.20490991 14934756
0.79476011 -0.51511484 -0.20469579 15329257
0.79444832 -0.5048427 -0.20461605 15066084
0.7954616 -0.49529871 -0.20487697 14803169
0.79444462 -0.46448904 -0.20502616 14671585
0.79413331 -0.45496929 -0.2051516 15263721
0.7937575 -0.44486594 -0.20522484 15526893
0.79329991 -0.43431213 -0.20524788 15198183
0.79229999 -0.42449075 -0.20498833 14803425
0.79228115 -0.41485792 -0.20521718 15000546
0.79199994 -0.40486172 -0.2049135 15198181
0.79181248 -0.39491719 -0.20463288 15132386
0.79221857 -0.38515148 -0.20473608 15000800
0.79540753 -0.62498009 -0.19471891 9935518
0.79474276 -0.61482251 -0.19453175 10067104
0.79392594 -0.57452875 -0.19435446 10396325
0.79316235 -0.56440789 -0.19438764 10264996
0.79430014 -0.55492508 -0.1950815 10461862
0.79551852 -0.54505277 -0.19564165 10263970
0.79439294 -0.40482184 -0.19429991 12566973
