# .PCD v0.7 - Point Cloud Data file format
VERSION 0.7
FIELDS x y z rgb
SIZE 4 4 4 4
TYPE F F F U
COUNT 1 1 1 1
WIDTH 49
HEIGHT 1
VIEWPOINT 0 0 0 1 0 0 0
POINTS 49
DATA ascii
0.7927646 0.13469748 0.39460939 10725023
0.79146665 0.1447763 0.40480798 10593696
0.79117149 0.15477872 0.40478677 10659232
0.78900003 0.1498677 0.412783 10593694
0.79100001 0.14489505 0.41516665 10593439
0.78899974 0.15540887 0.41463003 10659231
0.79000002 0.15005763 0.41608027 10593183
0.78900009 0.16229337 0.41639316 10724768
0.79021055 0.16626038 0.41424337 10659232
0.79212898 0.17474951 0.4145664 10725024
0.79280007 0.18505783 0.41463524 10790817
0.79184008 0.094797 0.42446399 10330522
0.79096448 0.1444854 0.42524999 10593181
0.78900003 0.15563977 0.42178747 10724512
0.79000002 0.1542608 0.42642003 10658974
0.78900003 0.16156575 0.42171046 10658719
0.79036373 0.16535002 0.42594442 10593438
0.79100019 0.17499362 0.42451903 10724768
0.79132009 0.18550687 0.4241856 10790562
0.79255986 0.19507475 0.42485049 10790561
0.79199988 0.094813846 0.43474743 10330522
0.78900003 0.10784701 0.43910366 10396316
0.79111451 0.10476191 0.4341262 10396315
0.78892314 0.11518836 0.43795967 10462108
0.79113638 0.11483207 0.43283978 10462108
0.78899997 0.12457712 0.43842876 10462109
0.79092598 0.1250654 0.43329799 10527901
0.78900003 0.13416766 0.4389497 10396317
0.79064304 0.13484217 0.43373537 10527388
0.78899986 0.14588192 0.4371351 10527901
0.79007691 0.14381184 0.43262461 10658717
0.78900003 0.15263829 0.43956542 10593695
0.79010731 0.15503299 0.43443489 10593437
0.79116005 0.16509613 0.43521211 10593437
0.79229623 0.17481293 0.43542603 10658976
0.79160011 0.094764143 0.44471946 10330523
0.78866661 0.1058004 0.4443028 10461853
0.79000002 0.10135666 0.44258845 10264731
0.78779995 0.11459788 0.44350648 10527133
0.78829169 0.12482158 0.44378343 10461596
0.78899997 0.13381246 0.44453827 10461853
0.79000002 0.13780533 0.44359016 10396317
0.78900003 0.14601964 0.44572225 10527646
0.79000002 0.14389296 0.44305077 10396317
0.78899992 0.15483168 0.44476029 10527388
0.79000002 0.15676172 0.4415096 10462109
0.78900003 0.16187359 0.4451066 10658718
0.79034787 0.16516779 0.44385517 10658975
0.79215997 0.17457752 0.44503379 10658719
