# .PCD v0.7 - Point Cloud Data file format
VERSION 0.7
FIELDS x y z rgb
SIZE 4 4 4 4
TYPE F F F U
COUNT 1 1 1 1
WIDTH 712
HEIGHT 1
VIEWPOINT 0 0 0 1 0 0 0
POINTS 712
DATA ascii
0.43550003 -0.071226038 -0.050484989 14407630
0.43275002 -0.064452611 -0.050673317 13618115
0.4278 -0.054945581 -0.050093688 14735564
0.43000001 -0.05874902 -0.050351299 14538183
0.46091664 -0.11233934 -0.044529218 12893621
0.45750004 -0.10494136 -0.043951947 12828085
0.46000001 -0.10969155 -0.043095499 12433326
0.44804004 -0.092787579 -0.045668025 12894908
0.45244449 -0.097694218 -0.044502717 12894653
0.43900001 -0.083102055 -0.040785525 12171440
0.44298396 -0.085084617 -0.044965137 12828857
0.42850003 -0.071584143 -0.040646546 13551550
0.43559372 -0.074339271 -0.045292635 13288376
0.44000003 -0.079171166 -0.047402073 12433070
0.42655176 -0.063978031 -0.04230725 13092547
0.43186969 -0.065143965 -0.047363851 12959930
0.41850001 -0.051300116 -0.040187255 14143176
0.42501289 -0.054933541 -0.044970062 13287863
0.43000001 -0.05925234 -0.048841342 11906985
0.41790476 -0.044961117 -0.040923148 14209996
0.42260814 -0.044989586 -0.046297062 13552581
0.41783336 -0.034947313 -0.041330982 14144716
0.42143506 -0.034737468 -0.046419971 14078407
0.41833338 -0.027502291 -0.040607199 14409424
0.42276409 -0.024922632 -0.045373097 13487298
0.42678949 -0.017392838 -0.043323729 13683909
0.4307715 -0.01299732 -0.04465276 13288895
0.43448648 -0.0070506157 -0.042569961 12631994
0.44200003 -0.13126753 -0.031061858 12762041
0.43886966 -0.12261046 -0.033700351 12766412
0.44032136 -0.12727305 -0.033078898 12764095
0.4355371 -0.11508145 -0.033156473 13421515
0.4605 -0.11250648 -0.039908227 14010816
0.42900002 -0.10029071 -0.034667607 13487307
0.43144453 -0.10509715 -0.032957043 13420486
0.42688242 -0.095023192 -0.032918934 13355979
0.42342511 -0.085142501 -0.033008687 13683655
0.43800005 -0.084963493 -0.03898368 13289149
0.44000003 -0.087411553 -0.03916169 14341839
0.4172245 -0.074539594 -0.032531567 13683652
0.42328572 -0.073254146 -0.037327915 13419706
0.41525015 -0.065294191 -0.033443477 13092033
0.42170009 -0.065186396 -0.038456608 12960702
0.40879998 -0.053365458 -0.030834217 13946829
0.41431955 -0.054975208 -0.035070166 13617086
0.42071432 -0.058114272 -0.038992934 12500144
0.40747505 -0.044608139 -0.032048501 13947857
0.41331375 -0.045094546 -0.036813311 14407117
0.40777779 -0.035424273 -0.031681456 14144718
0.41350806 -0.035052266 -0.036719557 14276305
0.40854546 -0.027689813 -0.031145686 14407891
0.41426831 -0.024756342 -0.035132162 14144718
0.42050004 -0.021274157 -0.039149102 14341066
0.41652942 -0.016724678 -0.032601096 14341843
0.42332569 -0.013636884 -0.035679787 14276308
0.43000001 -0.01093373 -0.039278284 14144206
0.42647621 -0.0078952266 -0.033255801 14014162
0.43390006 -0.0049505224 -0.036256202 12830144
0.44025001 -0.0014030519 -0.038668331 13093315
0.43822223 0.0011686148 -0.03216638 12237750
0.44044447 0.00094433688 -0.035994831 12171703
0.44183335 -0.13052821 -0.02329045 11447975
0.4390001 -0.12222121 -0.025148915 12305091
0.44037259 -0.1268439 -0.025509708 12697787
0.43571118 -0.11512736 -0.025009444 13026500
0.43177769 -0.10499208 -0.024783989 13354175
0.42657769 -0.094740659 -0.025039177 12763585
0.41900009 -0.080296971 -0.023700323 12894398
0.42171091 -0.085105419 -0.025308264 13354175
0.41620001 -0.074897908 -0.024865244 12698046
0.40858832 -0.061366614 -0.023847669 12894906
0.41172001 -0.066273741 -0.025490798 12894653
0.40717 -0.054789215 -0.024983045 13552839
0.4044798 -0.044849798 -0.025113313 14012876
0.40424508 -0.034882821 -0.025098713 14408148
0.40646547 -0.025053058 -0.024997246 14079441
0.41100001 -0.021032795 -0.029845467 13222334
0.40870836 -0.019082591 -0.023500131 14013390
0.41315478 -0.014375329 -0.025020501 13619665
0.41711625 -0.0070145214 -0.023024894 13291212
0.42232367 -0.0040476331 -0.0258469 13489102
0.43099999 -0.00086936972 -0.028776525 13883345
0.42695999 0.0037871983 -0.022250332 13027525
0.43221429 0.0033135866 -0.026627023 12961730
0.44200003 -0.1302328 -0.019162461 11382695
0.43900007 -0.12076752 -0.016000662 12433846
0.4409692 -0.12551732 -0.014772432 12368566
0.43597502 -0.11468752 -0.014817963 12631479
0.42899999 -0.10029071 -0.012573079 10592409
0.43146425 -0.10520319 -0.014809475 12697015
0.42633742 -0.095123418 -0.015113929 12631219
0.41877788 -0.081017047 -0.013963052 13025209
0.42128769 -0.086004421 -0.015589247 12696497
0.41553846 -0.07483311 -0.015051136 12631219
0.40841845 -0.062416393 -0.014482443 12500150
0.41125003 -0.067458428 -0.015489132 12564910
0.4059898 -0.054721367 -0.01503648 12959927
0.40331024 -0.044989403 -0.015005656 13748930
0.40292564 -0.034768064 -0.015114261 13749957
0.4047381 -0.02506445 -0.015048071 13750731
0.40812501 -0.018042764 -0.013826218 14014159
0.41199997 -0.013350354 -0.015496432 14276302
0.41617507 -0.0061899503 -0.015122865 13619404
0.42050004 -0.0013398037 -0.015277158 13356749
0.4248383 0.0034426835 -0.015730031 12895170
0.43058339 0.0085402159 -0.012281305 12896194
0.43491665 0.012281787 -0.011634012 12961731
0.44400004 -0.13082209 -0.0057368129 11775398
0.43900007 -0.12061337 -0.0046445029 12103846
0.44128126 -0.1256353 -0.0049616671 12433071
0.43599993 -0.1146948 -0.0046127634 12564655
0.42881814 -0.1004308 -0.0035798377 12696758
0.43154424 -0.10547069 -0.0047003063 12828084
0.42572933 -0.094961107 -0.0048286649 12367533
0.41771796 -0.082585879 -0.0041835909 12761775
0.42119652 -0.087516889 -0.0054080002 12761774
0.41369995 -0.074932747 -0.0048654587 12565426
0.40787902 -0.063441135 -0.0045482148 12565683
0.41064522 -0.06818407 -0.0051057991 12500147
0.40432358 -0.055225927 -0.0046384889 12828082
0.40121517 -0.04495804 -0.0047198269 13157820
0.40066066 -0.035042576 -0.0048361709 13487300
0.40244642 -0.025300439 -0.0047354172 13487043
0.40657705 -0.015746476 -0.0045168484 13618887
0.41060004 -0.011016645 -0.0071333614 13224385
0.40900001 -0.00944228 -1.8466952e-05 14210512
0.41452885 -0.0053478288 -0.0047445348 13027009
0.42020002 -0.0010442305 -0.0086760577 12962244
0.41800001 0.00013539812 -0.0014884473 13354946
0.42404658 0.0027351247 -0.006831889 12895683
0.43141174 0.0079842871 -0.0045642899 12829373
0.43628299 0.012732198 -0.0050901226 12764094
0.44150001 0.015906256 -0.0023410537 12895421
0.45000002 0.019108009 -0.0010737762 12565687
0.45648277 0.023924774 -0.001901982 12632508
0.462125 0.028685821 -0.0021836734 13225156
0.46600005 0.031061748 -0.0011096139 12632763
0.47166669 0.034385487 -2.1296444e-05 13092544
0.48500001 0.035923176 -0.0056988671 12105906
0.44200003 -0.1305777 0.0089477031 12761777
0.43896165 -0.12159093 0.005355068 12892849
0.44045651 -0.12603626 0.0050908602 13156533
0.43567109 -0.11484905 0.0052124741 12630706
0.42795998 -0.10181196 0.0059484933 12106162
0.43130001 -0.10654766 0.0046636853 12697014
0.42402232 -0.095121361 0.0054865079 11974832
0.41680604 -0.083712041 0.0057472116 12434098
0.42068183 -0.088632695 0.0043211468 12105647
0.40872219 -0.071576893 0.0073164743 12893877
0.41205561 -0.075850748 0.0047624689 12367790
0.40655687 -0.064949326 0.0053340308 12697011
0.41 -0.069613926 0.0012612444 11645607
0.40216005 -0.054953586 0.0051553044 12697523
0.39822227 -0.043732353 0.0061347722 12959926
0.40007487 -0.047051225 0.0032597128 12566456
0.39780393 -0.035364073 0.0056031635 13421249
0.40000004 -0.033019245 0.0011992686 12632245
0.39850006 -0.027365377 0.0071246382 13289663
0.40020815 -0.02394234 0.0040666163 12895935
0.40360188 -0.014919626 0.0052252449 13684679
0.40837505 -0.0082316631 0.0059854672 13355203
0.41320595 -0.0036981951 0.0049458495 13158082
0.41763997 0.0009186797 0.0056908862 12631996
0.42385012 0.0049614869 0.0047879093 12501180
0.43050003 0.008706402 0.0045180405 12961728
0.43592307 0.012002241 0.0070449687 12237748
0.4436 0.016457075 0.0050578727 12368823
0.45000002 0.019108009 0.002086598 12039092
0.45500004 0.021880303 0.0038956671 12236980
0.46422219 0.027409529 0.0071440288 12763063
0.4684 0.031074231 0.0023924406 12500152
0.47331429 0.033592682 0.0056131249 13092032
0.48260003 0.038121313 0.0078882752 13486021
0.48866668 0.041341476 0.0079865586 10591130
0.49341178 0.04514496 0.00792892 12565430
0.43900001 -0.13037658 0.018992756 12961214
0.44045457 -0.13137041 0.015630031 11841960
0.4384498 -0.12393775 0.015888587 12500148
0.44013321 -0.12786298 0.01285908 12498862
0.43410841 -0.1150476 0.014583471 12697271
0.42676124 -0.10358998 0.015620269 12170925
0.43029174 -0.10835773 0.013536041 12434870
0.41883335 -0.09088701 0.017629243 12366763
0.42251244 -0.095259249 0.014976901 12301481
0.41529548 -0.084944502 0.015047112 12498605
0.40775424 -0.07279297 0.015595107 12171697
0.41135895 -0.077896103 0.014449582 12104875
0.4042595 -0.064949498 0.014983166 12565167
0.39787939 -0.052836936 0.015894216 12763063
0.40049088 -0.057130929 0.013958691 12894134
0.3962566 -0.045000765 0.014918555 13092541
0.39549598 -0.035054591 0.014790943 13224385
0.3967118 -0.025050934 0.014945515 13356230
0.40000001 -0.020783525 0.010594554 12303543
0.39864287 -0.01880168 0.017578764 12699072
0.40175244 -0.014415123 0.014714305 13421508
0.40713519 -0.0077715861 0.014299473 13158853
0.41232079 -0.0029395362 0.0146396 13421509
0.41679314 0.0012817831 0.014849388 12960959
0.42436847 0.0062501063 0.015318324 12369340
0.43000001 0.0091990242 0.011556918 12435130
0.42900002 0.010181929 0.015547229 13159883
0.43217242 0.012045033 0.01535936 12370110
0.44500002 0.017341262 0.011448556 12434872
0.45638466 0.021520786 0.014523058 12171698
0.46490696 0.027165782 0.014911927 12500920
0.4740001 0.032998279 0.014444441 12565688
0.48303226 0.037769075 0.014863741 13552325
0.48781249 0.041198839 0.01510973 11315875
0.49268886 0.045557197 0.014379541 14277072
0.49600002 0.050089896 0.012169627 12500407
0.43857148 -0.13083589 0.023810089 11973548
0.44000003 -0.13273366 0.020581093 11315872
0.43664292 -0.12479097 0.024836183 12828086
0.42883334 -0.11062557 0.027922248 13024437
0.43201268 -0.11518738 0.024659948 12893107
0.42609996 -0.10509445 0.02500256 12498864
0.43000001 -0.10958422 0.020616658 12236204
0.41765213 -0.092794389 0.02580425 12105391
0.42110822 -0.097195841 0.02385235 12301741
0.40900001 -0.080614686 0.029344141 11710375
0.41338301 -0.085077867 0.024890039 11972777
0.40696758 -0.074540421 0.025081845 11973287
0.4104 -0.079321682 0.022462267 11709087
0.39900002 -0.060585063 0.029872103 13091770
0.40214285 -0.064970702 0.025251778 12039338
0.39691296 -0.054487929 0.025482178 12236460
0.40005562 -0.059080482 0.023134863 12105388
0.39351237 -0.045017228 0.024849083 13025207
0.39237979 -0.03477883 0.024779947 13289149
0.39370596 -0.024726981 0.024846297 13157823
0.39720833 -0.016527258 0.025976535 13487300
0.40077543 -0.012237206 0.023990287 13487559
0.40538239 -0.0063310694 0.024801169 12961990
0.41104171 -0.0016298377 0.023876017 12829887
0.41432506 0.0017165601 0.024804335 12435130
0.42368755 0.0065323166 0.025029324 12500922
0.43000001 0.0091990242 0.026656486 12500921
0.435 0.013324471 0.025939951 12107451
0.44225001 0.01800522 0.026551953 12239039
0.44840002 0.02051023 0.026223034 12173246
0.45433336 0.022724466 0.027162349 12501441
0.46525717 0.027665963 0.024441961 12896703
0.47413051 0.032786965 0.025844296 13355714
0.48346877 0.038077224 0.024802033 11776170
0.48757145 0.042228475 0.025685932 13881802
0.49261767 0.046225637 0.024699047 14935005
0.49828577 0.050654482 0.02380806 14540246
0.43540916 -0.13111687 0.03620898 12236978
0.43419546 -0.12502909 0.03492124 12631222
0.42758533 -0.11236433 0.035620462 12433327
0.43065959 -0.11717603 0.034385242 12696757
0.4235172 -0.1050932 0.035223801 12301485
0.4165366 -0.094363123 0.035116728 12301741
0.42028573 -0.099096939 0.033572961 12301741
0.40848392 -0.081583105 0.035332058 12039083
0.41195387 -0.086710997 0.034800906 12301484
0.40494159 -0.074952036 0.035180964 12236203
0.39778432 -0.062320199 0.036095273 12171438
0.40099993 -0.067139216 0.034032248 11841960
0.39435929 -0.054762423 0.035345137 12434097
0.389 -0.041503984 0.038360082 13488067
0.3915503 -0.045152791 0.034490202 12303541
0.38880596 -0.035100162 0.03751697 12632763
0.39050007 -0.034774017 0.032300778 13223871
0.389 -0.028147697 0.037839703 12764350
0.39150453 -0.024135003 0.034281831 12895934
0.39499122 -0.014903228 0.035012674 12829888
0.40000001 -0.010170911 0.030883376 12040121
0.39844447 -0.0088872369 0.037913006 14014677
0.40339747 -0.0049975426 0.034969073 13224133
0.41075003 -0.00082852342 0.03243323 12632766
0.40799999 0.00013215892 0.037865493 13158595
0.41290319 0.0020100356 0.033749338 12632766
0.42566669 0.0072838399 0.034693785 12961218
0.43060002 0.0090105329 0.03264197 12369338
0.43561539 0.013658647 0.035030775 12303032
0.44210529 0.018884534 0.034894716 12763324
0.44750005 0.021950949 0.036709491 12828859
0.45459098 0.02564647 0.036256209 12960703
0.46400005 0.029263198 0.037116956 13224131
0.46800002 0.030828295 0.03613355 12565941
0.47536364 0.033951364 0.035179146 14144977
0.48140624 0.038088474 0.034454588 11578537
0.48696238 0.044042192 0.035616118 15197406
0.49017644 0.048692074 0.034065023 15328993
0.49060002 0.051267318 0.036958441 12368565
0.43412504 -0.13216868 0.045678899 12763578
0.42839998 -0.12131207 0.048218973 12367535
0.43188754 -0.12561627 0.044525426 12828599
0.42590123 -0.11457707 0.04548173 12696755
0.43000001 -0.11891849 0.041801807 13485503
0.41808334 -0.10153207 0.046468664 12169642
0.42150009 -0.10615788 0.044581946 12170670
0.414179 -0.094918832 0.045004204 12170414
0.4075419 -0.08384338 0.045626953 11973288
0.41085184 -0.087998621 0.04301187 11578017
0.39900002 -0.070859782 0.049020458 12304054
0.40252948 -0.074961632 0.044987425 11710116
0.39644328 -0.064682379 0.045356307 11710118
0.40000004 -0.068644345 0.041600037 11248796
0.389 -0.051391106 0.0482472 11645358
0.39201829 -0.055271622 0.044634994 11841959
0.38814285 -0.044531718 0.045670342 12828600
0.39010525 -0.04793942 0.041799005 12630448
0.3864634 -0.035159126 0.045121849 12894133
0.38759068 -0.025434669 0.04506338 13355458
0.39016667 -0.021185465 0.040627919 13224900
0.38868964 -0.018385654 0.047485746 13355719
0.39228836 -0.014150349 0.044316705 13093574
0.39682612 -0.0077443053 0.04537417 12961477
0.40250903 -0.003032377 0.044608437 12434617
0.4070645 0.0011791971 0.045319434 12632767
0.41320929 0.0052712918 0.045628369 12501437
0.42039999 0.0093878787 0.047615118 11777968
0.42584616 0.012182478 0.048369251 11975860
0.43561912 0.015907306 0.044333868 12500668
0.44066668 0.019399954 0.042273976 12697280
0.4446471 0.022130733 0.043878552 12303292
0.45557895 0.027210232 0.04573229 13158596
0.4605 0.02925621 0.045795269 12632506
0.46600008 0.032227576 0.046282075 12961728
0.47377089 0.036482889 0.044682842 12895936
0.48033336 0.039137442 0.04083376 11446955
0.47762504 0.040967431 0.047637172 11645097
0.48450014 0.045377687 0.044808611 15197922
0.49000001 0.049483966 0.040126331 15658730
0.48824999 0.051403627 0.047316462 14671834
0.49034995 0.052504461 0.043655872 12829117
0.42885712 -0.13195436 0.058927473 12566201
0.43185416 -0.13337494 0.054208379 12697529
0.42653331 -0.12424193 0.055533115 12894392
0.43018749 -0.12832592 0.052536577 13026234
0.41875002 -0.11088362 0.059043806 12565680
0.4222472 -0.11503351 0.054863293 12565685
0.41691026 -0.10438941 0.055534307 12499892
0.42033336 -0.10826884 0.052350894 12828343
0.40854546 -0.091727287 0.056669202 12499891
0.41217816 -0.096152119 0.054542955 12236463
0.40513456 -0.085009366 0.054845937 11973288
0.3977609 -0.072504304 0.056193139 12105646
0.40088522 -0.076965936 0.054501873 11973548
0.39372796 -0.064929575 0.05499468 12170669
0.38817501 -0.053628303 0.055819541 12171439
0.39070278 -0.057621047 0.053029642 11842477
0.38535738 -0.044988498 0.05500548 12828599
0.38338619 -0.034878835 0.055170525 12500921
0.38424388 -0.025164777 0.055101499 13026752
0.38728988 -0.015882257 0.055520691 13026756
0.39080957 -0.012027196 0.052260183 12699074
0.38900003 -0.009891212 0.058719747 12566465
0.39482921 -0.0061253388 0.055617373 12764611
0.40110001 -0.0017931054 0.052937012 12895424
0.40577969 0.0027645687 0.055108454 12566973
0.41400009 0.0080568874 0.057377867 12566716
0.42066669 0.0093278792 0.051190775 12435645
0.4238824 0.012665055 0.055453211 12633023
0.43193749 0.017933991 0.054205652 12567486
0.43594444 0.021404935 0.056227308 12961986
0.44342855 0.025654038 0.056628935 12435130
0.45350003 0.028636893 0.054292504 13224388
0.45700002 0.03203176 0.059247859 12764093
0.4666087 0.035873551 0.055447418 13882318
0.47055563 0.038279805 0.053464774 12961215
0.47506461 0.044161726 0.055631414 13750473
0.48135298 0.047419421 0.052141797 15922154
0.47800004 0.052003436 0.05853872 15461091
0.48414293 0.05132078 0.052827623 15658983
0.42607027 -0.13353223 0.065014541 12894396
0.43000001 -0.13676345 0.060378846 11380900
0.41900003 -0.12051333 0.069624029 12630449
0.42321658 -0.12496953 0.065228999 13026237
0.41738984 -0.11339533 0.065957434 12696757
0.42067659 -0.11752047 0.063412137 12894652
0.40900001 -0.10064191 0.069159195 12893625
0.41370824 -0.10511672 0.064821951 12499377
0.40718085 -0.09432257 0.065531433 12104619
0.41076469 -0.098177589 0.062540889 12038572
0.39900002 -0.080667481 0.068168819 12960953
0.4023788 -0.085232697 0.064864859 12038826
0.39630303 -0.074671231 0.065229304 11973035
0.40000004 -0.079197504 0.062319901 12302256
0.38883999 -0.061737031 0.066759609 12302255
0.39176747 -0.066254109 0.064627476 11644839
0.38673952 -0.055195794 0.064843461 11841703
0.38283181 -0.044728212 0.06499052 12630964
0.37900001 -0.031374462 0.069188058 11381669
0.38085485 -0.034756757 0.064913608 12565941
0.37899998 -0.027381852 0.068892315 13486272
0.38135913 -0.024550587 0.064600274 13026493
0.38435644 -0.015224479 0.065008663 13421770
0.38805002 -0.0086620161 0.065657213 12829633
0.39436838 -0.0036266646 0.064663351 12763324
0.39816669 0.00044013406 0.067248441 13158081
0.40207273 0.0033540763 0.06490688 12369594
0.41475007 0.0094410619 0.065427549 12172729
0.41795 0.011731146 0.067048952 12501440
0.4233036 0.015490304 0.065508582 12500925
0.43033335 0.019280337 0.064454548 12566458
0.42825001 0.020440612 0.069154814 12435651
0.43581474 0.023654269 0.065136567 12961730
0.44123077 0.028192103 0.065529302 12829887
0.44542858 0.030683201 0.067154728 13158852
0.45614284 0.034405034 0.064968988 13553610
0.4632223 0.038066909 0.063949831 14342869
0.46639583 0.043101195 0.06645824 12171702
0.47170728 0.047153641 0.063616015 14868698
0.47405678 0.053465471 0.065466337 15263457
0.42200002 -0.14047499 0.077033997 11315360
0.41900003 -0.13064916 0.079105929 13157818
0.42196786 -0.13498551 0.075208366 13090743
0.41760311 -0.12393148 0.076169521 13092288
0.42068762 -0.12737013 0.072703406 12895164
0.4142178 -0.11504735 0.074876919 12959928
0.4082461 -0.10344709 0.076075815 12499377
0.41107136 -0.10716728 0.07313785 12695985
0.4043785 -0.094974734 0.075081423 12236464
0.39765966 -0.082785517 0.076412812 12499634
0.40069476 -0.087045819 0.074179247 12434095
0.39382881 -0.074960381 0.075118102 12170926
0.3879512 -0.063740775 0.075769447 12301997
0.39075765 -0.067900434 0.073134132 12038826
0.38425997 -0.055011366 0.074932717 12039596
0.37843752 -0.042486429 0.077639081 11841702
0.38106459 -0.045922134 0.074205823 12565170
0.37727332 -0.03473774 0.075409696 9212043
0.38007149 -0.038136482 0.071163006 11975096
0.37733784 -0.025236487 0.075283751 9671824
0.38000005 -0.021226997 0.070768535 12566457
0.37848279 -0.017688755 0.077739008 12632511
0.38145655 -0.014410672 0.074358903 12764097
0.38602057 -0.0062734219 0.075961567 12698047
0.39196777 -0.0021793146 0.073059 12631999
0.39565459 0.0022383963 0.075582124 12829633
0.40141657 0.0066362028 0.073594838 12829117
0.41000003 0.0097309807 0.070048161 13882319
0.40799999 0.011754923 0.07774473 13026751
0.41478726 0.015159957 0.075980388 12764607
0.42276475 0.017895769 0.072805151 12500923
0.42666677 0.022352684 0.075623497 12567228
0.43249023 0.026489532 0.074557275 12895941
0.44000003 0.028983869 0.070023388 12633026
0.43785718 0.031332884 0.078318723 13027267
0.44561234 0.034281403 0.075599626 13224647
0.45337045 0.038122073 0.0734386 13947599
0.45635551 0.043338098 0.076749854 12500409
0.4632273 0.046734814 0.073488437 12763840
0.46573335 0.054158144 0.076416537 15329764
0.47130445 0.05637883 0.071885116 14211029
0.46680003 0.060472686 0.077126235 12171187
0.47225004 0.060680579 0.073493659 12171443
0.41850004 -0.14094356 0.087908864 12959416
0.42000002 -0.14125209 0.085718475 11775655
0.4174684 -0.13431361 0.086015992 13551551
0.42043486 -0.13735922 0.082186066 13353915
0.41459253 -0.124975 0.085028984 13092287
0.40844455 -0.11333523 0.087310761 12958643
0.41162071 -0.11641651 0.083546117 12959673
0.40614411 -0.10502032 0.08485949 12565172
0.39841673 -0.091626354 0.087304614 12499890
0.40154874 -0.095781393 0.084499143 12367535
0.39576915 -0.084975943 0.085044108 12170154
0.40000001 -0.089453377 0.08082509 11511966
0.38872415 -0.071922153 0.086808369 12170668
0.39158142 -0.076304644 0.084475562 11907497
0.38624996 -0.065127239 0.084913813 12104619
0.37900001 -0.050450243 0.088263847 13025208
0.38168111 -0.055126503 0.084978648 12170928
0.37768516 -0.044419322 0.085368954 11315877
0.38045007 -0.048595335 0.08192081 12171443
0.37380177 -0.0348671 0.08510074 3093294
0.37322789 -0.0247481 0.085053064 3356725
0.37741241 -0.015938245 0.085572951 12500666
0.38045454 -0.011886471 0.083027795 13092289
0.38359368 -0.0052351588 0.084995992 12565689
0.38784373 0.0016314166 0.086943552 12698561
0.39401454 0.0059526572 0.085224867 12698562
0.40050003 0.0091933711 0.083581619 11646903
0.39787501 0.010841378 0.088699311 12764356
0.40508553 0.014098929 0.085550033 12764352
0.41299999 0.017792597 0.08233767 12961729
0.40850002 0.020214744 0.089395568 13488076
0.41570589 0.021975528 0.086180963 12895423
0.423926 0.026002618 0.084880196 12896196
0.43100002 0.028759193 0.081888504 12698300
0.42762506 0.030797366 0.088824078 12961734
0.43450698 0.034274068 0.085930109 13027524
0.44373333 0.037682276 0.082729883 13487559
0.43866667 0.040534798 0.088980228 13224904
0.44638294 0.044105716 0.08679276 13421255
0.4532766 0.046390448 0.083032981 12171188
0.44900003 0.051124617 0.089324676 9078660
0.4557808 0.054477882 0.086099513 14802905
0.46177781 0.05676493 0.081573687 15987178
0.45809531 0.062348336 0.087862693 14935006
0.46127596 0.063187778 0.083941229 12631993
0.41588894 -0.14196759 0.095539965 12696756
0.41402978 -0.13486584 0.095008492 13288380
0.40859383 -0.12236348 0.097038016 12630451
0.41131881 -0.12616318 0.094146989 12894136
0.40650487 -0.11493929 0.095146336 12959158
0.41000003 -0.11984437 0.090204328 13157045
0.39880005 -0.10107303 0.099129722 13881544
0.40229902 -0.10511988 0.094698846 12697013
0.39678717 -0.094188608 0.09550266 12499634
0.40017653 -0.098236777 0.092120133 12565171
0.38900003 -0.080011725 0.098788619 11511713
0.3927907 -0.084911518 0.094878323 12236461
0.3874045 -0.073973455 0.095612668 11973293
0.39048001 -0.078086555 0.092672527 12433585
0.38330832 -0.064940766 0.095003046 12104878
0.37843078 -0.052747112 0.096422479 12169898
0.38071421 -0.057058964 0.093804717 12103591
0.37648109 -0.044815902 0.094924219 10722453
0.36853671 -0.032244854 0.097704075 2765099
0.37143442 -0.035492547 0.0939596 2896429
0.36835596 -0.025939908 0.097614959 2961454
0.37088254 -0.024228217 0.09323965 3224368
0.37609908 -0.015192434 0.095072426 11250341
0.37861761 -0.0085056638 0.096593492 11974066
0.38130105 -0.0042667282 0.094464116 12435133
0.38645744 0.0033679893 0.095413648 12566975
0.39163896 0.0081257271 0.093977623 12566206
0.3957397 0.012978967 0.09589231 12764352
0.40233925 0.017475013 0.094044171 12699073
0.40680003 0.022419132 0.096158482 13093058
0.41354913 0.026333986 0.094828166 12895679
0.42270002 0.029033508 0.091511682 13224134
0.4169412 0.031946737 0.098504722 13027520
0.42504117 0.035210524 0.095271289 12830143
0.43165001 0.038136888 0.092032835 12896964
0.42744446 0.041277166 0.098821335 13223872
0.43467557 0.044562537 0.095853381 13553609
0.44241378 0.047180735 0.09208028 13027012
0.43787503 0.051974464 0.098705061 13091517
0.44467872 0.055044014 0.094990835 12960445
0.45183334 0.057972621 0.091120504 15658729
0.44610524 0.063078322 0.097395472 15855848
0.45283332 0.0631871 0.092767522 15592937
0.41270465 -0.14204422 0.10508739 13157564
0.40869236 -0.13204752 0.10732099 12829370
0.41140506 -0.13583784 0.10416409 12960445
0.40666679 -0.12482054 0.10521787 12894649
0.41020003 -0.12892979 0.10081099 13158593
0.40297326 -0.11509316 0.10503192 12631478
0.39760941 -0.10367428 0.10613553 12564915
0.40048879 -0.10729408 0.10325655 12302256
0.39426053 -0.09503898 0.10494475 12104877
0.3886745 -0.082357809 0.10629047 12236206
0.39121431 -0.086814635 0.10421378 12105135
0.38570586 -0.075152844 0.1050222 11776169
0.37900001 -0.060209952 0.10733964 11776166
0.38165048 -0.06538827 0.10499355 12236206
0.37776461 -0.05460842 0.10519714 12105648
0.38000003 -0.059123397 0.10121783 12170155
0.37508401 -0.04493342 0.10484044 10328978
0.36645806 -0.033815827 0.10543676 2633260
0.3709667 -0.03875798 0.1040792 2632999
0.36596733 -0.025201749 0.1052784 2764329
0.37 -0.020668389 0.10132595 3550504
0.36840004 -0.019716581 0.10606098 8288886
0.37486288 -0.014881009 0.10453785 10790304
0.37812832 -0.0069002416 0.10557047 11711662
0.38069385 -0.0023488489 0.1041438 11908788
0.38414064 0.00464145 0.10494312 12236981
0.3884483 0.01129014 0.10697231 12435647
0.39375716 0.015658386 0.10440608 12895682
0.40024999 0.019572388 0.10094243 13157823
0.39770004 0.021683279 0.10774602 13619404
0.40394893 0.025490552 0.10487881 12961729
0.41100001 0.02889072 0.10175434 12435386
0.40794116 0.031648025 0.10823026 13093318
0.4139488 0.035232201 0.10481495 12961215
0.42110005 0.038584352 0.1011228 13290183
0.41711116 0.042232856 0.10742453 13355716
0.42394873 0.045386985 0.10463549 13289924
0.43128577 0.048388086 0.1014476 14342352
0.42676923 0.052476373 0.10799169 14869212
0.43380451 0.055670924 0.10440059 12630711
0.44000003 0.059370279 0.10092483 14209484
0.43642843 0.064339466 0.10654154 15000283
0.44059265 0.065083861 0.101594 15855593
0.43900004 0.070848428 0.10912265 16315631
0.4416154 0.073031455 0.10729952 15328479
0.41169566 -0.14282276 0.11412716 12499378
0.40855253 -0.13355528 0.11485241 12434100
0.41025922 -0.13827544 0.11516088 12499638
0.40487084 -0.12493695 0.11499054 12631476
0.39899999 -0.11009056 0.1144051 11776170
0.40091947 -0.11520449 0.11490151 12368563
0.39665973 -0.10476079 0.11492437 12236977
0.39237833 -0.094989963 0.1149338 11842477
0.38814434 -0.084243312 0.11506096 11447718
0.38999999 -0.088982172 0.11392442 12303028
0.38449082 -0.075041153 0.11501498 11513255
0.37899998 -0.060431764 0.1138461 12499889
0.38124043 -0.065556094 0.11501113 11447720
0.3774626 -0.054596715 0.11483499 11382181
0.37445611 -0.045125868 0.11488508 9539208
0.36413521 -0.034736484 0.11540683 2435625
0.37050003 -0.039777957 0.11143621 2760740
0.36408442 -0.025067858 0.11519462 2369831
0.36843753 -0.01934066 0.11642341 8422275
0.3746576 -0.014044455 0.11517315 10988197
0.37788504 -0.0052530924 0.11500657 11382954
0.38000003 -0.00098889438 0.1109588 12763578
0.37900001 0.00012276527 0.11798657 11184802
0.38225836 0.0048255208 0.11493857 12040373
0.38704351 0.013220469 0.11549059 12500410
0.39146158 0.018034089 0.11368282 12895424
0.39554265 0.024284661 0.115711 13093059
0.40061906 0.027998697 0.11207587 13158850
0.3987143 0.030931262 0.11825626 13355976
0.40471008 0.034704298 0.11499456 13093059
0.41100004 0.038325038 0.11136833 13158852
0.40811539 0.042245395 0.11793558 13092801
0.41383874 0.045475386 0.11450732 13422279
0.42050001 0.04870024 0.11088947 13684426
0.41702861 0.052968174 0.11779901 13618890
0.42317641 0.055771027 0.11392982 13947597
0.43000001 0.05953091 0.11071073 14211288
0.42593339 0.064169854 0.11642021 12894138
0.43152639 0.066551007 0.11232154 14868956
0.42814288 0.071015343 0.11882245 15986923
0.43467063 0.074701026 0.11522447 16053230
0.44060001 0.076677158 0.11075755 14079183
0.43471432 0.080973156 0.1187566 14605271
0.40827778 -0.13261701 0.1215782 11052961
0.405 -0.12508877 0.12094694 10658202
0.40106449 -0.11469287 0.12146275 10656920
0.39684847 -0.10480368 0.12171207 10592925
0.40000001 -0.10943007 0.12358768 9673111
0.39259091 -0.094669215 0.12219544 10329496
0.38802329 -0.084231488 0.12227374 10526874
0.39000005 -0.089086525 0.12206314 10592923
0.3852382 -0.074846096 0.12303507 10132117
0.38256258 -0.065206863 0.12293156 10197653
0.37760729 -0.053662118 0.12252494 10066320
0.38000003 -0.059479233 0.12230103 11117474
0.37516657 -0.045222089 0.1232878 8948101
0.36123914 -0.033930857 0.12188752 2370345
0.3623282 -0.024684805 0.12196521 2370603
0.36709091 -0.018863769 0.12309949 8884882
0.37432003 -0.013843296 0.12355216 10527388
0.37789783 -0.0054422985 0.12364589 10527134
0.38027278 -0.0011714053 0.12704307 10592927
0.38192311 0.0045950557 0.12491305 10921634
0.38639826 0.014624474 0.12484947 12237752
0.389 0.020342568 0.12537977 12106427
0.39299086 0.025259193 0.12465685 12895684
0.39734918 0.033028629 0.12562966 12633024
0.40121418 0.037635278 0.12378786 13290182
0.40502653 0.044797461 0.12520295 13158082
0.41071433 0.048757322 0.1214027 13684682
0.40853846 0.051483825 0.12799039 14013389
0.41369295 0.055392746 0.12444194 14342610
0.41730767 0.063357227 0.12688375 12894139
0.42160317 0.066283077 0.1231584 13091774
0.42489412 0.074301116 0.12557985 15987180
0.43090475 0.077718794 0.12203775 16381937
0.42845452 0.081384026 0.12854831 16316404
0.43134296 0.082967006 0.12500821 15000033
0.38428578 0.0055551035 0.13202198 8947844
0.3880834 0.013606396 0.13237321 9802896
0.39064705 0.017449936 0.13382442 10395031
0.39413631 0.025470069 0.13322699 10856102
0.39740428 0.033386923 0.13357405 11448237
0.40042415 0.038223177 0.1342869 11119271
0.40438041 0.04514835 0.13478026 11250858
0.40834215 0.052232046 0.13454227 12632252
0.41161227 0.056949124 0.13450913 13157824
0.41666293 0.064543918 0.13480589 11710380
0.42000002 0.069846883 0.13517483 13223876
0.42215478 0.075253665 0.13413413 14539993
0.42728007 0.082483143 0.13337332 15789805
0.43000004 0.085577667 0.13247927 10327706
0.36317647 -0.040939268 0.14720429 5329228
0.36410755 -0.035593029 0.14766675 988432
0.37128261 -0.033663981 0.14481322 988688
0.36447936 -0.024413079 0.14665397 1447441
0.37079993 -0.028308744 0.14507604 922639
0.36140004 -0.019172926 0.1470221 5579811
0.41800001 0.066261798 0.14061143 9408652
0.36106458 -0.041191593 0.15493786 1909017
0.35900003 -0.031690583 0.15901814 988432
0.3610929 -0.035091147 0.15476412 1449494
0.359 -0.028563233 0.15892926 857106
0.36082619 -0.024690857 0.15479422 1514520
0.36100003 -0.018831268 0.15441598 2828324
0.34455565 -0.041025147 0.16824783 2567975
0.35725001 -0.040793959 0.16599171 528141
0.36141181 -0.041241836 0.16282532 2172191
0.34593061 -0.034843147 0.16784965 2107169
0.35584962 -0.034559365 0.16430601 1580827
0.36052388 -0.037984401 0.16186902 1975066
0.34742475 -0.025777584 0.16809289 2107427
0.35507372 -0.025964865 0.16524522 1383707
0.36064589 -0.023766637 0.16352884 1646879
0.34750003 -0.019411528 0.16878107 1515807
0.35549998 -0.019142227 0.16826418 1186586
0.36200002 -0.019374056 0.16671506 594456
0.33800006 -0.041124165 0.17841101 2370599
0.3415677 -0.041425858 0.17318846 2567463
0.33852506 -0.035806008 0.17775808 2238755
0.34137678 -0.034988116 0.17340718 2238755
0.33871439 -0.025123449 0.17703557 2172706
0.34255108 -0.025056142 0.17292182 2238756
0.33900002 -0.01973032 0.17735544 2565925
0.34366667 -0.019465053 0.17134856 1910053
0.33429727 -0.041220609 0.18339849 2304805
0.33326873 -0.035441376 0.18497372 2238499
0.33321592 -0.025960125 0.18561751 2238244
