# .PCD v0.7 - Point Cloud Data file format
VERSION 0.7
FIELDS x y z rgb
SIZE 4 4 4 4
TYPE F F F U
COUNT 1 1 1 1
WIDTH 796
HEIGHT 1
VIEWPOINT 0 0 0 1 0 0 0
POINTS 796
DATA ascii
0.54900002 -0.12898666 0.039816998 13882317
0.55191308 -0.12419067 0.038172554 14277074
0.55178952 -0.11465289 0.03852278 14408660
0.54900002 -0.1045675 0.039816998 14474708
0.55085713 -0.10851436 0.03884539 13553608
0.53485721 -0.13111639 0.048084773 13882315
0.54400003 -0.13067615 0.043906979 13947597
0.53611112 -0.12574501 0.048592314 14145232
0.54479557 -0.12498185 0.044024259 14145744
0.55050004 -0.12192801 0.040891457 14277329
0.53855562 -0.11707649 0.048725046 14277075
0.54542869 -0.11460721 0.045436457 14408660
0.55116671 -0.11616518 0.040833686 14408915
0.54650849 -0.10505612 0.045700647 14540502
0.55000001 -0.10862066 0.041177083 14540501
0.54742646 -0.095452145 0.045686651 14343125
0.54828209 -0.085720956 0.047233254 14211539
0.55000001 -0.084543288 0.044782251 13355973
0.54800016 -0.075435452 0.047440369 12895165
0.54712498 -0.064829245 0.04768661 10855839
0.54438895 -0.057105117 0.047838181 10724510
0.51722229 -0.13275442 0.058633447 13619145
0.52331036 -0.13289468 0.054800827 13684938
0.53000003 -0.13010599 0.05084639 13948364
0.51750004 -0.12522022 0.05873267 13882571
0.52415913 -0.1252943 0.05493417 13882574
0.53168756 -0.12382536 0.051317587 14211281
0.51818186 -0.11694753 0.058975577 13882571
0.52445239 -0.11494673 0.056473397 13948622
0.53372216 -0.11442263 0.052029543 14211539
0.52520597 -0.1054191 0.058228049 13948366
0.53451282 -0.10483539 0.0541903 14145746
0.54157144 -0.10414352 0.051140834 14277332
0.52739996 -0.097363465 0.059239525 13948622
0.53431112 -0.094885945 0.056641646 14079953
0.54330772 -0.094381049 0.052315041 14343125
0.53570586 -0.08528389 0.058173515 14079953
0.54390252 -0.084510893 0.053353332 14277332
0.53792864 -0.07582891 0.058801819 14014160
0.54462975 -0.074499197 0.054152448 14277331
0.5453639 -0.065204054 0.055268601 14277331
0.54555553 -0.055591449 0.056143336 13882574
0.54730958 -0.045517437 0.056682717 13092801
0.54686666 -0.036097717 0.057925645 12501176
0.54822224 -0.025060154 0.05829807 9671824
0.55039996 -0.020952681 0.058215462 9935251
0.55233335 -0.016520545 0.058700282 9935250
0.49713334 -0.13289745 0.068638667 13750731
0.50386959 -0.13245881 0.064638093 13684938
0.51144457 -0.13246863 0.060904238 13684938
0.48850003 -0.12163439 0.069736771 13816524
0.49589652 -0.12461781 0.068104312 13816524
0.50434279 -0.12552315 0.064501762 13816524
0.51237041 -0.12502007 0.061235223 13816524
0.48830003 -0.11609562 0.069479264 13816524
0.49402717 -0.11471026 0.067454316 13816524
0.50433338 -0.1143017 0.064628243 13816524
0.51354289 -0.11506773 0.0618334 13816524
0.49645838 -0.10670539 0.068592824 13750731
0.50412911 -0.1044146 0.066632122 13750731
0.51422501 -0.10483323 0.063107058 13750731
0.52128571 -0.10250954 0.060818184 13750987
0.50589281 -0.095631167 0.068494156 13684938
0.51418608 -0.094953083 0.064883351 13684938
0.52404761 -0.093882538 0.061253831 13750988
0.50600004 -0.089862287 0.069865905 13619402
0.51417398 -0.085447818 0.067243233 13553609
0.52435303 -0.084817231 0.063114345 13685195
0.53050011 -0.083035551 0.061139829 13816781
0.51662499 -0.076174714 0.068608306 13421766
0.52471429 -0.075004138 0.065704808 13619145
0.5329091 -0.074373409 0.0617803 13816781
0.51866668 -0.065194778 0.069186442 13224644
0.52526093 -0.065477282 0.067335203 13487816
0.53420931 -0.064646311 0.06342645 13882574
0.54000002 -0.061136343 0.060654804 14079953
0.52454543 -0.055304874 0.068794698 13224644
0.53510642 -0.054861166 0.065051846 13750988
0.54123074 -0.054207262 0.061279442 13948367
0.52900004 -0.049364589 0.069326438 13356230
0.53543901 -0.045221187 0.06744083 13553609
0.54371876 -0.044568338 0.062338997 13750988
0.5373913 -0.035647575 0.068563588 13290437
0.54426414 -0.034683052 0.063457727 13422022
0.53850007 -0.028189344 0.069310784 13290437
0.54539061 -0.024995536 0.065120243 13093058
0.55019999 -0.02068774 0.062057555 10922404
0.54750001 -0.015521229 0.068385243 13093315
0.55182225 -0.01463251 0.064017929 11579819
0.54845452 -0.0058917524 0.068724126 12830656
0.55024999 -0.0049760998 0.067924373 13028035
0.55062497 0.0046921331 0.06958238 11843763
0.551 0.010497686 0.069629773 9606029
0.47664699 -0.13427292 0.078807034 13750219
0.48402214 -0.13429783 0.075481363 13684938
0.49178946 -0.13375296 0.071294829 13750732
0.4757714 -0.12484396 0.078447707 13684939
0.48378009 -0.12487264 0.073921584 13750731
0.49144447 -0.12779981 0.070922881 13816524
0.47471115 -0.11497575 0.077762328 13750732
0.48367292 -0.11485805 0.072990172 13816524
0.47436583 -0.10499076 0.077622615 13750732
0.48485023 -0.10542683 0.074145302 13684938
0.49316663 -0.10388945 0.071437232 13619145
0.47536361 -0.0972609 0.078631647 13553610
0.48408908 -0.094605826 0.076728828 13553609
0.49456412 -0.095099434 0.073118165 13487816
0.5017857 -0.094141863 0.070877746 13553609
0.48554549 -0.086152859 0.078471914 13422279
0.49448782 -0.084764071 0.075580731 13422023
0.50454056 -0.085066579 0.07211557 13487816
0.51050007 -0.082892209 0.070487246 13422023
0.48800001 -0.078440204 0.079718187 13225414
0.49467397 -0.075133815 0.077455848 13290437
0.50454539 -0.074709706 0.073703542 13224644
0.51199996 -0.074652426 0.071034022 13290437
0.49502853 -0.065133378 0.078045845 13224644
0.50447625 -0.064900286 0.074341848 13158851
0.51370829 -0.064970843 0.070925653 13224644
0.49558064 -0.055484112 0.078338891 13093058
0.5045349 -0.054964554 0.074818686 13093058
0.51442856 -0.054841854 0.071368046 13027265
0.49714294 -0.048383653 0.079281211 13093058
0.50472736 -0.04595286 0.077344947 13092801
0.51373333 -0.044853713 0.074974276 13027265
0.5248462 -0.04425117 0.072510146 13158851
0.53116673 -0.042312741 0.071267821 13290437
0.509 -0.039157204 0.07981275 13027008
0.51623076 -0.035664137 0.078525037 12895679
0.52479488 -0.034735005 0.07531891 13027265
0.53233337 -0.034563202 0.071472988 13093571
0.51775002 -0.027103102 0.079365812 12829630
0.52457577 -0.025135703 0.077223942 12895679
0.53446335 -0.025305321 0.07296253 13027265
0.54140007 -0.020862421 0.070949599 13158851
0.52556008 -0.015378146 0.078615844 12829886
0.53461111 -0.015610429 0.075197652 12895680
0.54381484 -0.014249027 0.0715468 13027265
0.5266667 -0.0079105962 0.07915622 12829886
0.53452778 -0.0055959043 0.076784596 12829887
0.54454547 -0.0046895943 0.072554633 12830143
0.53705013 0.0042641871 0.078801222 12698301
0.54573596 0.0045900787 0.074137531 12764350
0.55000001 0.0085472949 0.070790961 12895681
0.53840005 0.012779844 0.079381153 12698302
0.54613215 0.015012286 0.075829931 12829887
0.5502857 0.014347761 0.071563482 12566715
0.54618925 0.024336103 0.076898202 13093058
0.55050004 0.029819116 0.076654017 13422280
0.54850006 0.030994829 0.078943625 13224644
0.55415386 0.034117594 0.078609593 13093315
0.56285715 0.036126979 0.077706084 12106165
0.57500005 0.035184473 0.075354822 10329754
0.55362499 0.042300384 0.078385353 11514027
0.56850004 0.040775061 0.07782957 10263960
0.57000005 0.041550424 0.077368326 10592924
0.46369234 -0.14146231 0.087979369 13618375
0.45900002 -0.13201818 0.089165039 13881547
0.46487686 -0.1351105 0.086476453 13815754
0.4717648 -0.13536403 0.081537835 13684938
0.45749995 -0.12421488 0.088582382 13815754
0.46457621 -0.12517627 0.084631607 13750218
0.4706251 -0.12544654 0.080956042 13750731
0.45536837 -0.11488634 0.087476239 13881804
0.4644894 -0.11506232 0.082725212 13816270
0.47000003 -0.11592714 0.080299109 13882319
0.44900003 -0.10549182 0.089324676 13816524
0.45494929 -0.10514224 0.087265 13684939
0.46468967 -0.1049732 0.08254984 13685197
0.47000003 -0.10217366 0.080299109 13619404
0.45581397 -0.095855936 0.088488333 13684940
0.46462956 -0.095102899 0.084747314 13619147
0.47269705 -0.09373036 0.081458926 13487817
0.45789471 -0.086166993 0.089117788 13553354
0.46445462 -0.084803253 0.086706407 13553354
0.47434896 -0.085091621 0.083306305 13421766
0.48113331 -0.083791658 0.081223935 13290951
0.45900002 -0.074638426 0.089165039 13355975
0.46407691 -0.074889563 0.087830968 13290182
0.47447821 -0.074800819 0.08506757 13355973
0.4839797 -0.074707456 0.082237691 13290694
0.46451512 -0.065451883 0.088647477 13158596
0.47392312 -0.064587571 0.086167268 13093058
0.48434156 -0.064913705 0.082491949 13158851
0.49000001 -0.064652361 0.080274798 13290437
0.46472731 -0.055825867 0.089235112 12961474
0.47452286 -0.055057786 0.086666472 13027266
0.48426691 -0.054962449 0.082853548 13027265
0.49049997 -0.054495931 0.080471426 13093058
0.46758333 -0.046914514 0.089280337 13027267
0.47432351 -0.045305695 0.087758631 13093060
0.48431817 -0.044781037 0.084798314 13093059
0.49353129 -0.044207759 0.081605718 13093059
0.50333339 -0.040683821 0.080493458 13027265
0.47640005 -0.038651805 0.089421295 12961474
0.48497298 -0.035677381 0.08791355 12895681
0.49441659 -0.034977097 0.085041434 12895681
0.50435716 -0.034750573 0.082536988 12961215
0.51133341 -0.033450019 0.080875657 12829629
0.48714283 -0.028025052 0.089417599 12829888
0.495 -0.02539162 0.087976769 12829888
0.50442421 -0.024813075 0.084884956 12829887
0.51325715 -0.024373636 0.08167515 12829886
0.49828574 -0.017834336 0.089464247 12764095
0.50482929 -0.015340694 0.087396368 12764095
0.51427495 -0.014973365 0.083308704 12829630
0.52144444 -0.013257092 0.080949396 12829886
0.50628573 -0.0069448398 0.089035988 12566716
0.51484782 -0.0052556912 0.086142108 12632508
0.52366668 -0.0044861129 0.081861578 12698301
0.51606065 0.0040526842 0.088382125 12435130
0.52399999 0.0048710555 0.084434763 12500923
0.53164715 0.0058862222 0.081164971 12632509
0.51812506 0.013512219 0.089430712 12500922
0.52502775 0.014851825 0.086961895 12698045
0.53387183 0.014983473 0.082454629 12764094
0.5265556 0.024964022 0.089069262 12764095
0.53452384 0.024305917 0.085442483 12895681
0.54291672 0.026180668 0.081737779 13093059
0.52676934 0.034887031 0.089521781 12632509
0.53528577 0.034718342 0.087685429 12895681
0.54511911 0.035301991 0.084040448 13158852
0.55175 0.036991816 0.080702454 13356230
0.45100003 0.048184946 0.089722559 12039343
0.52600002 0.040805772 0.089866661 12698302
0.53594124 0.044089999 0.088978134 12764095
0.54548568 0.045016415 0.08607313 13224645
0.55123079 0.044896584 0.081618302 13356230
0.44775003 0.057272315 0.089730017 13157824
0.45491669 0.056057572 0.087948151 12040113
0.46150005 0.056328654 0.086003378 11316647
0.54659468 0.054823443 0.087257385 13421766
0.55069566 0.054265965 0.083098695 13290180
0.447889 0.065646835 0.088663839 13881803
0.45277786 0.064370766 0.085596621 12435128
0.54840732 0.062563434 0.086275049 13356230
0.55087501 0.067938522 0.085519731 12698044
0.44735718 0.071507335 0.088095374 13816010
0.45050001 0.070806041 0.084876679 12566457
0.55462968 0.074001923 0.086152405 12171957
0.44618186 -0.14228716 0.09830112 14012876
0.45560879 -0.14202857 0.093826368 13618377
0.46028572 -0.142856 0.090953849 13289411
0.44587025 -0.13452268 0.097642772 13816010
0.45486882 -0.13520771 0.092817761 13750219
0.46000001 -0.13984387 0.090436161 13750731
0.43888891 -0.1228094 0.099299937 13750474
0.44452941 -0.12482014 0.096131191 13684682
0.45281258 -0.1258674 0.091602243 13816011
0.43666676 -0.11471912 0.098593779 13750731
0.44395962 -0.1150637 0.093911529 13816011
0.45000002 -0.11749039 0.090577073 13881547
0.43662494 -0.10488199 0.097715981 13619145
0.4438805 -0.10508308 0.092557676 13684938
0.43592319 -0.095015317 0.097984582 13619145
0.44423881 -0.095016614 0.093083009 13619146
0.45136365 -0.092929691 0.09046571 13619147
0.43481031 -0.084850416 0.098196007 13487559
0.44488519 -0.085200824 0.094128132 13421767
0.45354849 -0.084033914 0.091080315 13487561
0.43544677 -0.075611159 0.098549053 13290180
0.4445779 -0.074671395 0.095743231 13093059
0.45476386 -0.074991971 0.09197069 13290182
0.43725014 -0.065039165 0.099267431 13224388
0.44530773 -0.065246701 0.096899986 13027266
0.45443755 -0.064961724 0.092588231 13158596
0.46000001 -0.060155619 0.090436161 13224646
0.43716672 -0.05486628 0.099376462 12961217
0.44531366 -0.054821763 0.09708418 12961474
0.45491222 -0.054890603 0.093048975 12961474
0.46066672 -0.054126758 0.090446539 12961474
0.43900001 -0.047132317 0.09966775 13158853
0.44467306 -0.045359988 0.097942121 13224646
0.45487761 -0.045096222 0.094266132 13093060
0.46426928 -0.044235047 0.091061659 13027267
0.47000003 -0.040558062 0.090201616 13158853
0.44663647 -0.038159065 0.099212177 13158596
0.45593026 -0.035543364 0.097571038 13092803
0.46452171 -0.034908112 0.094719648 12961474
0.47361767 -0.034244474 0.092031308 12895680
0.48137504 -0.032100666 0.090552837 12829887
0.45880002 -0.02863561 0.099651873 12829888
0.46540543 -0.025698578 0.098265044 12764095
0.47423917 -0.025114927 0.095229179 12764093
0.48369226 -0.024226943 0.092125393 12829886
0.49100003 -0.021678751 0.090783574 12829888
0.4686667 -0.017767511 0.099637151 12566714
0.47421962 -0.015629651 0.097746372 12566714
0.48493335 -0.01512688 0.094650418 12632507
0.4943158 -0.014360848 0.092182003 12632766
0.50050002 -0.012139343 0.090196729 12698302
0.47625005 -0.0060479678 0.099273063 11974322
0.48396876 -0.0055419295 0.09761928 12106163
0.49459094 -0.0048380261 0.094384789 12303544
0.50285721 -0.0043720016 0.09112183 12500923
0.44900003 0.0096054934 0.09983585 10987425
0.45050001 0.0091096833 0.099114753 10987425
0.46779999 0.0043101138 0.099852793 11250597
0.47445452 0.0051024896 0.099080369 11382183
0.48580003 0.0047031487 0.098008655 11645355
0.49581578 0.0039169518 0.096491501 11842992
0.50418419 0.0051328647 0.093369626 12171958
0.51170594 0.0069341846 0.091156654 12303544
0.42666674 0.015624039 0.099696785 11776941
0.43550003 0.018487236 0.098867662 11382438
0.44673684 0.015047503 0.098835848 11184804
0.45427275 0.015333757 0.097520977 11119011
0.463 0.01582255 0.097110815 11119011
0.47422224 0.011131164 0.09840773 11119011
0.48000002 0.010268679 0.097739235 11579562
0.49730435 0.015807433 0.098172367 11514027
0.50412112 0.01493448 0.095239662 11842993
0.51353127 0.015198093 0.091938153 12303543
0.52050006 0.019055933 0.090145499 12698043
0.42741671 0.025154373 0.099287353 12566713
0.43382496 0.025478527 0.097187266 11777196
0.44541937 0.024870563 0.095027342 11250597
0.45233336 0.020617941 0.095635138 11119011
0.46150002 0.021216309 0.096132971 11119011
0.48800004 0.0252889 0.098225802 11250597
0.49682608 0.024378663 0.096812561 11579562
0.50469232 0.024251562 0.094809696 11776942
0.51428008 0.024629567 0.092575759 12171700
0.52223074 0.025466202 0.09091381 12698043
0.42846152 0.03393697 0.099511914 13355973
0.43190169 0.035313312 0.096324548 12763836
0.44150001 0.033742473 0.093515441 11842734
0.45225 0.03378107 0.093671225 11382183
0.50750005 0.03164991 0.09621048 11579562
0.51484609 0.034957621 0.093792543 11777198
0.52233338 0.035491776 0.090598255 12303542
0.42900002 0.041817274 0.099406004 14079439
0.43346339 0.045160271 0.09629108 13684681
0.44375008 0.046297573 0.09201993 12499894
0.45366669 0.043684945 0.090959534 11579049
0.51615387 0.042879514 0.094314136 11580074
0.52355009 0.045152366 0.091894209 11908784
0.53283334 0.048197404 0.090822659 12369078
0.43511397 0.054670841 0.09670765 14408148
0.44304341 0.055064548 0.091671623 13289923
0.53636366 0.052798759 0.092091866 12106163
0.54363638 0.056407772 0.09137433 12500664
0.43756592 0.064448319 0.097500861 14868442
0.44244653 0.065154858 0.092508666 14342611
0.54683334 0.062054139 0.091291785 12237492
0.551 0.067255192 0.090784155 12566457
0.43895665 0.072074644 0.097602479 14276306
0.44154549 0.071841054 0.092675447 13618376
0.55614287 0.074214168 0.090924107 12106163
0.43826315 -0.14374091 0.10754415 14145231
0.44138876 -0.14394315 0.10276026 14144716
0.43579274 -0.13462584 0.10615535 14210767
0.44114813 -0.13617972 0.10141551 14078924
0.42836362 -0.1215663 0.10846534 14210253
0.43334037 -0.12527336 0.10447196 14078926
0.42646375 -0.11448801 0.10674049 14144718
0.43152276 -0.1154824 0.10198361 13881804
0.42415792 -0.10486586 0.10559473 13947597
0.43096307 -0.10538362 0.10083073 13684683
0.41697562 -0.093935877 0.10778283 14013390
0.42386952 -0.095288001 0.10360762 13750475
0.43030769 -0.095949322 0.10063822 13618890
0.41539714 -0.084796131 0.10765692 13750219
0.42419714 -0.084980391 0.1032605 13487304
0.43000001 -0.084921598 0.10064436 13355975
0.41518191 -0.074861892 0.10824676 13553096
0.42384413 -0.07517992 0.10385378 13290182
0.43084216 -0.073698126 0.10078686 13355974
0.4156183 -0.065353818 0.10868067 13355974
0.42382059 -0.064897344 0.10443727 13092803
0.43186668 -0.065070562 0.10107812 13355975
0.41505185 -0.054745521 0.10854556 13290181
0.42396003 -0.055095896 0.10442998 12895681
0.43190002 -0.054963447 0.10108592 12961474
0.41501719 -0.045177635 0.10838566 12961474
0.42407852 -0.045527957 0.10499155 13027011
0.43432763 -0.044767067 0.10222547 13158853
0.44075003 -0.040613186 0.10058008 13158853
0.41692594 -0.036442146 0.10886072 12435130
0.4233422 -0.034967244 0.10758167 12500666
0.43588141 -0.035552628 0.10486256 12829631
0.44366667 -0.034123804 0.1018382 13027267
0.45266667 -0.031290125 0.10082555 12961217
0.41825002 -0.02336834 0.10964377 11579821
0.42505136 -0.025349882 0.10889486 11908786
0.43532643 -0.024919679 0.10693538 12040371
0.44441667 -0.025493801 0.10407456 12434873
0.45482868 -0.025280943 0.10173348 12632509
0.4616667 -0.022302121 0.10060938 12829630
0.41412818 -0.014386171 0.10895424 11777200
0.42462796 -0.014724382 0.10721336 11316648
0.43257144 -0.015402103 0.10491607 11382441
0.44461542 -0.018350923 0.10445847 11842736
0.45659095 -0.015731333 0.10438814 11974577
0.46422729 -0.014468969 0.10220074 12237492
0.47025001 -0.012506732 0.10015737 12303542
0.4140358 -0.0049883686 0.10821886 12040372
0.42427665 -0.0053564901 0.10580456 11316648
0.43166679 -0.0054032099 0.10320336 11119268
0.44300002 -0.0081530716 0.10368709 11119268
0.45828575 -0.0072060274 0.10542445 11053475
0.46446517 -0.0055643027 0.10321656 11316648
0.47175011 -0.0055349292 0.10052894 11776943
0.4142127 0.0052757491 0.10743425 12303543
0.42305565 0.0049893162 0.10374527 11579562
0.43126312 0.003166507 0.10237235 10987682
0.44640008 0.007300972 0.10233642 10987682
0.45466667 0.0045511755 0.10225876 10987682
0.46484616 0.0028252755 0.10092784 11119011
0.47000003 0.0049934676 0.10010412 11119011
0.41522503 0.01520243 0.1073807 13158594
0.42269379 0.015188004 0.10227748 12237492
0.43433332 0.013359636 0.10097503 11250854
0.44512504 0.01264493 0.10125207 11053218
0.47000003 0.010604887 0.10010412 11119011
0.49650002 0.018757872 0.10051611 11250597
0.41600001 0.024773674 0.1075859 13750731
0.42273915 0.025221551 0.10278028 13355973
0.49700001 0.021103734 0.10003734 11316390
0.41758338 0.033946134 0.10816341 13948110
0.42349431 0.035521664 0.10354018 13882317
0.41880003 0.041509874 0.10959177 14211282
0.4244349 0.044981275 0.10482541 14342611
0.43000001 0.049464535 0.10064436 14736856
0.42642111 0.054387424 0.10652293 14736856
0.43056759 0.056397997 0.10205588 14802649
0.42794445 0.062197313 0.10839842 14868442
0.43292227 0.065626316 0.10442315 14802649
0.43670738 0.072679788 0.1042012 13947342
0.43648276 -0.14369266 0.11431345 13420996
0.43304861 -0.1348962 0.11509316 13420995
0.42790002 -0.12257453 0.11492757 13420739
0.43004665 -0.12741327 0.11496077 13486532
0.42393404 -0.11497264 0.11488288 13289410
0.41817239 -0.10201462 0.11546313 12434102
0.42062071 -0.10673703 0.1146112 12960445
0.41440627 -0.0948162 0.11500833 13289410
0.4080466 -0.083577037 0.11689705 13354947
0.41125417 -0.086531527 0.11327197 13750474
0.40488127 -0.074566849 0.11520444 13947853
0.41046157 -0.07548409 0.11063239 13750731
0.39850003 -0.062843472 0.11925853 14211540
0.40374213 -0.065119773 0.11478902 13947854
0.41122225 -0.064365231 0.11058205 13421767
0.39757892 -0.054540269 0.11879593 14408662
0.40455455 -0.055198658 0.11434969 13684939
0.41100001 -0.055190973 0.11062966 13290439
0.39742857 -0.044993892 0.11860351 14145233
0.40415388 -0.045010082 0.11405237 13553353
0.41041669 -0.044622641 0.11055263 12961474
0.39767453 -0.035138678 0.11871014 13882318
0.40402117 -0.035061877 0.11430799 13027010
0.41288573 -0.034572117 0.11085663 12500668
0.39743182 -0.024993049 0.11860464 13816268
0.40350008 -0.025036829 0.11426077 12829631
0.41400003 -0.024908653 0.11085514 11776943
0.4201667 -0.025929576 0.11014622 11777200
0.39720929 -0.014704352 0.11854909 13421766
0.40442616 -0.01489188 0.11367176 12829888
0.41100001 -0.018390175 0.11038794 12040115
0.39789996 -0.005272544 0.1190715 13092801
0.404028 -0.0051026577 0.11435192 12698045
0.41000006 -0.0046662805 0.11036049 12303542
0.3985 0.0014131302 0.11927532 13092803
0.40456223 0.0049728686 0.1149077 12895424
0.41000006 0.0046576601 0.11036049 12632507
0.40582252 0.014712909 0.11564146 13553353
0.41052642 0.015256572 0.11095681 13290180
0.40762365 0.024017602 0.11671818 13948111
0.41161105 0.025972012 0.11243161 13882317
0.40900001 0.030771727 0.11918734 14079698
0.41373894 0.0349751 0.11462305 14079696
0.41675761 0.044593383 0.11511039 14408149
0.42036369 0.0474624 0.11073437 14473941
0.41855565 0.051360562 0.1171272 14539478
0.42195708 0.055661473 0.11430454 14671064
0.42584616 0.064203903 0.11486103 14671063
0.43000004 0.068814345 0.11182921 14605014
0.43069226 0.071105845 0.11282447 14539478
0.43600002 -0.1413932 0.12348539 11776429
0.4346025 -0.13503611 0.12489019 12565943
0.42843479 -0.1218759 0.12413206 12631479
0.43099996 -0.12634826 0.12553285 12499893
0.42515278 -0.11494679 0.12494498 12499894
0.41853854 -0.10108627 0.12366355 11908270
0.42165676 -0.10588578 0.12479984 12105136
0.4146896 -0.094992794 0.12500171 11974062
0.40730315 -0.083550289 0.12439894 12434357
0.41079167 -0.088461697 0.12564106 12039856
0.40203369 -0.074876912 0.12516987 12236724
0.39629051 -0.064869821 0.12465251 13749962
0.38900003 -0.051781386 0.1292956 14869212
0.39264417 -0.05498429 0.12487587 14605527
0.38899997 -0.045406792 0.1292956 14540247
0.39266649 -0.04491533 0.12452503 14474198
0.38899997 -0.035389584 0.1292956 14013905
0.39293191 -0.034826819 0.12460721 14013648
0.38880953 -0.024103928 0.1291451 13619404
0.39266658 -0.024872098 0.12417886 13750732
0.38874072 -0.016389268 0.12910764 13619147
0.39276266 -0.014831504 0.12415863 13487817
0.39353669 -0.0054166443 0.12518238 13355974
0.39706463 0.0041379351 0.12526834 13093059
0.40011117 0.008403671 0.12200827 13355974
0.40223488 0.015067331 0.12461209 13224645
0.40677908 0.024909735 0.12471094 13158596
0.41033337 0.029591506 0.12854199 12763836
0.40900001 0.030771727 0.12205976 13290182
0.41251099 0.035539016 0.12493352 12895167
0.41645125 0.044689227 0.12459469 13158339
0.42025 0.048589349 0.1288605 12434873
0.41860008 0.051159017 0.12214869 13947342
0.42226669 0.055369776 0.12562956 13157827
0.42448774 0.062913403 0.12393562 13355205
0.43497071 -0.1328357 0.13358316 12171184
0.42900002 -0.12037665 0.13053919 12500148
0.43256947 -0.12542301 0.13487099 12697271
0.42758337 -0.11399738 0.13351016 12500150
0.43034488 -0.11665585 0.13754958 12433844
0.42368832 -0.10501037 0.13476013 11776171
0.41680887 -0.094475664 0.13453725 11710378
0.42060003 -0.098327443 0.13842063 11447206
0.40826091 -0.081771739 0.13353756 11842221
0.41233936 -0.086317532 0.13539888 11644842
0.40467906 -0.074862555 0.13460326 11447208
0.39501518 -0.063688718 0.13423577 11645101
0.4007895 -0.068511777 0.13652582 11052450
0.38801199 -0.053415935 0.13491909 14210771
0.39083871 -0.05831442 0.13469039 13026497
0.38653821 -0.045064736 0.13488474 14474456
0.38602588 -0.035120074 0.13506681 13948112
0.38562164 -0.025292644 0.13500825 13553611
0.38695055 -0.015438423 0.13468139 13487563
0.39000002 -0.010829636 0.13921443 11514028
0.38899997 -0.0095600644 0.13335215 13027267
0.39243865 -0.0048315884 0.13506214 12237752
0.39701524 0.0030492339 0.13412896 12237496
0.40070578 0.0079118228 0.13581066 11974324
0.40394449 0.014684254 0.13481374 12171959
0.40804362 0.022437243 0.13373755 12171701
0.41156816 0.026762713 0.13605554 12171701
0.41484627 0.034219988 0.13444194 12434615
0.42066669 0.038543787 0.13982095 12171701
0.41769999 0.042233828 0.13203903 12499895
0.42250878 0.045918677 0.13575189 12368566
0.42698443 0.054416679 0.13472469 12368822
0.43000004 0.05751764 0.1381416 11710892
0.42812502 0.061150581 0.13215366 11644844
0.43000001 0.061040867 0.13637999 10526874
0.43500003 -0.13020697 0.14051168 11447208
0.43519413 -0.12416834 0.14457777 12631480
0.42900002 -0.11033368 0.14058217 12368308
0.43274286 -0.11512271 0.14492486 12499894
0.42682004 -0.10392322 0.14412504 11512999
0.43039134 -0.10762578 0.14730315 11776427
0.41821435 -0.09182591 0.14243357 11512999
0.42194915 -0.09558443 0.14570674 11250084
0.415831 -0.084796444 0.1447172 11249827
0.42016673 -0.088717632 0.14883545 11053218
0.40719512 -0.072597757 0.14459692 11184806
0.41203573 -0.077862225 0.14549817 11118755
0.39712504 -0.06192999 0.14404334 10987427
0.4021886 -0.066493459 0.14545694 11052963
0.38621667 -0.052954394 0.144356 12828604
0.39204764 -0.058002818 0.14420339 11447464
0.37885714 -0.041815944 0.14949067 7829885
0.38195482 -0.04474875 0.1446472 14211283
0.37848565 -0.035015814 0.14876114 9934229
0.38111821 -0.034761693 0.14406934 13684940
0.37857145 -0.028046679 0.14906095 9933717
0.38171768 -0.024734516 0.14477143 13553355
0.38641253 -0.016815782 0.14454356 12697792
0.39176479 -0.011927622 0.14589028 12171703
0.39566156 -0.006116739 0.14428182 11382442
0.40058827 -0.0024061152 0.14809743 10921891
0.39850003 0.0011796135 0.14108247 11250856
0.40332919 0.0054142666 0.14526699 10987684
0.4073334 0.013287586 0.14387362 11119273
0.41206062 0.017441401 0.14640598 11382189
0.41504118 0.02467267 0.1446121 11711153
0.42050004 0.029012276 0.14895366 11711154
0.41758823 0.032109853 0.14196184 11974323
0.42274553 0.035895687 0.14569904 11842738
0.42657152 0.044331044 0.14414193 11842480
0.43044439 0.047277644 0.14827782 11973811
0.42866662 0.052121781 0.14174442 12434103
0.43016663 0.054265622 0.14339989 11381672
0.43863162 -0.12261985 0.15403606 12171701
0.44000003 -0.12449327 0.15711966 11513772
0.43628377 -0.11489135 0.15480265 12697530
0.42871428 -0.10122787 0.15253207 11382183
0.43238097 -0.10557034 0.15547803 11513512
0.4253594 -0.094669327 0.15470304 11118754
0.43000001 -0.099266186 0.15827438 11052705
0.41788888 -0.082658298 0.15299302 11052704
0.42132568 -0.086686559 0.15543324 11052704
0.40849999 -0.071272232 0.15155624 11249826
0.41489804 -0.076091394 0.15523037 11184290
0.39727277 -0.061592463 0.15575777 11710378
0.40467355 -0.066154219 0.15432014 11381413
0.41050002 -0.069058165 0.15806456 11381413
0.3857857 -0.05352886 0.15540417 11776428
0.39202866 -0.05824469 0.15510544 11710635
0.37703189 -0.043339446 0.15530992 5396310
0.38097724 -0.048424795 0.15413474 12565945
0.37509787 -0.034975432 0.15491721 2502445
0.37645373 -0.026669098 0.15531589 5855834
0.38108322 -0.021757077 0.15429495 13618894
0.38431481 -0.0170803 0.15665592 13224392
0.39594999 -0.011542304 0.15561685 12960964
0.40000001 -0.010170911 0.15823476 12960964
0.39839998 -0.0085439542 0.15219313 12171703
0.40302807 -0.0047320751 0.15573646 12040116
0.40695125 0.003204776 0.1530861 11250856
0.41300002 0.0071630757 0.1567743 11250856
0.40900001 0.010664723 0.15030533 11119270
0.41567278 0.014720081 0.15423079 11382442
0.42073336 0.017997313 0.15816359 11579823
0.41809094 0.022381907 0.15124388 11645617
0.42251563 0.025566244 0.15560098 11711408
0.42681578 0.033115249 0.15448837 11579567
0.43121883 0.037335899 0.15657993 11579567
0.42900002 0.04031083 0.15062514 11776947
0.43334326 0.04471951 0.15494144 11711153
0.43437499 0.050857104 0.15289627 10592669
0.43900001 -0.12009951 0.16030245 12631482
0.44000003 -0.12088811 0.16221268 12235957
0.43883321 -0.11444753 0.16323854 12499894
0.43999997 -0.11419281 0.16829935 12170929
0.43627939 -0.10527523 0.16517085 11447976
0.42805883 -0.092291206 0.16255678 10986655
0.43150005 -0.095903628 0.16564754 11052705
0.42511475 -0.084755108 0.16481267 11118241
0.43000001 -0.089451469 0.16859239 11118498
0.41624245 -0.072894722 0.16356444 11381413
0.42105895 -0.077503689 0.16546576 11250084
0.39225003 -0.061537229 0.16664299 11710892
0.4042778 -0.065913334 0.16428362 11513256
0.41174999 -0.06926845 0.16372335 11447463
0.38532689 -0.054819677 0.16534556 11973551
0.39016667 -0.059243787 0.16302101 11710893
0.37509736 -0.044193 0.16509534 6251360
0.38052386 -0.049380906 0.16465561 12105136
0.36899999 -0.034001984 0.16929512 2239015
0.37119403 -0.035061587 0.1647684 2370088
0.37439594 -0.025093958 0.16520391 7435380
0.38028574 -0.020606866 0.1616271 13618894
0.37900001 -0.019396642 0.16944683 13619151
0.38250908 -0.017629912 0.16495897 13290441
0.39250001 -0.011658327 0.1677966 12829633
0.40577272 -0.0051230844 0.16358276 12566461
0.41165 -0.0020332707 0.16698812 12500668
0.41614082 0.0043444736 0.1649752 11776944
0.42053849 0.0085428162 0.16764744 11645358
0.41900003 0.010925475 0.16133693 11382442
0.42320275 0.015112352 0.1651298 11382187
0.42649019 0.023769762 0.16390245 11447981
0.43083334 0.026813503 0.16802314 11447725
0.42875001 0.030752376 0.16157818 11711152
0.43317103 0.035465907 0.16498241 11842482
0.43531251 0.042433687 0.16277827 11448235
0.44166663 -0.11167401 0.17464937 11710635
0.43842313 -0.10281055 0.17300142 11645355
0.44121423 -0.10629621 0.17618933 11579562
0.43522221 -0.094988532 0.17505902 11316390
0.42783332 -0.08199124 0.17383796 11119011
0.43129551 -0.086442627 0.17562044 11250341
0.41466668 -0.07121601 0.17503245 11381928
0.42450002 -0.077298492 0.17532146 11316133
0.39470485 -0.063729383 0.17528757 11381926
0.40420002 -0.068375215 0.17407857 11250085
0.41100001 -0.069622189 0.17316294 11447720
0.37850001 -0.051159441 0.17675348 12171187
0.38363639 -0.054988403 0.1741212 11973808
0.39000002 -0.059218481 0.17619081 11776941
0.36822224 -0.040778957 0.17645401 2436392
0.37392512 -0.045462653 0.17477559 7895413
0.36744744 -0.034924529 0.17489576 2107172
0.36795461 -0.027743572 0.17574167 2632234
0.37357509 -0.023062389 0.17425969 10197656
0.3785001 -0.019075304 0.17552325 13422028
0.38427144 -0.01560302 0.1758423 13092807
0.39137152 -0.011939103 0.17471416 12763842
0.39357144 -0.0087536676 0.17750421 12566463
0.40656522 -0.0042881467 0.17523491 12698303
0.41220003 -0.0015054274 0.17405596 12698302
0.41628569 0.0017823846 0.17399964 12500923
0.42274362 0.0067911288 0.17555848 12105908
0.42664289 0.01353835 0.17405573 11776944
0.43072727 0.017603621 0.17717466 11908531
0.42900002 0.020224895 0.17071107 11513518
0.43418667 0.025141811 0.17504415 11579566
0.43637499 0.033798933 0.17385878 11119013
0.44495457 -0.11121736 0.18477926 11315878
0.44359469 -0.10505489 0.18520719 11381927
0.43816221 -0.093202479 0.18397941 11250597
0.44066665 -0.096830107 0.18687454 11316133
0.4342576 -0.085001424 0.18472898 11250340
0.42683339 -0.077804372 0.1810054 11447206
0.43020004 -0.079019353 0.18488541 11316133
0.38757148 -0.061182711 0.18545635 11447977
0.39463416 -0.063557796 0.18291397 11382183
0.37795007 -0.052141495 0.18543179 12236979
0.38198107 -0.056977011 0.18524446 11842735
0.39000002 -0.059218481 0.18075579 11973552
0.36665514 -0.041958656 0.18521981 2896431
0.37380603 -0.047114644 0.18468276 10920863
0.36460751 -0.034986138 0.18505391 1581083
0.36639214 -0.026919292 0.18527117 2699568
0.3729105 -0.021892643 0.18468527 12435133
0.37778056 -0.01818959 0.18531384 13422028
0.38377142 -0.013978918 0.18350244 12830148
0.38816667 -0.0097186361 0.18384212 12500670
0.39300001 -0.0081528807 0.18030618 12500670
0.41800001 0.002092489 0.18492623 12632256
0.42663157 0.0067152223 0.18437079 12303289
0.43042859 0.0084169293 0.18718658 12237497
0.42866668 0.010508783 0.18094836 11842993
0.43328002 0.014986301 0.18549503 12040116
0.43782973 0.023852101 0.18369018 12039862
0.44099993 0.027025105 0.18703556 12369084
0.43900001 0.030973408 0.18085659 12171705
0.44175005 0.030778531 0.18574306 10395293
0.44601858 -0.10413717 0.19491142 11381413
0.44322982 -0.095012374 0.19522335 11513256
0.43857899 -0.085563347 0.19203138 11316133
0.44104987 -0.085530721 0.19690666 11381669
0.38333336 -0.061347455 0.19726105 11382183
0.37762174 -0.053520177 0.19505087 12237237
0.38082758 -0.057980802 0.19504365 11842735
0.35862499 -0.040392224 0.19780099 2370341
0.36382467 -0.042384274 0.19406021 3488566
0.37289354 -0.047822718 0.19450042 11644587
0.35843018 -0.034743901 0.1973279 2107170
0.36138889 -0.034985099 0.19237532 1778463
0.35866672 -0.028487317 0.19802706 2304036
0.36263558 -0.025852164 0.19434334 4737863
0.3729412 -0.020623647 0.194874 13027526
0.37738895 -0.017691387 0.19517879 13290443
0.38320002 -0.01307975 0.1949966 12698563
0.38749999 -0.0095808106 0.1956441 12304061
0.42527276 0.0065687443 0.19239737 12303291
0.43033335 0.0088706091 0.19709934 12303291
0.43609986 0.015109636 0.19524023 12303290
0.44000003 0.019713435 0.19877939 12632256
0.43900007 0.021312963 0.19175026 12171703
0.44164824 0.024943244 0.19506323 11711151
0.4440001 0.030732229 0.19479546 10263959
0.44875008 -0.10293837 0.20332442 11118755
0.44643825 -0.094841629 0.20519762 11644842
0.44284135 -0.08615303 0.20504971 11250598
0.37860003 -0.060500838 0.20755582 11513775
0.38548276 -0.062178191 0.20432352 11448233
0.39271429 -0.06593699 0.20617846 11119266
0.37658647 -0.05433156 0.20562547 12171447
0.38108003 -0.058400799 0.20327662 11842736
0.35855556 -0.040641241 0.20162246 1844510
0.36344448 -0.043283965 0.20275789 4803401
0.37364155 -0.048221439 0.20451024 11579054
0.35799989 -0.034664538 0.20154314 1712667
0.35850003 -0.027904561 0.20159113 1712414
0.36145461 -0.02387665 0.20218825 6645349
0.37200001 -0.020488264 0.20172824 12697791
0.37761202 -0.016694961 0.20505768 13290186
0.38196358 -0.012212079 0.20461446 12632771
0.38693035 -0.008465332 0.20570074 12172477
0.3930358 -0.0054201484 0.2055829 12040890
0.4038077 -0.0022272347 0.20598568 12106683
0.40799999 0.00029173831 0.20787998 12040890
0.41317862 0.003491191 0.20783649 12106170
0.42700002 0.0071356166 0.2098998 12369084
0.43490908 0.008841374 0.20611104 12369337
0.43689996 0.013614899 0.2051544 12369082
0.44150001 0.019007519 0.20546572 12566463
0.44389844 0.02416954 0.20422319 10987429
0.44400004 0.03028677 0.20058647 10329752
0.44779658 -0.094526567 0.21401002 11315879
0.44408107 -0.086512282 0.2148429 11250085
0.37800002 -0.060051087 0.21059027 11974579
0.37569696 -0.055188823 0.21125095 12039861
0.37383333 -0.049179573 0.21074848 11775920
0.37815005 -0.016075363 0.21138152 13093065
0.38111115 -0.011969079 0.21227323 12698050
0.38673532 -0.0078035514 0.21302931 11974584
0.39157897 -0.0042126686 0.21303642 11448498
0.40100002 -0.001747605 0.21307775 11382963
0.4078421 0.0011888925 0.2127928 11777205
0.41347063 0.0053796703 0.21240918 11448497
0.42066669 0.0093278801 0.21368007 11120559
0.4351429 0.0087278048 0.21171872 12698049
0.42900002 0.011186225 0.21490014 11382189
0.43646297 0.01441331 0.21315922 12106167
0.44060001 0.018915575 0.21132322 12698302
0.44300002 0.021144768 0.21128204 11184809
0.44800001 -0.093195952 0.22022274 10790305
0.44600001 -0.088603526 0.2202837 11908784
