# .PCD v0.7 - Point Cloud Data file format
VERSION 0.7
FIELDS x y z rgb
SIZE 4 4 4 4
TYPE F F F U
COUNT 1 1 1 1
WIDTH 895
HEIGHT 1
VIEWPOINT 0 0 0 1 0 0 0
POINTS 895
DATA ascii
0.551 -0.1301015 0.039317101 13947597
0.55245847 -0.12451548 0.037911065 14277074
0.55250001 -0.11576883 0.038037334 13948365
0.55050004 -0.10839809 0.039603312 14474451
0.53400004 -0.13087605 0.048306208 13947854
0.54500002 -0.13080887 0.043132838 13816524
0.53583866 -0.12538421 0.048406567 14145489
0.54500002 -0.12506059 0.043967556 14145745
0.55110002 -0.12380157 0.040742539 14211537
0.5375455 -0.11742437 0.048936844 14342868
0.54469776 -0.11476085 0.045782212 14408660
0.551 -0.11548341 0.041189082 14408916
0.54570502 -0.1050368 0.045620911 14540246
0.55000001 -0.10926444 0.041177083 14606294
0.54717767 -0.095374458 0.045589954 14342867
0.54831707 -0.085575417 0.047278769 14408660
0.55000001 -0.085659176 0.043966796 12040113
0.54769462 -0.075219952 0.047556531 12961216
0.5478 -0.064374417 0.048535321 10658717
0.54585713 -0.057874415 0.048169222 10790303
0.5158422 -0.13279523 0.058444012 13618889
0.52370846 -0.13264205 0.053961787 13816267
0.53000003 -0.13010599 0.05084639 14145743
0.51548564 -0.12467777 0.058238845 13816524
0.52400005 -0.12560168 0.054097153 14013902
0.53071439 -0.12415772 0.051446658 14276817
0.51620007 -0.11612549 0.058557305 13948110
0.52425712 -0.11487785 0.055618916 14145489
0.53349996 -0.11429361 0.051916964 14277075
0.51900005 -0.10918085 0.059510998 13882317
0.52505881 -0.10557006 0.057994224 14013903
0.53452271 -0.10493479 0.053459451 14211282
0.54083341 -0.10300869 0.050619602 14342868
0.52783328 -0.09589874 0.058978796 14013903
0.53438103 -0.09510611 0.055903457 14211282
0.54308331 -0.094323762 0.052098822 14408661
0.53528571 -0.08535371 0.058112867 14079953
0.54412496 -0.084593125 0.053468693 14408661
0.53807151 -0.075849771 0.058817532 14014160
0.54435307 -0.074655659 0.054287862 14211539
0.53900003 -0.068593979 0.059280675 14079953
0.54555082 -0.064918071 0.05497488 14211539
0.54689151 -0.055930033 0.056497868 13948367
0.55016667 -0.051553994 0.055357009 13882574
0.54830009 -0.046156529 0.058763124 13816780
0.55070007 -0.045072563 0.056569822 13356229
0.54862505 -0.036266968 0.058733616 13356485
0.55049998 -0.039127961 0.057323061 12238003
0.54900002 -0.029382203 0.059095282 9671824
0.55100006 -0.02389616 0.059310567 9737615
0.55371428 -0.015372693 0.059602737 9934994
0.49743754 -0.13324529 0.068899602 13750474
0.50417238 -0.13271448 0.064718723 13750731
0.51100004 -0.13261935 0.060986198 13619145
0.49766672 -0.12605262 0.06919948 13816524
0.50480711 -0.12522395 0.065336749 13882317
0.51057154 -0.12422729 0.061446734 13882317
0.4929167 -0.11446926 0.069400243 13816524
0.50584388 -0.11533027 0.066062994 13816524
0.51169443 -0.11429351 0.062196925 13816524
0.49787501 -0.10764875 0.06932579 13816524
0.50445461 -0.10486715 0.067571498 13750731
0.51442862 -0.10516517 0.063376024 13816524
0.52214289 -0.10197985 0.060743231 13816524
0.50547826 -0.095783606 0.068555973 13684938
0.51436579 -0.094956703 0.065519467 13750731
0.52303332 -0.094599433 0.061642773 13750988
0.50700003 -0.08924783 0.069606788 13619145
0.51515901 -0.085400373 0.067339361 13553609
0.5243848 -0.084720798 0.062796645 13685195
0.53075004 -0.082453139 0.060858302 13882574
0.51729417 -0.077261619 0.068573572 13422023
0.52461547 -0.074839219 0.066098973 13619402
0.5330295 -0.074361764 0.06188415 13882574
0.52503222 -0.065604843 0.068245746 13421766
0.53435999 -0.064796664 0.063462503 13882574
0.54000002 -0.061136343 0.060654804 14079953
0.52558833 -0.055341903 0.068947904 13290437
0.53539544 -0.055058863 0.065666489 13750988
0.54245007 -0.054107349 0.061815955 13948367
0.52900004 -0.049364589 0.069326438 13422023
0.53541028 -0.045137871 0.06761913 13487816
0.54482055 -0.044984456 0.062463958 13750988
0.53704172 -0.035651419 0.068595864 13290437
0.54494351 -0.034725983 0.063535027 13487815
0.53866673 -0.027567359 0.069332242 13290437
0.54569495 -0.025111271 0.065505132 13290436
0.55079997 -0.021741005 0.0618672 11185317
0.54737502 -0.015518782 0.068369441 13158851
0.55206245 -0.014358313 0.063998632 11448233
0.54816669 -0.0055961688 0.069271728 13093058
0.55168754 -0.0068480102 0.065995015 11777197
0.55112505 0.0046958067 0.069645576 11909042
0.4762857 -0.13518399 0.078555539 13750474
0.48404998 -0.13380517 0.075350255 13750475
0.49221054 -0.13386607 0.07135579 13816011
0.47541174 -0.12469223 0.078436524 13750731
0.48366678 -0.12494291 0.074320525 13816524
0.49194738 -0.1261005 0.071196973 13816524
0.47436172 -0.11493263 0.077561624 13816524
0.48341992 -0.11459421 0.072917491 13882317
0.49125004 -0.11628252 0.07012935 13816524
0.47435012 -0.10467515 0.077479742 13750731
0.48447227 -0.10575715 0.073849216 13684938
0.49427271 -0.10414366 0.071677543 13619145
0.5 -0.10108706 0.070207961 13750731
0.47460872 -0.097030982 0.078570105 13619402
0.48391429 -0.094935134 0.077264383 13553609
0.49516326 -0.094961457 0.073894866 13619402
0.5014286 -0.094076931 0.070827261 13684938
0.48534486 -0.085990958 0.078880005 13422023
0.49485102 -0.085021205 0.075636506 13422023
0.50421882 -0.084857687 0.072011657 13487816
0.5104 -0.082518026 0.070712224 13356230
0.48749998 -0.07602194 0.079579242 13422023
0.49431708 -0.074972697 0.077161573 13355973
0.5041725 -0.075130604 0.073880754 13290437
0.51289284 -0.074398801 0.071283989 13290437
0.48737502 -0.065444767 0.079844758 13290437
0.49484619 -0.065450944 0.077762067 13224902
0.50406456 -0.064509682 0.074503027 13158852
0.51446873 -0.065129831 0.071554415 13224644
0.49615622 -0.055442777 0.078591749 13158852
0.50387233 -0.054699041 0.074583583 13158595
0.51382613 -0.054904182 0.070993416 13093058
0.49760002 -0.04852872 0.079421856 13093060
0.50487101 -0.047034331 0.076793328 13092803
0.5138858 -0.044274762 0.075243078 13093058
0.52441669 -0.044177789 0.072148748 13224644
0.53060007 -0.042309176 0.071026415 13356230
0.51623082 -0.035804868 0.078340016 12895681
0.52463168 -0.034638599 0.075242519 13027265
0.53217387 -0.034490362 0.071526453 13224644
0.51800001 -0.028329425 0.07940384 12829888
0.52509093 -0.025233574 0.077598281 12895680
0.53408897 -0.025108017 0.072955653 13093058
0.54050004 -0.02070212 0.070833534 13158851
0.52618754 -0.016533306 0.079040468 12895680
0.53418177 -0.015430013 0.075621456 12961472
0.54361546 -0.014064686 0.071482755 13093058
0.53492498 -0.0058352416 0.077544495 12829887
0.5443514 -0.0047804317 0.072777987 12961472
0.53782362 0.0034356627 0.078627735 12698300
0.54544008 0.0047983159 0.074534796 12829886
0.55000001 0.0059721749 0.070790954 13027265
0.53900003 0.011530872 0.079469614 12763836
0.5459801 0.014647624 0.076296173 12961215
0.55041671 0.015318434 0.072132744 12566715
0.5474211 0.024325594 0.076728068 13158850
0.55033332 0.029380903 0.076416411 13027520
0.54850006 0.031637438 0.079586238 13290437
0.55185717 0.035063155 0.078226067 13027009
0.55187505 0.041843615 0.078783117 12500666
0.46457142 -0.14184874 0.087699071 13289412
0.47050002 -0.14083305 0.083137572 12763068
0.45900002 -0.1314809 0.089165039 13881547
0.46506152 -0.13492945 0.086543463 13815754
0.47175762 -0.13504849 0.081599005 13750218
0.45748153 -0.12432497 0.088549949 13881547
0.46494234 -0.12493201 0.084675826 13815754
0.47068429 -0.1255199 0.081168838 13816268
0.45611995 -0.11501805 0.087998837 13881803
0.46514547 -0.11497252 0.083397724 13882060
0.47000006 -0.11623277 0.080421366 13882317
0.45491478 -0.10528068 0.088156193 13750731
0.46474987 -0.10488633 0.083588198 13750731
0.47000003 -0.1058871 0.080299109 13882317
0.45602494 -0.095816649 0.0886866 13684938
0.46506777 -0.095399007 0.084869586 13619146
0.47225812 -0.093740202 0.081464924 13487816
0.45816669 -0.086905845 0.089359581 13684938
0.46450981 -0.085241489 0.086962692 13553353
0.4742201 -0.085015938 0.08303076 13422023
0.48158339 -0.082516856 0.08086668 13422023
0.4641521 -0.074913077 0.088101618 13355973
0.47474194 -0.074880995 0.084686808 13421766
0.4828572 -0.075155005 0.081877306 13422023
0.46578568 -0.065853283 0.08876542 13158851
0.47397834 -0.064923517 0.08603514 13158851
0.48314652 -0.064449549 0.082151666 13290180
0.46540916 -0.055563137 0.089267552 12961474
0.47455546 -0.054945584 0.086622082 13027265
0.48382932 -0.055228565 0.082874909 13092802
0.49100003 -0.054127906 0.080791757 13093059
0.46738467 -0.04655822 0.089277379 13027267
0.4745675 -0.044850577 0.087648109 13093059
0.48397508 -0.044512495 0.084093437 13224389
0.49386358 -0.045505524 0.081271254 13158853
0.50460005 -0.041414902 0.080540538 13027267
0.47685716 -0.03843588 0.089123435 12961474
0.48422861 -0.035756238 0.087550268 12961217
0.49467999 -0.0338335 0.086130515 12895681
0.50453341 -0.034758158 0.083319172 12961474
0.51116675 -0.034401763 0.081015691 12895681
0.48700002 -0.028343366 0.089472793 12895681
0.49557143 -0.025524873 0.088391863 12829888
0.50448489 -0.024996784 0.08571814 12829888
0.51392686 -0.024714611 0.082190327 12895424
0.52000004 -0.021134827 0.080320261 12829888
0.49850005 -0.017342025 0.089544259 12764095
0.50476205 -0.015110861 0.087357149 12764095
0.51383328 -0.015002966 0.083402105 12829631
0.52270001 -0.014139692 0.080735192 12829888
0.50625008 -0.0070186974 0.088785708 12632509
0.514359 -0.0052363384 0.086293645 12632509
0.52450013 -0.0050310888 0.082488112 12763838
0.53075004 -0.0029334405 0.080738232 12698302
0.51561767 0.0041121845 0.088370256 12500923
0.52430558 0.004873198 0.085001186 12566459
0.53269237 0.0052124904 0.081508741 12698301
0.51820004 0.013999291 0.089382894 12566715
0.52508575 0.014920237 0.086999096 12698301
0.53438455 0.014801338 0.082821064 12764094
0.54200006 0.01857421 0.080544591 13027008
0.52630007 0.02493763 0.088929772 12764095
0.53471053 0.024450051 0.085514054 13027010
0.54328579 0.025660304 0.081823468 13158595
0.45900002 0.038831655 0.089165039 11316133
0.46044445 0.03487815 0.08920633 11250341
0.52637506 0.034209199 0.089775927 12566716
0.53446156 0.034674052 0.087885782 12895680
0.54512513 0.035143305 0.08400207 13224387
0.55049998 0.03755267 0.081164367 13356230
0.45900002 0.04151798 0.089165039 11381413
0.53576195 0.044493143 0.088961802 12829886
0.54502577 0.045356862 0.085649565 13290181
0.55079997 0.04472845 0.081465967 13355974
0.44550002 0.054967437 0.089407504 12894652
0.45683336 0.059143197 0.088026226 12368308
0.46331576 0.057289887 0.087375939 11644842
0.53866673 0.051877428 0.08950869 13158594
0.54507697 0.055021744 0.085632548 13355973
0.55019999 0.051956855 0.081893459 13290180
0.44755176 0.065607339 0.088997975 14012620
0.45346153 0.064727604 0.086083494 12763323
0.46000001 0.060453627 0.08505182 11316390
0.54665303 0.064141996 0.085089482 12895422
0.55042857 0.069392495 0.086862698 13158595
0.44740003 0.071260601 0.088164307 14078671
0.45050001 0.070806041 0.085931301 13618120
0.55166674 0.071783677 0.086505614 12829630
0.44717389 -0.14249644 0.098514475 13881802
0.45512009 -0.14210641 0.093769334 13684681
0.46033335 -0.14317894 0.090860657 12960959
0.44641507 -0.13468906 0.097617202 13815754
0.45481363 -0.13519426 0.09274175 13750474
0.46000001 -0.13930544 0.090436161 13619145
0.43900007 -0.12205215 0.098948345 13947340
0.44405723 -0.1248059 0.095690295 13750218
0.452889 -0.12598154 0.091350541 13881547
0.43750006 -0.11473197 0.09832561 13881547
0.44343954 -0.11494027 0.093789667 13881805
0.45033333 -0.11652422 0.090526335 13881547
0.43545106 -0.10439566 0.098030493 13750218
0.44376063 -0.10502377 0.092832886 13750219
0.42700002 -0.095324889 0.099942185 13619145
0.4344331 -0.09496098 0.098075539 13684682
0.44417334 -0.095084421 0.093202338 13619147
0.45199999 -0.09243758 0.090448692 13618632
0.43518022 -0.084858432 0.09807013 13553097
0.44419637 -0.085232295 0.093871653 13421767
0.4539395 -0.084120318 0.09104149 13553352
0.43694872 -0.075551495 0.098646961 13290182
0.44421285 -0.074924782 0.095817283 13289923
0.4550862 -0.074756019 0.092196055 13290180
0.4377858 -0.06515871 0.099536858 13224389
0.44455186 -0.064896062 0.097273737 13158339
0.45482758 -0.064983256 0.093170375 13224388
0.46173334 -0.064339399 0.090414874 13158853
0.43736362 -0.054304875 0.099573962 12960961
0.44509104 -0.054965142 0.097401053 13027010
0.4551931 -0.054869689 0.093349434 13027010
0.46146157 -0.0543622 0.090555675 13027267
0.43900001 -0.048160028 0.09966775 13289412
0.44502184 -0.045264471 0.098262809 13290182
0.45562753 -0.045459855 0.094503343 13158596
0.46324149 -0.04456646 0.091143161 13027267
0.47000003 -0.040558062 0.090201616 13093060
0.44683337 -0.037945386 0.099264152 13290182
0.45585108 -0.035134725 0.097444795 13092803
0.46424392 -0.035130821 0.094283514 13027010
0.4740667 -0.034648485 0.092087984 12961474
0.48125002 -0.032045208 0.091045052 12895681
0.45820001 -0.027594674 0.099162482 12895424
0.46468571 -0.024991278 0.097847223 12895424
0.47483343 -0.024712017 0.095494047 12895425
0.48347723 -0.024481703 0.09260001 12829888
0.49159998 -0.021245157 0.090892635 12829888
0.46777779 -0.01797498 0.09938553 12698045
0.47437832 -0.015421134 0.097818717 12632254
0.48473525 -0.01512873 0.094824582 12698302
0.49381578 -0.014348993 0.092087887 12698303
0.50033337 -0.011550046 0.090166688 12764095
0.47673336 -0.0069109257 0.099080957 12105910
0.48375612 -0.0053924858 0.09708716 12171958
0.49509373 -0.0048011248 0.093776293 12369337
0.50330001 -0.0041308673 0.09116929 12500923
0.4465 0.0095520103 0.099800847 11053218
0.45400003 0.0097124586 0.099884786 11184804
0.47600007 0.0046143262 0.099390343 11382184
0.48383337 0.0061320411 0.098009065 11579820
0.49590003 0.0037203056 0.096287169 11974579
0.50448841 0.0050524389 0.093324237 12171958
0.5116924 0.0072649741 0.091013856 12369337
0.42700002 0.019130992 0.099942185 12434871
0.43475002 0.016429625 0.099710658 11447977
0.44590002 0.01499476 0.099107854 11184548
0.45292854 0.016891178 0.09744449 11184804
0.46277782 0.016878556 0.09651956 11119011
0.47430775 0.012193853 0.098711208 11250597
0.48333335 0.010718063 0.097654425 11513770
0.49527273 0.014390626 0.09810438 11579820
0.5045898 0.015367276 0.09561915 11842991
0.51354843 0.01533373 0.091883145 12303544
0.52000004 0.01964571 0.0900589 12698300
0.42727271 0.025554197 0.099276669 12763066
0.43417865 0.02573658 0.097982943 12105136
0.44583333 0.024786359 0.097153313 11447719
0.45373076 0.025149129 0.094957151 11250597
0.46183333 0.026461469 0.092235148 11184804
0.50455999 0.022560988 0.09654253 11645613
0.51457143 0.024913577 0.09341149 12106163
0.52242857 0.025767585 0.091002539 12566715
0.42763636 0.034312066 0.099452883 13618375
0.43298212 0.035471939 0.096733324 12894652
0.4452084 0.034797132 0.094774634 11776683
0.45649993 0.035166275 0.092655897 11316646
0.46028572 0.032012355 0.09080001 11250597
0.51617783 0.034995198 0.094601512 11776941
0.5228824 0.035308734 0.091060027 12303543
0.4282105 0.043192983 0.099221841 14276305
0.43345946 0.045555178 0.095665529 13815754
0.44425005 0.045377556 0.092164643 12434100
0.45580781 0.043775484 0.091248676 11579561
0.46100003 0.048713744 0.090632766 12237492
0.51691669 0.042674467 0.094764568 11645355
0.52504003 0.044763662 0.092057526 11974578
0.53185719 0.04855343 0.091043591 12106163
0.4348487 0.054629963 0.096222632 14407891
0.44118744 0.055595331 0.091318272 13486789
0.46200001 0.050982516 0.090829365 11973550
0.53568751 0.053630963 0.091831073 12040113
0.54200006 0.057907999 0.090696417 12566457
0.43739983 0.06443204 0.097511493 14868442
0.4422729 0.065331757 0.092478663 14473428
0.54583335 0.062369462 0.090911806 12171700
0.55100006 0.06854479 0.090268195 12961472
0.43890485 0.072115093 0.097639665 14276048
0.4414545 0.071825914 0.092843778 13815241
0.55300003 0.071381196 0.090595841 12171956
0.43842861 -0.1438449 0.107777 14276559
0.44197729 -0.14405003 0.10320632 14144973
0.43597287 -0.13456762 0.10645848 14276303
0.44146881 -0.13582583 0.10187223 14079180
0.42859998 -0.12136843 0.10844282 14210253
0.43375522 -0.12520745 0.10472172 14144717
0.44033337 -0.12939839 0.10065717 13947594
0.42624646 -0.11438646 0.10655671 14144719
0.43240908 -0.11574409 0.10196097 13947596
0.41900003 -0.10089559 0.10885949 14276305
0.42426014 -0.10473285 0.10522236 13947597
0.43064284 -0.10737276 0.10086572 13750475
0.41713509 -0.09419518 0.10818721 14079183
0.42379993 -0.095080718 0.10339992 13750475
0.41565511 -0.084841043 0.1079646 13750474
0.42436141 -0.085128345 0.10330761 13487560
0.43057147 -0.082081087 0.10048915 13421768
0.41551399 -0.074978299 0.10796933 13553353
0.42322448 -0.074672341 0.10377976 13290182
0.43176663 -0.075161092 0.10105501 13355975
0.41520348 -0.065186016 0.10847414 13421768
0.42358655 -0.064975195 0.10421973 13092803
0.43267655 -0.065132327 0.10090778 13290182
0.41535008 -0.054621372 0.10832313 13290182
0.42376065 -0.055286031 0.10420033 12961217
0.43246877 -0.054398902 0.10102733 13026754
0.41527435 -0.045307662 0.10824224 13027010
0.42427096 -0.045339912 0.10486088 13092803
0.43474075 -0.044804994 0.10238434 13289925
0.44088894 -0.041485433 0.10078355 13224389
0.41644451 -0.03639964 0.10884079 12500923
0.42357907 -0.034854304 0.10753698 12500923
0.43502271 -0.035082575 0.10565312 12829632
0.44370598 -0.034209061 0.10247833 13027010
0.45133337 -0.031725593 0.10070622 13027010
0.4184286 -0.024634775 0.10969058 11711407
0.42417511 -0.025183927 0.10870749 11908529
0.43511117 -0.024756767 0.10735014 12105907
0.44459254 -0.025487753 0.10482033 12434871
0.45430955 -0.024536481 0.10184477 12698043
0.46033335 -0.021403082 0.10020053 12763838
0.41406673 -0.014430178 0.10871192 11842735
0.42411768 -0.014753147 0.10717262 11382440
0.43387878 -0.015190997 0.10576322 11448233
0.44415796 -0.016825924 0.10510127 11711148
0.45535713 -0.015570431 0.10413659 11908527
0.46377498 -0.014284845 0.10197376 12237493
0.47000003 -0.01250096 0.10010412 12303287
0.41378477 -0.005006555 0.10771786 11974577
0.4243159 -0.0051146923 0.10516033 11316647
0.4321053 -0.00534664 0.10331759 11184804
0.44300005 -0.0074136448 0.10427704 11250598
0.45761541 -0.0056981919 0.10537628 11184804
0.46395233 -0.0054858844 0.10304884 11382183
0.47229418 -0.0055668107 0.10058931 11908529
0.41427386 0.0051462259 0.10729645 12303543
0.42308515 0.0050006849 0.10354951 11645356
0.43244448 0.0043662647 0.10188743 11119012
0.44453847 0.007104021 0.10140146 11053218
0.45525002 0.0042653149 0.10242677 11119011
0.46416673 0.0021417784 0.10201933 11119011
0.47283331 0.0050447173 0.10024426 11250597
0.41505009 0.015197663 0.10733493 13158594
0.42287502 0.015295945 0.10232422 12303286
0.4336364 0.012785578 0.101119 11447978
0.44255555 0.012345779 0.10093485 11119013
0.47200003 0.011200935 0.1005301 11119011
0.41631147 0.024918253 0.10772333 13750731
0.42251432 0.025218094 0.10284034 13421510
0.4176389 0.033950504 0.10817799 13948110
0.42287058 0.035493914 0.10372718 14013646
0.41883337 0.04197083 0.10963321 14211282
0.4239524 0.045050111 0.10479826 14408148
0.42631721 0.054349322 0.10645346 14736856
0.43052942 0.056464761 0.10189326 14802393
0.42789999 0.06244738 0.10836501 14868442
0.43272418 0.06560614 0.10432016 14802648
0.4364391 0.072585948 0.10416016 13881290
0.43630517 -0.14353408 0.11421677 13486531
0.43292665 -0.13495745 0.11501072 13486531
0.42797509 -0.12259575 0.11494826 13552324
0.43000013 -0.12752862 0.11510932 13486531
0.42396739 -0.11494978 0.11484067 13354947
0.41817242 -0.10184559 0.11488967 12696761
0.42065004 -0.1066614 0.1148188 12894396
0.41425511 -0.09479513 0.11490459 13354947
0.40764642 -0.083894946 0.11610877 13420996
0.41119045 -0.086730108 0.1126243 13816010
0.40494919 -0.074682429 0.11528169 13947597
0.41057143 -0.075660303 0.11071998 13881548
0.39831588 -0.062887371 0.11913985 14277076
0.40395814 -0.065130882 0.11465605 13947854
0.41100001 -0.064812563 0.11062966 13553097
0.39755821 -0.054891076 0.11861004 14474198
0.40451011 -0.055039756 0.11421747 13684939
0.41133341 -0.055155169 0.11055825 13290182
0.39728853 -0.044798553 0.11811388 14145232
0.40394503 -0.044861976 0.113754 13553353
0.41050005 -0.044744812 0.11049508 13027010
0.3976137 -0.035199936 0.1186379 13882317
0.40388793 -0.035102308 0.1140418 13027266
0.41246155 -0.033693749 0.11072178 12435130
0.39724493 -0.024791222 0.1183114 13750731
0.40367031 -0.025132844 0.11410198 12829630
0.41389999 -0.025228579 0.11084759 11777199
0.41999999 -0.02542787 0.11010253 11645614
0.39738643 -0.014753928 0.11859122 13421766
0.40438473 -0.014899585 0.11372244 12895422
0.41033337 -0.018119223 0.11045021 12040370
0.39813644 -0.0052090897 0.11907014 13092801
0.40414935 -0.005148781 0.11411412 12698044
0.41000003 -0.0022667367 0.11036048 12369335
0.39855558 0.0014780464 0.11920121 13092801
0.40457672 0.005007545 0.11491834 12961216
0.41000006 0.0046576601 0.11036049 12698300
0.40600914 0.01466345 0.11573157 13553353
0.41063163 0.015667515 0.11103591 13355975
0.40773931 0.02381948 0.11692768 13948111
0.41160646 0.025849797 0.11271469 13882317
0.41354167 0.034927223 0.11470626 14079441
0.41652834 0.044891741 0.11494525 14408406
0.42016673 0.047678273 0.11031009 14474198
0.41859093 0.05153786 0.11619145 14539992
0.42167863 0.055986598 0.11429721 14671065
0.42588305 0.064264759 0.11461514 14671064
0.43000004 0.069022059 0.11171737 14407889
0.42900002 0.070439726 0.1159769 13355717
0.43060002 0.071308531 0.11197134 14539477
0.43530002 -0.14130308 0.12155247 12828860
0.4339239 -0.13490607 0.1247369 12499894
0.42857137 -0.12197705 0.12343402 12631480
0.43050006 -0.12589116 0.12588835 12499894
0.42532098 -0.11486419 0.12488782 12499894
0.41860002 -0.10109353 0.12286769 11973550
0.4216522 -0.10571561 0.12484407 12105136
0.41462082 -0.094977617 0.12498146 12039343
0.40705732 -0.083745122 0.12450276 12434100
0.41061109 -0.088516004 0.12638706 11973550
0.40205112 -0.074744403 0.12495253 12302517
0.39619431 -0.064703397 0.12476507 13815755
0.40000001 -0.069164567 0.12077846 13948112
0.39275715 -0.054942876 0.12504633 14671063
0.39255244 -0.044902805 0.12494782 14539734
0.38899997 -0.034327146 0.12914382 14013903
0.3928912 -0.034909159 0.12447792 14013903
0.38891664 -0.025026312 0.12892617 13684938
0.39265004 -0.024729509 0.12402514 13750731
0.38871431 -0.01602586 0.12916742 13619403
0.39265791 -0.014845023 0.12408715 13553353
0.39375225 -0.0054400521 0.12524498 13421766
0.39727867 0.0040339315 0.12497136 13158851
0.40011117 0.0086637847 0.12315276 13224645
0.40196586 0.015107539 0.12464393 13224390
0.40685436 0.02494441 0.1246931 13224132
0.41028574 0.029496623 0.12841274 12762811
0.40900001 0.030771727 0.12158103 13421768
0.41224438 0.035461467 0.12508856 12763838
0.41586494 0.044344414 0.12439983 13158341
0.42050004 0.048618689 0.12893657 12434619
0.41854551 0.050998021 0.12174639 14013138
0.42236066 0.055223111 0.12568745 12960963
0.42478567 0.063047662 0.12398058 13224132
0.43469709 -0.13258512 0.13375281 12170928
0.43275627 -0.12531938 0.13499862 12631736
0.428 -0.11303129 0.13387632 12368564
0.43043908 -0.11702121 0.13628751 12499893
0.42357141 -0.10498392 0.13466549 11710635
0.41675711 -0.094590999 0.13448137 11710378
0.42055559 -0.0982076 0.1386905 11381413
0.40828001 -0.082028493 0.1336021 11841964
0.41224527 -0.086400114 0.13551109 11644586
0.40444574 -0.074873455 0.13458064 11447207
0.39542183 -0.063927546 0.13420692 11775916
0.40057898 -0.068574063 0.13610855 11118242
0.38800001 -0.05329344 0.13543068 14276049
0.39064872 -0.057638459 0.1338755 13420740
0.3866362 -0.044999983 0.13507786 14605527
0.39000002 -0.04826251 0.13054097 14802649
0.38598028 -0.035116311 0.13505155 13948111
0.38525003 -0.025181785 0.13487254 13684683
0.38680837 -0.015448173 0.13467462 13487562
0.39000002 -0.010829636 0.13921443 11974322
0.389 -0.009688844 0.13283704 13224392
0.3926442 -0.004926939 0.13499799 12303546
0.39724249 0.0027827863 0.13451473 12171703
0.40045449 0.0078437412 0.13521433 12040373
0.40399998 0.014718868 0.13487157 12171959
0.4079546 0.022447528 0.13379647 12237495
0.41172725 0.026751857 0.13599832 12171701
0.41519764 0.03454477 0.1346014 12303287
0.42060003 0.038734477 0.13940503 12105908
0.41755 0.041924417 0.13262872 12566201
0.42264709 0.046275988 0.13557518 12302773
0.4261528 0.054358322 0.13454229 12303031
0.42600003 0.060971685 0.13062362 12434873
0.43525007 -0.12405777 0.14451246 12697017
0.42900002 -0.11033368 0.14108431 12170929
0.43261966 -0.1152368 0.14498174 12565687
0.42643633 -0.10419822 0.1442453 11578792
0.43023527 -0.1077488 0.14803757 11776428
0.41823533 -0.091842853 0.14287287 11447464
0.42175871 -0.095811866 0.14566641 11381413
0.41574365 -0.084995702 0.14501467 11249827
0.42000002 -0.089337662 0.14943163 11053218
0.40743908 -0.072920002 0.14419624 11315620
0.41189998 -0.077684194 0.14578228 11184034
0.39706904 -0.062025242 0.14444594 11052449
0.40236366 -0.066689283 0.14529872 11118242
0.38610169 -0.052918158 0.14440128 12828604
0.39215392 -0.058101919 0.14407673 11512745
0.37872726 -0.042031817 0.14917427 9539730
0.38190621 -0.044798411 0.14453173 14211283
0.37840548 -0.034903929 0.14863779 10131610
0.38126865 -0.034802012 0.14405122 13684940
0.37857145 -0.028046176 0.14906111 9670801
0.38127366 -0.024926975 0.14474353 13618890
0.38652438 -0.016539101 0.14463495 12698046
0.39148396 -0.011755369 0.14570504 12171701
0.39521125 -0.005945805 0.14383216 11447978
0.40061542 -0.0024660619 0.14809057 11053220
0.39818183 0.0012318109 0.14149998 11250345
0.40404478 0.0057878257 0.14523065 11052965
0.40766671 0.013747077 0.14313623 11184807
0.41194597 0.016480764 0.14701009 11382443
0.41497302 0.02473153 0.14452367 11711151
0.42050004 0.029012278 0.14895365 11842736
0.41787502 0.031991787 0.14201173 11908786
0.42247286 0.035783742 0.14545979 11842738
0.42669651 0.044148602 0.14414789 11842480
0.43033338 0.047249146 0.14811952 12039348
0.42869997 0.052025191 0.14128706 12237240
0.43023077 0.053440742 0.14369926 11776432
0.43861368 -0.12298126 0.15418965 12170930
0.44000003 -0.12449328 0.15809248 11381931
0.43638885 -0.11492166 0.15495665 12697274
0.42837501 -0.1013985 0.15216117 11447463
0.43237704 -0.10556707 0.15561365 11644586
0.42512697 -0.094652489 0.15475169 11118754
0.42999998 -0.0991823 0.15869381 10855582
0.41792861 -0.082923852 0.15302853 10987168
0.42136592 -0.086647153 0.15574299 10987425
0.40880004 -0.071069174 0.15157183 11315620
0.41430652 -0.075700723 0.15508606 11184291
0.39705557 -0.061065987 0.15546988 11710378
0.40427947 -0.066188365 0.15524499 11447206
0.38614929 -0.053500205 0.15546155 11776428
0.39197066 -0.058036175 0.1552721 11710378
0.37685573 -0.043181323 0.15530643 5001808
0.38108504 -0.048395116 0.15435822 12565688
0.37483338 -0.034897413 0.15469737 2502189
0.37643695 -0.026779214 0.15526105 5790039
0.38108879 -0.021841235 0.15449928 13619147
0.38418195 -0.017285364 0.15633805 13355720
0.39657146 -0.011010775 0.15396591 12895426
0.40000001 -0.010170911 0.15729834 12829378
0.3978 -0.0085310396 0.15215102 12105908
0.40355393 -0.0046935072 0.1559878 12040116
0.40782359 0.0028321906 0.15304711 11316392
0.41245458 0.0070059793 0.15610009 11316392
0.41507149 0.014492624 0.15396379 11382442
0.42066669 0.018273493 0.15804012 11579564
0.41800004 0.022448577 0.1510683 11711407
0.42295241 0.025603672 0.15562694 11711407
0.4269737 0.033601247 0.15443984 11579566
0.43060011 0.037438456 0.15676586 11579309
0.42900002 0.04031083 0.15062514 11776690
0.43201664 0.044272225 0.15445198 11776944
0.43300003 0.05107671 0.1507625 10724000
0.43900001 -0.12009951 0.16030245 12500666
0.44000003 -0.12096167 0.16243342 11908530
0.43887019 -0.11437616 0.1636613 12499894
0.44000003 -0.1147722 0.1683286 12236722
0.43639126 -0.105358 0.16526213 11578792
0.42822221 -0.092368573 0.16266125 11052448
0.43148074 -0.095921509 0.16560182 11052705
0.42531142 -0.085104413 0.16464478 11118241
0.43000001 -0.089451469 0.16909571 11118241
0.41540003 -0.074072197 0.16319044 11315877
0.42125002 -0.078016564 0.16590449 11315877
0.39232007 -0.061594419 0.16690491 11776428
0.40502861 -0.066928081 0.16382013 11513256
0.38490298 -0.054538969 0.16519839 12039344
0.39042857 -0.059283555 0.16358575 11842222
0.37505987 -0.044408124 0.16507892 6514276
0.38058829 -0.049404118 0.16381399 12039856
0.36884996 -0.033211585 0.16905317 2304294
0.37127107 -0.035224032 0.16444485 2370088
0.36900005 -0.02896294 0.16900718 2501674
0.37424642 -0.025099417 0.16497606 7501172
0.38012505 -0.020566495 0.16194032 13619147
0.38266665 -0.01758888 0.16574875 13355977
0.39200002 -0.011802852 0.16929409 12895171
0.40605557 -0.0052928701 0.16342986 12632254
0.41181821 -0.0017066444 0.16593756 12369081
0.41540003 0.0040988983 0.16487144 11776943
0.4204286 0.0082916226 0.16842563 11645357
0.41824999 0.01151868 0.16166089 11316391
0.42324191 0.015756216 0.16519721 11382443
0.42684913 0.023747215 0.16393816 11447724
0.43050003 0.027122658 0.16755223 11447725
0.42866668 0.030579111 0.16087803 11776943
0.43305403 0.035218854 0.1648902 11908273
0.43413338 0.04180887 0.16259407 11645357
0.44126084 -0.1117328 0.17429663 11776171
0.43858832 -0.10337927 0.17295681 11710378
0.44094276 -0.1062113 0.17667454 11710378
0.43516901 -0.095011458 0.17502043 11447206
0.42780954 -0.082273282 0.17300488 11250083
0.43110421 -0.086215287 0.17586116 11381413
0.41650003 -0.072017603 0.17402418 11382183
0.42579171 -0.077904098 0.17454773 11381670
0.43000001 -0.079385094 0.1791621 11315620
0.39372879 -0.063587591 0.17489369 11447206
0.37844446 -0.05109863 0.1761205 12236722
0.38376391 -0.055277333 0.17448953 12039343
0.36825001 -0.040775958 0.17686893 2436394
0.37377974 -0.045331612 0.17473885 7763827
0.36758348 -0.034947809 0.17499389 2106916
0.36798507 -0.027754432 0.175383 2566440
0.3741447 -0.022753039 0.17503016 10461083
0.37869233 -0.019108078 0.17708161 13553357
0.38441235 -0.015444482 0.17555803 13092807
0.39086959 -0.011569115 0.17379428 12632513
0.38900003 -0.009891212 0.17938168 12632509
0.39140007 -0.0091726771 0.17640801 12566719
0.40799999 -0.003209644 0.17572647 12632256
0.41255006 -0.0014591959 0.17367588 12697792
0.41580555 0.0016804097 0.1743522 12435132
0.42285299 0.0070413207 0.17557764 11974579
0.42671934 0.013340292 0.17418803 11776942
0.43054172 0.017443389 0.17707877 11908528
0.42900002 0.020224895 0.17071107 11447978
0.43373331 0.025073931 0.17497021 11579565
0.43704343 0.03401788 0.17391767 11184550
0.44000003 0.035164155 0.17920847 10395545
0.44530436 -0.11135429 0.18486352 11315621
0.44368574 -0.10502017 0.18501626 11447206
0.43782505 -0.0932597 0.18401441 11381413
0.44080767 -0.0972578 0.18684229 11381413
0.43419117 -0.084965169 0.1849179 11315620
0.42900002 -0.076689735 0.18175834 11316390
0.43080002 -0.07867644 0.18433902 11447206
0.38630772 -0.061372075 0.18529731 11513513
0.39526093 -0.064051688 0.18210013 11381927
0.40000001 -0.067759953 0.18445414 11184804
0.37803707 -0.051929951 0.18527193 12236723
0.38227868 -0.056805424 0.18482375 11973807
0.36673909 -0.0416351 0.18518224 2501674
0.37378573 -0.046851382 0.18499461 10592410
0.36477759 -0.035054844 0.1852489 1646620
0.36637142 -0.026970582 0.18542223 2896431
0.37310946 -0.021858558 0.18467073 12566204
0.37793189 -0.018133797 0.18525416 13487308
0.38368335 -0.013858778 0.183952 12829891
0.38866666 -0.0095791835 0.18423384 12434877
0.39100003 -0.0071960525 0.18030395 12764095
0.41800001 0.002092489 0.18101205 12632256
0.42595124 0.0066390946 0.18527453 12237753
0.42999998 0.0091990242 0.18822183 12369339
0.42855555 0.01095198 0.18212797 11974579
0.43236992 0.015291734 0.18550183 12040117
0.43768883 0.023599762 0.18393812 12040116
0.44121739 0.027000505 0.18675645 12500667
0.44230002 0.030688873 0.18584539 10658461
0.44692525 -0.10481416 0.19488581 11315877
0.43900001 -0.090638578 0.19044852 11315620
0.44289562 -0.095251247 0.19506128 11578535
0.4381777 -0.084588975 0.19403812 11381413
0.44033337 -0.086577259 0.19794236 11381413
0.38500005 -0.061449859 0.19641843 11513257
0.37736848 -0.053061832 0.19531038 12236981
0.38131705 -0.057597484 0.19403844 11973552
0.35900003 -0.040224135 0.19874442 2173475
0.36460009 -0.042603903 0.19498639 3817275
0.37283638 -0.047777947 0.19487192 11579050
0.35856134 -0.034690768 0.19745952 2107171
0.36117765 -0.034993403 0.19259913 1909534
0.35879999 -0.028693985 0.19829705 2303778
0.36257493 -0.02585141 0.19460298 4803142
0.37300003 -0.020686666 0.19445452 13158598
0.37724623 -0.01752213 0.19553109 13290186
0.38344997 -0.012988226 0.1946914 12764098
0.38769999 -0.0096764937 0.19574521 12369597
0.42611113 0.0067941896 0.19317132 12303290
0.43000004 0.008975327 0.19683416 12237753
0.43443522 0.014779435 0.19490792 12303290
0.44000003 0.019713435 0.19980943 12566206
0.43900007 0.02110742 0.19288075 12303289
0.44170776 0.025301391 0.19514152 11447979
0.44420004 0.030508528 0.19360556 10329495
0.44880652 -0.10322694 0.20302975 11053219
0.45000002 -0.10309312 0.20751093 11119013
0.44620541 -0.094706617 0.20511962 11710379
0.45000002 -0.099932753 0.20961785 11118241
0.43900001 -0.081046641 0.20038301 11184804
0.44213209 -0.086198688 0.20501894 11315878
0.37866667 -0.060156997 0.2083015 11448237
0.38493752 -0.061833724 0.20316322 11513770
0.391 -0.064253688 0.20471375 11382183
0.37671694 -0.054523014 0.20550303 12171445
0.38076472 -0.058865633 0.20269048 11776941
0.35900003 -0.040224135 0.20168591 1647392
0.36300001 -0.042907543 0.20246375 3422262
0.37277269 -0.048335347 0.20483877 11579308
0.3581799 -0.034851715 0.20156042 1646877
0.35863158 -0.027942043 0.20156665 1712411
0.36160001 -0.023723463 0.2021973 7105640
0.37100002 -0.020724252 0.20191363 12829375
0.3772642 -0.017052257 0.20454893 13224906
0.38187099 -0.012473213 0.205198 12698564
0.3869375 -0.008363001 0.20582592 12172220
0.39280769 -0.0053839688 0.20567869 12106169
0.40400001 -0.0018307298 0.20717353 12106425
0.4086 0.00032384854 0.20793231 12304061
0.41344002 0.004437462 0.20787932 11975096
0.42000002 0.0089850938 0.20940851 11711407
0.43550003 0.0093166865 0.2084714 12632256
0.43683925 0.01397211 0.20513396 12369339
0.44084212 0.018828927 0.20556967 12566460
0.44341531 0.023687294 0.20524058 11052965
0.44717544 -0.094206788 0.21397479 11316134
0.44452283 -0.086963691 0.21475762 11381671
0.37800002 -0.060051087 0.21059027 11513775
0.37599993 -0.055100691 0.21131419 11974326
0.37400001 -0.049346901 0.21055067 11447983
0.37846157 -0.01630055 0.21125619 13093319
0.38142312 -0.012202902 0.21235916 12567232
0.38676751 -0.0071949204 0.2130705 11711669
0.39400002 -0.003737865 0.21081802 11645619
0.40350002 -0.0010485866 0.2125117 11842740
0.40768176 0.001218501 0.21272182 11777204
0.41293943 0.0056166365 0.21221052 11317168
0.43575001 0.0093220342 0.21164991 12632255
0.42900002 0.011186225 0.21389583 12040372
0.4374038 0.014954791 0.2130602 12105912
0.44050002 0.018963303 0.21086338 12894658
0.44275004 0.021391666 0.21090457 11579307
0.44788891 -0.091775 0.22179931 10592669
0.44711113 -0.088126898 0.22164744 11513770
0.79200006 0.15970796 0.29569101 10658719
0.78883338 0.15445291 0.30558896 10395546
0.79027271 0.15818276 0.3055582 10461593
0.79346424 0.16538046 0.30519286 10592923
0.78885716 0.14430104 0.31654626 10527133
0.79000002 0.14672871 0.31843174 10461340
0.78900003 0.15233044 0.31088671 10329754
0.79100007 0.15530716 0.31554434 10461338
0.7937308 0.16570576 0.31527534 10592923
0.78871429 0.13622917 0.32624939 10527385
0.78900003 0.14165853 0.32402137 10461338
0.79037505 0.14608212 0.32619259 10527131
0.79224998 0.15479316 0.32466528 10461339
0.78900003 0.13509119 0.3305887 10592924
0.7906087 0.13552815 0.33528814 10461339
0.79140007 0.14476685 0.33530113 10461338
0.7936666 0.15440409 0.33515868 10461338
0.79228562 0.13609555 0.34512562 10395545
0.7920385 0.14474024 0.345054 10395545
0.79279983 0.15504532 0.34498522 10461338
0.79334146 0.19476229 0.34489766 10526875
0.79232347 0.20461595 0.34496003 10395289
0.79072726 0.12815104 0.35655344 10395545
0.79127592 0.13560914 0.35479051 10395545
0.7918275 0.14497232 0.355104 10395545
0.79223323 0.15511911 0.35419986 10395545
0.79203558 0.16547616 0.35470676 10395545
0.79137158 0.17519432 0.35487154 10395802
0.79020011 0.18524265 0.35513914 10527387
0.7904802 0.19456278 0.35526615 10395801
0.79204172 0.20460458 0.35473275 10329495
0.78900003 0.12816469 0.36568287 10329754
0.79000002 0.12733637 0.36139074 10395547
0.78900003 0.13139705 0.3656829 10198168
0.79044467 0.13527124 0.36504915 10263961
0.79263991 0.14499414 0.36551479 10329754
0.7937308 0.16491519 0.36501849 10395547
0.79163343 0.17538407 0.36505091 10395547
0.79020017 0.18524328 0.36438996 10461339
0.79123998 0.19475023 0.36486971 10330266
0.78900003 0.11846761 0.37307113 10395545
0.79000002 0.11861777 0.3772428 10132373
0.78900003 0.12437822 0.37233233 10395545
0.79010528 0.12564321 0.37700129 10263959
0.78900003 0.13139705 0.37122408 10329752
0.79109097 0.13570343 0.37490237 10329495
0.7930401 0.14506759 0.37498218 10395545
0.79311997 0.17478533 0.37502128 10461339
0.79216671 0.18477711 0.37457129 10526875
0.79312003 0.19521286 0.3750222 10461339
0.79140002 0.11697529 0.38532344 10132373
0.79187995 0.12446248 0.38555786 10329753
0.79279393 0.13503182 0.38534677 10263960
0.79299992 0.1450582 0.38517272 10263960
0.79247373 0.11625649 0.39492646 10132887
0.79327291 0.12451232 0.39501363 10132888
0.79293329 0.1348355 0.39534977 10264218
0.79275995 0.14501515 0.39526296 10132889
0.79378569 0.15469466 0.3951762 10132888
0.79237497 0.10784517 0.40712902 10066582
0.79329997 0.13489491 0.40481931 10263961
0.79246151 0.14488973 0.40460443 10198167
0.79307413 0.15476763 0.40490913 10264217
0.79339272 0.16496348 0.40466553 10198681
0.79332161 0.17503078 0.40542397 10330010
0.79355562 0.106767 0.41485798 10066582
0.79299992 0.14512222 0.41503564 10198166
0.7929998 0.15526855 0.41487572 10198166
0.79269987 0.1654152 0.41471818 10263960
0.79100013 0.17511208 0.41517535 10329753
0.79169697 0.18525881 0.41449943 10263961
0.79307139 0.19500141 0.41458115 10329496
0.78900003 0.13878532 0.42848301 10329752
0.7923243 0.13450499 0.42486906 10132374
0.78900003 0.14432651 0.42848301 10198166
0.79144007 0.14477284 0.42424655 10198167
0.792059 0.15486863 0.42523277 10198167
0.79267997 0.165411 0.42491505 10198166
0.79092878 0.17522891 0.42490229 10198168
0.79133344 0.18558748 0.42473325 10263961
0.78900003 0.12908822 0.43818015 10263959
0.791219 0.12475982 0.43437386 10132375
0.78892291 0.13543285 0.43554464 10132374
0.79000002 0.13295065 0.43133783 10198167
0.78874981 0.14480092 0.43429083 10132373
0.79103577 0.15581284 0.43487886 10198166
0.79296654 0.16547179 0.43527827 10132630
0.79196966 0.17509428 0.43509585 10132888
0.79103351 0.18537645 0.43427616 10067096
0.79169995 0.19486347 0.43457824 10197914
0.792 0.10816413 0.44364637 10132374
0.79108012 0.11507512 0.44442704 10066837
0.78900003 0.12788764 0.4443678 10066838
0.79005557 0.12304427 0.44364682 10066837
0.78900003 0.13401373 0.44310561 10132373
0.79012501 0.13690262 0.44643503 10132374
0.78900003 0.14063238 0.44141248 10198166
0.79125005 0.14501737 0.44498911 10132373
0.79240012 0.15467003 0.44457826 10066837
0.79373914 0.16563293 0.44543767 10132630
0.79179996 0.17541981 0.44483197 10198166
0.78900003 0.18680896 0.44537047 10132117
0.79005557 0.18448988 0.44303051 10132117
0.78900003 0.19342761 0.44526049 10066325
0.79000002 0.19629274 0.44262463 10197910
0.79165006 0.20467341 0.44437638 10131862
