# .PCD v0.7 - Point Cloud Data file format
VERSION 0.7
FIELDS x y z rgb
SIZE 4 4 4 4
TYPE F F F U
COUNT 1 1 1 1
WIDTH 787
HEIGHT 1
VIEWPOINT 0 0 0 1 0 0 0
POINTS 787
DATA ascii
0.55050004 -0.13062721 0.039280836 14079440
0.55200016 -0.12501109 0.038326945 14211282
0.54900002 -0.110351 0.039816998 14935005
0.55104351 -0.11547602 0.038618505 14343126
0.54900002 -0.10649534 0.039816998 14671577
0.55000001 -0.10862066 0.037958182 12632252
0.5351429 -0.1311862 0.048109841 13947596
0.54300004 -0.1307521 0.044206206 13882317
0.53633326 -0.12522632 0.04832837 14145489
0.54486483 -0.12527175 0.04354281 14211282
0.55049998 -0.12192801 0.040891454 14343125
0.53762507 -0.116476 0.048665401 14277332
0.54510212 -0.11456303 0.04454951 14408918
0.55000001 -0.11827735 0.041177083 14343125
0.54596829 -0.10521374 0.045531739 14606040
0.54726994 -0.095318899 0.045522407 14342869
0.54797834 -0.0857713 0.046767171 14145489
0.55000001 -0.081581891 0.045039762 13224389
0.5485 -0.077265695 0.0478849 13882318
0.55028576 -0.073801436 0.046811733 11711150
0.54785717 -0.062302642 0.048345041 10724510
0.55075002 -0.067511559 0.048324469 10724511
0.54554552 -0.057643238 0.048506796 10658717
0.51780009 -0.13317221 0.058766373 13684938
0.52367854 -0.13310435 0.055006415 13619146
0.53050005 -0.13084909 0.050894357 14276305
0.51722217 -0.12468144 0.05849833 13882317
0.52433336 -0.12546767 0.054823417 14013903
0.53128582 -0.12429047 0.051502317 14211283
0.51660001 -0.11604501 0.05886979 13948110
0.52457142 -0.11484043 0.05603788 14145489
0.53317147 -0.11447283 0.052071348 14211539
0.51900005 -0.10918085 0.059510998 13948110
0.52487105 -0.10553549 0.058196899 14013903
0.53447729 -0.1050401 0.053739309 14211539
0.54124999 -0.10340419 0.050816622 14343125
0.52761543 -0.095883399 0.058883034 13948367
0.53452373 -0.094954215 0.055798896 14145746
0.54313046 -0.094462678 0.051992998 14408918
0.52900004 -0.088993348 0.059419248 14014160
0.53541672 -0.085122548 0.057939246 14145745
0.5436843 -0.084527351 0.053258806 14408661
0.53764713 -0.076005459 0.058685433 14079952
0.54522234 -0.074604698 0.05390285 14277332
0.55000001 -0.070637636 0.050190002 14474711
0.53900003 -0.069224887 0.059280675 14145746
0.54555386 -0.064836994 0.055194799 14145746
0.55000001 -0.067418739 0.050190002 14408919
0.54562968 -0.055504795 0.056221195 13948366
0.54676193 -0.045687061 0.056777824 13224642
0.5464167 -0.036707498 0.058070421 12829885
0.54700005 -0.027994627 0.058880001 9803410
0.55385715 -0.015375992 0.059618115 9934994
0.49627277 -0.13265042 0.06751287 13750731
0.50442106 -0.13239957 0.063362867 13750731
0.5124445 -0.13245867 0.060623534 13684938
0.48900002 -0.12233068 0.069808148 13882317
0.4953334 -0.12481526 0.068061404 13882060
0.50361115 -0.12486674 0.064192362 13882317
0.51134795 -0.12505795 0.061077397 13882317
0.4958275 -0.11546301 0.06869635 13816524
0.50442225 -0.11508472 0.064968877 13816524
0.51200008 -0.11409525 0.061302382 13882317
0.49811113 -0.10737696 0.069423817 13816781
0.50431705 -0.10531212 0.067062803 13750731
0.51420933 -0.104922 0.063011743 13816524
0.52171427 -0.10189638 0.060693085 13816524
0.50567853 -0.095593281 0.068465061 13750731
0.51455808 -0.094853349 0.065042585 13750731
0.52315992 -0.094622284 0.061307687 13816781
0.50700003 -0.08924783 0.069606788 13684938
0.51476604 -0.085209787 0.067092173 13684938
0.52417135 -0.085022137 0.062621512 13750988
0.53075004 -0.082453139 0.060858309 13882574
0.51665002 -0.076994471 0.068551064 13487559
0.52433336 -0.074830264 0.06593769 13685193
0.53290915 -0.074220523 0.061931547 13882828
0.52478582 -0.065333031 0.06841889 13487559
0.5346604 -0.064907111 0.063798591 13882829
0.54000002 -0.061768416 0.060654804 14211538
0.52643752 -0.056206897 0.06914176 13421766
0.53531909 -0.054697484 0.065477155 13751242
0.54106659 -0.054627039 0.061364554 13948621
0.52900004 -0.049364589 0.069326438 13619145
0.53553486 -0.045187782 0.067374818 13553864
0.54344124 -0.044048205 0.062570222 13751242
0.53799999 -0.035017211 0.068615265 13356229
0.54405463 -0.034768309 0.063580245 13553863
0.53900003 -0.028216103 0.069375142 13290437
0.5452131 -0.025136784 0.065289788 13290436
0.55075008 -0.02125567 0.06202323 11185061
0.54783326 -0.015743226 0.068694688 13158851
0.55250001 -0.014419263 0.064368382 11645868
0.54900002 -0.0056056534 0.069377035 13027265
0.55223531 -0.0065183602 0.066125907 11974576
0.55188894 0.0041990755 0.069598526 12237749
0.55200005 0.010516739 0.069756143 9869201
0.47731254 -0.13449138 0.078753412 13816012
0.4838261 -0.13407883 0.075286977 13750732
0.49142858 -0.13386711 0.071139254 13750731
0.47581258 -0.12463601 0.078537971 13816012
0.48354387 -0.1247976 0.073843203 13816526
0.49116668 -0.12842989 0.070499815 13882318
0.47566673 -0.11514011 0.078263499 13816526
0.48342869 -0.1150526 0.07350903 13882318
0.49175003 -0.11332721 0.070679657 13882317
0.4750233 -0.10484149 0.077786818 13750733
0.48417658 -0.10521948 0.074313819 13685195
0.49405885 -0.10460382 0.071612075 13619402
0.5 -0.10050181 0.070207961 13816524
0.47612503 -0.09699627 0.07832361 13619403
0.48402387 -0.094373144 0.076535679 13553609
0.49507698 -0.095020197 0.073223241 13619402
0.50164288 -0.094116151 0.070857517 13750731
0.48558626 -0.086111158 0.078762785 13487816
0.49461356 -0.08494208 0.075758807 13422023
0.50394595 -0.084838495 0.072030351 13553609
0.51000005 -0.082215227 0.070418209 13619145
0.48740005 -0.075606123 0.07973437 13487816
0.49471426 -0.074996702 0.076946281 13356230
0.50470012 -0.075017378 0.073067151 13290437
0.5125556 -0.074018747 0.070834137 13356230
0.48733336 -0.064868599 0.079837918 13356230
0.49397492 -0.065144852 0.077562734 13290438
0.50416011 -0.064891145 0.074234597 13224644
0.51464516 -0.064849943 0.071518123 13224644
0.48800004 -0.059247602 0.079947144 13356230
0.49520001 -0.055875208 0.077574581 13158853
0.50386673 -0.054802798 0.074401811 13158851
0.51489478 -0.054581612 0.072104506 13158851
0.52278578 -0.053760689 0.070695549 13158851
0.49681824 -0.048155978 0.079062894 13158853
0.50491667 -0.045933235 0.077837609 13093060
0.51405412 -0.045006663 0.075491451 13093058
0.52422577 -0.044484355 0.07249511 13158851
0.53060001 -0.042309176 0.071026407 13422023
0.509 -0.039157204 0.07981275 13093060
0.5153572 -0.035937753 0.078174837 12961474
0.52503228 -0.034996711 0.075144432 13027265
0.53306663 -0.034598157 0.071642384 13224644
0.51800001 -0.027722513 0.079101264 12895681
0.5251112 -0.02518929 0.077917367 12895681
0.5341875 -0.025122203 0.073485501 13093058
0.54149997 -0.021055875 0.070646197 13224644
0.52629173 -0.015229325 0.078824446 12895681
0.53402567 -0.015565564 0.075039983 12961730
0.54420835 -0.014469129 0.071316488 13159108
0.5266667 -0.0074308836 0.079087414 12895681
0.5341143 -0.0054352661 0.076632991 12829888
0.54500008 -0.0045784977 0.07257545 12830400
0.53640914 0.0034908692 0.078569919 12698559
0.54532504 0.0048049507 0.074999616 12764607
0.55078584 0.0052457107 0.071444236 12896446
0.53866673 0.011524521 0.07942047 12632509
0.5457955 0.014873384 0.076773986 12764865
0.55084211 0.014565585 0.072458968 12567228
0.54758823 0.024083367 0.076849133 13027781
0.55050004 0.028691916 0.07633213 12896194
0.54900002 0.031023083 0.079658784 13159623
0.55242866 0.034729581 0.077937976 12764865
0.55236363 0.042732034 0.078148052 11382442
0.46505889 -0.14176007 0.087770477 13354948
0.45900002 -0.1314809 0.089165039 13881547
0.46506253 -0.13510346 0.086519971 13881547
0.4721213 -0.13485159 0.081359357 13816267
0.4578214 -0.12456083 0.088589311 13881548
0.46464908 -0.1252237 0.084601626 13816011
0.47094131 -0.12533829 0.080977008 13816524
0.45579171 -0.11466822 0.087843478 13882061
0.46455315 -0.11526053 0.083615899 13882061
0.47042868 -0.11587566 0.080843881 13948111
0.44900006 -0.1044407 0.089324668 13750731
0.45492595 -0.10526328 0.087021858 13750733
0.46483675 -0.10497881 0.082960181 13750733
0.47009096 -0.1045936 0.080414675 13816783
0.45554352 -0.095961459 0.088276103 13750732
0.46457699 -0.094947353 0.084841557 13619147
0.47291434 -0.094099492 0.081456177 13553611
0.4579334 -0.086755246 0.089313827 13684940
0.46449998 -0.085012265 0.087026745 13553611
0.47402135 -0.084865041 0.083290778 13422024
0.4815 -0.08367487 0.080852821 13356231
0.4641628 -0.07484597 0.08808668 13356232
0.47442439 -0.074931689 0.084648319 13356231
0.48302862 -0.07492394 0.081841797 13422023
0.46444118 -0.065402202 0.088808537 13158853
0.47402173 -0.064882085 0.08601813 13224389
0.48302442 -0.064654104 0.082297042 13290437
0.46517396 -0.055717826 0.089318968 13093060
0.47420451 -0.055022381 0.086583264 13092803
0.48422912 -0.055030938 0.082507201 13093060
0.49080005 -0.052691378 0.080405854 13093060
0.46764287 -0.046372242 0.089278854 13093060
0.47379559 -0.044813916 0.086937793 13093060
0.48437038 -0.044404719 0.083587684 13158853
0.49343997 -0.044654179 0.081572682 13158853
0.50280005 -0.041267533 0.080486774 13027267
0.47556248 -0.038040984 0.088552259 12961474
0.48446882 -0.035458516 0.087337889 12895681
0.49533331 -0.033812318 0.085692376 12961474
0.50425011 -0.034658138 0.082504444 12961474
0.5110001 -0.033329472 0.080425128 12961474
0.48700005 -0.028914185 0.089472793 12829888
0.49522224 -0.02517831 0.08836934 12895681
0.50472963 -0.025287678 0.084819809 12895681
0.51381814 -0.02439638 0.081691377 12895681
0.52100003 -0.02117547 0.080474719 13093060
0.49833336 -0.016363243 0.08941707 12829888
0.5041163 -0.015176966 0.086888634 12829888
0.51440001 -0.014767129 0.083162054 12829888
0.521909 -0.014270342 0.080947354 12829888
0.50626665 -0.0071805636 0.088704839 12698302
0.51474422 -0.0052416697 0.086055338 12698302
0.5237667 -0.0043228343 0.082081549 12764095
0.51585716 0.0041751862 0.088230953 12500923
0.5244053 0.0047134007 0.084443934 12632509
0.53215009 0.0057819216 0.081321314 12632509
0.51800007 0.013508374 0.089409061 12632509
0.52472228 0.014807572 0.086979598 12763838
0.53434211 0.014856813 0.082757242 12764095
0.54175001 0.018565349 0.080507733 12895680
0.52635002 0.024940923 0.088938437 12829888
0.53481573 0.024257075 0.085629627 13027267
0.54375857 0.025770001 0.082010359 13158852
0.45900002 0.039906185 0.089165039 11382183
0.46125001 0.037127249 0.08933261 11316390
0.52600002 0.034648895 0.089866661 12829631
0.53392309 0.034690358 0.088134214 12961473
0.5451622 0.034909952 0.08433637 13224646
0.55108339 0.036839243 0.081142299 13290695
0.45550007 0.047134284 0.089469023 11579562
0.46100003 0.047099609 0.08793357 11382183
0.5361501 0.044359095 0.088960923 12895679
0.54494452 0.044895101 0.085794367 13290439
0.55144447 0.045074407 0.081589937 13290438
0.44833335 0.056477141 0.089540862 12894908
0.4552353 0.055780657 0.088456713 12105906
0.46262068 0.055116963 0.08602006 11513769
0.53850007 0.051230863 0.089481004 13093058
0.54591179 0.054569419 0.087173097 13421768
0.55127591 0.0547795 0.082746401 12961216
0.44783345 0.065735549 0.08891543 13882059
0.4536227 0.064512216 0.085850276 12632250
0.46000001 0.060453627 0.083974957 11447976
0.54868424 0.06325338 0.085222781 12829629
0.55048484 0.066098832 0.085537367 13027009
0.44710007 0.071317151 0.088419951 14144974
0.45080003 0.071275041 0.085671209 13289668
0.55205882 0.072553597 0.085273504 12171699
0.44752187 -0.14256197 0.098546527 13881548
0.4551 -0.14181131 0.09404178 13815754
0.46160001 -0.14281715 0.091073319 13223362
0.44648209 -0.13480283 0.09734571 13881547
0.4548367 -0.13479406 0.092538901 13881548
0.46025002 -0.13830398 0.090754531 13881548
0.43850008 -0.12289769 0.099039719 13881547
0.44454408 -0.12508586 0.095767848 13815755
0.45310357 -0.12575017 0.091380388 13881548
0.43673816 -0.11468396 0.098272197 13816268
0.44428357 -0.11469256 0.093696021 13881805
0.45190001 -0.11717888 0.090534851 13947342
0.43579665 -0.10476767 0.097788341 13684940
0.44381812 -0.10499477 0.092531241 13684940
0.43495384 -0.095175833 0.098063134 13684940
0.44425011 -0.095010504 0.093045451 13619147
0.45150003 -0.091278113 0.090613298 13619146
0.43606246 -0.08532653 0.09837658 13487561
0.44414291 -0.084930509 0.094352752 13487561
0.45356673 -0.084329814 0.091041438 13553354
0.43722871 -0.075395316 0.098881699 13290182
0.44442308 -0.07504005 0.095826522 13224389
0.45474559 -0.075026833 0.09194763 13355975
0.43785718 -0.065606996 0.099406943 13290182
0.44465512 -0.065073706 0.097188666 13158596
0.45432821 -0.065078802 0.092564814 13224389
0.46000001 -0.061232489 0.090436161 13093060
0.43695244 -0.055139933 0.099541411 13092547
0.44483918 -0.055064015 0.097280867 13092803
0.45475852 -0.054875627 0.093193077 13027268
0.46080002 -0.054428995 0.09048482 13027267
0.43900001 -0.048160028 0.09966775 13224389
0.44468182 -0.045398384 0.098511979 13290439
0.45545095 -0.045589257 0.09500961 13224390
0.46331704 -0.044286616 0.091531262 13093061
0.44676924 -0.037826777 0.099336773 13224389
0.45623812 -0.035172381 0.097876608 13158598
0.46394116 -0.035031863 0.094351694 13027267
0.47364289 -0.033895932 0.091885231 12961474
0.48087502 -0.031505331 0.090740144 12895681
0.45816672 -0.027467214 0.09945932 12960964
0.46458969 -0.025196191 0.097773612 12829634
0.47512001 -0.025342876 0.095313318 12764095
0.48347831 -0.024321789 0.092534035 12895681
0.49075001 -0.022241654 0.09073735 12895681
0.46754548 -0.0174562 0.099281043 12763838
0.47424999 -0.015387618 0.09773384 12698045
0.48479423 -0.015261941 0.094569623 12698302
0.49352783 -0.014277713 0.091919057 12764095
0.5 -0.010372621 0.090106614 12764095
0.43500003 -0.00087743811 0.099777959 10987682
0.47706252 -0.0061242268 0.098954074 12040372
0.48363897 -0.0056275404 0.097120576 12171958
0.4953461 -0.0051494269 0.094074383 12500666
0.50340003 -0.0039333459 0.091515295 12500924
0.43449998 0.0053099059 0.099238753 10987682
0.47574085 0.0054355245 0.098847874 11447977
0.48407695 0.0051206602 0.097171083 11645357
0.49512002 0.0038632136 0.095943086 11974323
0.50442505 0.0048276959 0.093434587 12237498
0.51164711 0.0069330647 0.091146171 12500412
0.42762503 0.016278664 0.099712156 11777198
0.43433332 0.014847589 0.099279188 11316647
0.44542858 0.018014943 0.098442778 11316389
0.45250002 0.018683925 0.098495454 11250851
0.46516669 0.019388773 0.097434796 11185058
0.47463161 0.01225508 0.098395959 11250597
0.48433337 0.011121432 0.096728504 11645357
0.49625006 0.01595013 0.098142527 11711149
0.5047577 0.015629398 0.095466845 11842738
0.51356256 0.015198614 0.091943711 12303289
0.52000004 0.019037044 0.0900589 12698302
0.42719051 0.025426388 0.099318221 12566714
0.43363634 0.024903327 0.097949773 11974319
0.44526097 0.025570028 0.097004712 11448231
0.45458829 0.026125113 0.096190229 11316389
0.4646087 0.024974139 0.095545791 11250852
0.4729231 0.024936466 0.094848402 11250852
0.48625004 0.025770584 0.095593996 11447976
0.49581823 0.022735255 0.097266287 11645355
0.50416136 0.023961267 0.095380299 11842734
0.51404548 0.024121718 0.092739627 12171701
0.52242863 0.025768757 0.091002718 12566716
0.42794999 0.033902425 0.099462003 13487559
0.43273333 0.035460312 0.09647847 12829628
0.44405264 0.034661036 0.094406769 11776941
0.45635715 0.035425909 0.09271352 11382183
0.46184617 0.032664362 0.091047272 11250597
0.51638472 0.034701061 0.094386801 11908527
0.52390474 0.03544483 0.091081962 12369080
0.42900002 0.041817274 0.099406004 14276305
0.43364772 0.045210972 0.096023895 13750218
0.44383872 0.045419127 0.091811456 12303286
0.45452634 0.042371191 0.09109018 11579562
0.51713341 0.041894127 0.09496782 11711148
0.52473342 0.044680759 0.092550702 11974577
0.53170007 0.048218813 0.091086313 12303542
0.4351851 0.054578193 0.096397452 14473684
0.44358692 0.055383973 0.091376677 13420998
0.53553855 0.053024296 0.091974229 12171699
0.54277778 0.056793861 0.09103746 12566457
0.43745905 0.064597525 0.097146049 14803164
0.44264001 0.064904884 0.092094466 14473428
0.54700005 0.061003856 0.090893418 12500665
0.55140007 0.066013649 0.090333723 13027010
0.43891314 0.071888782 0.09750323 14342355
0.44163635 0.071996979 0.092506878 13552325
0.55300003 0.071381196 0.090595841 12698045
0.43806455 -0.1433998 0.10785583 14276047
0.44239137 -0.14410073 0.10328984 14144717
0.43556565 -0.13458963 0.10625622 14276305
0.44162071 -0.13593298 0.10175705 14144718
0.42829999 -0.12128355 0.10836698 14144719
0.43318078 -0.12540109 0.10459683 14078926
0.42637503 -0.11437383 0.10651192 14144719
0.43139035 -0.11577689 0.10177884 13947597
0.42414132 -0.10481219 0.10539569 14013133
0.43052629 -0.106272 0.10081953 13684940
0.41769698 -0.094065487 0.10819263 14079183
0.42389765 -0.095271491 0.10358579 13750476
0.43000001 -0.091968067 0.10064436 13684940
0.41616666 -0.084741764 0.10769308 13750732
0.4243142 -0.085071169 0.10333177 13487561
0.43099993 -0.084331475 0.10054091 13553354
0.41552061 -0.075043239 0.10794444 13619146
0.42353857 -0.074869975 0.10379148 13290182
0.43215156 -0.074813172 0.10120551 13421768
0.41531044 -0.065238483 0.10854658 13421768
0.42339402 -0.064810738 0.10471862 13093060
0.43260878 -0.065203175 0.10133662 13290182
0.41500005 -0.054888435 0.10857144 13290182
0.4235867 -0.055141564 0.10443196 12961219
0.43196675 -0.05480307 0.10106735 13027011
0.41503635 -0.045205895 0.10835087 13092803
0.42377201 -0.045357052 0.10490219 13027269
0.43471149 -0.044690363 0.10220745 13224391
0.44083333 -0.041136768 0.100599 13224391
0.41691664 -0.036013301 0.10900784 12435131
0.42310265 -0.035445817 0.10745466 12566716
0.43599999 -0.035131022 0.10519763 12829888
0.44334096 -0.03421599 0.10198972 13092804
0.45166668 -0.030869842 0.10077994 13027010
0.41887507 -0.024990758 0.10980761 11777200
0.42443246 -0.024913752 0.10889523 11908786
0.43538296 -0.02501351 0.10703438 12106165
0.44435191 -0.025320444 0.10397361 12500666
0.45446876 -0.024813604 0.10137849 12763839
0.46033335 -0.021403082 0.10020053 12829378
0.4149231 -0.013693331 0.10873903 11908528
0.42400005 -0.014865965 0.10691077 11447976
0.43397376 -0.015339968 0.10490817 11513770
0.44436836 -0.016992683 0.10411114 11842734
0.45647067 -0.015563402 0.10381745 12040115
0.46397504 -0.014345763 0.10215496 12237494
0.47025001 -0.011681523 0.10043244 12435130
0.41440794 -0.005047672 0.10734701 11974322
0.42446873 -0.0055161389 0.10452911 11382183
0.43355173 -0.0051115984 0.10262671 11250597
0.44200003 -0.007791318 0.10276244 11250854
0.45450002 -0.0088973027 0.10425076 11119268
0.46562502 -0.0062478352 0.10332007 11447977
0.47235993 -0.0052421037 0.10069171 11777200
0.41452268 0.0049866429 0.1071979 12369080
0.42334789 0.0056078862 0.10325847 11645356
0.43179998 0.0041460521 0.10113067 11184804
0.46900001 0.00015191798 0.10208701 11316390
0.472 0.0039903694 0.10098316 11185060
0.41529998 0.015205351 0.10740026 13158851
0.42284605 0.015057643 0.10223475 12303285
0.43225002 0.011276237 0.10040723 11250854
0.44200003 0.015147926 0.10034885 11119011
0.47275001 0.011771605 0.10068984 11053472
0.41629693 0.024484912 0.10737266 13750732
0.42248398 0.025341611 0.10235571 13355973
0.41756758 0.034246359 0.10811517 14013903
0.42310965 0.035590366 0.10359694 13948110
0.41866669 0.041463945 0.10942603 14211282
0.42446443 0.044970252 0.10488353 14473684
0.42999998 0.048457894 0.10064436 14605270
0.42636481 0.054403473 0.10673094 14736856
0.43063414 0.056154512 0.10211876 14802649
0.428 0.062261134 0.1085436 14933980
0.43297794 0.065538697 0.10448072 14802650
0.43635568 0.072647832 0.10450685 13815756
0.4362759 -0.1435359 0.11431272 13552069
0.43303511 -0.13475484 0.1149388 13486533
0.42777094 -0.1228934 0.11518457 13486532
0.43002868 -0.12765472 0.11500349 13486533
0.42389011 -0.11496018 0.1148709 13420740
0.41818753 -0.10204777 0.11519579 12565431
0.42067248 -0.10669942 0.11453986 13025982
0.41450503 -0.094768278 0.11481392 13355203
0.40776283 -0.08361531 0.11619327 13486789
0.41143999 -0.086746387 0.11284313 13816267
0.40488791 -0.07455644 0.11519997 13947854
0.41064289 -0.075674161 0.11073919 13816524
0.39847377 -0.062814258 0.11903992 14342869
0.40389839 -0.065128297 0.11460096 13948111
0.41100001 -0.064652205 0.11062966 13487561
0.39762786 -0.054900263 0.11863089 14408663
0.40453941 -0.054969899 0.11421008 13750733
0.41080004 -0.055165995 0.11057583 13355975
0.39714295 -0.044960923 0.11851885 14211027
0.40406814 -0.045098368 0.11415267 13619147
0.41111115 -0.043704733 0.11071198 12961217
0.39791667 -0.035501599 0.11906084 13948112
0.40371451 -0.03499214 0.11476415 13158596
0.41326186 -0.034391019 0.111072 12500667
0.39748839 -0.024887146 0.118654 13882061
0.40384957 -0.025099345 0.11454339 12961215
0.41390693 -0.024947213 0.11102324 11777200
0.42000002 -0.024444643 0.11010253 11711407
0.39745471 -0.014757204 0.11861153 13487559
0.40421242 -0.014849472 0.11384023 12961216
0.41245452 -0.017515121 0.11040337 12040115
0.39813045 -0.0052194498 0.11891561 13092802
0.40391231 -0.0051033334 0.11395644 12698047
0.41 -0.001786828 0.11036048 12500666
0.39840001 0.0014360397 0.11926834 13092802
0.4043957 0.0050215698 0.11509451 12961218
0.41000003 0.0049318937 0.1103605 12632509
0.40537962 0.014817493 0.11572688 13553611
0.41074997 0.0150396 0.1110425 13290439
0.40753549 0.02402843 0.11686826 14013905
0.41183051 0.025740486 0.11259703 13816782
0.40900001 0.031090885 0.11934692 13948112
0.41354981 0.035007264 0.11474826 14079697
0.41667673 0.04445783 0.11502802 14342869
0.42039999 0.047573864 0.11069924 14539733
0.41846672 0.05081594 0.11727563 14473942
0.42191681 0.055536821 0.11448729 14736857
0.42597529 0.064386636 0.11482533 14671065
0.43000004 0.069022052 0.11171737 14605271
0.42900002 0.070439726 0.1159769 13749963
0.43084618 0.071364306 0.11232168 14210514
0.43642855 -0.14114307 0.12368036 12499895
0.43393749 -0.13481091 0.12474171 12565688
0.42840001 -0.12217484 0.12361816 12631480
0.43029636 -0.12600231 0.12602855 12499894
0.42555547 -0.11487705 0.12490838 12565430
0.41863641 -0.10107554 0.12328847 12039342
0.4218508 -0.10577304 0.12485813 12105391
0.41451138 -0.094986416 0.12499443 12039342
0.40704364 -0.08368735 0.12478473 12434100
0.41061109 -0.088729568 0.12595879 12039343
0.40196887 -0.074876882 0.12498081 12302515
0.39633912 -0.064755537 0.12474232 13815756
0.40000001 -0.069164567 0.12077846 13882319
0.38900003 -0.051326059 0.1292956 15131614
0.39272058 -0.054982103 0.12494079 14671321
0.38899997 -0.045406796 0.1292956 14605783
0.3925603 -0.044903982 0.12449133 14474199
0.38899997 -0.03538958 0.1292956 14079697
0.39290908 -0.034824975 0.12460109 13948113
0.38899997 -0.024664076 0.12894143 13750733
0.39287806 -0.024832325 0.12423097 13684940
0.38871431 -0.01602586 0.12916742 13684940
0.39283761 -0.014852667 0.12414314 13619146
0.39387918 -0.0054343706 0.1250156 13356230
0.39722213 0.0043031359 0.12521526 13158851
0.40007147 0.008358269 0.12173628 13355975
0.40209916 0.015066387 0.12456624 13290181
0.40687779 0.025021641 0.12472221 13158595
0.4104 0.029532379 0.12891491 12698043
0.40899998 0.031130783 0.12217945 13355974
0.41232145 0.035681441 0.125064 12829374
0.41626513 0.044732142 0.12469364 13158340
0.42033339 0.049008805 0.12855832 12434873
0.41850004 0.050871436 0.12244611 13750476
0.42188409 0.055478692 0.12531517 13092803
0.42438638 0.06325005 0.12367225 13223877
0.43448499 -0.13261259 0.13374975 12171186
0.43252543 -0.12520058 0.13504399 12697529
0.42831433 -0.11310942 0.13368416 12499893
0.43035561 -0.11675067 0.13625903 12499894
0.42397407 -0.10512049 0.13483709 11776171
0.41658214 -0.094541125 0.13452069 11776171
0.42070001 -0.098351054 0.13845363 11578792
0.40818518 -0.082260244 0.13333775 11776172
0.41205665 -0.086469434 0.1357221 11710123
0.40410528 -0.074678548 0.13425665 11447208
0.39522725 -0.063792847 0.13423879 11710382
0.40063164 -0.068583168 0.1361265 10987171
0.38803747 -0.053257506 0.13490683 14407892
0.3908236 -0.058134183 0.13474779 13092290
0.38645294 -0.045019854 0.13498016 14539991
0.38598052 -0.035116144 0.13505076 14013647
0.3853792 -0.025165342 0.13480116 13619147
0.38702476 -0.015448152 0.1347746 13487563
0.39000002 -0.010829636 0.13921443 12105653
0.389 -0.0095497165 0.13293821 13289929
0.39249033 -0.004890094 0.13501558 12369082
0.39713639 0.0028804722 0.13418345 12237751
0.40064275 0.0076794461 0.13598174 11974322
0.4040941 0.014701031 0.13465133 12237494
0.40797624 0.022374278 0.13349009 12171958
0.41172341 0.026427332 0.13615377 12171701
0.41533342 0.034412611 0.13459666 12369080
0.42050004 0.038528319 0.13951974 12237494
0.41768178 0.04227224 0.13225164 12500409
0.42248151 0.046186205 0.13568546 12303031
0.42585295 0.054399028 0.13445523 12303287
0.42625004 0.061006881 0.1314494 11645357
0.43525407 -0.1240731 0.14443015 12631737
0.42900002 -0.11033368 0.14058217 12105136
0.43281683 -0.11507385 0.14501975 12499894
0.42676476 -0.10382884 0.14433631 11578793
0.43033338 -0.10789491 0.14711221 11907758
0.41787505 -0.091637671 0.14293042 11512999
0.42189291 -0.095760308 0.14571449 11381413
0.41575336 -0.084938951 0.14500688 11315620
0.42000002 -0.089337662 0.14943163 11184034
0.40735894 -0.07249371 0.14464204 11250341
0.41218752 -0.077726699 0.14551093 11184291
0.39722225 -0.061764207 0.14428779 11053219
0.40220746 -0.066390894 0.14548117 11053219
0.38633874 -0.053125955 0.14447179 12697532
0.39213046 -0.057949252 0.14370391 11513515
0.37871426 -0.041800279 0.14943416 8092032
0.38186935 -0.044784319 0.14473514 14276564
0.37848786 -0.03473527 0.14851348 10525854
0.38119251 -0.034851197 0.14386603 13816268
0.37857145 -0.028046174 0.1490611 9670545
0.381484 -0.024719611 0.14472035 13618891
0.38645124 -0.01686704 0.14474967 12763838
0.39148578 -0.011967961 0.14581054 12171958
0.39492202 -0.0060678711 0.14408836 11448235
0.4005 -0.0022129272 0.14783826 11053734
0.39822221 0.00095875253 0.14158006 11316137
0.4039028 0.0057993471 0.1451965 11053220
0.40752178 0.013263742 0.14383301 11184806
0.41172421 0.017254118 0.14609057 11447978
0.41514671 0.024789702 0.14461322 11711407
0.42039999 0.029071162 0.14898355 11777200
0.41782355 0.032012708 0.14209884 12040116
0.42242861 0.035884924 0.14560284 11842739
0.42660001 0.044451125 0.14429425 11842483
0.42999995 0.0472144 0.1486669 12105398
0.42864281 0.052319802 0.14146878 12236984
0.4300833 0.052913856 0.14437789 11710640
0.43871439 -0.12254515 0.15415503 12368308
0.44000003 -0.12428727 0.15785214 11447208
0.4363611 -0.11502855 0.15481821 12763067
0.42837501 -0.10139851 0.15216117 11381669
0.43221876 -0.10564999 0.15556934 11579306
0.42550796 -0.094658203 0.1548577 11184291
0.43000001 -0.099115193 0.15822403 11052961
0.41796875 -0.082822464 0.15335791 11118242
0.42140552 -0.08721257 0.1554803 11118242
0.40850002 -0.070873678 0.15179542 11250340
0.4143388 -0.075956605 0.15495937 11184291
0.39706254 -0.06122186 0.15556249 11579306
0.40456259 -0.066281177 0.15543242 11447463
0.38587329 -0.053586863 0.15548901 11842221
0.39190632 -0.058134839 0.15531917 11710892
0.37695748 -0.043349799 0.15534593 5330260
0.38093176 -0.04837868 0.15397485 12565944
0.37491229 -0.03489783 0.15465108 2567724
0.37633976 -0.026755279 0.15525502 5724504
0.38094735 -0.022029102 0.15402955 13619150
0.38460383 -0.017569985 0.15570152 13355977
0.39487886 -0.012159672 0.15626624 13092805
0.39787504 -0.0087198764 0.15390719 12434873
0.40405458 -0.0042036208 0.15601535 11974323
0.40791437 0.0030825494 0.15282705 11250856
0.41237214 0.0064919987 0.15648682 11382185
0.40900001 0.010664723 0.15030533 11316392
0.41506818 0.014366082 0.15406252 11382185
0.42080003 0.019148881 0.15720472 11645357
0.41800001 0.022554902 0.15112214 11776943
0.42253122 0.025628174 0.15549955 11776943
0.42681825 0.033774368 0.15419948 11645359
0.43055558 0.037471943 0.15722023 11579568
0.42866668 0.040614273 0.15084286 11776947
0.43150002 0.043880668 0.1545983 11776946
0.43900001 -0.12035643 0.16210094 12171191
0.44000003 -0.12157481 0.16204102 11644847
0.43879294 -0.11437675 0.16384082 12565687
0.44 -0.11408979 0.16932002 12170929
0.43579715 -0.10512619 0.16517024 11578792
0.42783335 -0.09222953 0.1627925 11052449
0.43148002 -0.096186563 0.16556033 11118241
0.42503774 -0.08542373 0.16453917 11118241
0.41562858 -0.074377298 0.16344197 11381413
0.4209412 -0.078292437 0.16559413 11446950
0.39426321 -0.061667655 0.16712716 11776942
0.4040626 -0.066683181 0.16434866 11513512
0.38510102 -0.054589488 0.1652827 11974064
0.39114287 -0.059392009 0.16388404 11908015
0.37508935 -0.044218712 0.16502988 6251361
0.38071433 -0.04940537 0.16473731 12105649
0.37144649 -0.035073068 0.16504414 2304809
0.37455779 -0.024970837 0.1649729 7698809
0.38025001 -0.020573186 0.160881 13619151
0.38202217 -0.017932372 0.1654516 13355979
0.39576474 -0.01130933 0.16640757 12829890
0.40000001 -0.010170911 0.16291678 12961474
0.39866671 -0.0088923676 0.16952866 12829635
0.40529034 -0.005761514 0.16503169 12698045
0.41123998 -0.0018678936 0.16622555 12434873
0.41534674 0.0040997243 0.16474602 11777200
0.42083335 0.0081827855 0.16877542 11711152
0.41866669 0.011243745 0.16104548 11381930
0.42418459 0.015514394 0.16513458 11447724
0.42679071 0.023794889 0.16332921 11579308
0.43065524 0.026284309 0.16754672 11447724
0.42866668 0.030579112 0.16087805 11842736
0.43302739 0.035056971 0.16498674 11777201
0.43375003 0.041603055 0.16202626 11974325
0.44066665 -0.11157092 0.17393988 11776172
0.43853486 -0.1038107 0.17343196 11775915
0.44066662 -0.10661134 0.17711246 11710379
0.43527141 -0.094966456 0.17497192 11447207
0.42717394 -0.082301177 0.17311667 11249827
0.43117651 -0.086611025 0.17555864 11381414
0.40777776 -0.070721686 0.1753059 11513001
0.41275004 -0.072338954 0.17329863 11447207
0.4226667 -0.077638425 0.17339931 11446950
0.39435005 -0.062542021 0.17500556 11447978
0.40338239 -0.067505062 0.17505252 11315878
0.37838465 -0.051288716 0.17687051 12236981
0.38383338 -0.055115968 0.17441224 12039601
0.36849999 -0.040857669 0.17715131 2698539
0.37382406 -0.04533701 0.17469111 7698035
0.36790153 -0.034925785 0.17511779 2107430
0.36999997 -0.034133498 0.17069884 2304808
0.3682273 -0.027934313 0.17657807 2369832
0.37352768 -0.023705738 0.17449017 9013382
0.37871429 -0.019255271 0.17558633 13618894
0.3844167 -0.015289694 0.17565392 13092807
0.39146152 -0.011608362 0.17300095 12698049
0.38900003 -0.009891212 0.17938168 12763842
0.39336365 -0.0087861139 0.17484416 12632256
0.40450004 -0.0043702847 0.17371187 12698049
0.41183332 -0.001311983 0.17231388 12698302
0.41600004 0.0020605128 0.17355287 12500667
0.42260471 0.0067917504 0.17537038 12040117
0.4269768 0.012719481 0.17385887 11776944
0.43111435 0.016982803 0.17636989 11908274
0.43474671 0.025119299 0.17498741 11579311
0.43657148 0.033633694 0.17361519 11250599
0.44510013 -0.11124416 0.18499033 11447207
0.44385299 -0.10508052 0.18490936 11512999
0.43803033 -0.09283264 0.18369137 11381413
0.44125712 -0.0968128 0.18636377 11381413
0.43431818 -0.085042909 0.18481611 11315877
0.40550002 -0.070115581 0.18129355 11250086
0.41700003 -0.074056469 0.18188138 11381927
0.428 -0.078348674 0.18334091 11316391
0.43057147 -0.079202972 0.18530525 11316133
0.38699999 -0.061221689 0.18524098 11513514
0.39421058 -0.063558348 0.1826994 11382185
0.40168753 -0.067284472 0.18240817 11184806
0.37793663 -0.052235067 0.18521765 12302517
0.38238889 -0.057421945 0.18536618 11908016
0.36681482 -0.041738629 0.18527076 2567463
0.37350002 -0.046827924 0.18476532 10723483
0.36515558 -0.03499819 0.18480495 1646364
0.36665058 -0.0269852 0.18544304 2764849
0.37273625 -0.022013912 0.18451543 12040119
0.3774147 -0.018300876 0.18526024 13487565
0.38320345 -0.014020422 0.1833322 12961221
0.42725 0.0068306336 0.1836447 12303546
0.43019998 0.0082637742 0.18736985 12369084
0.42850003 0.010170062 0.18104552 11974579
0.43340746 0.015008139 0.18531863 11974324
0.43835297 0.022871345 0.18363968 12039860
0.44140539 0.026398763 0.1863737 12434618
0.44207144 0.030746153 0.18471646 10986916
0.44850004 -0.11062351 0.19212115 10920864
0.44773605 -0.10514062 0.19507191 11381414
0.43900001 -0.090296008 0.19010594 11578792
0.4434059 -0.095180109 0.19498007 11578792
0.43811116 -0.084674276 0.19342685 11315877
0.44049996 -0.086600408 0.1973398 11447207
0.38350001 -0.061074283 0.19570194 11579050
0.37741783 -0.053364381 0.19531028 12302773
0.38097051 -0.057980187 0.19390933 11908015
0.36487147 -0.042586125 0.19518164 3948604
0.37290907 -0.047914527 0.19503661 11710380
0.35873333 -0.034163054 0.19776991 2041889
0.36132261 -0.03515669 0.19279128 1844256
0.35891667 -0.028451378 0.19827779 2369061
0.36249176 -0.025888069 0.19454665 4737351
0.37276477 -0.020614063 0.19483492 13027269
0.37711874 -0.017381035 0.19528472 13290444
0.38401613 -0.01270035 0.19499142 12763843
0.38819999 -0.0095979068 0.19463858 12369084
0.42740002 0.0065430002 0.19309081 12237498
0.43033335 0.0087026423 0.1969322 12303291
0.43498802 0.014883764 0.19492085 12303291
0.4390001 0.021124549 0.19276084 12237498
0.44156903 0.0252806 0.1945821 11645359
0.44412503 0.030685371 0.19219537 10329752
0.44888008 -0.10313133 0.20232908 11249828
0.45008335 -0.10311223 0.20658368 10986914
0.44681147 -0.09474609 0.20511791 11710636
0.45000002 -0.099932753 0.2085644 11118242
0.43900001 -0.081046641 0.20038301 11316392
0.44288388 -0.086854704 0.20454742 11381928
0.37833333 -0.060104042 0.20900382 11513771
0.38268423 -0.061360788 0.2053552 11513771
0.39490911 -0.065179043 0.20665087 11250341
0.37654367 -0.05436758 0.20553693 12302774
0.38075003 -0.058750696 0.20316243 11842736
0.36396873 -0.042977899 0.20259853 5330515
0.3728666 -0.048337154 0.20499219 11644589
0.35845274 -0.034988698 0.20159973 1647132
0.35873687 -0.027950265 0.20162617 1778208
0.3617059 -0.023683829 0.20225252 7040108
0.37280002 -0.020299476 0.20228037 13092804
0.37731159 -0.017031644 0.20483516 13224650
0.38203278 -0.012363204 0.20494175 12698564
0.38684446 -0.0085650729 0.20583151 12172220
0.39239293 -0.0053786365 0.20597623 12106171
0.40100002 -0.0023718763 0.20744759 12171963
0.43350005 0.008936014 0.20506591 12369084
0.4357968 0.013828217 0.2050276 12434877
0.4408572 0.019457538 0.20418175 12566463
0.44316673 0.022346469 0.20484479 11711153
0.44814029 -0.094167314 0.21436498 11447465
0.45000002 -0.099581599 0.2120759 10986656
0.44558623 -0.087695748 0.21515597 11579307
0.37800002 -0.060051087 0.21059027 11513771
0.3754828 -0.054779202 0.21100362 12171188
0.37360007 -0.049207509 0.21076277 11644589
0.37819999 -0.016343746 0.21105543 13224908
0.38143477 -0.012219515 0.21211454 12632515
0.38691667 -0.0070948587 0.21338473 11514547
0.39363641 -0.0033037877 0.21166515 11514547
0.40400004 -0.0010495951 0.21158814 11909048
0.40746671 0.0010245383 0.2128861 11777205
0.41275004 0.004365819 0.21255356 11580341
0.43500003 0.0093059903 0.2112865 12369084
0.43700004 0.015034923 0.21233554 12303291
0.44000003 0.01919841 0.21113996 12434877
0.44166669 0.021166965 0.21021597 10855587
0.44820005 -0.091559984 0.22053082 11315878
