# .PCD v0.7 - Point Cloud Data file format
VERSION 0.7
FIELDS x y z rgb
SIZE 4 4 4 4
TYPE F F F U
COUNT 1 1 1 1
WIDTH 725
HEIGHT 1
VIEWPOINT 0 0 0 1 0 0 0
POINTS 725
DATA ascii
0.435 -0.091800906 -0.041189786 13157563
0.43393332 -0.084890358 -0.041872546 13420735
0.43159997 -0.074975424 -0.042477679 13420479
0.42854548 -0.062883519 -0.042642903 13354171
0.43010002 -0.067422226 -0.042962696 13880771
0.42689297 -0.05516861 -0.043332916 13617601
0.42575556 -0.045445245 -0.042746022 13946567
0.42662504 -0.035230886 -0.042883497 14144718
0.42833346 -0.025620146 -0.041873019 13420736
0.43000004 -0.02480296 -0.044423323 12763062
0.42864996 -0.017872943 -0.04151389 13288383
0.43087494 -0.013064943 -0.043080796 12894395
0.43193546 -0.0068415315 -0.042035185 13091775
0.43280005 0.00470705 -0.040547244 12434099
0.43400002 0.015719274 -0.040998332 11975090
0.43400002 0.020968618 -0.040659666 12303285
0.44700003 -0.14217038 -0.030576086 15262684
0.44448498 -0.13424763 -0.031835008 12828087
0.44230369 -0.12513514 -0.033097684 13749188
0.43867296 -0.11471932 -0.033336721 13617858
0.44000003 -0.11934303 -0.035041496 13947850
0.43672064 -0.10501809 -0.03406005 13682625
0.43429729 -0.094525427 -0.03516686 13485758
0.42900002 -0.080204777 -0.030148271 12432295
0.43156517 -0.084939063 -0.034816142 13880772
0.42805889 -0.074215434 -0.033110131 13552576
0.43020523 -0.076299138 -0.037335254 13355197
0.42587191 -0.064971179 -0.034768306 13617855
0.43000001 -0.069318719 -0.039278284 12960184
0.42386004 -0.054936215 -0.035253178 14011587
0.42304009 -0.044923522 -0.035185929 14209738
0.42352977 -0.035059582 -0.035226781 14078409
0.42488995 -0.025271699 -0.034894329 13420996
0.4261817 -0.015414401 -0.034854356 13026240
0.43000001 -0.011437049 -0.039278284 13288896
0.42713121 -0.0058745285 -0.033676866 13025469
0.43000007 -0.0043038055 -0.038098089 13025724
0.42828122 0.0038061526 -0.031352326 12368052
0.43108824 0.0050851414 -0.036383901 12631223
0.42900002 0.010684077 -0.030148271 11379872
0.43209177 0.014891768 -0.035019435 12434359
0.43380702 0.024651794 -0.034294214 12763578
0.43548501 0.03503773 -0.033572547 13158337
0.43765569 0.045242395 -0.033664174 13092543
0.43849078 0.055053685 -0.033167329 13289408
0.43900007 0.062164314 -0.032957822 13289923
0.44013339 0.066704579 -0.032098219 13816009
0.44179997 0.072956257 -0.030530203 13948108
0.44872725 -0.15160114 -0.023418523 16051428
0.44587833 -0.14464125 -0.024749797 15657184
0.44353098 -0.13484043 -0.02494299 13420222
0.4390001 -0.12053996 -0.023730488 14013132
0.44100007 -0.12538493 -0.025212973 14078924
0.43849966 -0.11483286 -0.025169725 13420739
0.43576694 -0.10493732 -0.02501319 13157311
0.43329984 -0.095216297 -0.024873363 13157820
0.42874289 -0.081476435 -0.024137931 13552062
0.43020016 -0.086689785 -0.024949789 13288636
0.42607045 -0.074617416 -0.02507595 13420734
0.42297879 -0.065011114 -0.02540233 13289406
0.41841382 -0.053536419 -0.02204222 14143428
0.42085716 -0.055642981 -0.026369402 13814980
0.41795525 -0.045019291 -0.023358759 13946563
0.42050004 -0.045001451 -0.028335873 14472907
0.4177742 -0.035404094 -0.022894731 13684419
0.42062804 -0.034259405 -0.02784363 13881800
0.41842863 -0.025855614 -0.021674657 14275530
0.42116684 -0.024607195 -0.02646536 13486273
0.42195019 -0.015171166 -0.025215739 13486273
0.42393005 -0.0053169024 -0.025333628 13092544
0.42575535 0.004627021 -0.024941213 12368822
0.4277924 0.01420161 -0.024187798 12039344
0.42999995 0.017548194 -0.02796842 11907502
0.42889994 0.021224478 -0.021104913 12302515
0.43097642 0.025271555 -0.025116764 12434359
0.43323985 0.035135437 -0.024873076 13025982
0.43513572 0.045229334 -0.024774577 13091773
0.43719998 0.054903015 -0.025100078 13289666
0.43878669 0.063880645 -0.024151681 13619659
0.44007397 0.067565076 -0.027301921 14078926
0.43900001 0.070368834 -0.020916527 12632257
0.44137514 0.075153716 -0.025008721 13947597
0.44394678 0.085217282 -0.024658825 14078413
0.44620839 0.092504203 -0.023481051 14341075
0.4466112 -0.15093413 -0.016055228 16183273
0.44458145 -0.14447898 -0.015149207 15788515
0.4424473 -0.13475388 -0.014922957 13683652
0.43900004 -0.12044207 -0.018347261 13749962
0.44066325 -0.12522833 -0.014854377 13420994
0.43873772 -0.114625 -0.01515628 13222844
0.44000003 -0.11899969 -0.011522069 13289922
0.43626675 -0.1050597 -0.014826766 13091772
0.43302205 -0.09515582 -0.014717162 12959672
0.42835906 -0.082580447 -0.014240544 12695984
0.4300786 -0.087375544 -0.014864503 13223100
0.42448345 -0.075045645 -0.01537349 12763060
0.41811112 -0.062509365 -0.013452617 13222585
0.42071185 -0.066487655 -0.01614528 13222582
0.41619006 -0.054919232 -0.015127074 13419962
0.41446027 -0.044984158 -0.015066214 13420735
0.4144904 -0.035075374 -0.015179823 13683905
0.41576427 -0.024983415 -0.015002702 13288894
0.41728914 -0.015446115 -0.014442139 13552067
0.42029417 -0.012943403 -0.018829608 12565428
0.41823336 -0.0072389669 -0.012520156 12895422
0.42084286 -0.0044225804 -0.016446294 12828858
0.4226501 0.0045954441 -0.015361859 12368820
0.42531225 0.014455114 -0.015268276 12368306
0.42818689 0.023839133 -0.014000773 12960185
0.43000001 0.027913334 -0.016857719 13551550
0.43107516 0.035247974 -0.014541333 13026755
0.43370947 0.044981722 -0.014629378 13222846
0.43562922 0.054847103 -0.014919315 13223104
0.43803307 0.064748168 -0.014891696 13683911
0.43899989 0.072249457 -0.014072139 13816526
0.44021568 0.077172205 -0.015782496 13946052
0.442467 0.085086741 -0.015042995 14471621
0.44432512 0.092199706 -0.015104884 13881036
0.44568667 -0.14454769 -0.0049163201 15525343
0.44356689 -0.13485052 -0.0046896567 14407633
0.44228908 -0.12514392 -0.0046753967 12433584
0.43899995 -0.11276853 -0.0052953833 13026234
0.4403111 -0.11750419 -0.0040036687 13881802
0.43756667 -0.10537208 -0.0046275561 12828600
0.43376651 -0.095318422 -0.0045884727 12564656
0.42718002 -0.082868889 -0.0045209732 12432814
0.43042502 -0.088029496 -0.0045539858 12302771
0.41900003 -0.07048811 -1.8918467e-05 13224644
0.42274487 -0.075126454 -0.0050227279 12630705
0.41695291 -0.064477213 -0.0047741779 12500147
0.42037502 -0.06912066 -0.0071546962 12367787
0.40900001 -0.05133187 -0.00025783601 13158590
0.41277343 -0.055023409 -0.0050671096 13289149
0.40877795 -0.044339843 -0.0012684307 13880257
0.41137171 -0.045055203 -0.0063566109 13880514
0.40840739 -0.034817897 -0.0011882554 13092285
0.41133794 -0.034980219 -0.0067081149 13618628
0.40885711 -0.026666645 -0.00083904306 13354424
0.41179988 -0.024525601 -0.0056838347 13353912
0.41339085 -0.01486144 -0.0048671463 13289149
0.41589114 -0.0054785139 -0.0048383567 13157566
0.42000002 -0.0008471816 -0.0093596261 12432305
0.41825929 0.0024223968 -0.002305279 12829112
0.42075908 0.00578751 -0.0059183342 12565173
0.42327628 0.014818416 -0.0050729015 12302773
0.42622757 0.024554811 -0.0046672998 12630711
0.42834613 0.032884769 -0.0032420217 12566205
0.43012515 0.03689282 -0.0059568272 13092547
0.43184975 0.045133874 -0.0045737149 12763581
0.43444455 0.055064153 -0.0045985938 13224131
0.43643034 0.065023802 -0.0046198755 13486018
0.43871394 0.074836604 -0.0044341586 13881035
0.44000003 0.079284541 -0.0075735506 13549754
0.44091228 0.084843591 -0.0046160468 14340295
0.44310346 0.091714382 -0.0053537339 13420484
0.44812301 -0.14409557 0.0050976649 15065307
0.44524351 -0.13484037 0.0051942132 15262941
0.44391879 -0.12497491 0.0051168292 12236720
0.43900007 -0.11114378 0.0026228535 12959415
0.44111943 -0.11535149 0.0054063872 13355199
0.43798742 -0.10542275 0.0050563421 12696756
0.43376246 -0.095332123 0.0050072544 12434355
0.42677593 -0.083205007 0.0054736868 12104881
0.43021435 -0.088417508 0.0048717149 12038831
0.41809377 -0.071499072 0.0059743477 11974062
0.42179316 -0.0764452 0.005070935 11710635
0.41476664 -0.06493067 0.0053164521 12564916
0.40832227 -0.053075142 0.0059581832 12697783
0.41092676 -0.057728987 0.0042268531 12170926
0.40663996 -0.045088951 0.005210489 13223356
0.40604588 -0.035039224 0.0052017462 13420220
0.40703025 -0.025116131 0.0052151782 12961469
0.40816471 -0.016122919 0.00644464 13223359
0.41062856 -0.01346088 0.0025343059 12828603
0.40900001 -0.0084848041 0.0088381898 13486016
0.41252121 -0.004935428 0.0050519193 12631738
0.41652822 0.0048433486 0.0054780347 12762551
0.42000002 0.009722515 0.0017016846 13618113
0.41866672 0.011815733 0.0083931545 12170928
0.42125025 0.015907677 0.0049876459 12369083
0.42435777 0.025239265 0.0055720531 12959930
0.42728567 0.03471496 0.005331425 12566461
0.43000001 0.039398156 0.0014905415 14670301
0.42899996 0.04059777 0.0074411193 11710380
0.43038559 0.045335557 0.0048110173 12828346
0.43309858 0.054895703 0.0050482573 12764097
0.435478 0.064882234 0.0050764997 13552323
0.43837008 0.075060308 0.0051104468 13553355
0.43900007 0.081222847 0.0065791388 13815755
0.44039714 0.086034283 0.004801339 13683137
0.44199994 0.091125496 0.0050058742 13486788
0.44896787 -0.14269465 0.013067077 15131099
0.45012495 -0.14329627 0.01769606 15328478
0.44748309 -0.13494967 0.015121209 15328734
0.45000002 -0.13996416 0.019995386 14209483
0.44454437 -0.12474176 0.015071661 11579045
0.4417114 -0.11464472 0.014976332 13749189
0.43792632 -0.10443287 0.015178249 12498861
0.44000003 -0.10904256 0.015430854 12630452
0.4336777 -0.095301472 0.014700067 12499120
0.42609999 -0.083645917 0.015296469 11709862
0.42999998 -0.088876247 0.014361124 12433328
0.41748777 -0.072381221 0.015330463 11972259
0.42141876 -0.077092424 0.014800815 11774880
0.40859997 -0.060895331 0.017070826 13355972
0.41283953 -0.065559112 0.014678732 12300968
0.40644667 -0.05479382 0.015107013 12434611
0.41000003 -0.059375871 0.01053948 11578529
0.40302581 -0.044959757 0.015192549 13091000
0.40205199 -0.034894932 0.014909258 13616570
0.40294784 -0.025089161 0.015188246 13551293
0.40497494 -0.015032543 0.015142806 12895423
0.40746179 -0.0062355269 0.015924145 13355201
0.41110006 -0.0019827662 0.01297128 12302256
0.40900001 0.00013248283 0.019131061 14669517
0.4137615 0.005031155 0.0149488 12697272
0.4172568 0.014343426 0.015554531 12303543
0.42047623 0.018417319 0.012729531 12369086
0.41900003 0.021061301 0.019271851 11643813
0.42229426 0.025638547 0.015014402 12959931
0.42558673 0.035089251 0.015300151 12764353
0.42813048 0.041930437 0.015402685 13223615
0.43014047 0.047043517 0.01414846 12762549
0.43219334 0.054944351 0.014763281 12699073
0.43479377 0.064920664 0.014627517 13552838
0.43737781 0.07489188 0.014824259 14209484
0.43897861 0.082245536 0.015110576 13421257
0.4403334 0.087481424 0.014795821 13618120
0.44200003 0.091199405 0.018605182 13551551
0.4506087 -0.14221817 0.02451719 15196634
0.44850713 -0.13464849 0.024920754 15196889
0.44999996 -0.13952522 0.026755074 14801619
0.44558018 -0.12503557 0.025016023 13091512
0.44220012 -0.11495346 0.024953131 13223102
0.43746501 -0.10515971 0.025212903 12499120
0.42871428 -0.090474583 0.027508004 10459024
0.43216872 -0.09528698 0.024515256 12170413
0.42545003 -0.084990911 0.025334302 11776685
0.42999998 -0.089451469 0.021119976 11645361
0.41553631 -0.073593654 0.025367748 12037797
0.4209584 -0.078825213 0.024082651 11381154
0.40781686 -0.063135907 0.025373716 11776939
0.41139993 -0.06774269 0.024031814 12235430
0.4039191 -0.055246957 0.025123801 11973291
0.39828852 -0.043766972 0.027306248 12565940
0.40055168 -0.045772046 0.023131227 12631992
0.3975977 -0.035170227 0.026291266 12895164
0.39999998 -0.034751598 0.021285204 13288891
0.39770833 -0.025461396 0.027107483 12762293
0.400204 -0.024495488 0.022332774 13353655
0.39833343 -0.016848622 0.028733425 13091767
0.40149495 -0.014391742 0.02446094 13092027
0.40449527 -0.0050445879 0.025016392 12697788
0.40800017 0.0032598248 0.026067743 12697019
0.41128004 0.0073753493 0.02333571 12895167
0.41458869 0.015092282 0.025071885 13025466
0.4179019 0.023003394 0.025894504 12828861
0.42075515 0.027436337 0.024081929 12698560
0.42374232 0.0352224 0.025380388 12633027
0.42706978 0.044483341 0.025273971 12959929
0.42999998 0.048877329 0.022210501 11906982
0.42900002 0.050353799 0.029105235 15391697
0.43125236 0.055213977 0.024667673 13683136
0.43429977 0.06521257 0.024888767 13289927
0.43657792 0.074756652 0.025019426 13289409
0.43882161 0.083536811 0.025296338 13223100
0.44 0.088417627 0.021611143 14143948
0.44100001 0.090993069 0.020627867 13222073
0.45141673 -0.14102107 0.034415212 15196377
0.44863996 -0.13330388 0.034722839 15130840
0.45017236 -0.13809192 0.035012685 14933462
0.44613329 -0.12519193 0.034967795 13157050
0.44221064 -0.11540109 0.03490423 12565430
0.43687496 -0.1051282 0.035156939 12368565
0.42808694 -0.091537841 0.035227146 11972777
0.43185002 -0.096396349 0.034704745 11973035
0.41862506 -0.080592938 0.036976207 11513769
0.42322508 -0.085490361 0.03487917 11578789
0.40875003 -0.070916906 0.038495973 10789015
0.41462502 -0.075307958 0.034822557 11446434
0.42000002 -0.079505384 0.03046109 9541006
0.40622458 -0.064564757 0.035397008 11513768
0.41016671 -0.069002084 0.032307819 12564656
0.39807695 -0.051628452 0.036897354 12433327
0.4013049 -0.05584158 0.034118924 12104876
0.39615461 -0.044922806 0.035293087 12237746
0.40000001 -0.049500015 0.030883376 13421248
0.39414877 -0.034937393 0.035035059 12698297
0.39442989 -0.024800263 0.035060395 12566970
0.3963545 -0.015007702 0.035166346 12829884
0.40000001 -0.010639114 0.030883376 13684938
0.39814287 -0.0074257501 0.037761368 13420996
0.40128919 -0.0042338413 0.03393222 12763066
0.40569171 0.0048520342 0.035153877 12762552
0.41000003 0.0097309807 0.030695643 12429988
0.40858337 0.011890112 0.037124243 12171957
0.41195011 0.016087625 0.034370434 12368566
0.41599998 0.024894729 0.035033092 12370110
0.42000002 0.029632874 0.03046109 13423565
0.41812506 0.031948898 0.036971744 12566459
0.42147365 0.036103118 0.034290526 12895681
0.4252716 0.04502026 0.035199005 13354945
0.42816287 0.052168798 0.036224689 13289155
0.43026677 0.056731872 0.03380629 13749701
0.432733 0.064980648 0.034925953 13945795
0.43555808 0.074849121 0.035289891 13880259
0.43849266 0.083884992 0.035198286 13092291
0.44000003 0.088211626 0.033456691 12434105
0.44866672 -0.13219789 0.045144223 14407375
0.45129788 -0.13715634 0.044802595 14801875
0.44542527 -0.12488553 0.045175124 13420479
0.4390001 -0.11123551 0.045456208 13090998
0.44178134 -0.11598589 0.044772536 12433326
0.43537351 -0.1051929 0.044956315 12301225
0.42682359 -0.092850514 0.045549013 12038829
0.4305791 -0.097849406 0.044437103 11710119
0.41744 -0.081718676 0.045868106 11381667
0.42209265 -0.086440094 0.044262465 11315363
0.40772414 -0.071719818 0.045693602 10789790
0.41320002 -0.076823384 0.044522658 11119011
0.40361387 -0.06498228 0.045036294 11645097
0.3968201 -0.054331478 0.045537781 11908011
0.4001905 -0.058535617 0.042719774 11972775
0.39287186 -0.045065578 0.045049589 11908526
0.38897216 -0.035210114 0.04816775 12565432
0.39112934 -0.034636665 0.043358032 12500406
0.38893545 -0.025838247 0.048444536 12827570
0.39112079 -0.024503076 0.04360589 12828598
0.38900003 -0.019225437 0.048930194 12893874
0.3924413 -0.014805879 0.044816904 12894650
0.39590093 -0.0052407058 0.045252576 12631736
0.40000001 -0.0010409415 0.040949754 10920092
0.39827281 0.0014439155 0.047446374 12632257
0.40195927 0.0055729272 0.044558417 12172216
0.40677911 0.014323311 0.045413438 12237238
0.41066664 0.018335998 0.041960593 12500923
0.40900001 0.020558646 0.048653245 12301746
0.4127574 0.024952086 0.04481424 12828345
0.41697848 0.034180392 0.045415714 12959673
0.420353 0.038456976 0.042294651 12170930
0.41875002 0.040573217 0.048995577 13551808
0.42262766 0.045288887 0.044835582 13223617
0.42693391 0.054873426 0.045248378 13487302
0.43000004 0.058859821 0.040917184 14078926
0.42899996 0.060683705 0.047612991 12235949
0.43095183 0.065440737 0.044963352 13682880
0.43440637 0.075082026 0.04510517 13945795
0.43719414 0.083933011 0.045100264 13814209
0.44896787 -0.13228589 0.054261215 14078667
0.45023996 -0.13514842 0.055505808 14341582
0.44526595 -0.12480553 0.054895759 13749701
0.43880564 -0.11217126 0.055279635 13553093
0.44095451 -0.11678915 0.054924533 10788503
0.43397504 -0.10502093 0.055090439 12368563
0.42641276 -0.093925729 0.05523067 11578791
0.43000001 -0.098730035 0.05394512 12170671
0.41581038 -0.083082825 0.055381056 11446430
0.42117867 -0.088286832 0.054702204 11908010
0.40665016 -0.073366612 0.055099182 10986916
0.41165516 -0.078259036 0.054711267 10986653
0.39817244 -0.061521087 0.056389011 12367274
0.40183526 -0.066345856 0.054576181 11644843
0.39435968 -0.054845907 0.054994043 12039595
0.38836068 -0.043023542 0.056152798 12500405
0.39098188 -0.047055081 0.053682566 12434612
0.38664895 -0.035192698 0.054771248 12697270
0.38633078 -0.025204403 0.05476445 13288120
0.38763815 -0.015728055 0.055408865 13091256
0.39031249 -0.012265164 0.051379282 13551811
0.38877776 -0.008722336 0.058280818 13157568
0.39226574 -0.0048105959 0.054458961 12631479
0.39654535 0.004145592 0.055463266 12631479
0.40018755 0.0083274338 0.0520349 12565688
0.39880005 0.010772383 0.058985006 11777202
0.40316498 0.015008965 0.054861926 12499896
0.40759113 0.023050636 0.055840187 12631226
0.4110465 0.027301639 0.053730443 13091518
0.41421169 0.034658913 0.055021927 13025466
0.41772336 0.042166486 0.055906165 13484731
0.42100009 0.046896484 0.054265592 13616575
0.42457882 0.055063989 0.055207394 13551296
0.42809451 0.062899627 0.055872459 13880002
0.43020844 0.067302912 0.053692922 14011845
0.43264416 0.075095803 0.055175476 13945796
0.43451357 0.081985079 0.055153184 13552582
0.44899997 -0.13093506 0.06601461 13682884
0.45084214 -0.13414519 0.063971549 14275277
0.44509214 -0.12468144 0.064977504 14472654
0.43789351 -0.11249346 0.065303288 12761264
0.44085708 -0.11763147 0.065029159 11050646
0.42866668 -0.10021278 0.066712923 10789017
0.43262157 -0.10497907 0.064863935 12104620
0.41900003 -0.090105839 0.068152703 12235431
0.42395121 -0.094776995 0.064919323 11511968
0.43000001 -0.099517845 0.060378846 13091770
0.41575012 -0.084586538 0.065175727 11249563
0.42050004 -0.089075014 0.061627921 11315619
0.40579742 -0.073847272 0.065384522 11249311
0.41122726 -0.07885211 0.06469962 11446172
0.39656362 -0.062751427 0.064912654 11445918
0.40117946 -0.068094447 0.064371534 11315618
0.38868749 -0.051512562 0.067656755 12499375
0.3921752 -0.055742029 0.06468074 11841703
0.38623819 -0.045015439 0.065112047 11711145
0.39000002 -0.049175512 0.06024019 10460052
0.38300747 -0.03484888 0.064979933 12433841
0.38224992 -0.024930565 0.064851619 12761778
0.38406077 -0.015189623 0.06512019 12762809
0.3872844 -0.0058144433 0.065380365 12303030
0.39055556 -0.0018536026 0.062102325 11972524
0.38900003 0.00012600447 0.06873697 12498350
0.39347145 0.004865713 0.064962514 12237751
0.39743555 0.012811541 0.066066347 12106940
0.4015283 0.017550416 0.063807517 12633541
0.40564606 0.025269458 0.065068059 12566720
0.41000003 0.029887147 0.060449984 11448756
0.40863156 0.031700991 0.067547522 12369340
0.41212639 0.036025871 0.064564735 12960961
0.41640919 0.044529811 0.065222546 13288894
0.42012507 0.049066294 0.062188026 13814208
0.41875002 0.050376229 0.068846822 13682881
0.42240784 0.055090412 0.06493444 13551552
0.42622328 0.06506373 0.065097548 13748930
0.43000001 0.069597282 0.060378846 11972004
0.42839998 0.071194515 0.066771314 14079182
0.4308219 0.075730033 0.064636946 13552579
0.43316212 0.081867091 0.064900935 13224647
0.449 -0.13200866 0.076806828 13946822
0.45025003 -0.13437665 0.0750807 13881287
0.44461438 -0.12504862 0.075174659 14538703
0.43817949 -0.11322289 0.075071968 10459026
0.4408206 -0.11805938 0.074837804 11643300
0.4285714 -0.10105084 0.074295595 11972518
0.43274999 -0.10628597 0.074871145 12235691
0.41900009 -0.090526223 0.074808717 11972778
0.42310533 -0.09549585 0.075151265 11446689
0.40875 -0.080485813 0.077488847 11775653
0.41434887 -0.085350879 0.074902765 11381152
0.39825001 -0.071348913 0.077983558 10921378
0.40432057 -0.075275064 0.07450708 11249310
0.41000003 -0.079532035 0.070528068 11972265
0.39479202 -0.064688057 0.075441629 11775141
0.40014288 -0.068520404 0.071040191 11775911
0.38731402 -0.053734973 0.075571172 11578277
0.39083341 -0.058126278 0.073389269 11380638
0.37844446 -0.041320458 0.078733191 10329240
0.38283047 -0.045127731 0.074580945 11777454
0.37714648 -0.034722462 0.077273317 8158329
0.38072875 -0.035061698 0.072402664 12697014
0.37721202 -0.025225719 0.076961726 8553087
0.38038778 -0.024464263 0.071911968 12893881
0.37855557 -0.016836949 0.078041941 12304831
0.38097817 -0.014425711 0.074033894 12435131
0.38379833 -0.005348091 0.074977271 12368567
0.38747275 0.0025693621 0.076351918 12434617
0.39168176 0.0066051073 0.07375063 12566459
0.39516932 0.014783928 0.075107895 12499638
0.40000001 0.019560019 0.070914783 12959931
0.39809096 0.02173399 0.07771191 12698300
0.40208516 0.025813181 0.07452818 12762808
0.40677232 0.033854131 0.075650908 13223619
0.41103226 0.038003117 0.072860733 13027014
0.40900001 0.040346488 0.079452068 14341585
0.41395319 0.045166079 0.075017616 13223104
0.41782609 0.052723102 0.075890586 13813953
0.4208236 0.05714193 0.074097179 13485503
0.4241817 0.06497319 0.075165369 13619148
0.42786959 0.072651789 0.07508105 13159624
0.43018383 0.077684268 0.074625991 13420735
0.43110538 0.081462167 0.0744498 12630962
0.44900006 -0.1312442 0.084571786 14012616
0.45110005 -0.13428755 0.082560211 12960699
0.44505978 -0.12496898 0.084995925 14341583
0.43742302 -0.11362699 0.085324675 10721940
0.44082758 -0.11850145 0.084460177 12564659
0.4273333 -0.1016812 0.085380696 11644327
0.43224141 -0.10686395 0.084799759 12499635
0.41761902 -0.091438994 0.085264549 11710121
0.42273679 -0.096489824 0.084480241 11578276
0.40736589 -0.082186885 0.085175589 11315102
0.41291177 -0.087465003 0.085379153 10986397
0.39700004 -0.072126724 0.085720114 11710117
0.4023518 -0.076956131 0.085115641 11446431
0.38822225 -0.061945464 0.087294996 11972778
0.39254016 -0.065968975 0.084413119 11446948
0.3848708 -0.055187777 0.084904045 11775398
0.37756169 -0.043107867 0.085717022 9541007
0.38096362 -0.047648646 0.084073119 11579302
0.37296975 -0.034811065 0.084946513 2896684
0.37280712 -0.024718912 0.084956653 3291447
0.3769604 -0.015005131 0.085020684 11974065
0.38000003 -0.010848481 0.080342196 10920864
0.3783479 -0.0071740956 0.0870905 12170675
0.381093 -0.0041578151 0.083820723 11908272
0.38473472 0.0046184915 0.084995337 12302774
0.39000002 0.0092562987 0.080782622 13355723
0.38800007 0.01207213 0.08724492 12304062
0.392234 0.015928449 0.084111653 12696762
0.39632174 0.02373592 0.085524417 13091516
0.40027997 0.028054724 0.083191909 12368565
0.39900002 0.030019362 0.089652337 12828861
0.40369821 0.034638014 0.084937111 13026238
0.40818617 0.041845512 0.085958317 13091773
0.4121305 0.046714842 0.084475242 13092031
0.41647992 0.054771367 0.08533521 13683653
0.42000002 0.058883894 0.081343114 12566201
0.41900003 0.060950689 0.088751316 14277079
0.42264649 0.065179206 0.084787987 13618632
0.42727947 0.074031569 0.085516632 13553094
0.42999998 0.078465283 0.084154673 13355459
0.4302727 0.081088156 0.086238988 12697530
0.44900003 -0.13089383 0.095280997 13947081
0.45000002 -0.13258995 0.095844373 12236464
0.44502777 -0.12490043 0.095140986 13749188
0.43612665 -0.11441882 0.095186114 10788503
0.44022226 -0.11905996 0.092730492 13617087
0.42470837 -0.10283435 0.095439009 11381156
0.43111116 -0.10807452 0.094209373 12631222
0.41543061 -0.094020091 0.095714115 11380642
0.42121053 -0.0983667 0.092875406 11578535
0.40573245 -0.083823912 0.095307454 11183261
0.41134784 -0.088586964 0.093679845 11183262
0.38900003 -0.070905164 0.099243939 13156278
0.39468747 -0.073973551 0.095432684 11511712
0.40082613 -0.078569099 0.093650296 11381409
0.38599017 -0.064413518 0.095392816 12104104
0.39100003 -0.068686329 0.092375316 11709346
0.37831256 -0.052297018 0.097954661 12170155
0.38125503 -0.055855036 0.094236277 12103849
0.37660459 -0.044789881 0.095029391 10066068
0.38000003 -0.049397245 0.091017224 12170412
0.36842865 -0.032794613 0.097397663 2699053
0.37121359 -0.035797242 0.093766317 2830380
0.36846006 -0.026412718 0.097780161 2830382
0.37085721 -0.024272285 0.093630373 3027247
0.37480417 -0.015130489 0.095093846 11249566
0.37682813 -0.005278422 0.094972029 12170929
0.38000003 -0.00076649763 0.090720698 10724253
0.3782064 0.0029487121 0.097078167 12434099
0.38134089 0.0062539834 0.093694374 12565428
0.38504004 0.014678795 0.095062219 12500924
0.39040002 0.018588662 0.09100958 13091524
0.38808697 0.021377571 0.097506821 12499380
0.39358488 0.025762537 0.094320543 12763323
0.39735189 0.03293027 0.096304961 12961474
0.40161523 0.037178319 0.093878955 12829633
0.40615171 0.044684276 0.095638573 12894653
0.41075 0.048212484 0.091650069 13354946
0.40875003 0.051086999 0.098780103 13355975
0.41376469 0.055252675 0.094784655 13618887
0.41781253 0.062032223 0.096290618 13881802
0.42166671 0.066578202 0.094457105 13618630
0.42552686 0.074695729 0.094918653 13223872
0.42840004 0.080370136 0.092244402 13026495
0.44866669 -0.13149713 0.10116166 13683909
0.43815389 -0.12120961 0.10712393 13748671
0.44261906 -0.12479836 0.10287547 13748417
0.42880002 -0.11068396 0.1079924 10459280
0.4339079 -0.11509416 0.1050384 11314589
0.41783336 -0.10126761 0.10692469 11644326
0.42421216 -0.10550172 0.10468625 11973035
0.42999998 -0.10958422 0.10165099 12697014
0.40796152 -0.091920368 0.10697988 11578275
0.41304767 -0.095755689 0.10414431 11315361
0.39591673 -0.082053483 0.10683018 11446691
0.40453732 -0.086523451 0.10404541 11183519
0.3869583 -0.073418826 0.10608938 12170158
0.39299995 -0.077238813 0.10328098 11906983
0.37860006 -0.060737591 0.10757952 13157051
0.38255358 -0.065580435 0.10481889 12499637
0.37722403 -0.054543048 0.10520323 12828088
0.38022226 -0.058822114 0.10155362 12959161
0.37429032 -0.045224749 0.10501889 10658206
0.36612397 -0.034327403 0.1053341 2633003
0.37052622 -0.039370123 0.10411594 2040869
0.36587271 -0.02534835 0.105101 2764074
0.37 -0.020668389 0.10089287 3157543
0.36849999 -0.019577961 0.1053713 10657176
0.37305069 -0.014702686 0.10451704 11052445
0.37400022 -0.0050498904 0.104719 11710891
0.37548992 0.0050426233 0.10489956 12500152
0.37737685 0.013403137 0.10664313 12960446
0.38182896 0.016935522 0.10338318 12894908
0.38521722 0.024537185 0.10558157 13486788
0.39122227 0.028265374 0.10158993 13355203
0.38850001 0.031048939 0.10820964 13618374
0.39440694 0.035199132 0.1047717 12829885
0.40000001 0.039146535 0.10048964 13486532
0.39790913 0.042217486 0.10718784 13289922
0.40227279 0.045918431 0.10404439 13355458
0.40700021 0.053323459 0.10600796 13224130
0.41148782 0.057533119 0.10370868 13355459
0.41567376 0.064419486 0.10533425 13354689
0.42036369 0.068485163 0.102056 13947339
0.41875002 0.070962556 0.10903917 13221819
0.4226585 0.074522108 0.10474954 13683397
0.44460005 -0.13058218 0.1175908 14077381
0.43611538 -0.12218034 0.1159323 13748671
0.44269571 -0.12755699 0.11528522 13683135
0.42648649 -0.11233447 0.11552004 10985367
0.43157777 -0.11708453 0.11450355 11511454
0.41455367 -0.10333085 0.11564589 11446691
0.4222759 -0.10771916 0.11348599 11907242
0.40551266 -0.094525248 0.1150884 11512483
0.41140002 -0.098616339 0.11227445 11446687
0.39459187 -0.084153719 0.11316717 11380647
0.40081251 -0.088950738 0.11280932 11380644
0.38575011 -0.07385847 0.11374944 11644075
0.39000002 -0.077478416 0.11502002 9802642
0.37860879 -0.061304756 0.11258537 12565173
0.38200006 -0.065839484 0.11546112 11315363
0.37692586 -0.054835986 0.11482135 11513000
0.38000003 -0.059479233 0.11918747 10198168
0.37444213 -0.045717098 0.11411912 9802382
0.36381951 -0.034791585 0.11480939 2435622
0.36409548 -0.024921937 0.11489864 2500902
0.36705887 -0.019239392 0.11583559 9869201
0.37385726 -0.013609383 0.11466508 9736589
0.37372905 -0.0050839973 0.11448819 10394775
0.37438002 0.0048521948 0.11469723 11118499
0.37688357 0.015274897 0.11461547 12171704
0.38050002 0.019275121 0.11934429 9539729
0.37866673 0.021043556 0.11374592 13486022
0.38263378 0.025765615 0.11477051 12829378
0.38742521 0.034179226 0.1153307 13422026
0.39146879 0.038160082 0.1125834 13749964
0.39499995 0.044540994 0.11534201 13816011
0.40026671 0.048918184 0.11230006 14145488
0.398 0.051001586 0.11858902 14210511
0.4041189 0.055219453 0.11469393 13816524
0.40822864 0.061952099 0.1167623 13947342
0.41245568 0.066310659 0.11432551 14209997
0.41642195 0.073160641 0.11552136 13815500
0.42054176 0.076558061 0.11237651 12697016
0.44275004 -0.13045378 0.12176503 14209479
0.43458068 -0.12336167 0.12297165 13486015
0.44077784 -0.12849772 0.12173904 13880515
0.42624399 -0.11481845 0.12368942 10262672
0.43025002 -0.11871314 0.12218951 10656146
0.41350004 -0.10460277 0.12109786 11381156
0.40700004 -0.097060986 0.12034896 11578535
0.38733336 -0.071813628 0.12073106 9342085
0.38374078 -0.065034896 0.12152424 10525589
0.37844452 -0.053233117 0.12111147 10591896
0.38033336 -0.058542721 0.12127096 10460827
0.37800017 -0.046589799 0.1217244 9605774
0.36800003 -0.01883368 0.12059264 11054764
0.37476003 -0.013528054 0.12136886 9671823
0.37500003 -0.0029950107 0.12130632 10065809
0.37646431 0.0056379675 0.12229755 10920350
0.37840006 0.012377799 0.12264282 11118244
0.38115788 0.017128125 0.12337848 11513519
0.38602945 0.025173213 0.12376658 10986912
0.39000002 0.029342232 0.12780198 11908011
0.38839999 0.031586908 0.12206576 9802384
0.39415157 0.035452433 0.1261764 10855587
0.40000001 0.038990468 0.12920614 9539984
0.39557993 0.044803742 0.12322842 12105653
0.40058827 0.044427324 0.12862431 10328980
0.39775002 0.051420931 0.12196118 14078929
0.40416396 0.056393076 0.12489819 12960961
0.40769926 0.064493641 0.12544295 13749194
0.4106667 0.068711981 0.12207491 13552331
0.40900001 0.070347421 0.12780462 14275274
0.4135426 0.075162575 0.12497691 14078929
0.41700003 0.081160046 0.12835206 8352886
0.36850002 -0.041288562 0.13844171 9999762
0.36800003 -0.038648058 0.13782252 1381396
0.37083331 -0.035037097 0.13975179 1185555
0.36640003 -0.022444984 0.13842449 1840402
0.37080005 -0.027658412 0.13973925 791309
0.398 0.036467765 0.13042355 10986915
0.40000001 0.038990468 0.13061075 11448494
0.40240002 0.044792168 0.13120537 12303541
0.40799999 0.0548409 0.13100708 9934738
0.41000003 0.05820176 0.13243629 12434096
0.40800005 0.065176882 0.1308351 9603718
0.40900001 0.071464472 0.13091642 9078148
0.4137778 0.077202424 0.13064055 13946054
0.36423078 -0.041071873 0.14768972 5787204
0.37 -0.04059045 0.14030391 5525072
0.36542711 -0.035535783 0.14689702 988174
0.37092325 -0.034304511 0.14272308 988175
0.36587393 -0.024328802 0.14675051 1315854
0.37086964 -0.027324129 0.14355746 791309
0.362625 -0.018984366 0.14778994 5579555
0.361871 -0.041256052 0.15486844 2500899
0.35900006 -0.032116503 0.15887365 791566
0.36180666 -0.035241216 0.1546174 1317909
0.359 -0.028563233 0.15892926 791310
0.36121929 -0.02481786 0.15466863 1382931
0.36108336 -0.018972868 0.15333502 4270633
0.34658334 -0.041333314 0.16854137 2896426
0.35661539 -0.040791433 0.16565666 658954
0.36212498 -0.041423481 0.1620058 2172961
0.34766147 -0.034907442 0.16834176 2172961
0.35531527 -0.034577679 0.16467878 1449238
0.36042112 -0.037631184 0.16167304 1712408
0.34787333 -0.02473007 0.16828148 1975327
0.35530183 -0.025676848 0.16483635 1449241
0.36016676 -0.024661969 0.16112001 1580825
0.34840003 -0.019053997 0.16799867 2105886
0.35355559 -0.019567456 0.16559389 987921
0.33830002 -0.04091442 0.17936337 2961452
0.34259325 -0.041551251 0.17438783 2764070
0.3384546 -0.034822032 0.17796816 2369572
0.34276226 -0.035174865 0.17354158 2501157
0.33886206 -0.025957955 0.17784376 2238498
0.34180251 -0.025109965 0.17327297 2238500
0.33900002 -0.019333517 0.17854583 2567468
0.34070837 -0.019298043 0.17478754 2238761
0.33539483 -0.041318629 0.18376422 2370341
0.33402756 -0.035366487 0.18516082 2238242
0.33399981 -0.025933484 0.18565498 2106914
0.79207706 0.12498998 0.38494083 11053989
0.792 0.13471554 0.3853946 11054246
0.78890002 0.093335822 0.41568536 10659487
0.79070586 0.09629406 0.41372755 10725280
0.79000002 0.097745918 0.4250631 10790305
0.79217255 0.10456067 0.42515266 10856096
0.79110724 0.10588874 0.43385741 10856096
0.79173535 0.13490281 0.43437913 10987937
0.79060012 0.1446187 0.43397608 10987682
0.79020715 0.12496339 0.4438729 10921889
0.79000002 0.13526241 0.44335899 10856353
