# .PCD v0.7 - Point Cloud Data file format
VERSION 0.7
FIELDS x y z rgb
SIZE 4 4 4 4
TYPE F F F U
COUNT 1 1 1 1
WIDTH 654
HEIGHT 1
VIEWPOINT 0 0 0 1 0 0 0
POINTS 654
DATA ascii
0.40792862 -0.11309923 -0.05117752 15130584
0.40804663 -0.10496641 -0.052046075 15724004
0.4088462 -0.095725313 -0.051592533 12367535
0.41000006 -0.092283897 -0.052945584 14012362
0.40900001 -0.089152187 -0.051004082 15789284
0.41080648 -0.084400252 -0.051826861 14341582
0.41128129 -0.074996643 -0.051078591 14275530
0.41165397 -0.064579599 -0.05094609 13683397
0.4128125 -0.054915696 -0.051207922 13486787
0.41519997 -0.045079466 -0.051339842 13618886
0.41599995 -0.035362571 -0.051097918 12303540
0.41823083 -0.026146054 -0.051156979 11842988
0.42050004 -0.022011578 -0.050469093 11908012
0.42100003 -0.019575004 -0.050283007 11908527
0.40626094 -0.11411674 -0.044991933 16052713
0.40677887 -0.10489227 -0.045367174 16184813
0.40750039 -0.094995007 -0.044867512 12696756
0.40814191 -0.085299984 -0.044369645 14933718
0.41 -0.082731426 -0.04888922 13617088
0.40842345 -0.075020947 -0.04343842 13881288
0.41011998 -0.074446373 -0.048445936 13879745
0.40897939 -0.065830104 -0.042025682 13420998
0.41073325 -0.064400829 -0.046622921 13618631
0.40900001 -0.058465064 -0.040615462 14340043
0.41155323 -0.054677472 -0.045090836 14077637
0.41315714 -0.044941336 -0.0449262 13881287
0.41468886 -0.034994401 -0.045278996 13487043
0.41668478 -0.025391387 -0.0448328 12762806
0.42000005 -0.021073578 -0.048197117 12105389
0.41822222 -0.016316423 -0.042201746 12829625
0.42033342 -0.015549165 -0.04558292 12434870
0.42205554 -0.0068875123 -0.041847065 12565943
0.40617141 -0.11486008 -0.035368849 15460062
0.40536723 -0.10503958 -0.035113379 15591906
0.40673465 -0.095184311 -0.034909312 12235949
0.40782776 -0.084837228 -0.034865037 13947596
0.40831363 -0.0748685 -0.034871716 13355972
0.40848225 -0.064895526 -0.034922563 13618371
0.40836126 -0.054940045 -0.034781259 13486271
0.41 -0.051697332 -0.039371025 14077378
0.40849471 -0.045273963 -0.03413922 13815495
0.41033328 -0.043549482 -0.038717221 13486531
0.40893111 -0.036145814 -0.031642947 13550778
0.41110954 -0.034604564 -0.036370065 13880515
0.4123362 -0.024957979 -0.035258647 13026237
0.41559142 -0.014922433 -0.034819178 12829885
0.42000002 -0.010679457 -0.039348066 12172726
0.41780001 -0.0079812091 -0.032852348 13027526
0.42145908 -0.0041441675 -0.035766885 12764353
0.42629233 0.0034636259 -0.034178264 12106161
0.42999998 0.0086569889 -0.03385793 11974835
0.43200004 0.01302149 -0.032347403 11908785
0.40765426 -0.11486723 -0.02470069 15262684
0.40681526 -0.10496861 -0.024749519 14934232
0.40787882 -0.095102333 -0.024967281 12301999
0.40873769 -0.085051075 -0.025016651 13684165
0.41 -0.084331125 -0.020174678 13552062
0.40870413 -0.074976854 -0.024985125 13026492
0.408075 -0.064829476 -0.024857217 12829369
0.4076367 -0.05474025 -0.024832461 13288636
0.40739468 -0.045280047 -0.025093773 13552063
0.40764639 -0.035074092 -0.025172474 13354943
0.40843779 -0.025873687 -0.023685712 12763577
0.41052634 -0.022804074 -0.027839564 13026751
0.40899998 -0.018897358 -0.020723894 12105906
0.41208902 -0.014752588 -0.025134353 13026750
0.41637644 -0.005854141 -0.024470767 12435646
0.42046672 -0.0016351732 -0.027449632 12368821
0.41900003 0.00013572203 -0.020617537 12237746
0.42517868 0.0047019562 -0.025459539 12105391
0.42999998 0.0091990242 -0.02820527 13422025
0.42900002 0.010181929 -0.021109601 12894141
0.43328869 0.015004104 -0.024983158 11711664
0.43886966 0.021405116 -0.02566139 12040370
0.44275555 0.02583505 -0.023650175 12040625
0.44780004 0.031805918 -0.02266364 12106417
0.45333335 0.03817863 -0.021070512 12500921
0.45720005 0.042107563 -0.020570097 12369333
0.46000001 0.045377471 -0.020481266 12698554
0.4108572 -0.12105674 -0.012727603 14209482
0.40866181 -0.11430205 -0.0162067 14867925
0.41025805 -0.11682225 -0.012410361 15196890
0.40863848 -0.10528808 -0.015030394 14473682
0.41000003 -0.10141587 -0.010960432 11051671
0.40884027 -0.095653459 -0.017130787 11512741
0.41031575 -0.094303951 -0.012723764 12829370
0.40899995 -0.086678706 -0.018370096 13882832
0.40999988 -0.084710836 -0.014542347 13224127
0.40860263 -0.07452397 -0.015007197 12894648
0.41000003 -0.079148106 -0.012592119 14144457
0.40774786 -0.065144733 -0.014868478 13092539
0.40624774 -0.054988209 -0.014722624 12894391
0.4051789 -0.044817917 -0.015020587 13092026
0.40471146 -0.035020702 -0.015062293 13157820
0.40554819 -0.024977587 -0.014869601 12960440
0.40772316 -0.016100828 -0.014051546 12500661
0.41081485 -0.0122608 -0.017295087 12698298
0.40900001 -0.00944228 -0.010550707 12829113
0.41390631 -0.0051722596 -0.015154347 12500405
0.41804001 0.00095851289 -0.014543488 12501176
0.4225224 0.0054896539 -0.015284472 12236977
0.42770004 0.011354825 -0.012935644 11776942
0.43245834 0.016206197 -0.014981397 11908270
0.43791178 0.021913934 -0.014523755 11841705
0.44289294 0.026773961 -0.015276873 12170670
0.44796073 0.032719404 -0.015134023 12565429
0.45258832 0.0378564 -0.014917642 12499379
0.45738888 0.042446725 -0.015011688 12368821
0.4617942 0.047116529 -0.014933342 12566713
0.46631584 0.05186611 -0.013062127 12435383
0.4738 0.055951875 -0.015107381 12501175
0.41227785 -0.12088565 -0.0043048891 15131356
0.41191795 -0.11510345 -0.0048351572 14933975
0.40899998 -0.10566866 -0.0093538612 14999512
0.41080746 -0.10499884 -0.00438808 14210765
0.41105849 -0.095053472 -0.0049016676 12762548
0.41039068 -0.084894538 -0.0048213834 13486271
0.40863958 -0.074428126 -0.0045747953 12434097
0.41 -0.079236709 -0.0065157372 12827827
0.40711844 -0.065158986 -0.0047850562 12763062
0.404495 -0.055219512 -0.0047136261 12500148
0.40273553 -0.045127295 -0.0047403281 12960697
0.40143257 -0.035065856 -0.0047674389 13025721
0.40208343 -0.025240241 -0.0046925633 12434613
0.40521488 -0.015037435 -0.0047677383 12697783
0.40837216 -0.0079149427 -0.0040671467 12763318
0.41228363 -0.0033611045 -0.0053229779 12565425
0.41680554 0.0015751927 -0.0052547008 12237230
0.42206562 0.0066696918 -0.0055927145 12104620
0.42669398 0.011946023 -0.0045249616 12237234
0.43200001 0.017216811 -0.0046934886 11711407
0.43702036 0.022654504 -0.0042386288 12105908
0.44197503 0.02741082 -0.0052205273 12500405
0.44708622 0.033030443 -0.0048752972 12236976
0.45230007 0.038055938 -0.0042210673 12039855
0.45697829 0.043038525 -0.0045117238 11842993
0.46140006 0.047642302 -0.005061591 12171700
0.46624196 0.053219043 -0.0050383825 12368819
0.47062969 0.058587119 -0.0045481715 12631736
0.47520006 0.06437254 -0.0036452112 12632505
0.48019999 0.069628537 -0.001370108 12106161
0.48242858 0.073085666 -0.001230751 12566711
0.41415146 -0.12152764 0.0053919596 15065303
0.41307503 -0.11509959 0.0051916996 14933460
0.41199982 -0.10499699 0.0052861464 13420992
0.41165981 -0.094793886 0.0052825292 12763576
0.40899995 -0.081093423 0.0080402922 13815238
0.4104543 -0.085388057 0.0048840377 13027004
0.40827039 -0.074899144 0.0052364739 12368560
0.40562999 -0.064922065 0.00519958 12500147
0.40236008 -0.054978896 0.0051577543 12433583
0.3988637 -0.042271744 0.0078335516 12565940
0.4002907 -0.04558244 0.0043502366 12434098
0.39807951 -0.03498837 0.0069758003 12894905
0.39999983 -0.034973692 0.0022869422 13158077
0.39852276 -0.026394697 0.007486884 12302769
0.40010586 -0.02426526 0.0035435099 12368820
0.40262729 -0.014940374 0.0051614949 12763321
0.40690923 -0.0066024158 0.0055642826 12304313
0.41116667 -0.0018868018 0.0046004201 12304055
0.41513339 0.0035275728 0.0056811976 11579560
0.42066669 0.0083901333 0.0051858695 11580073
0.42570376 0.01260247 0.0053302222 11842476
0.43157902 0.017691888 0.0048461962 12170928
0.43687224 0.022887189 0.004919773 12170929
0.44203225 0.027686169 0.0055555161 11974834
0.44735557 0.032615714 0.0052171266 11974833
0.45230559 0.037739292 0.0052750902 11580331
0.45706671 0.042953979 0.0053304089 12107192
0.46162966 0.047702096 0.0053838748 11974576
0.46660793 0.05297567 0.005248196 12105132
0.47096673 0.058368683 0.0058232439 12236977
0.47570586 0.064096928 0.0052845073 12368821
0.48049998 0.069335066 0.0050401706 12566198
0.48420691 0.075155765 0.005178629 13158334
0.48828575 0.081154369 0.006836467 12631992
0.49112499 0.084667206 0.0078108702 13356227
0.41600013 -0.12212258 0.015413205 15065302
0.41385111 -0.11495779 0.015123868 14736081
0.41201872 -0.10482001 0.014822815 13552064
0.41148457 -0.09479785 0.014867054 12697524
0.408526 -0.083661482 0.015441253 12434611
0.41026086 -0.087976508 0.012883846 13420992
0.40684426 -0.074766457 0.015181301 12433839
0.40350935 -0.06492053 0.015037085 12368303
0.39846671 -0.051829752 0.017175147 12237490
0.40046531 -0.055991285 0.014347496 12105644
0.39709416 -0.04482976 0.015017066 12960183
0.40000001 -0.048797708 0.010516521 12104617
0.39571074 -0.03507401 0.014798312 12499632
0.39639652 -0.024923516 0.014823348 12631220
0.39800003 -0.017198918 0.016415225 12697270
0.40069008 -0.01315786 0.013904533 12566200
0.40480649 -0.0054603098 0.015444119 12171187
0.41025001 -0.0010674692 0.011265769 11317160
0.40900001 0.00013248283 0.017216107 12765895
0.41456994 0.0047102463 0.014757137 11711664
0.42020005 0.0099730697 0.015226439 10791589
0.42438895 0.013634003 0.015688939 11317934
0.43108335 0.018264672 0.013308733 11909558
0.43612763 0.022500381 0.014552994 11119783
0.44253129 0.027891433 0.014259643 11975091
0.44732603 0.032430694 0.01489051 11646127
0.4526251 0.037501879 0.015183248 11974063
0.45744997 0.042720765 0.014704816 11974319
0.46240625 0.047445081 0.015472637 12302768
0.46725002 0.052143294 0.015049855 12040369
0.47153848 0.057190083 0.015405896 11974576
0.47610536 0.063827656 0.015015765 12368819
0.48057145 0.069184601 0.014845605 12105649
0.4856886 0.075320825 0.014742641 12632506
0.48900002 0.080291443 0.01085312 12829883
0.4922857 0.084986471 0.015076808 12960954
0.49582145 0.092191532 0.01581786 12435125
0.41612512 -0.12239013 0.024896432 15262425
0.41413134 -0.11489991 0.02479518 14342094
0.41156581 -0.10511641 0.025120186 13091768
0.4088237 -0.093398012 0.026703713 13683905
0.41043091 -0.096895039 0.023420744 12434094
0.40733659 -0.085218631 0.024769865 12434096
0.40426981 -0.07511431 0.025055639 12237231
0.39819238 -0.062220614 0.027981587 11974315
0.40102381 -0.065880999 0.02444277 12302252
0.39697042 -0.054750711 0.025350695 12039597
0.40000004 -0.058864079 0.021519303 12169895
0.39394972 -0.044990756 0.02494574 12236720
0.39248756 -0.034789234 0.024785835 12631219
0.39329755 -0.024726372 0.024836589 12105390
0.39662722 -0.015117663 0.025368314 12302771
0.40000007 -0.010851935 0.022030072 12828344
0.3987143 -0.0089379465 0.028383229 13025979
0.40265971 -0.0048729046 0.024904752 12434102
0.40744001 0.0010877685 0.025310481 12040116
0.41412291 0.0065425346 0.024221681 11711920
0.42000002 0.0099683218 0.021120429 10658202
0.41811112 0.011229258 0.0273869 11514539
0.42322221 0.014477168 0.02509841 11645613
0.43050003 0.018952258 0.024335735 11185831
0.43666673 0.022636414 0.023861336 11646639
0.44217506 0.027346149 0.025185367 11777455
0.44738472 0.032294292 0.025142802 11842735
0.4526819 0.037338544 0.024835698 11842991
0.45789659 0.042141344 0.024190942 11842990
0.46267453 0.046805214 0.025193999 11776943
0.46740741 0.051581927 0.025148043 12171700
0.47230241 0.056470964 0.025204994 12106161
0.4772 0.06243021 0.024109263 11908526
0.48097217 0.067152403 0.025314078 12565941
0.48604417 0.074578084 0.024927899 12828856
0.49000001 0.079308532 0.028655345 13224132
0.49240842 0.084834628 0.025272429 12632248
0.49560004 0.091470763 0.023060763 12106162
0.41722021 -0.12333085 0.034878876 14867924
0.41406322 -0.11532573 0.035080999 14276045
0.40896004 -0.1012353 0.035749007 11050902
0.41128007 -0.1064605 0.034848496 12763318
0.40776458 -0.094744034 0.035117585 12763318
0.40514526 -0.084762 0.035070568 12302255
0.39900002 -0.070859782 0.038278699 13354680
0.40160793 -0.074924529 0.034515239 12105645
0.39701951 -0.064645961 0.035534654 11973801
0.40000004 -0.068579309 0.031936835 11315614
0.39367834 -0.054934688 0.035116438 11908267
0.389 -0.043079566 0.038938273 11777198
0.39115778 -0.044638176 0.034861445 12171696
0.38885179 -0.034432501 0.037793174 11908784
0.39050022 -0.035004262 0.03266843 12040370
0.38896769 -0.027573083 0.037697896 12828340
0.39113662 -0.023966759 0.033905625 12237747
0.39384437 -0.014659469 0.035049815 12565942
0.39750004 -0.0078022606 0.036107235 12303284
0.40185711 -0.0034115566 0.034397099 12105649
0.40678722 0.0017977739 0.035354067 12040113
0.41372731 0.0072311284 0.03462619 11711405
0.41795 0.011388303 0.034716222 11448490
0.42416668 0.016022839 0.035132948 11514539
0.43450004 0.022964614 0.036651369 11645355
0.44222224 0.027609693 0.033997364 11975094
0.44705412 0.032083251 0.03479892 11645613
0.45351112 0.03731218 0.035015717 11974833
0.45850006 0.041473337 0.034863394 11777711
0.4635714 0.046204261 0.03490033 11974578
0.4686923 0.050961629 0.034247555 11513001
0.47298276 0.055735674 0.03518058 12434357
0.47800007 0.061612368 0.034355238 12369078
0.48174474 0.066554815 0.03510841 12434870
0.4867827 0.073466852 0.034735471 12369332
0.49068421 0.078453049 0.035830412 12697783
0.49314812 0.084331907 0.034933947 12303285
0.49400002 0.090364121 0.030045729 12040367
0.4165909 -0.12333864 0.045123052 14670545
0.41388902 -0.11517542 0.045034356 14539218
0.40850878 -0.10243915 0.045365989 10921114
0.41099995 -0.1076703 0.044475503 12631733
0.40681928 -0.095212877 0.044994254 12960183
0.40320197 -0.085085452 0.045475997 12301996
0.39778954 -0.072869331 0.045658339 11775654
0.40046147 -0.077430815 0.043988064 11513253
0.39462164 -0.065047055 0.045192547 11644837
0.38888887 -0.052036598 0.047086243 12170411
0.39131033 -0.056010261 0.044119291 12171183
0.38792264 -0.045185927 0.04503753 12433839
0.39000002 -0.049175512 0.04015426 12435380
0.38676038 -0.03528871 0.045070276 12434097
0.38749251 -0.025270067 0.044953838 12170926
0.39000002 -0.020872602 0.04015426 10263702
0.38867503 -0.018116655 0.046976991 12302771
0.39164037 -0.014093355 0.043916129 12106164
0.39546871 -0.0071969093 0.04579122 11975348
0.40077496 -0.0021204264 0.044450708 11974320
0.40576684 0.0031202133 0.044527307 11580849
0.41300005 0.0085061472 0.044355109 11514283
0.41728574 0.011346858 0.044682343 11975092
0.42379108 0.015964476 0.044832084 11251111
0.43492311 0.023945432 0.044603322 11645866
0.44135296 0.028466798 0.045382746 11515053
0.44604173 0.03138664 0.045751259 11843504
0.45362005 0.036751047 0.044538684 12171955
0.45857146 0.041326214 0.044609632 11842990
0.46479061 0.046619814 0.045495424 12106163
0.46892855 0.051041435 0.045771144 12237749
0.47301707 0.055829961 0.044757728 12237490
0.47822231 0.061170034 0.044758696 12895422
0.48250949 0.066189349 0.045076739 12631992
0.48705563 0.072880596 0.044730339 12895934
0.49115622 0.077988446 0.045072556 12698299
0.49587247 0.084391534 0.044611312 12237747
0.41650668 -0.12397253 0.055206731 14077896
0.41235334 -0.11474667 0.055001114 14933717
0.40841809 -0.10396533 0.055060193 10789530
0.41031575 -0.10886515 0.053618997 13552322
0.40524995 -0.094974175 0.055138178 12434097
0.39883336 -0.0812563 0.05755797 11315104
0.40134746 -0.0855048 0.054679006 12039340
0.39617583 -0.074719347 0.055124655 11776167
0.40000001 -0.079090476 0.051297057 12763833
0.38900003 -0.061495062 0.058567971 12763058
0.39199042 -0.065249436 0.054804396 11973032
0.38788196 -0.054717034 0.055516947 12038824
0.39015386 -0.05846931 0.051762283 11973546
0.38488773 -0.0448316 0.055111282 12301483
0.38340127 -0.034880381 0.055172592 12105389
0.38421866 -0.025155008 0.055137403 12434097
0.38740197 -0.015903465 0.055409934 12237493
0.39047366 -0.011659929 0.052614246 12500149
0.38900003 -0.009891212 0.058719747 11447980
0.39438719 -0.0055525317 0.055148099 11842476
0.40000001 -0.00096290751 0.052108604 11580075
0.40487108 0.0038881269 0.055152338 11645869
0.41118747 0.0092786709 0.056292571 11382183
0.41504765 0.012216659 0.057214469 11711146
0.42543483 0.016991407 0.055660881 11053732
0.43000004 0.0192654 0.052829068 11974579
0.43326315 0.023107246 0.05431588 11382697
0.44085717 0.028304243 0.053202808 11382183
0.44704553 0.031687789 0.055973783 11447976
0.45517147 0.037270498 0.053442348 11776945
0.45900005 0.040980715 0.05478017 11513771
0.46376917 0.045810599 0.055031087 11908529
0.46875 0.050904516 0.054024745 11579818
0.47367284 0.055587616 0.055324148 12106420
0.47900003 0.060707934 0.05576542 12763577
0.48293555 0.065592714 0.05520926 12500664
0.48768434 0.072837532 0.055020358 12434875
0.49096769 0.077687591 0.054440483 12566460
0.49481818 0.082623072 0.052097868 12040370
0.41800001 -0.13001116 0.068968587 11315362
0.41619772 -0.12443751 0.064853385 14143432
0.40892303 -0.11150312 0.067801908 14210764
0.41160002 -0.11546128 0.064707793 14933459
0.40739483 -0.10514254 0.064961158 11052443
0.40320987 -0.095165655 0.065059975 12565426
0.39720002 -0.083760872 0.065923326 11645097
0.4002777 -0.088162683 0.063336298 12367277
0.39322609 -0.075006172 0.065092877 11841704
0.38797677 -0.063804619 0.065752581 12039080
0.39078128 -0.067800693 0.062817402 11315616
0.38505542 -0.054868884 0.065013453 11907496
0.38213599 -0.044739481 0.064960539 12367533
0.38077703 -0.03464213 0.065052852 12170669
0.38135207 -0.024770325 0.064977206 12236722
0.384938 -0.015225167 0.065023974 12565943
0.3884865 -0.0087957829 0.065779947 12237238
0.39378476 -0.0039202133 0.064533524 11776686
0.3979412 0.00045802025 0.065902203 11315876
0.40310872 0.0041213487 0.063885175 11776169
0.41189998 0.0095838774 0.066226825 11119269
0.41573685 0.012639026 0.066319078 11185061
0.4234091 0.017397901 0.066022702 11514797
0.42845452 0.020655254 0.064445265 10987683
0.43312198 0.023941772 0.064724997 11514025
0.44236365 0.028670294 0.065599613 11777454
0.44731441 0.03198253 0.064990535 12040625
0.45376599 0.037356321 0.064799078 11974576
0.45861116 0.041423559 0.06540931 11909039
0.46401751 0.046241418 0.064925045 11974833
0.46881819 0.050837025 0.065429226 12106163
0.47406462 0.055762365 0.064754419 12040626
0.47900006 0.06070793 0.064455859 11844272
0.4832904 0.065733179 0.065032452 12304054
0.48791438 0.073000975 0.063943081 12171698
0.49061108 0.076282449 0.066977002 11777195
0.41640005 -0.13048832 0.077963784 14538959
0.40900001 -0.12050954 0.079452068 15788000
0.41465974 -0.1250969 0.074976563 14209481
0.40785941 -0.11365402 0.07594566 14603982
0.41106451 -0.11773567 0.072990395 15130327
0.40496215 -0.10490961 0.074931659 11314330
0.39795005 -0.092077807 0.076673046 11907499
0.40110144 -0.096262544 0.074281231 12499377
0.39523068 -0.084984809 0.074562773 11513509
0.38866669 -0.072664887 0.076652758 11776168
0.39103073 -0.076601356 0.074184105 11842219
0.38595155 -0.06513527 0.074944556 11841702
0.37900001 -0.050450243 0.079835013 13814723
0.38190901 -0.055201665 0.074965872 12039082
0.37835383 -0.043975525 0.077080801 11381924
0.38054088 -0.046114363 0.073191382 11841961
0.3772352 -0.034825228 0.075307086 9013637
0.38000008 -0.038210019 0.070745423 11843249
0.37707371 -0.025476409 0.076038241 8882309
0.38024139 -0.022866031 0.071624443 12171702
0.37833342 -0.018417221 0.078217395 12237750
0.38236284 -0.014664602 0.074652784 12631481
0.38663462 -0.0080331629 0.075712137 12039348
0.39269641 -0.0027253288 0.074765965 11579563
0.39652634 0.0013027709 0.074963421 11580333
0.40448493 0.0051684654 0.073007099 11974576
0.41183341 0.0092927627 0.074219637 11381923
0.41514292 0.012953551 0.074732885 11448231
0.42229167 0.018181162 0.075274609 11514539
0.42600006 0.021256108 0.075900793 11119525
0.43457898 0.02478011 0.074840844 11513769
0.44200003 0.028657028 0.074878186 12435129
0.44602272 0.032304961 0.07479576 11711406
0.45382145 0.037867904 0.075065739 11645611
0.45861545 0.041276999 0.074720792 11842990
0.46375874 0.045908328 0.075020954 11908526
0.46872729 0.050927017 0.07329952 12237489
0.47378707 0.055713918 0.075141944 12040367
0.48360565 0.065274991 0.075157143 12369077
0.48776469 0.071491569 0.075134709 12303285
0.4917143 0.076025523 0.072662167 11645609
0.41503337 -0.13164669 0.084922597 14341324
0.40795842 -0.12279091 0.086071014 14472395
0.41223401 -0.12694703 0.084059246 14011844
0.4050732 -0.11510333 0.085022084 14077638
0.39809999 -0.10145555 0.088517234 13485500
0.40182701 -0.10541224 0.08468084 11906983
0.39581472 -0.094667874 0.085409775 12301741
0.40000001 -0.098755032 0.081262074 12499895
0.38878259 -0.081589639 0.08739505 11775654
0.39202121 -0.085677005 0.08437869 11907497
0.38678959 -0.074774988 0.085152879 11512737
0.39000002 -0.078939214 0.081056528 11841960
0.37899998 -0.060843702 0.088834219 11974571
0.38216817 -0.065156005 0.084854454 12170926
0.37836149 -0.05387697 0.086069368 12433583
0.38038635 -0.056748103 0.082089305 12170411
0.37630758 -0.044700522 0.084919252 10460824
0.37167433 -0.034688555 0.084811881 2699307
0.37143251 -0.024756623 0.084617458 3159604
0.37668243 -0.016779639 0.085504092 11184807
0.38095996 -0.012253795 0.084080398 12500150
0.38556603 -0.0058884774 0.0853239 11908270
0.39082354 -0.0014334868 0.083184198 12171184
0.39399999 0.0022420438 0.085113198 11580332
0.40300003 0.0079277894 0.086619936 11317159
0.40799999 0.011707668 0.087009333 11580073
0.41514644 0.014434325 0.083622523 11514024
0.42122734 0.01887363 0.083483607 11645868
0.42509091 0.022487607 0.084931768 11711151
0.43462503 0.026604528 0.085930258 11842480
0.44037503 0.028751057 0.082968615 11184806
0.44543481 0.03290974 0.085118338 11908528
0.45333341 0.038179167 0.084453985 11908783
0.45836851 0.041489866 0.085483886 11645611
0.46449065 0.046528578 0.085074589 11908525
0.46900001 0.050657038 0.087813817 12368563
0.47362325 0.055218838 0.084771946 12303283
0.4788 0.06090685 0.085948519 12500405
0.48159635 0.065160923 0.084270559 12105904
0.48600003 0.07069698 0.080757231 10856096
0.40885714 -0.13085923 0.093917556 14603980
0.41116667 -0.13318078 0.093426682 14473165
0.39900002 -0.12083232 0.09992706 15065558
0.40393758 -0.12447085 0.094872959 14669517
0.39828956 -0.11414174 0.09825103 11381152
0.40124387 -0.11548933 0.093621612 13288120
0.39603156 -0.10453366 0.095582955 12959927
0.40017653 -0.10832148 0.091844708 11248027
0.38889998 -0.091735825 0.097624645 12105132
0.39211214 -0.095642671 0.094391495 12433841
0.38669363 -0.084517926 0.095246375 12235947
0.39054549 -0.088392921 0.091409326 11907498
0.37883332 -0.071121491 0.098866709 12105133
0.38271669 -0.07530167 0.094864257 11907754
0.37802854 -0.064491123 0.095986664 12170926
0.38058063 -0.067359954 0.091892697 11644327
0.37661579 -0.054740459 0.09485022 12236462
0.37468943 -0.045170937 0.095075645 10395031
0.36811233 -0.033218883 0.095867455 2567720
0.37076285 -0.037131727 0.093590863 2501415
0.36813274 -0.026085779 0.095895007 2698540
0.37054351 -0.022752127 0.093101583 2829612
0.37610701 -0.015357589 0.095124699 11382182
0.38025001 -0.010558895 0.091224588 11250600
0.37872726 -0.0091462648 0.098395251 12500409
0.38286775 -0.0050404607 0.094752528 12039598
0.38791186 0.0013826408 0.096504502 11842217
0.39395314 0.0050837998 0.094683677 11579046
0.4007895 0.0087229609 0.093310528 11711146
0.39850003 0.010390934 0.099334806 10066065
0.4043889 0.012260844 0.096195363 11316645
0.41284999 0.016329126 0.093485594 11645610
0.43533337 0.027659679 0.091362767 11842991
0.44613639 0.033766426 0.093793385 12171699
0.45203999 0.038372163 0.095005445 11776941
0.45667744 0.042122159 0.095985264 11711147
0.4634186 0.046906993 0.094462015 11843503
0.46847367 0.051120263 0.09510316 12040882
0.47301763 0.056053475 0.094760224 12105904
0.47835723 0.061267227 0.094044343 11908526
0.48048148 0.064604312 0.094003551 11908528
0.39843756 -0.12136173 0.10258415 13222844
0.4016667 -0.12372088 0.10378181 13749443
0.39703268 -0.11439654 0.10290918 10591894
0.40129995 -0.11692804 0.1079268 10525331
0.39306986 -0.10478197 0.10387634 12499891
0.40000001 -0.10943007 0.10954157 7697007
0.38834485 -0.093312845 0.10371539 12236974
0.39078057 -0.097804815 0.10512344 11710633
0.38409802 -0.084786385 0.10421661 12236975
0.37825459 -0.072796091 0.10447173 12302514
0.38088229 -0.07717219 0.10451493 11842217
0.37631348 -0.065112144 0.10472672 12565942
0.37446475 -0.054956522 0.10465181 12631733
0.36833334 -0.040407613 0.10862923 3420977
0.37333065 -0.045480601 0.10474021 10329240
0.36608332 -0.034707256 0.10536677 2435879
0.37044445 -0.039483268 0.10231438 2369062
0.36526856 -0.025196506 0.10501064 2632231
0.36849999 -0.019577963 0.10378996 11775396
0.3748661 -0.014284512 0.10455235 11381923
0.37782902 -0.0069280211 0.10567782 12236977
0.3814528 -0.0026366774 0.10363302 11842992
0.38576409 0.0031476838 0.10548413 11711403
0.39267743 0.0079881074 0.1040554 11908525
0.39611766 0.011859495 0.10680779 11184548
0.40289998 0.014659217 0.10413909 11119267
0.41100001 0.017451981 0.10004591 12040367
0.44628006 0.035880577 0.10436791 11645611
0.45133337 0.039005268 0.10293604 11580076
0.45569453 0.042291395 0.10505452 11579820
0.46282351 0.047318414 0.10501121 12105651
0.46813333 0.051075801 0.10482152 11710892
0.4731178 0.056168623 0.10485161 11908526
0.47544998 0.061037563 0.10471358 11645610
0.40813047 -0.12241204 0.113433 13288893
0.4101429 -0.1240013 0.11533682 12697013
0.40630439 -0.11490785 0.11484355 9539211
0.39741668 -0.10182359 0.1128679 10328979
0.40230152 -0.10585164 0.11627217 10921373
0.395439 -0.094841741 0.11507459 10000275
0.40000001 -0.09881746 0.11952993 9341827
0.38784212 -0.08276163 0.11400586 9342344
0.39220005 -0.087101027 0.11648405 9999757
0.37900001 -0.070856899 0.11000136 10262419
0.38346744 -0.074827604 0.11506636 10131858
0.37806913 -0.063869528 0.11459571 11052446
0.38044003 -0.068241425 0.1166893 10855326
0.37619445 -0.055022381 0.11485229 11118752
0.36833334 -0.040551584 0.11323168 3618356
0.37419781 -0.046004485 0.11506864 9408137
0.36309084 -0.034700938 0.11538244 2106916
0.36343512 -0.02515736 0.11539214 2238243
0.36766669 -0.019020066 0.11540171 8619393
0.37392002 -0.013677074 0.11545274 10526875
0.37639007 -0.0053874846 0.11492199 11514030
0.37852389 0.00084041164 0.11678221 11974321
0.38372818 0.0053177192 0.11493016 12303799
0.39060003 0.0090879407 0.11098923 11119780
0.38850001 0.010509428 0.11768319 12566713
0.39233929 0.01275918 0.11453871 11909297
0.45750004 0.043297332 0.11236041 11776939
0.4634167 0.047619123 0.11352431 11908269
0.46888891 0.051011015 0.11487 11710891
0.47172233 0.054854784 0.1129498 11908014
0.40671429 -0.11249195 0.12062901 9143933
0.40275002 -0.10472479 0.12094655 10131856
0.39740005 -0.093698919 0.12157454 9342602
0.40014288 -0.098496147 0.12189244 10460820
0.38900003 -0.08069472 0.12041669 9342342
0.39220005 -0.084685132 0.12176111 9869458
0.38633335 -0.076180346 0.1211677 10789532
0.37800002 -0.061157219 0.12099367 11382437
0.38100001 -0.069446959 0.12039306 11249829
0.37774205 -0.054192737 0.12116094 9145477
0.36900002 -0.041344583 0.1200565 8617856
0.37622726 -0.046443526 0.12140524 8882050
0.359 -0.032660306 0.12520719 2173736
0.36044937 -0.034613844 0.12303265 2304805
0.35900003 -0.029298605 0.12520719 2042406
0.36137789 -0.024588276 0.12318544 2370345
0.36617243 -0.018145205 0.1252795 9936022
0.37392214 -0.013772577 0.12395708 10263962
0.37736371 -0.0056752432 0.12404656 9868947
0.38050005 -0.0022359097 0.12794052 10592925
0.37850001 0.00071371038 0.12108025 10790044
0.38304001 0.0042339033 0.1246414 10527131
0.39033332 0.0089598782 0.12943444 9409424
0.38675001 0.010765788 0.12213257 12172471
0.39581639 0.016593503 0.12571953 11908271
0.39800003 0.021050386 0.12737428 12040112
0.45875007 0.046865661 0.12851641 11842989
0.46117398 0.048075724 0.12422321 11842991
0.46266672 0.050574355 0.12441227 11974321
0.37050003 -0.0393437 0.13962618 1579028
0.37875003 -0.0067482032 0.1305438 10657691
0.38080004 -0.002726607 0.13120531 10593698
0.38623536 0.0032726075 0.13276422 10856353
0.39126325 0.0079384688 0.13298865 9539978
0.39553127 0.013943197 0.13163492 8289658
0.44900003 0.039036769 0.13487309 11842476
0.44900003 0.04061345 0.13347161 12302515
0.45349124 0.044712029 0.13573039 11908269
0.46074998 0.051744696 0.13597576 11250854
0.36373335 -0.040865604 0.14716949 3748652
0.36536026 -0.035494376 0.1470847 791309
0.37072232 -0.034272406 0.14371099 791308
0.36424991 -0.024470728 0.14652888 1315854
0.37077421 -0.027852191 0.14468472 594187
0.36100003 -0.019038836 0.14928603 5381403
0.36068749 -0.041178286 0.15518638 1515029
0.35900009 -0.03161978 0.15826392 857103
0.36101484 -0.03541607 0.15427345 1120787
0.35900009 -0.027350344 0.15848039 1053454
0.36068803 -0.02454534 0.15438735 1317138
0.36100003 -0.018757131 0.15365243 3286048
0.34624013 -0.041549634 0.16808912 2370337
0.35580003 -0.040805589 0.16583166 725002
0.36033335 -0.040654451 0.16306685 725002
0.34705016 -0.035306275 0.16803442 1910302
0.3555738 -0.034326766 0.16482888 1251604
0.3601 -0.037003942 0.16178365 1515030
0.34821945 -0.026009828 0.16908425 2107425
0.3544184 -0.025416017 0.16504316 1317396
0.36000001 -0.024042696 0.1603903 1053197
0.34900001 -0.01949532 0.16992341 2236958
0.35188234 -0.019220212 0.16725123 1842462
0.34244835 -0.041713707 0.17369965 2567206
0.34240788 -0.03491636 0.17353494 2173217
0.34335333 -0.02535959 0.17319311 2041376
0.34400004 -0.019617502 0.17271999 1844771
