# .PCD v0.7 - Point Cloud Data file format
VERSION 0.7
FIELDS x y z rgb
SIZE 4 4 4 4
TYPE F F F U
COUNT 1 1 1 1
WIDTH 432
HEIGHT 1
VIEWPOINT 0 0 0 1 0 0 0
POINTS 432
DATA ascii
0.44775 -0.082140297 -0.062582746 13946056
0.45200002 -0.086626537 -0.060686719 13618116
0.4448427 -0.07473404 -0.063963726 15722982
0.44481397 -0.067178093 -0.063595556 16447991
0.46833336 -0.10144666 -0.052158732 13617862
0.4714286 -0.10532788 -0.051257811 13420996
0.45852947 -0.091345347 -0.056214772 13486531
0.463175 -0.09538506 -0.052902054 13552325
0.44882351 -0.081315294 -0.056448303 13157054
0.45439661 -0.086097963 -0.054888055 13289153
0.43900001 -0.071026504 -0.051148236 16249325
0.44356951 -0.075296856 -0.055199042 14538451
0.43878052 -0.066174403 -0.052357391 16645628
0.44158694 -0.064236231 -0.056363095 16447993
0.44712007 -0.057754911 -0.053780731 15329256
0.45000002 -0.056214243 -0.054800138 15263463
0.48600003 -0.12129577 -0.041264832 13420996
0.47766671 -0.11054967 -0.048102956 13552325
0.48280558 -0.1145419 -0.042874984 13420996
0.46900001 -0.10085832 -0.049428362 13552582
0.47451526 -0.10484583 -0.045052752 13355203
0.48000002 -0.10940416 -0.042159997 13355203
0.46642187 -0.093980633 -0.045653179 13223361
0.47033337 -0.098355979 -0.043108139 13157824
0.45488891 -0.082881108 -0.046634372 12959932
0.463 -0.087496929 -0.043706968 13223360
0.43885008 -0.071362004 -0.044710662 15327707
0.44379163 -0.075838037 -0.045602385 13420224
0.45000002 -0.079390317 -0.043212101 12630197
0.43632191 -0.064877808 -0.045075409 16579834
0.43650007 -0.058382466 -0.043176167 16645372
0.44188893 -0.058239512 -0.04852663 15921906
0.49845457 -0.13137949 -0.032799952 13486532
0.5 -0.1326908 -0.030455809 13289410
0.48788893 -0.12141857 -0.038218863 13420996
0.49420837 -0.12503867 -0.033541005 13354946
0.48539665 -0.11451886 -0.035947733 13223617
0.4914546 -0.11834442 -0.031606987 13026238
0.47704169 -0.10249639 -0.036731333 13223361
0.48144448 -0.10629232 -0.033830304 13157824
0.46850002 -0.091611855 -0.038773194 13223617
0.47391054 -0.095658712 -0.034700263 13157824
0.48000002 -0.099852808 -0.030361267 13289664
0.456 -0.081340782 -0.039163973 12630967
0.46536842 -0.08666417 -0.037803438 13092031
0.47069234 -0.087237559 -0.032059886 12960445
0.43545458 -0.072145045 -0.03484422 14012104
0.44266668 -0.075854249 -0.03870843 13156541
0.42900002 -0.061123133 -0.030148273 16580603
0.43194598 -0.06500347 -0.034930933 16119024
0.43295828 -0.056431644 -0.034983106 16448507
0.50145006 -0.13190258 -0.026375484 12960445
0.49786365 -0.12373019 -0.025368948 13289410
0.50021428 -0.12839831 -0.024781024 13355203
0.48790911 -0.11167515 -0.028264284 13025981
0.49298039 -0.11570688 -0.024637785 13157823
0.48470002 -0.10469823 -0.025093017 13092030
0.49000001 -0.10996276 -0.021243451 13289921
0.47717142 -0.092819825 -0.025805512 13092031
0.48073533 -0.096796505 -0.023356359 13092286
0.46900001 -0.083291322 -0.0241758 12631734
0.47293034 -0.087031528 -0.025121212 12894907
0.43204007 -0.07187558 -0.02611924 13420224
0.4276419 -0.064128883 -0.024365336 15789800
0.43015787 -0.068125613 -0.027208989 14801621
0.42754564 -0.056455284 -0.023735825 16515067
0.43036851 -0.053256072 -0.027116895 16448762
0.42766669 -0.049586251 -0.020710789 16382967
0.43050003 -0.048236519 -0.023200199 15856366
0.49865618 -0.12288663 -0.01621907 13420995
0.50033337 -0.12789941 -0.019544341 12763066
0.49585712 -0.11523217 -0.015223024 13421251
0.4869144 -0.10308459 -0.015879037 13092542
0.49156663 -0.10732463 -0.013483282 13355457
0.47900006 -0.090673991 -0.015079724 13026748
0.48287052 -0.096101962 -0.015107971 12960956
0.4679333 -0.081642501 -0.01608769 12434099
0.47335136 -0.086468078 -0.014576495 12697784
0.42700002 -0.070834331 -0.016013116 12960186
0.46575004 -0.079443164 -0.015831679 12236721
0.42456314 -0.064597785 -0.015343552 14933720
0.42322543 -0.054953489 -0.015308714 16514810
0.42536363 -0.047568548 -0.014506277 16317177
0.49899998 -0.12054905 -0.0089784851 13289154
0.5 -0.12079063 -0.007045629 13354946
0.49813458 -0.11403362 -0.0054928665 13420996
0.50094444 -0.11776248 -0.0019103895 13157824
0.48880005 -0.1007681 -0.0078026773 13027006
0.49316671 -0.10533089 -0.0045011421 13289666
0.48485488 -0.094775915 -0.0046300725 12829628
0.49050003 -0.099453777 -0.00088305614 13092801
0.46779999 -0.081327133 -0.0090007987 12435125
0.47614819 -0.085925438 -0.0058299112 12500663
0.48071429 -0.088105015 -0.0021908255 12500921
0.46433339 -0.079201519 -0.0087162862 12040367
0.41790912 -0.061766569 -0.0023342425 14736340
0.42180955 -0.064452723 -0.0075934092 14276046
0.41740894 -0.055041198 -0.0038880988 16316917
0.4204616 -0.054756172 -0.0089539308 16382965
0.41816667 -0.0475372 -0.0018803022 16514812
0.42171699 -0.045444828 -0.0057457918 16382968
0.49880949 -0.11177331 0.0050937175 13421250
0.50106245 -0.11633364 0.0026164351 12960444
0.49557802 -0.10484383 0.0052012769 13355458
0.48725003 -0.092889763 0.0040134974 12631993
0.49128562 -0.096945293 0.0062631173 12960958
0.47747377 -0.082327418 0.0049198377 12171699
0.48346433 -0.087523118 0.0059627327 12434871
0.47490904 -0.079388432 0.0057404409 12105906
0.41624236 -0.061845757 0.0045231353 13947338
0.41421565 -0.054760054 0.0053817052 15921387
0.41575795 -0.045242876 0.0049498761 16514556
0.42000002 -0.040176284 0.00096426392 15527918
0.41842863 -0.038556304 0.0072568245 15658991
0.42111117 -0.036826968 0.0060057258 14869989
0.49784309 -0.10395601 0.014286834 13355457
0.50039995 -0.1065565 0.017784592 13289666
0.48850003 -0.090471342 0.011128212 12500151
0.49292302 -0.095091552 0.015055808 12829627
0.47850001 -0.080497757 0.010620663 12236722
0.48465529 -0.084987089 0.01482897 12237236
0.49000001 -0.089314982 0.017757908 12369333
0.47800002 -0.078174695 0.011169888 11973550
0.48069444 -0.077241592 0.015889546 12039343
0.41300008 -0.06120687 0.0146451 13354944
0.40877274 -0.051977906 0.017118648 15987178
0.4114103 -0.056077585 0.014254131 14868441
0.40858987 -0.046638303 0.017246678 16449017
0.4114286 -0.04418182 0.013600731 16514813
0.41535828 -0.036650054 0.015355446 15790834
0.49900001 -0.10059286 0.021880617 13092031
0.5011667 -0.10363366 0.024340892 13026238
0.4957543 -0.094956696 0.025023919 12763323
0.4851054 -0.084407471 0.024883404 12171442
0.49050003 -0.089262739 0.026820844 12434614
0.48120421 -0.077044919 0.024833584 11908270
0.41245458 -0.061399844 0.021925442 12828600
0.40725318 -0.053916775 0.025213245 14407890
0.41089478 -0.058139771 0.021901632 13552323
0.40560508 -0.04506024 0.024725188 16317173
0.41000003 -0.040179525 0.020137653 16580606
0.40746349 -0.037857201 0.026476962 16449275
0.41267693 -0.033953786 0.023697246 15528176
0.41737145 -0.02741538 0.025636105 14212060
0.42000002 -0.02542787 0.029477863 14080472
0.49734291 -0.093685627 0.03414176 12632248
0.50038457 -0.096614346 0.036652692 12763833
0.48656762 -0.082904741 0.034551896 11974576
0.49200001 -0.087878592 0.035584975 12171955
0.48406246 -0.076572791 0.035086688 11776940
0.40800002 -0.060041364 0.036754288 12302769
0.40524998 -0.054655246 0.034955081 13355201
0.39900002 -0.042837799 0.038823571 16119279
0.40142208 -0.045184322 0.034270339 15855851
0.40431628 -0.035032395 0.035127278 16448761
0.41033337 -0.030926153 0.031681195 15528171
0.40676925 -0.028507352 0.038361724 15461869
0.41742873 -0.024631884 0.034503412 14277850
0.42000002 -0.023461416 0.032427546 14014681
0.41800001 -0.019435512 0.03471949 13817553
0.49878576 -0.091583945 0.04409948 12697784
0.50037503 -0.093695775 0.045368422 12829113
0.48820001 -0.081673086 0.041579254 12039597
0.49439284 -0.085392483 0.045429673 12434355
0.48666668 -0.078360491 0.042609323 11908011
0.49150002 -0.079232909 0.047733404 11973804
0.40820003 -0.060262293 0.045468017 11973550
0.40361956 -0.05450156 0.045150138 12762809
0.39694279 -0.044391613 0.045073859 15329250
0.40000007 -0.049074374 0.04229052 14210253
0.39647505 -0.035681412 0.04608598 16448502
0.4008387 -0.033374812 0.041571595 16448760
0.39673918 -0.025822334 0.047546893 15067623
0.40260875 -0.027975034 0.042711813 15593710
0.41000003 -0.025782263 0.040293816 13751507
0.49900004 -0.091442205 0.053615849 12500149
0.5 -0.09308859 0.051089644 12763576
0.49779671 -0.085769691 0.054859556 12565687
0.49338463 -0.077765115 0.057277024 12105136
0.39881819 -0.050287411 0.055064872 13025980
0.40357405 -0.054186992 0.055097491 12368051
0.3937946 -0.044602573 0.055000383 14407633
0.38900003 -0.034934249 0.059175078 15921902
0.39191392 -0.034670971 0.054737803 16185073
0.39412099 -0.026281973 0.054772187 15790834
0.49778175 -0.08469905 0.064429283 12434099
0.4932093 -0.077095941 0.065095276 12105135
0.39686668 -0.051156126 0.063835531 12368308
0.40464288 -0.055025481 0.06100839 12039342
0.38877776 -0.041588921 0.067533687 14210254
0.39249432 -0.045608714 0.064256512 13420483
0.38791478 -0.035193931 0.065014243 15526885
0.39000002 -0.034567557 0.06024019 15856107
0.38805884 -0.026003512 0.066658325 15922162
0.39063892 -0.024843285 0.062242705 15988213
0.38866672 -0.019891368 0.069132216 14277854
0.3952581 -0.016304782 0.067822598 14606818
0.40000001 -0.014852948 0.066466853 14475230
0.49809092 -0.082487889 0.074639522 12434356
0.49655181 -0.077483051 0.074860364 12170929
0.398 -0.050494034 0.077319115 12039343
0.405 -0.053813674 0.078987159 11710378
0.38741669 -0.04210731 0.075214528 13486532
0.39218867 -0.046823304 0.074647091 12499638
0.38403767 -0.034942649 0.075041585 12171444
0.38396204 -0.025040636 0.075026661 12566718
0.38698551 -0.017252972 0.076323457 15593969
0.39261708 -0.01371352 0.073931448 15001833
0.39470598 -0.007419039 0.077950336 15199212
0.40550002 -0.0020719387 0.078133844 14146524
0.41000003 -0.0008270106 0.076766878 14146267
0.4086667 0.00045153368 0.079068154 14409952
0.4120968 0.0047458964 0.078123681 13882838
0.49900001 -0.08131808 0.080873102 12171954
0.50050002 -0.080683768 0.083753079 12303282
0.49900001 -0.078689709 0.081165142 12303539
0.50081486 -0.076001324 0.084436372 12237233
0.39625001 -0.050425932 0.086708054 12039599
0.40457147 -0.053799424 0.082845353 11645355
0.38504171 -0.042849936 0.085356936 11711150
0.39329636 -0.047719717 0.083795361 12105393
0.37850747 -0.033430364 0.086156495 2765361
0.38072875 -0.036240295 0.083052553 2896689
0.37824196 -0.02555456 0.086289823 2896691
0.38065943 -0.023784569 0.082022168 3487542
0.37900001 -0.019396642 0.089594714 14212062
0.38425973 -0.01506734 0.085025392 15330540
0.39000002 -0.010829636 0.080326125 15724529
0.38825002 -0.0087999562 0.086876631 15395819
0.3934226 -0.0045708413 0.084822133 15264491
0.40175003 -0.001280329 0.081095204 14476003
0.39736003 0.0014334086 0.087532386 14870247
0.40473339 0.004476537 0.085351594 14936297
0.41204762 0.0075550554 0.082867138 14541796
0.4086667 0.01097519 0.089591824 15067625
0.41543058 0.013864147 0.086069509 14541796
0.42091671 0.018367412 0.085789256 14475746
0.42615795 0.023036154 0.088189825 14607075
0.4321667 0.027126074 0.088336945 14409438
0.43900001 0.030973408 0.089390673 14541023
0.44100001 0.032146905 0.089797921 14606816
0.38900003 -0.050870731 0.099243939 11710378
0.37875003 -0.040663701 0.09884467 11842740
0.38430113 -0.04465114 0.095095336 12171187
0.37586868 -0.034909438 0.094983533 2830639
0.38000003 -0.03990832 0.092055082 4343624
0.37525165 -0.02494094 0.094812185 2830898
0.37815559 -0.01781751 0.096415699 13620176
0.38185725 -0.013643039 0.094351687 15330026
0.386767 -0.006238468 0.095503174 15461355
0.39130008 -0.0019786062 0.09307836 15198183
0.39510104 0.0032983245 0.095624074 14935525
0.40081078 0.0079679377 0.094013005 15067368
0.40582013 0.012907607 0.096326381 15001575
0.41191837 0.017198253 0.094242193 15133161
0.42000002 0.019800596 0.090437971 14804967
0.41531581 0.021885667 0.097505979 15067110
0.42392418 0.025841054 0.094523937 15199210
0.4314 0.028217908 0.090869613 14541024
0.42746156 0.031006949 0.09727665 15264746
0.43439135 0.034123231 0.096045233 15001575
0.4441053 0.0372217 0.093458578 14475231
0.43900001 0.040222771 0.099667743 14606818
0.44681817 0.04258047 0.096412368 14606817
0.45230013 0.046502061 0.094983697 14146521
0.45600006 0.052941367 0.097635113 14409691
0.45800003 0.060190789 0.099692643 11447978
0.3877857 -0.051101048 0.10411064 11907500
0.39000002 -0.051914502 0.10041206 12038830
0.37761545 -0.04115532 0.10588952 10855328
0.38408607 -0.046197154 0.10471221 12302516
0.36834157 -0.032753203 0.10770561 2371117
0.37193021 -0.03524664 0.10367803 2699311
0.36849031 -0.025827158 0.10767695 2370346
0.37125 -0.024355672 0.10316617 2830382
0.37684911 -0.015803991 0.10531257 13487561
0.38056004 -0.011422069 0.1032898 15198182
0.3839488 -0.0052350587 0.10504982 15395561
0.38807896 0.0013463621 0.10639099 13751250
0.39359134 0.0059060315 0.10457928 14738660
0.40000001 0.0094936397 0.10111392 14607330
0.39809093 0.010719502 0.10766099 14672610
0.40468144 0.014742584 0.10498711 14673123
0.41072729 0.01901399 0.10233714 14869989
0.41455269 0.023436889 0.10516821 15198439
0.42144838 0.028716478 0.10449105 15395818
0.4264667 0.032734059 0.1052928 15461612
0.43248004 0.037687205 0.10460175 15330026
0.43747824 0.043004014 0.10610862 15264490
0.44308886 0.046871088 0.10390507 15198954
0.45066667 0.049380708 0.10055759 14672611
0.44790909 0.052480675 0.10740931 15330541
0.45356062 0.056056947 0.10448094 15198441
0.45750001 0.062493112 0.10650151 15000547
0.46000001 0.065837964 0.10766605 11447725
0.38713333 -0.051474538 0.11556647 11842218
0.37669697 -0.04180973 0.11443728 10986656
0.38289338 -0.046673331 0.11495093 12499636
0.3666456 -0.033903554 0.11518684 2435881
0.37074998 -0.038141895 0.11324346 2830382
0.36702695 -0.025237188 0.11507165 2369574
0.37550771 -0.014666815 0.11548324 12829375
0.37813342 -0.0075034993 0.11600277 15000803
0.38139185 -0.0033715996 0.11403372 15264229
0.38584539 0.0033573972 0.11533132 14409437
0.39187187 0.008126853 0.11384859 14672868
0.3957884 0.012017603 0.11588176 14541024
0.40395388 0.016653717 0.11451288 14869988
0.40829998 0.020778982 0.11649497 15132646
0.41419044 0.025266359 0.11486624 15330024
0.42033339 0.029437896 0.11259413 15527402
0.42480826 0.034111898 0.11560488 15461609
0.43113053 0.03836247 0.11306067 15395562
0.42900002 0.04031083 0.1189898 15395815
0.43459484 0.044169564 0.11528115 15329768
0.44078571 0.049010865 0.11274828 15395819
0.44584003 0.053654004 0.11574425 15461868
0.45262074 0.058316641 0.11411873 15593198
0.45676562 0.064144865 0.11559187 15198439
0.382375 -0.050786845 0.12462732 12170414
0.37715384 -0.042804364 0.12572986 11973551
0.38094437 -0.04704538 0.12477002 12565173
0.36320302 -0.034264237 0.12483273 2633260
0.36353832 -0.024979012 0.12486309 2698541
0.36780953 -0.019151337 0.12663582 8027257
0.3733871 -0.014462271 0.12474994 12105910
0.37643373 -0.0052991407 0.12513056 14606301
0.38016668 -0.0012116272 0.12101933 15066850
0.37862504 0.0012311157 0.12800688 14606558
0.38338056 0.0048898542 0.12479597 14672609
0.39019999 0.0090784468 0.12165539 14475232
0.38850003 0.010676342 0.12849146 14869990
0.39412856 0.014448763 0.12523162 14935526
0.40118182 0.0191686 0.12343185 15132902
0.40457445 0.022301683 0.12516469 15330025
0.4142791 0.027342264 0.12406728 15395816
0.41775003 0.031430826 0.12817198 15461611
0.42308229 0.03538407 0.1246188 15395817
0.42790481 0.040828735 0.12628987 15461352
0.43308449 0.0455615 0.12503722 15592937
0.43845454 0.050717376 0.12716112 15724524
0.44465342 0.055491384 0.12516324 15856113
0.45000002 0.059139419 0.12007391 15331309
0.44900003 0.061110236 0.12737513 15921907
0.45368311 0.065355323 0.12466035 15132904
0.45700002 0.070757814 0.12354648 11842991
0.38075003 -0.050906178 0.13502005 12171183
0.37591347 -0.044537347 0.13530086 11315619
0.38052177 -0.048522897 0.13209216 12434099
0.36524996 -0.034930546 0.13374682 1449501
0.37084204 -0.034604937 0.13938978 1054739
0.36427838 -0.024269717 0.13435246 1580573
0.37066665 -0.029093498 0.13940026 857362
0.36660001 -0.018587386 0.13440056 8288889
0.37309417 -0.013364898 0.13444802 10921635
0.37426987 -0.0052173873 0.13444641 13487822
0.37662506 0.0024546378 0.13373075 14014421
0.38187754 0.0078261243 0.13433261 14409437
0.38637355 0.013450339 0.13560936 14541025
0.39318517 0.017467497 0.13330072 15001576
0.39615005 0.022156831 0.13701607 15264746
0.40343904 0.026042497 0.13492592 15067113
0.41240001 0.028902356 0.1316613 15198440
0.40756252 0.031500194 0.1383829 15396334
0.41523081 0.03442321 0.13527302 15330540
0.42171887 0.038240775 0.13294573 15527405
0.41850001 0.040303916 0.13959005 15330284
0.42490909 0.043949332 0.13616683 15395818
0.43158337 0.047628451 0.1330038 15658733
0.42750004 0.050678715 0.13908829 15658987
0.43556419 0.053115971 0.13558248 15724525
0.44220001 0.057572328 0.1338484 15856111
0.44625562 0.064458825 0.1354066 15724527
0.45091665 0.068321377 0.13140069 14474461
0.44888893 0.071019985 0.13787507 11513518
0.4515 0.070432976 0.13262051 11250604
0.3624706 -0.040858116 0.14675955 5198416
0.37440005 -0.044072468 0.14090864 9672082
0.36335132 -0.035581164 0.14686495 1120276
0.37155402 -0.034245066 0.14327765 1120020
0.36480996 -0.024295725 0.14661217 1382162
0.37137145 -0.027925434 0.14412627 922642
0.36287501 -0.019209318 0.14650559 4792607
0.37380004 -0.011954358 0.14016935 10067095
0.37400001 -0.0081964908 0.14006963 9869973
0.38700002 0.017347291 0.14040616 12041658
0.38900003 0.020160437 0.14113411 13029069
0.39533338 0.02485048 0.141773 14080212
0.40037504 0.028717324 0.1412764 14540249
0.39900002 0.030019362 0.14476223 13224389
0.40451166 0.03301879 0.1425899 15001058
0.4127931 0.038123917 0.14309789 14738660
0.41663939 0.043629646 0.14551249 14540510
0.42187816 0.046726447 0.14286661 15264234
0.42580706 0.053762306 0.14578606 15461354
0.43226197 0.057557605 0.14344557 15592939
0.44000003 0.059885304 0.14006665 15592941
0.43632132 0.063293472 0.14596258 15395817
0.44214895 0.066808596 0.14301035 15527148
0.44274998 0.070881516 0.14584386 14474459
0.36102945 -0.04127191 0.15480046 1646618
0.35885713 -0.032047674 0.15906084 1843226
0.36078107 -0.03510464 0.15474017 1449237
0.3588236 -0.027010934 0.15899289 1712154
0.36083975 -0.0247408 0.15463163 1580054
0.36100003 -0.018728962 0.15446934 2301465
0.42500001 0.055853896 0.15021564 15066340
0.43700004 0.065712497 0.15172055 14935265
0.44 0.068949722 0.15222123 15066850
0.44060001 0.070694439 0.15139762 15198182
0.34361902 -0.041026402 0.1674403 1976100
0.35562503 -0.040832724 0.16533093 528398
0.36161113 -0.041505259 0.1624234 1974812
0.34428933 -0.034953319 0.16713147 1844514
0.35543311 -0.034686711 0.16368112 1252377
0.36066672 -0.0384413 0.16153114 2370084
0.34468699 -0.025253056 0.16708691 1844516
0.35648513 -0.026005536 0.16362096 1449756
0.36014289 -0.021683237 0.16390751 594706
0.34666666 -0.019364977 0.16553958 1647400
0.354 -0.019774621 0.16655681 1580835
0.33654553 -0.040953577 0.17649676 1778462
0.34011114 -0.041602094 0.17138955 1712925
0.33723536 -0.035814118 0.17559344 1712668
0.3402715 -0.034824956 0.17141913 1843998
0.3377974 -0.025486255 0.17499626 1909791
0.34054106 -0.025164552 0.1715399 1975328
0.33700001 -0.01935094 0.17644055 2369832
0.34200001 -0.019904925 0.1705168 1908765
0.33224997 -0.041189257 0.18298209 1777951
0.33184367 -0.035229366 0.18482427 2040866
0.33216485 -0.025606509 0.18519908 2172450
