# .PCD v0.7 - Point Cloud Data file format
VERSION 0.7
FIELDS x y z rgb
SIZE 4 4 4 4
TYPE F F F U
COUNT 1 1 1 1
WIDTH 1013
HEIGHT 1
VIEWPOINT 0 0 0 1 0 0 0
POINTS 1013
DATA ascii
0.79376 -0.064782172 0.11517379 12171438
0.77750003 -0.14263101 0.12919495 12630449
0.78644443 -0.14417228 0.12781502 12104620
0.76900005 -0.13386899 0.12958278 15657954
0.77410007 -0.1351191 0.12826523 13815751
0.78592312 -0.13476093 0.12549566 12171182
0.7926923 -0.13563897 0.12215256 12369330
0.76900005 -0.12846828 0.12958278 13882060
0.77430785 -0.12482204 0.12838122 12368308
0.78545457 -0.12527905 0.1260009 12105133
0.7921111 -0.12490973 0.12234911 12369330
0.77557141 -0.11724281 0.12861161 12827827
0.78584617 -0.11493722 0.12732311 11710116
0.77866668 -0.104561 0.12938879 12829366
0.787 -0.1052882 0.12840341 11447970
0.77866673 -0.095146596 0.12938881 12764091
0.787 -0.094319075 0.12811048 11711146
0.77600002 -0.084221929 0.12894569 13027265
0.78560007 -0.085261509 0.12777944 11776939
0.77750003 -0.073915116 0.12919495 12961470
0.78644449 -0.074819885 0.12781477 11776939
0.78515393 -0.065774091 0.12904811 12039339
0.79354173 -0.064608179 0.12426985 12105645
0.78518194 -0.054553583 0.12896274 11842472
0.79321736 -0.055693094 0.12405167 12171181
0.77900004 -0.048986297 0.1294442 11053729
0.78570002 -0.045360234 0.12908244 11645609
0.78900003 -0.036685694 0.12925881 11974061
0.77700007 -0.15254188 0.13911504 12038056
0.78666669 -0.15413356 0.1356255 11643812
0.79336363 -0.15727544 0.13317767 11709863
0.75900006 -0.14130849 0.13678186 16511208
0.76420009 -0.14359187 0.13539059 16182242
0.77312505 -0.14476773 0.13276373 13748415
0.7840001 -0.14779906 0.13088526 12433329
0.75709683 -0.13479881 0.1360926 15591648
0.76312506 -0.13552688 0.13082436 15459805
0.75709689 -0.12479252 0.13626555 12435391
0.76260006 -0.12489631 0.13117988 12105140
0.77200001 -0.12083675 0.13008828 12827830
0.7573601 -0.11499876 0.13648489 13946824
0.764 -0.11511105 0.1314197 13618112
0.77260005 -0.11369457 0.13018939 14538699
0.75773084 -0.10584455 0.13655135 13354170
0.7639001 -0.10472967 0.13229576 13552320
0.77255559 -0.10424525 0.13098384 12960954
0.75811118 -0.09470313 0.1366214 13221814
0.76190925 -0.094771504 0.13292566 13616571
0.77263641 -0.095120043 0.13101573 13025980
0.75825012 -0.084958777 0.1357578 13288636
0.76460004 -0.084773421 0.13152273 13684676
0.77266669 -0.085666634 0.13050108 12698042
0.7583335 -0.07579492 0.13636421 12831170
0.76366669 -0.075137518 0.13195641 13159877
0.77275008 -0.073920749 0.13066562 12567481
0.75861096 -0.064576022 0.13671111 13159362
0.7642501 -0.065052412 0.13325174 13093566
0.77400005 -0.064978011 0.13132964 13092283
0.78300005 -0.062068954 0.13010886 12039080
0.75817639 -0.054463726 0.13704972 13158332
0.76400006 -0.05519719 0.13320807 13026230
0.77390915 -0.055091619 0.13139641 12829366
0.75765008 -0.045339119 0.13795617 12828349
0.76350003 -0.044883415 0.13378923 12763324
0.77400005 -0.04504611 0.1313294 12040369
0.78300005 -0.041905764 0.13010886 11053729
0.75785714 -0.035489988 0.13822193 13090749
0.76369232 -0.034958117 0.13473523 13486274
0.77361548 -0.035275079 0.13258627 12499890
0.78457153 -0.033856165 0.13089271 11315872
0.75837499 -0.026384892 0.13800037 12433068
0.76279998 -0.024754986 0.1362128 13420219
0.77414286 -0.024861511 0.13393967 12631472
0.78636366 -0.025011677 0.13150184 11315870
0.75816661 -0.014839935 0.13840654 12434094
0.7626667 -0.014926265 0.13654719 12500146
0.77426678 -0.015580256 0.13445307 12565937
0.78710002 -0.015405752 0.13189395 11118235
0.79325008 -0.012279202 0.13041741 11447458
0.75900006 -0.0050846436 0.13855869 12369331
0.76309997 -0.0051116417 0.13662413 12435125
0.77369994 -0.0051821847 0.13490112 12631988
0.78410012 -0.0052523236 0.13304165 12104876
0.79250002 -0.0053090644 0.13075688 11249825
0.75900006 0.0046879365 0.13855869 12105130
0.76408339 0.0047198208 0.13679996 12105389
0.77483338 0.0047874856 0.13509853 12565940
0.78711116 0.0057818443 0.13324693 11775911
0.79358339 0.0049022217 0.13093592 11183773
0.75900006 0.011795267 0.13855869 12893364
0.76309103 0.015673211 0.13800283 12236978
0.77300006 0.015326936 0.13658497 11776938
0.78685719 0.014987239 0.13416769 12697526
0.76500005 0.024553252 0.13914032 12369084
0.7743333 0.025268031 0.13736595 12236980
0.78566664 0.025087425 0.1351472 10328726
0.79352933 0.025061777 0.13196275 10789786
0.77466667 0.034709673 0.13859595 10724257
0.78541678 0.034729417 0.13648158 10987684
0.7753334 0.044719562 0.13881624 11316137
0.78600001 0.045333974 0.13635281 11316646
0.79220009 0.044269461 0.13200468 10987165
0.77528584 0.055477418 0.1382869 11120295
0.78677273 0.055008389 0.13416196 12367273
0.79033333 0.052060392 0.13132741 10721937
0.77646154 0.064152472 0.13754784 10265246
0.78666657 0.06497293 0.13360664 12039852
0.77530771 0.074664719 0.13846105 11052708
0.78673071 0.075339474 0.13390863 12369337
0.77633333 0.082944028 0.13899566 12169389
0.78609514 0.084730834 0.13569753 12434359
0.7915715 0.087353647 0.13179602 11250598
0.78677779 0.092554688 0.13830617 11579049
0.79281491 -0.17400406 0.14514089 10723742
0.78840005 -0.16142516 0.14558697 11183781
0.79073691 -0.16605435 0.14464304 10723228
0.77577782 -0.15331246 0.14484876 11511974
0.78366673 -0.15752116 0.14489028 11709354
0.75900006 -0.14190076 0.14477761 15919586
0.76361549 -0.14565535 0.14489847 13025208
0.77079999 -0.14952023 0.1446799 10854298
0.75696671 -0.1353199 0.14527698 15130840
0.75690001 -0.12467442 0.14526325 11449263
0.75712007 -0.11496253 0.14530578 13815752
0.75781244 -0.10508762 0.14510632 12959672
0.75852782 -0.094755158 0.14468911 12892334
0.75836664 -0.084971547 0.14465854 12432554
0.75832337 -0.074993849 0.14491107 12106675
0.7582221 -0.064542592 0.14463036 11908526
0.75778574 -0.054939184 0.14486301 12171185
0.7567001 -0.044928115 0.14522424 11908277
0.75626951 -0.035027329 0.14493629 12564916
0.7568891 -0.025446592 0.14437275 12761518
0.75716662 -0.014821076 0.14442666 12170412
0.75730008 -0.005073254 0.14445189 11579816
0.75713897 0.004676214 0.14442052 11382438
0.75747228 0.015318589 0.14448404 11579306
0.75752008 0.024787953 0.1453082 11514291
0.76060009 0.026599213 0.14098717 11382190
0.75741673 0.03482179 0.14624599 11447210
0.76375002 0.03466592 0.14143191 11842480
0.77050006 0.039030887 0.14065805 12236722
0.75727785 0.045451391 0.14710735 12169638
0.76286674 0.044894841 0.14283104 12368305
0.77100003 0.045372862 0.14074934 11381670
0.75700003 0.055181872 0.14705278 11645095
0.76272225 0.054705381 0.14280432 12566200
0.77033335 0.05525057 0.14062762 11777710
0.75720018 0.065123543 0.14673641 11909037
0.76338899 0.064979672 0.14223152 12500147
0.77000004 0.064241141 0.14056678 12500917
0.75750005 0.075057864 0.14726016 12959674
0.76418757 0.075050816 0.14296614 12039086
0.77150011 0.07520657 0.1408406 13486017
0.75781822 0.084917545 0.14801857 12566455
0.76352936 0.084889591 0.14484771 12500663
0.77350003 0.085814953 0.14165501 14144717
0.75833338 0.093744725 0.14879246 13092800
0.76308346 0.095222659 0.14704059 13092543
0.77429426 0.094614081 0.14379692 12434870
0.78562504 0.097272702 0.14157739 13685195
0.76525009 0.10236426 0.14910235 12829630
0.77375007 0.10395072 0.14781411 12895680
0.78581828 0.10477675 0.14545645 11711404
0.78760004 0.11309687 0.14894168 11842733
0.79330444 -0.17455825 0.15443178 10395033
0.78828573 -0.16161267 0.15444919 10920607
0.79137504 -0.16613415 0.15616475 10131091
0.77550012 -0.1531571 0.15500616 11578277
0.78357154 -0.1580261 0.15457414 10722973
0.75900006 -0.14012393 0.15455016 14275018
0.76325011 -0.14459914 0.15507963 14406604
0.77180004 -0.1497142 0.15535069 10787990
0.75779998 -0.13458163 0.15519452 15064535
0.75752771 -0.1247774 0.1551383 11183521
0.75846678 -0.11516666 0.15533085 12828858
0.75886214 -0.10560905 0.15440002 12368563
0.76000005 -0.10116673 0.15831216 11579564
0.75899994 -0.095592059 0.15266229 12038055
0.76000017 -0.094050027 0.15691423 11973551
0.759 -0.085042112 0.15188491 13090734
0.76000017 -0.085154161 0.15653299 12432297
0.759 -0.075269543 0.15188491 12632500
0.76000017 -0.075368702 0.15653299 12630446
0.75899994 -0.063929163 0.15277334 12040881
0.76000017 -0.065583244 0.15708041 11645866
0.75869244 -0.05447248 0.15476197 12170159
0.76000005 -0.058466557 0.15831216 12302254
0.75777769 -0.044992372 0.15519013 11579313
0.75680012 -0.035188742 0.15498975 11710893
0.75691676 -0.025447555 0.15501292 11906721
0.75741661 -0.014825938 0.15511596 11905693
0.75776672 -0.0050764591 0.1551884 11183259
0.75749993 0.0046783471 0.15513325 10790300
0.75727773 0.015313975 0.15508753 10855836
0.75696677 0.025053356 0.15502414 10527907
0.75625014 0.034766655 0.15487695 10789794
0.75561112 0.04535136 0.1547448 11577503
0.75556672 0.055077314 0.15473548 11118494
0.75452757 0.064715259 0.15452218 10921888
0.75369436 0.075230844 0.15435044 11775399
0.75400001 0.084971294 0.15441237 11842736
0.75527775 0.094841152 0.15467252 12434872
0.75747061 0.10319976 0.15590651 12763581
0.76223081 0.1070364 0.15410469 12829886
0.77250004 0.10875642 0.15096781 13093058
0.76600003 0.11142775 0.15776719 11513769
0.77425009 0.11444419 0.15561405 11974577
0.78477788 0.11762842 0.15326196 11711404
0.78756249 0.12355418 0.15644407 11645610
0.79081249 0.12672321 0.1530423 11777196
0.79218751 0.13529083 0.15458074 11842989
0.7881251 -0.16072276 0.16509339 10131602
0.79255557 -0.16611357 0.16499206 9933968
0.77663636 -0.15346415 0.16491924 11248797
0.78380001 -0.15754664 0.16510752 11118239
0.76363635 -0.14350666 0.16492026 14407118
0.77280009 -0.14990819 0.16459768 10722711
0.7588889 -0.13378698 0.1644965 15459292
0.76000011 -0.1375127 0.167208 15262426
0.75877798 -0.1254113 0.1648346 12233636
0.76000005 -0.1213307 0.16839413 12957617
0.75900006 -0.11738048 0.16236824 13288897
0.76038468 -0.11381495 0.16585596 12895166
0.76050001 -0.10479396 0.16464923 12499638
0.76066661 -0.095023148 0.16468503 11776944
0.76056671 -0.085217498 0.16466361 11513000
0.76077765 -0.075445578 0.16470881 12038308
0.76072216 -0.064755589 0.16469692 12105131
0.75900006 -0.051282294 0.16165751 12497838
0.76033336 -0.055262372 0.16504097 12367276
0.75894111 -0.044380855 0.16342182 11708581
0.76000017 -0.046012342 0.16775544 12037285
0.75867999 -0.035276201 0.16514274 11514288
0.75865531 -0.025659477 0.16501485 11513770
0.76000005 -0.021103906 0.16898718 11579562
0.75894731 -0.015463751 0.16370369 12235945
0.76000017 -0.013825468 0.1680167 11381409
0.759 -0.0050846441 0.16254592 12827055
0.76006681 -0.0050916327 0.16722283 11248795
0.75884998 0.0050418493 0.16375776 11446688
0.76000011 0.0039824429 0.16827551 11577503
0.75880003 0.015380566 0.16445784 10788759
0.76000005 0.015191237 0.16898718 10854807
0.75878257 0.025191572 0.16485584 10789789
0.76000005 0.024265023 0.16898718 10263185
0.7584002 0.034865808 0.16508247 10264736
0.75756669 0.045468401 0.16490091 11052705
0.75656009 0.055148397 0.16468091 11183259
0.75538903 0.064788371 0.1653107 11250592
0.75430542 0.075291969 0.16507499 11708834
0.75380003 0.084947973 0.16496369 11841707
0.75419432 0.094704047 0.16504864 11842479
0.75742865 0.10385123 0.16512196 12237236
0.76066667 0.10887119 0.16468282 12105136
0.76506668 0.11272906 0.16509588 11579561
0.77276927 0.11798047 0.1648659 11579818
0.77711117 0.12234257 0.16551182 11514024
0.78476471 0.12658888 0.16367954 11645353
0.7883749 0.13437085 0.16522105 11777195
0.79000002 0.13757417 0.1627119 11842988
0.7881251 -0.16164571 0.17547199 9407881
0.7921052 -0.1663432 0.17456095 9671567
0.77581823 -0.15313686 0.17481433 10723227
0.78350008 -0.15794636 0.17558751 11381670
0.76433343 -0.14340065 0.1745218 14472910
0.77200007 -0.14915211 0.17526759 11511971
0.75900006 -0.13183205 0.17113395 15064533
0.76022232 -0.13534094 0.17569426 15131353
0.75900006 -0.12946294 0.17143008 15128785
0.76026481 -0.12496646 0.17548549 11904930
0.76128107 -0.11492534 0.17495339 13222845
0.76191992 -0.1049889 0.17476612 12434356
0.76230019 -0.095227279 0.17485408 12368819
0.76189649 -0.084628902 0.17488346 11842738
0.76184601 -0.074865311 0.17461164 11973549
0.76122838 -0.064672127 0.17537001 12170411
0.76096654 -0.054978199 0.17543694 12236462
0.76005572 -0.045126371 0.17522682 12036772
0.75900006 -0.0352908 0.17942584 12104109
0.76000017 -0.035337295 0.17432471 11512486
0.75900006 -0.02818347 0.17942584 11317163
0.76000017 -0.025309229 0.17480995 11382700
0.76074994 -0.014890664 0.17538792 11316390
0.76099986 -0.0052209054 0.17529128 11447201
0.76085281 0.0049085231 0.17514975 11577760
0.76033336 0.015374791 0.17529216 11118751
0.76000017 0.025154611 0.17521428 10789529
0.759 0.036078651 0.17172623 10395550
0.76000017 0.034347005 0.17684521 10459797
0.75889665 0.046436764 0.17450093 10461856
0.76000011 0.041929673 0.17712055 11382700
0.75760001 0.055224445 0.17466222 10658715
0.75713331 0.06494014 0.17544137 10987422
0.75714284 0.075258993 0.17525421 11052444
0.75681484 0.08489202 0.17556483 11578533
0.75603336 0.094934858 0.17518681 11842475
0.7575714 0.10285556 0.17440207 11645098
0.76130766 0.10745677 0.17544922 12303028
0.76600003 0.11254997 0.17323674 11579561
0.77273333 0.11735427 0.17531735 11447976
0.77628571 0.12253051 0.17338957 11579562
0.78366679 0.12684362 0.17628984 11579562
0.78800005 0.13225615 0.17418949 11645611
0.79120004 0.13707505 0.17506212 11711147
0.79142857 -0.17595641 0.18464182 9999760
0.78817385 -0.16516721 0.18551941 9802381
0.79000002 -0.16850224 0.18166828 9868944
0.77576929 -0.15369999 0.18506694 11117212
0.78260005 -0.15840667 0.18426809 10394262
0.76464713 -0.1428546 0.18497282 14472394
0.77150005 -0.14875472 0.18508996 13485499
0.76072001 -0.13509974 0.18517578 15197147
0.76093322 -0.12533823 0.18522756 12169647
0.7623235 -0.11464872 0.18493649 13945024
0.76335502 -0.10501329 0.18506865 12828340
0.76382858 -0.095290869 0.18491183 12433582
0.76286125 -0.08458285 0.18480431 12368308
0.76236659 -0.074711427 0.18468504 12040629
0.76119339 -0.064939991 0.18511789 12171441
0.76024008 -0.054926291 0.18505743 12302515
0.75899994 -0.043681398 0.18584214 12300713
0.76000017 -0.047198448 0.18336886 12367275
0.759 -0.0352908 0.18475629 12629936
0.75899994 -0.026638394 0.18506537 11843761
0.76000011 -0.021866409 0.18398309 10660004
0.76073325 -0.014889823 0.18517804 10923690
0.76157671 -0.0049637873 0.18517861 11053736
0.76190597 0.0044822823 0.18513013 11513252
0.76126647 0.015393911 0.18530895 10986394
0.76060003 0.025174005 0.185147 10395029
0.76053327 0.034964904 0.18513098 10986138
0.75900006 0.048812617 0.18238722 10791334
0.76022738 0.044333789 0.18546018 10723483
0.75889999 0.055320032 0.18384406 10790050
0.76000011 0.053875562 0.18830393 11579310
0.75885201 0.064989172 0.18432614 11250599
0.76000005 0.066075601 0.1885581 11316908
0.75888002 0.074860707 0.18472771 11119012
0.75840008 0.084576853 0.18461128 11513254
0.75766665 0.09521988 0.18491706 11644328
0.75855553 0.10225558 0.18445124 11908526
0.76300007 0.10628505 0.18508048 12434613
0.774077 0.11372078 0.18480426 11448232
0.78219998 0.11854641 0.18601052 11513769
0.78675008 0.12423369 0.1841467 11513769
0.79066676 0.12828131 0.18629567 11579562
0.79273909 -0.17451659 0.19531028 9999760
0.78782356 -0.16421634 0.19480929 9802381
0.79000002 -0.16873343 0.19461411 9802381
0.77594125 -0.15404737 0.19496861 10854041
0.78283334 -0.15918496 0.19513845 10788505
0.76463628 -0.1436117 0.19548155 14077638
0.7711429 -0.14907171 0.19415964 15327704
0.76066667 -0.13508967 0.19495466 15525598
0.76113868 -0.12537175 0.19507688 11117733
0.76296693 -0.11495709 0.19465277 13814981
0.76381493 -0.10485163 0.19466904 13091767
0.76467854 -0.095204055 0.19528024 12630447
0.76416671 -0.084727131 0.19495951 12826800
0.76324022 -0.074797481 0.19472227 11974834
0.76138866 -0.064813524 0.19514108 12433842
0.75900006 -0.05261492 0.1985268 11777201
0.76000017 -0.055250354 0.19416934 11711151
0.75900024 -0.045038 0.19465584 12039600
0.7586 -0.035273138 0.19442567 12827828
0.7587502 -0.025509391 0.19446364 11909039
0.759 -0.017522473 0.19719416 11646124
0.76034611 -0.013855731 0.19384639 11187114
0.76146644 -0.0050997632 0.1951599 11449518
0.76216656 0.0047066496 0.19533876 11316908
0.7614997 0.015398966 0.19516879 11579301
0.76181483 0.025017167 0.19475661 10987423
0.76193345 0.035028711 0.19439133 10855839
0.76139265 0.044997778 0.19482549 11116953
0.76047218 0.054543972 0.19490758 10789017
0.759 0.066877082 0.19435123 11447978
0.76000017 0.0643773 0.19421911 10856355
0.75900012 0.074934095 0.19468214 11513772
0.76000005 0.073192298 0.19033727 12106935
0.75900024 0.084645405 0.19452894 11908531
0.75900018 0.09522564 0.19493274 11579563
0.759 0.10233297 0.1947712 11579049
0.76491666 0.10649935 0.19469912 12105650
0.77350003 0.11161512 0.19100034 11184804
0.7853334 0.11710291 0.19525355 11447976
0.78900003 0.12123821 0.19113541 11579562
0.78750014 -0.16370834 0.20494385 9802382
0.79020005 -0.16808243 0.20530109 9736588
0.77505881 -0.15397865 0.20499314 11249057
0.78200006 -0.15901552 0.20500043 10526360
0.76347995 -0.1443201 0.20507661 14472655
0.77033335 -0.14942969 0.20194124 15525085
0.75900006 -0.13508956 0.20696674 15393495
0.76000017 -0.13489689 0.20501547 15130582
0.76081234 -0.12553997 0.20540051 11708579
0.76213884 -0.11483322 0.20425138 13552323
0.76239997 -0.10505516 0.20432231 12566198
0.76263875 -0.095269419 0.20438567 12170928
0.76249999 -0.084804058 0.20413721 13156277
0.76187491 -0.074997626 0.20440325 12894392
0.75900006 -0.06016646 0.20963199 13680057
0.76057148 -0.064870715 0.20548627 12760751
0.75899994 -0.053986166 0.20584659 11776169
0.76000011 -0.057704054 0.20329984 11972776
0.75888914 -0.045057304 0.20515943 12303029
0.75799996 -0.035244606 0.20491914 12499635
0.75758326 -0.025471203 0.20480545 11710891
0.75820011 -0.014966541 0.20509873 11776940
0.76000005 -0.010428865 0.20101231 11449005
0.75891662 -0.0061201807 0.20798017 11777455
0.76033342 -0.0044006347 0.2036709 11514796
0.75900006 0.0046879365 0.20963199 11908525
0.76053327 0.0046970942 0.20471278 11646124
0.75900006 0.011795267 0.20963199 10525843
0.76057571 0.015462487 0.20520999 11578790
0.76249999 0.025430489 0.20466921 11382183
0.7638889 0.0351195 0.20472556 11514288
0.76355565 0.044734903 0.20513318 11316137
0.76136661 0.054607332 0.20493977 11315873
0.75900006 0.068950057 0.20134009 11841445
0.76025933 0.064779289 0.20497085 11316129
0.75899994 0.075995043 0.20392744 11907240
0.76000017 0.073030561 0.20764379 11709346
0.75900024 0.084645398 0.2051899 11908014
0.75897247 0.09530288 0.20518225 12104624
0.75900006 0.10196953 0.20430149 12631483
0.76333338 0.10528561 0.20546295 12302518
0.77000004 0.10840445 0.20005204 12040115
0.78650004 0.11625103 0.20526201 11447976
0.79040003 0.11867782 0.20535259 11382440
0.78736365 -0.16295606 0.21511997 9737102
0.79100001 -0.16732791 0.21476765 9539980
0.77481252 -0.15393008 0.21490282 11577763
0.78250003 -0.15911718 0.21520604 10789275
0.76333314 -0.14450623 0.21493578 14735569
0.7600801 -0.1349856 0.2152687 14736082
0.75900006 -0.1223556 0.21851617 12368305
0.76020014 -0.12521766 0.21441172 12234918
0.76061112 -0.11460236 0.21452686 13683394
0.76096648 -0.10485788 0.2146282 12893881
0.76086098 -0.095048323 0.21459801 12632252
0.75900006 -0.083265282 0.21851617 12959681
0.76025933 -0.085381158 0.21393375 12828090
0.75899994 -0.074927837 0.21742271 12368313
0.76043487 -0.075605214 0.21258144 12433844
0.75892007 -0.063997984 0.21550803 12893105
0.76000005 -0.067718253 0.21239904 12563885
0.75848013 -0.054798771 0.21481389 12301481
0.75810009 -0.045010291 0.21470712 12565425
0.75792313 -0.03510458 0.21486181 12696761
0.75700003 -0.025450975 0.21528217 11908533
0.75713891 -0.01482024 0.21532096 11448239
0.75807393 -0.0052743922 0.21509303 11842992
0.75883353 0.0046873358 0.21491456 11909039
0.75899994 0.014086446 0.21608467 11512738
0.76008344 0.017743558 0.21304476 11774886
0.76099992 0.025188724 0.21463533 11445407
0.76230544 0.035047982 0.21500254 11578794
0.76346666 0.044929139 0.21533079 10921893
0.76238894 0.054680634 0.21503001 11316648
0.76119429 0.065287605 0.21469368 11250344
0.75900006 0.078426495 0.21437024 12695985
0.76036376 0.074520722 0.21542977 11709605
0.75900012 0.084645398 0.21496248 12104619
0.75850004 0.095244512 0.21482083 12104106
0.75900006 0.10152532 0.21407408 12959673
0.7638182 0.10444932 0.21584082 12696245
0.77560008 0.11137327 0.21603017 11184804
0.78575009 0.11629917 0.21640217 11382183
0.79000002 0.11861777 0.21172111 11382183
0.78900003 0.1210535 0.21828723 11382440
0.79046166 0.12544857 0.21440533 11448233
0.79270977 0.13554902 0.21420863 11514025
0.78654552 -0.16261965 0.22510575 9802125
0.79127276 -0.16730186 0.22460751 9539209
0.76800007 -0.15077497 0.22829729 15657183
0.77411115 -0.15439613 0.22477859 11906471
0.78100002 -0.15881217 0.22393402 11315104
0.76193327 -0.14423783 0.22524251 14735826
0.75900006 -0.13242432 0.22799261 12895169
0.76008344 -0.13557929 0.22424001 14802904
0.75900024 -0.12475956 0.22494408 11907759
0.76000005 -0.1296335 0.22147281 12171443
0.75896305 -0.11557151 0.22515166 13485758
0.76000005 -0.11184176 0.22102802 13090483
0.759 -0.10725252 0.2274003 13354426
0.76026094 -0.10452835 0.22390817 12959669
0.75900006 -0.093531422 0.22838743 13156536
0.76011121 -0.095382385 0.2238445 13025981
0.75900006 -0.084647261 0.22503121 13222077
0.76000005 -0.088712506 0.2223624 13089980
0.75849998 -0.075221248 0.22458571 12500153
0.75741661 -0.064474359 0.22426476 12828344
0.75696671 -0.054689124 0.2241309 12631477
0.75727773 -0.044960864 0.22422372 12630449
0.75751734 -0.035343669 0.22444771 12235695
0.75703335 -0.02545229 0.22503884 11449009
0.75673348 -0.014813169 0.22494869 11382963
0.75717866 -0.0048817326 0.22451107 11645104
0.75774992 0.0046806391 0.22436373 11908015
0.75847238 0.015339136 0.22457737 11972261
0.75899994 0.024444623 0.22604653 12037024
0.76000011 0.026736099 0.22196703 12234145
0.75900006 0.033610824 0.22838746 11840676
0.76029634 0.035382614 0.22389834 11907497
0.75900006 0.045555089 0.22917716 11973801
0.76083982 0.044775706 0.22438742 11316645
0.75900006 0.055327673 0.22917716 12104363
0.76100004 0.054582 0.22443454 11644583
0.75900006 0.065766558 0.22873293 11053225
0.76059264 0.064939968 0.22391936 11316396
0.75894988 0.075756192 0.22605264 11711149
0.76020014 0.073211096 0.22242069 11053217
0.75897241 0.084642142 0.22472699 11710377
0.75886691 0.094460562 0.2244001 12434353
0.76000005 0.099286854 0.22532769 12369333
0.76341671 0.10226963 0.22574247 12171185
0.77150005 0.10680953 0.22573411 11380899
0.78680003 0.1157457 0.22467832 11316390
0.79100007 0.11876791 0.22680482 11316647
0.78900003 0.12031468 0.22161196 11448233
0.79150003 0.12525161 0.22432534 11382440
0.77850008 -0.1601263 0.23779824 9736076
0.78592861 -0.16349864 0.23507296 9933710
0.79137504 -0.16787003 0.23385568 9736331
0.76685715 -0.15157767 0.23488286 15196120
0.77378565 -0.15605411 0.23428692 11249311
0.75899994 -0.1421546 0.23666523 15196118
0.76094449 -0.14632413 0.23431638 14998741
0.75880635 -0.13493055 0.23547825 14210509
0.75900024 -0.12502086 0.23539609 12170162
0.75856698 -0.11518309 0.23526022 12763320
0.75819451 -0.10536357 0.23514372 12960186
0.75816679 -0.094710603 0.23513508 13024950
0.75813323 -0.084945157 0.23512463 12629421
0.75752759 -0.075124539 0.23493801 12499635
0.7565335 -0.065284483 0.23462936 12762039
0.75563908 -0.055478554 0.23435205 12696763
0.75572234 -0.04486746 0.23437633 12630963
0.75643349 -0.035171222 0.23459786 12236717
0.75638908 -0.025430953 0.23458423 11712175
0.7556113 -0.014791344 0.23434305 11449522
0.75573361 -0.0050620576 0.23438083 11843256
0.75672233 0.0046749096 0.23468831 12039605
0.75744432 0.01531767 0.23491195 11906981
0.75786662 0.025084941 0.2350425 12498087
0.75844413 0.034868803 0.23522204 11644837
0.7583614 0.045517031 0.23519617 11512738
0.75846672 0.055288635 0.23522902 12169643
0.75813884 0.065025903 0.23512734 11645099
0.75777417 0.074923024 0.23515715 12039599
0.75805712 0.084667265 0.23497562 11645357
0.75855553 0.093968362 0.23555286 12302515
0.76000005 0.098100744 0.23303743 11974321
0.76318187 0.1012747 0.2353117 12303030
0.77622229 0.10847488 0.23478259 11447976
0.78666663 0.11361758 0.23507503 11447720
0.79170001 0.11794785 0.23534472 11382183
0.78518194 -0.16417709 0.24493462 9539210
0.79016668 -0.16807534 0.24506305 9670539
0.76557148 -0.15234759 0.24498609 14867153
0.77380002 -0.15735291 0.24402961 10921118
0.75840014 -0.14445266 0.24497423 14472139
0.76085722 -0.14911851 0.24424253 15787998
0.75788218 -0.13569033 0.24543276 14340295
0.75816131 -0.12474062 0.24506819 13024435
0.75733322 -0.11499613 0.24551532 12959415
0.75658345 -0.10514016 0.24527189 12894653
0.75650012 -0.094502382 0.2452448 12828603
0.75623339 -0.0847326 0.24515781 12828088
0.7560001 -0.074972555 0.24508201 12697014
0.75490004 -0.065143697 0.24472499 12893107
0.75408316 -0.055363819 0.24446267 12303027
0.75355554 -0.044739861 0.24429032 12565685
0.75406647 -0.035061028 0.24445698 12106166
0.75416654 -0.025355715 0.24448925 11776946
0.75386101 -0.014757378 0.24439014 11711402
0.7536667 -0.0050488366 0.24432628 12040368
0.7546944 0.0046622856 0.24465807 12039599
0.75550014 0.015278154 0.24491879 11842216
0.75653344 0.025040649 0.24525578 12105128
0.75694442 0.03479952 0.24538939 11842733
0.75700003 0.045435052 0.24540871 11907500
0.75700003 0.055181868 0.2454087 12300970
0.7570278 0.064930975 0.24541754 11776680
0.75680566 0.075541519 0.24534471 11775913
0.7565335 0.085256174 0.24525577 11710636
0.75744832 0.094104916 0.2453995 12434100
0.76000005 0.099879913 0.24667777 11776428
0.76361537 0.10228423 0.24528511 12236979
0.7747274 0.10824743 0.24430814 11250341
0.77800006 0.11135204 0.24948463 11316390
0.78678572 0.11458751 0.24571769 11316390
0.79062498 0.11801808 0.24358352 11513256
0.78570002 -0.16436894 0.2547099 9538952
0.79160005 -0.16838023 0.25570035 9670538
0.76407146 -0.15268989 0.25484651 15525084
0.77430767 -0.15828994 0.2551288 10919834
0.75785726 -0.14498384 0.25481048 14604238
0.76050007 -0.14930257 0.2518838 15590877
0.75712502 -0.13512449 0.25486466 13618117
0.75748569 -0.12489896 0.25455806 13091516
0.75603575 -0.11467276 0.25539759 13222071
0.75463879 -0.10487019 0.25524044 12827574
0.75464517 -0.094983257 0.25509992 12827572
0.75388557 -0.085226163 0.25511184 12500150
0.75358337 -0.074732661 0.25488374 12433844
0.75313342 -0.064990856 0.25473163 13025721
0.75305563 -0.055287555 0.25470561 12630962
0.7530002 -0.044707138 0.25468868 13024695
0.75349998 -0.035033975 0.25485688 12171702
0.75374985 -0.025341997 0.25494105 11842742
0.75308353 -0.014742674 0.25471589 11841708
0.75206459 -0.0049257372 0.25456813 12432812
0.75177509 0.0047312458 0.25488621 12169129
0.75283349 0.015225397 0.25463066 11775400
0.75383341 0.024951445 0.25496724 11579308
0.75450003 0.034687925 0.25519192 11514548
0.75524992 0.045330439 0.25544655 11973806
0.75603718 0.054916248 0.25522229 12433581
0.7563228 0.064956017 0.25509697 12039079
0.75550008 0.07541123 0.25553212 12432554
0.7551378 0.084977753 0.25525829 12171182
0.75670385 0.094266281 0.25505498 12499378
0.76000005 0.099879913 0.25260836 13158335
0.76475 0.10274627 0.25567701 11974062
0.77322221 0.10825619 0.25519171 11316390
0.77639997 0.11112304 0.25442424 11316390
0.78511113 0.11604938 0.25451761 11382183
0.78850013 0.12234868 0.2557514 11316390
0.79088235 0.12691848 0.25393909 11382183
0.77900004 -0.1620528 0.26530635 9078660
0.7854445 -0.16462219 0.2635161 9473416
0.79133338 -0.1683235 0.26579896 9538953
0.75839996 -0.15066573 0.26627854 15590873
0.76372725 -0.15400377 0.26522243 15788254
0.77400005 -0.15920071 0.26179153 9011583
0.75730002 -0.14512955 0.26500663 14735567
0.75688893 -0.1353049 0.26486287 13157566
0.75645733 -0.12472921 0.26458421 12828602
0.75464284 -0.11490371 0.2647067 12828600
0.75390309 -0.10473897 0.26487154 12828604
0.75337934 -0.094874032 0.26524577 12630707
0.75197238 -0.085136995 0.26490024 12368049
0.74900001 -0.072962768 0.26955488 13222840
0.75100017 -0.074970946 0.26417339 13156022
0.74853331 -0.064944901 0.26842257 12565689
0.7506668 -0.065436445 0.26334277 12697278
0.74837506 -0.055382077 0.26823413 12959418
0.75088471 -0.054857675 0.26309815 12893625
0.74858332 -0.044445019 0.26896629 12631222
0.75146687 -0.044615407 0.26384202 13157052
0.74858338 -0.034368102 0.26852798 12499635
0.75156528 -0.035175037 0.26357085 12368820
0.74827772 -0.025157792 0.26798022 12499122
0.7515834 -0.025268769 0.2630038 12039602
0.74864697 -0.014602996 0.26821569 12368306
0.7511602 -0.014740511 0.26303181 11973034
0.7486667 -0.0050154189 0.26811966 12696238
0.7503159 -0.0052118995 0.26270106 12498602
0.74862498 0.0048430334 0.26832381 12630960
0.75009096 0.0043134671 0.26336211 12629420
0.74890906 0.014109286 0.26900408 12105903
0.75083888 0.015553772 0.26384944 11775654
0.75186688 0.024885958 0.26486272 11843251
0.75213897 0.034578104 0.26495904 11579824
0.7527501 0.045180846 0.26517436 11908012
0.75381827 0.055111188 0.26498857 11908270
0.75417048 0.064621538 0.26492038 12105135
0.75384831 0.075006999 0.26516244 12433328
0.75434601 0.085146502 0.26465192 12433587
0.75599998 0.09392231 0.26455027 12432816
0.76233339 0.10018656 0.26498675 11974321
0.7748 0.10726968 0.26496524 11316645
0.77900004 0.11149517 0.26074719 11316647
0.78605562 0.11516882 0.26535833 11250853
0.79000002 0.11861777 0.26997736 11316901
0.78870004 0.12211575 0.26214811 11316390
0.79058826 0.12600124 0.2653892 11316647
0.77544451 -0.16192025 0.27528873 9472389
0.78563637 -0.1666135 0.27450442 9407624
0.79000002 -0.16988929 0.27645025 9605002
0.75735724 -0.15172622 0.27591583 15788255
0.76370013 -0.15583414 0.27439883 16116964
0.77066666 -0.1585151 0.27239025 10327698
0.75543326 -0.14477272 0.27496031 15261909
0.75363427 -0.1348314 0.27505687 12761779
0.75255573 -0.12498692 0.27493826 13486530
0.75192863 -0.11505517 0.27456257 12894651
0.75213164 -0.1048905 0.2744984 12500408
0.74885714 -0.092671439 0.27770522 12631478
0.75118524 -0.095891006 0.27435979 12631223
0.747774 -0.084349722 0.27632499 12630963
0.75009096 -0.085800298 0.27134421 12039088
0.7470333 -0.074957997 0.27540129 12893618
0.75000006 -0.077888541 0.27035373 13748155
0.74622226 -0.065268949 0.27510253 12894136
0.74544454 -0.054729603 0.27481487 12959417
0.74576664 -0.045150068 0.27493414 12829120
0.74602777 -0.035560895 0.27503133 12828087
0.7458334 -0.025075933 0.27495939 12563886
0.74569446 -0.014596609 0.27490729 12104621
0.74613327 -0.0049979808 0.27506912 12171184
0.7464999 0.0046107303 0.27520487 12237233
0.74699998 0.015107368 0.27538982 11908784
0.74789286 0.024754139 0.27634427 11843245
0.75000006 0.02548204 0.27101216 11843247
0.74857146 0.033414368 0.27759877 12434355
0.7502175 0.034986772 0.2730276 11973805
0.74900001 0.044954885 0.27876034 12302773
0.7505334 0.045047317 0.27405846 12499893
0.74900001 0.054598711 0.27876034 12303807
0.75085205 0.055124134 0.27449903 11777205
0.75182366 0.064744689 0.27520064 12236978
0.75279504 0.075346045 0.27529025 11974064
0.75308579 0.084867649 0.27498958 12565173
0.75513327 0.093943082 0.27449954 12564659
0.76214284 0.10041804 0.27574986 12104880
0.77600008 0.10698013 0.27608716 11381927
0.78714287 0.11253253 0.27505383 11316389
0.79072726 0.11754965 0.27594817 11185060
0.79272413 0.12446893 0.27538794 11250854
0.77075005 -0.16033657 0.28234231 10262418
0.78563637 -0.16811836 0.28453314 9538953
0.75750011 -0.15240891 0.28502825 14933205
0.76344454 -0.15723194 0.28552473 14670547
0.75343335 -0.14456767 0.28429019 14472909
0.75084013 -0.13510257 0.28471953 12037799
0.75021213 -0.12509112 0.28495932 13354431
0.7489599 -0.11323301 0.28442609 13025979
0.75000006 -0.11787207 0.28631523 13157821
0.74860001 -0.10490737 0.28474385 13354687
0.74759459 -0.095023222 0.2845256 12959929
0.74593568 -0.08515697 0.28533581 12763320
0.74448591 -0.075449504 0.28504643 12894906
0.74316216 -0.064884819 0.28457767 13354943
0.73900002 -0.053737007 0.28853267 13223358
0.74149996 -0.054899186 0.28362316 13223359
0.73899996 -0.046297956 0.28818667 13486275
0.74189276 -0.044914663 0.2835544 13288898
0.74254745 -0.035394285 0.28504339 13091518
0.73885715 -0.023235396 0.28832856 12762807
0.74245715 -0.025284627 0.28406695 12959930
0.73808706 -0.014260574 0.28754345 12763063
0.74229163 -0.014530796 0.28234234 12499894
0.73841667 -0.0059543662 0.28764132 12566454
0.7421667 -0.0046101878 0.28308985 12040115
0.73900002 0.0011043821 0.28887868 12039597
0.74267507 0.0047616572 0.28483173 12303029
0.7433334 0.015032892 0.28534475 12171955
0.74447381 0.025331009 0.28523371 12237235
0.74605882 0.035276096 0.28479999 12368564
0.74661911 0.044812433 0.28485924 12500153
0.74695235 0.055324599 0.2849873 12170932
0.74767858 0.064567499 0.28576615 12302255
0.75000006 0.066610798 0.28123945 12696496
0.74828565 0.074317098 0.28675145 12105394
0.75026679 0.07541687 0.2823928 12303029
0.74883336 0.082050994 0.28804755 12630964
0.75060719 0.085843801 0.2850678 12828087
0.75388902 0.094179712 0.28430271 12827574
0.76000005 0.099879913 0.28997099 13092031
0.76355565 0.10114495 0.28456879 12827833
0.77662516 0.10820498 0.28654182 11249827
0.78000003 0.1098123 0.28299385 10921632
0.78707695 0.11485202 0.28492084 11250597
0.79000002 0.11861777 0.28107378 11316390
0.78868747 0.12315248 0.28741449 11250597
0.79061115 0.12611377 0.28375748 11250854
0.7713334 -0.16045792 0.29249176 12038830
0.78433347 -0.16765495 0.29577976 9341832
0.75900006 -0.15078494 0.29136628 12300973
0.76388901 -0.15414478 0.29423693 13157051
0.77200007 -0.15878934 0.29726154 9867663
0.75641173 -0.14412583 0.29391789 14406860
0.76075 -0.1480161 0.29738146 15656926
0.75452173 -0.13468973 0.29395291 9932681
0.75377786 -0.1250414 0.29436719 12630709
0.74900001 -0.110223 0.29191101 11052188
0.7527501 -0.11517831 0.2944794 11710375
0.74823081 -0.10418235 0.29235253 11579047
0.7522223 -0.10580966 0.29737389 11776167
0.74715137 -0.095004722 0.29455754 11710119
0.74572015 -0.085301496 0.2949976 11710120
0.74433339 -0.075558878 0.294449 11710375
0.74284858 -0.064895995 0.29460093 12039085
0.73861116 -0.054036211 0.29352978 12499636
0.74085718 -0.05798516 0.29580134 12368564
0.73812151 -0.045315985 0.29419065 12433331
0.73770034 -0.03512124 0.29501519 12368052
0.73702574 -0.024846897 0.29460707 11841962
0.73605561 -0.01440868 0.29519403 11710890
0.73641193 -0.0048312815 0.29491234 11842220
0.73734224 0.0043744333 0.29458609 12040114
0.73858339 0.013784468 0.29390255 12171444
0.74066669 0.017194608 0.29646713 12237494
0.73900002 0.020999525 0.2923387 12105138
0.7416665 0.025759036 0.29455355 12566202
0.7421667 0.034988604 0.29446003 12500665
0.74247229 0.044564292 0.29457882 12764093
0.74394441 0.055103049 0.29516393 12697786
0.74540013 0.064807512 0.29504269 12763322
0.74644446 0.074508451 0.29440823 12762809
0.74769682 0.08479239 0.29524729 12894138
0.75000006 0.089201629 0.29200813 13025723
0.74900001 0.091420583 0.29892468 12631480
0.7534827 0.095626108 0.29453623 12828346
0.76200002 0.1019266 0.29876143 10789531
0.77520001 0.10695986 0.29286805 10855582
0.78000003 0.1098123 0.29212382 11512999
0.78686357 0.11488653 0.2953634 11053218
0.78856254 0.12336401 0.2938312 11184804
0.79033333 0.1265313 0.29676542 11316390
0.77700001 -0.16163673 0.30009514 9604491
0.78621429 -0.16566332 0.30509743 9276552
0.79000002 -0.16896459 0.30789012 9473931
0.7750001 -0.15517305 0.30476674 10328212
0.78050005 -0.15779632 0.30784255 9012609
0.76416665 -0.14405827 0.30229625 12696757
0.77200001 -0.14510307 0.30771872 10986399
0.76410007 -0.13498047 0.30316594 10458768
0.77300006 -0.13456534 0.30940792 10394260
0.76363653 -0.12537636 0.30290043 12959929
0.77300006 -0.12280288 0.30940789 11447206
0.75900006 -0.11435986 0.30025047 12631732
0.76300007 -0.11506151 0.30382058 12105389
0.77100003 -0.11797401 0.30860734 11250082
0.75700009 -0.104513 0.30280691 11841447
0.76216674 -0.1056202 0.30715397 10657691
0.75527281 -0.09475024 0.30472705 10920863
0.76050001 -0.094111316 0.30930075 9933968
0.74766666 -0.084651709 0.30101803 10394259
0.75566679 -0.084276639 0.30679739 11578535
0.76000005 -0.088712506 0.30954191 10591897
0.74700004 -0.074953876 0.30074963 12367791
0.75518185 -0.075292587 0.30661878 11315619
0.74733335 -0.066234253 0.30146834 11447973
0.7536 -0.063968144 0.30588037 10000272
0.74562508 -0.053873159 0.30237845 11710632
0.75349998 -0.055322722 0.30748329 11184289
0.73900002 -0.041280918 0.30098876 12698043
0.74473339 -0.04497163 0.30484012 11579819
0.75200003 -0.045527998 0.30980444 12633279
0.73808336 -0.033742946 0.30306453 11908013
0.74455559 -0.037139937 0.30770594 10658717
0.73733336 -0.024502082 0.30146095 11117977
0.74353844 -0.025331894 0.30739126 11842476
0.73685712 -0.015041477 0.30159453 10592919
0.74316663 -0.014549826 0.30703756 11448231
0.73737508 -0.0055876514 0.30270189 10593439
0.7431429 -0.0042346395 0.30739999 11777454
0.73799998 0.0045599863 0.30144531 10396321
0.74445456 0.0045173313 0.30685723 10461597
0.74476194 0.015437904 0.3045859 9540495
0.74547356 0.025316363 0.30381188 9868690
0.75000006 0.025701512 0.30898052 9145223
0.74572217 0.035058863 0.30431259 10658208
0.75000006 0.034187701 0.30898052 9408398
0.74575001 0.044760313 0.30461535 10856098
0.74622732 0.054953434 0.30457127 11447976
0.75000006 0.058183137 0.30898052 10723483
0.74691677 0.064792395 0.3030493 12631993
0.7518 0.066772446 0.30761093 10197910
0.74775004 0.074638389 0.30192766 12631481
0.7536 0.075576663 0.30764318 12565945
0.74800003 0.085373409 0.30223072 13026239
0.75229996 0.084953412 0.30728835 12828861
0.74900001 0.091420583 0.30155483 12697275
0.75464708 0.095336869 0.30434811 12960448
0.76050007 0.099054866 0.30796635 12302264
0.76225001 0.10151407 0.30465901 11052708
0.77066678 0.10489002 0.30426475 11118497
0.78692317 0.11291711 0.30364296 11053217
0.79063642 0.11736787 0.30620435 11053473
0.79281825 0.12461222 0.30527869 11119011
0.78850007 -0.16126078 0.31284261 9211014
0.79233342 -0.16557123 0.31529358 9869201
0.77900004 -0.15111086 0.31180951 8684929
0.78653848 -0.15498099 0.3156805 9671309
0.79000002 -0.15786818 0.31898654 10263959
0.77750003 -0.14490296 0.3125751 9869202
0.78516674 -0.14556964 0.31764889 9539981
0.77616668 -0.13511638 0.31249246 10329496
0.78360003 -0.13549431 0.31731957 9145223
0.77600002 -0.12509611 0.31242532 10592669
0.78233337 -0.12520213 0.31680664 9934998
0.77509099 -0.11472313 0.31338263 10592158
0.78400004 -0.11629245 0.31931692 10395037
0.7665 -0.10293091 0.31129152 9671569
0.7750001 -0.10377444 0.31746557 9145222
0.76466674 -0.095816761 0.31204113 9802896
0.773 -0.095205784 0.31777906 9211015
0.764 -0.085603893 0.31295964 8750722
0.77166671 -0.08405634 0.31790662 9211015
0.76475006 -0.074492797 0.31326684 8881792
0.77250004 -0.074797347 0.31824994 8684670
0.76340008 -0.064811952 0.31271383 11184289
0.77219999 -0.06483157 0.31812632 8684668
0.75850004 -0.055688255 0.31070662 12303539
0.76460004 -0.056311328 0.31499863 10329237
0.77149999 -0.054836594 0.31964403 8816257
0.75700003 -0.047603641 0.31245506 10725286
0.74600005 -0.027700748 0.31082544 8750465
0.75300008 -0.023020659 0.3140974 8816259
0.74900001 -0.012031341 0.31207538 12435125
0.75466663 -0.01408492 0.3154228 9540236
0.74900001 -0.008524497 0.31207538 12368562
0.75414282 -0.0053092828 0.31497937 10658458
0.74900001 0.0055028829 0.31032196 12172726
0.7561667 0.0058473833 0.31447423 11909297
0.76000005 0.0091420468 0.31665862 11580589
0.75700003 0.017080639 0.31363648 11251626
0.7610001 0.015389376 0.31707525 11054247
0.75700003 0.025055313 0.31363648 11120040
0.76100004 0.02518771 0.31707525 10330524
0.7568 0.033906173 0.31355363 11250855
0.7601667 0.034946755 0.31672806 9934996
0.75625008 0.045387592 0.31421354 10264217
0.76225001 0.045748103 0.31938052 8289918
0.75579995 0.055095099 0.31402653 10264475
0.76133341 0.054607388 0.31899643 8159102
0.75650001 0.064150937 0.31269369 9605778
0.76120007 0.06618087 0.31680274 10330786
0.75800002 0.074520685 0.31176996 10066325
0.76333338 0.074902326 0.31705773 9804183
0.75779998 0.085221373 0.31290463 10591898
0.76175004 0.084059283 0.31694293 11184807
0.75825006 0.092550203 0.31149206 12763067
0.76200008 0.091818087 0.31630424 11513256
0.77450007 0.10541525 0.31272504 11645357
0.78625011 0.11161487 0.31471264 10921890
0.7915625 0.11677004 0.31533274 10922145
0.78900003 -0.14196829 0.32135338 9803408
0.78860009 -0.13451321 0.32119045 9277066
0.78780001 -0.12515503 0.32086462 9342860
0.78757143 -0.11563665 0.32261628 9408398
0.77800006 -0.10174146 0.32051578 9605772
0.78550011 -0.10547823 0.3242985 9605772
0.79100007 -0.10467366 0.32895848 10066577
0.77833337 -0.094491996 0.32186887 9539979
0.78575009 -0.094934784 0.32670039 9606285
0.79000002 -0.099611931 0.32915828 9935248
0.7766 -0.08519841 0.32175702 9474443
0.78520006 -0.08430323 0.32715836 9540236
0.7778334 -0.07531298 0.32226804 9277064
0.78600001 -0.075186111 0.32749164 9540236
0.7766 -0.06520097 0.32175705 9211014
0.78466672 -0.064962305 0.32693616 9342601
0.77542865 -0.055506192 0.32256964 9079429
0.7845 -0.053929329 0.32870322 9408651
0.77400011 -0.045652747 0.32400292 8883081
0.78099996 -0.041797947 0.32906505 9277066
0.76800001 -0.033911366 0.32178974 9079434
0.77500004 -0.035139304 0.32623348 9211274
0.78600001 -0.036546201 0.3293317 9474192
0.76850003 -0.024040302 0.32379833 9013894
0.77466673 -0.024529526 0.32760689 9079686
0.76620001 -0.015895942 0.32282925 8882308
0.77400011 -0.015150845 0.32792762 9145478
0.77442867 -0.0044114524 0.32759383 9145478
0.7663334 0.0062318719 0.32109141 8290426
0.77399999 0.0047848751 0.3261157 8487550
0.76900005 0.014651038 0.32220876 8093307
0.77400005 0.014746296 0.3261157 8487550
0.76716667 0.024492862 0.32144055 7961723
0.77454549 0.024481278 0.32733616 8619650
0.76583338 0.03520532 0.32088193 8421504
0.77450001 0.034700125 0.32723466 8882307
0.76400006 0.041383844 0.32011378 8289918
0.77375001 0.044627752 0.32691845 8948100
0.77218187 0.054971419 0.32617387 8882307
0.76650006 0.063953817 0.32116127 8422527
0.77372736 0.064963169 0.32666218 9211272
0.76900005 0.074959174 0.32040852 10725799
0.77455562 0.075802304 0.32534391 9474444
0.76900005 0.087560877 0.32220876 10921382
0.77400011 0.084856004 0.32625866 10132121
0.77450001 0.092949033 0.3256489 10921635
0.78150004 0.098131105 0.32836157 10921633
0.78588891 0.10512567 0.32478648 10855839
0.79079998 0.10800104 0.32801116 10921889
0.78900003 0.11107937 0.32135338 11053475
0.78900003 -0.074242644 0.3305887 9671822
0.78900003 -0.065315172 0.3305887 9803408
0.78800005 -0.058775865 0.33016971 9408650
0.78766674 -0.047689687 0.33187398 9474445
0.78775001 -0.034326933 0.33282971 9277065
0.77900004 -0.02527881 0.33004603 9145478
0.78657144 -0.026312757 0.33457157 9277064
0.79179996 -0.023844302 0.33917636 9474443
0.78399998 -0.015479362 0.33426362 9211271
0.79000002 -0.014076986 0.33840528 9342857
0.78620005 -0.0052607735 0.33493704 9277064
0.79166669 -0.007155227 0.33911923 9277064
0.77900004 0.00025233286 0.33004603 9145478
0.7851429 0.0055072331 0.33317634 9145478
0.79000002 0.0048794067 0.3365559 9145478
0.77900004 0.018488863 0.33004603 9408650
0.78530008 0.014962286 0.33400649 9013892
0.79149997 0.014150323 0.33904785 9145478
0.78508335 0.025063241 0.33538368 9079685
0.78500009 0.035170563 0.33534819 9145479
0.78563637 0.044895355 0.33553627 9342857
0.78527278 0.054898832 0.33554861 9474443
0.77900004 0.069551148 0.33004603 10197909
0.78500009 0.064576559 0.33534771 9671822
0.78635305 0.075080678 0.33511525 10198167
0.77900004 0.082316719 0.33004603 10658462
0.78579998 0.085364588 0.33599818 10461597
0.78706259 0.095491521 0.33576784 10724768
0.78900003 0.10245974 0.33243576 10921889
0.79203337 0.025287421 0.34484255 9211273
