# .PCD v0.7 - Point Cloud Data file format
VERSION 0.7
FIELDS x y z rgb
SIZE 4 4 4 4
TYPE F F F U
COUNT 1 1 1 1
WIDTH 447
HEIGHT 1
VIEWPOINT 0 0 0 1 0 0 0
POINTS 447
DATA ascii
0.41877788 -0.061736807 -0.0020347852 14276301
0.42000005 -0.06394726 -0.0031421569 13750214
0.41745704 -0.055083707 -0.002953616 14473681
0.41772336 -0.046739399 -0.002476681 15066844
0.42056528 -0.042626332 -0.0037858903 14606294
0.42200002 -0.03937969 -0.0015009183 13422277
0.4228889 -0.070482947 0.0077905422 12105390
0.4176591 -0.062176075 0.0053112134 13684422
0.42079425 -0.066735774 0.0065011485 12763063
0.41487026 -0.054744691 0.0053169616 14276559
0.4149363 -0.045256812 0.005462483 15001054
0.41750002 -0.039447863 0.0074096667 14474455
0.42386371 -0.03597844 0.0085488819 13685196
0.43168753 -0.031691138 0.0074315295 13553610
0.43380004 -0.028903555 0.0083074141 12434871
0.42260003 -0.070302941 0.015021491 11776682
0.41696301 -0.062828802 0.01510983 13092285
0.42075011 -0.067582011 0.014720639 12236719
0.41259986 -0.054734316 0.01495043 13881802
0.4126018 -0.044929318 0.01504816 14934747
0.41707322 -0.038178518 0.015982198 14277077
0.42382464 -0.034141544 0.014581879 13487819
0.43028569 -0.030655205 0.012714205 13422026
0.43417397 -0.028091736 0.015369227 12632252
0.42200002 -0.070004888 0.021221003 11382180
0.41662508 -0.063953191 0.02529352 12434612
0.42036369 -0.06785509 0.022703366 12039854
0.40872002 -0.051957414 0.027345609 14144204
0.41183516 -0.056176815 0.024310257 13486531
0.40868205 -0.046963904 0.027225621 14934492
0.41101292 -0.043861672 0.023633754 15000542
0.41575313 -0.036128718 0.02553601 14079954
0.42254546 -0.0328568 0.02173664 13421768
0.43100002 -0.030129753 0.021169094 13092804
0.42700002 -0.029850125 0.024971087 13289410
0.43520004 -0.028792609 0.021987792 12961217
0.41314638 -0.062477212 0.034436736 12368562
0.40802661 -0.053411622 0.035371792 13618374
0.41103703 -0.058529399 0.034228105 13158078
0.40764341 -0.045092564 0.03516664 14935003
0.41000003 -0.040179525 0.030695643 15066591
0.40854168 -0.038760561 0.036642872 14737627
0.41335481 -0.034970161 0.033856135 14079698
0.42000002 -0.030344009 0.032427546 13093062
0.42100003 -0.029430687 0.031519186 13422025
0.41113642 -0.061948176 0.042810045 12302769
0.40710008 -0.054751512 0.042638097 13355457
0.41 -0.059055928 0.041253638 12631734
0.40505666 -0.045022529 0.042650476 14803160
0.40790907 -0.037772425 0.042662665 14737628
0.41091305 -0.03365868 0.042515811 14079956
0.79225808 0.12559256 0.044656076 11711402
0.78873903 0.13584857 0.045884475 11777452
0.79014289 0.13264419 0.043036375 11842988
0.7884444 0.14449912 0.046381149 11777453
0.79016668 0.14608186 0.041276265 11908781
0.78900003 0.15171476 0.048911549 11842991
0.79204178 0.15462084 0.044538002 11843245
0.40800005 -0.060423423 0.058435865 12039340
0.40505883 -0.054681186 0.058214251 13092028
0.40122023 -0.04489952 0.058027018 14606039
0.40483728 -0.035034277 0.058233216 14540250
0.40800005 -0.028521905 0.058435865 12698306
0.78800005 0.029770805 0.05807317 10592924
0.78885716 0.033760842 0.056685239 10592924
0.79081821 0.037956551 0.055841412 10658717
0.78900003 0.13786179 0.051682148 11777452
0.78900003 0.14525004 0.051682148 11711659
0.79196656 0.15531535 0.055215869 11711660
0.40800002 -0.060890377 0.061322492 11973805
0.40308905 -0.054714236 0.064861238 12828858
0.39885721 -0.044623382 0.06794358 14671576
0.40011373 -0.044866655 0.063508928 14605527
0.40269998 -0.034761522 0.065015592 14606043
0.4070645 -0.028085571 0.064903192 12829633
0.78800005 0.029770805 0.066374421 10527131
0.78900003 0.032974977 0.065403186 10658717
0.79093337 0.037289698 0.064770378 10592924
0.39866668 -0.05057966 0.077340156 13288897
0.40206751 -0.054635797 0.074910715 12434102
0.39724752 -0.044891983 0.075133964 14605270
0.40000001 -0.049500015 0.070212476 14078926
0.39761668 -0.037334941 0.076180562 14934749
0.40124989 -0.032960437 0.073857449 14539996
0.40437505 -0.028234765 0.075140573 13553101
0.78800005 0.029770805 0.070063867 10264729
0.7876001 0.0347341 0.075371444 10527386
0.79120004 0.037672777 0.071089089 10593437
0.78900003 0.040890962 0.079388089 10593178
0.3980715 -0.051092859 0.084882222 13091518
0.40130001 -0.055318154 0.085159153 12104880
0.39519659 -0.04485422 0.085149109 14276563
0.39607757 -0.035330463 0.085273527 14803423
0.40012503 -0.031366743 0.081591569 14474203
0.39873341 -0.028744806 0.088036112 14079702
0.40124327 -0.027768193 0.084056325 13684687
0.78708333 0.037262741 0.083650388 10527386
0.78900003 0.041711878 0.084518827 10592923
0.79075003 0.046305135 0.085348248 10658716
0.39567858 -0.051613517 0.094715618 12499638
0.40075004 -0.055692639 0.091334864 11907244
0.39272559 -0.044838667 0.094807871 14012878
0.39368784 -0.034884073 0.094903141 14802909
0.39771163 -0.027907791 0.095517091 14276568
0.40000007 -0.025153423 0.09472432 13223621
0.78900003 0.0390439 0.09047047 10527131
0.79133338 0.038542114 0.097530872 10527131
0.78900003 0.040890962 0.09047047 10592924
0.79145455 0.045229986 0.09471219 10592924
0.39375007 -0.051454451 0.10375547 12302517
0.38899997 -0.041846957 0.10826772 14407893
0.3913857 -0.045288563 0.10450171 13684170
0.38899997 -0.036959678 0.1080993 14868187
0.39124981 -0.03427944 0.10374361 14737372
0.39414743 -0.027188051 0.10425474 14211032
0.79180002 0.038441289 0.10154243 10527131
0.7929666 0.044810493 0.10485133 10592924
0.39033332 -0.050131321 0.11237621 12368308
0.38812089 -0.043898832 0.11520968 13749705
0.39007142 -0.047880236 0.11151869 12763067
0.38742325 -0.036090843 0.11537076 14736857
0.38877779 -0.028694341 0.11890642 14605788
0.39037505 -0.025004085 0.1192429 13816274
0.39000002 -0.050088506 0.12506299 10788763
0.38636076 -0.04426055 0.12486058 13552325
0.3853789 -0.035057265 0.12493061 14671065
0.38816458 -0.027097488 0.12585063 14408665
0.39046431 -0.023932165 0.1232522 13553102
0.39733335 -0.051652271 0.13826521 11841964
0.38463441 -0.043576159 0.13528803 13355204
0.38340902 -0.034878597 0.13506034 14342613
0.3856459 -0.025923008 0.13505225 14408664
0.80621433 0.2229704 0.13518195 4800313
0.39733335 -0.051652271 0.14105259 11776171
0.40150002 -0.053445313 0.14237897 11776171
0.37900001 -0.040690541 0.14992744 3026225
0.38341805 -0.044094838 0.14519832 12960959
0.39100003 -0.049301606 0.14002907 11776171
0.37900001 -0.035094075 0.14985918 3026997
0.381331 -0.034751873 0.1450717 13224648
0.38342357 -0.025569592 0.14520603 13948116
0.38900003 -0.019604877 0.1462945 13093064
0.39400002 -0.0178534 0.14841647 13159370
0.42100003 -0.0087337475 0.14978743 12830405
0.46250004 -0.00093290833 0.14776875 12961221
0.46700001 0.00015127013 0.14866164 12895428
0.47100002 0.0012551852 0.14993498 12895428
0.48477781 0.0049549458 0.1488926 12961990
0.48900002 0.010461216 0.14994119 12895681
0.49125001 0.012236437 0.14948107 13093317
0.80500007 0.20525512 0.1452834 11513769
0.80685008 0.21483627 0.14484061 9868947
0.81050003 0.21846297 0.14890951 3948096
0.80800003 0.22157219 0.14182921 4471865
0.81233335 0.22339804 0.14660805 4143925
0.81800002 0.23005928 0.14932938 3157540
0.38824999 -0.051000118 0.15729265 11579306
0.39133337 -0.052856717 0.15770607 11579307
0.37825006 -0.04176192 0.15549527 2765103
0.38302529 -0.046534754 0.15491933 9671825
0.37731165 -0.035097316 0.15528557 2633517
0.37806454 -0.027997738 0.15596327 2896947
0.38218182 -0.023405856 0.15434301 12237755
0.38677084 -0.017316813 0.15731698 13816530
0.39377132 -0.014366024 0.15459059 13290443
0.40375 -0.010971495 0.15333834 13619921
0.41000003 -0.010425185 0.15451209 13685714
0.39900002 -0.0092114182 0.15924028 13290699
0.40435296 -0.0076025059 0.1584451 13225163
0.41634998 -0.0054203728 0.15691772 12764612
0.42207703 -0.0041656527 0.15495376 12698819
0.4353334 -0.0024859998 0.15310027 12764612
0.44533336 -0.0019439361 0.15184017 12896198
0.42580003 0.0011398804 0.15886448 12698819
0.43442428 0.0028188424 0.15744625 12698563
0.4438889 0.0030352017 0.15567325 12830148
0.45490003 0.0075000203 0.15833154 12764356
0.46666667 0.003772717 0.15325865 12764099
0.47680002 0.004680803 0.15312202 12895684
0.48176926 0.007878352 0.15343902 12830148
0.46800002 0.010011962 0.15993595 12830405
0.47900003 0.010247285 0.15920974 12830405
0.48367858 0.01452612 0.15578809 12764868
0.4905 0.013364174 0.15097468 13092803
0.48380002 0.020996455 0.15763354 11909560
0.80529416 0.20508368 0.15526889 11448232
0.80721432 0.2137996 0.15559343 10593445
0.81066674 0.21787582 0.15399964 5527651
0.81436372 0.22410232 0.15490235 1579290
0.81900007 0.23034053 0.15526381 1579538
0.82000011 0.2332613 0.15473354 2171675
0.38311762 -0.050945207 0.16378744 11579562
0.37652883 -0.042954795 0.16542603 4607050
0.38130182 -0.047962908 0.16419257 11448233
0.37316239 -0.034966435 0.16501936 2436138
0.37549999 -0.026231354 0.16519001 6053726
0.38102695 -0.021427736 0.16405924 14013908
0.38569304 -0.016312169 0.16527224 13816273
0.39188242 -0.011418275 0.16459353 13553358
0.39572918 -0.0079911975 0.16661116 13553101
0.40379274 -0.0040905732 0.16477349 13158857
0.41295004 -0.0018947298 0.1615617 12961991
0.40814283 0.00088367198 0.16814257 13158857
0.41479361 0.0034698651 0.16585192 12896198
0.4250313 0.0043106861 0.16309263 12830148
0.43102944 0.0076199961 0.16284928 12764612
0.44400004 0.0094985282 0.16108881 12764612
0.4546667 0.0090220748 0.16069151 12764099
0.46200001 0.0098836031 0.16004859 12830405
0.42200002 0.011003699 0.16990139 13092807
0.4343704 0.011632411 0.16618338 12895685
0.44366667 0.015025564 0.16787116 12961478
0.45723811 0.015004656 0.16590735 12632770
0.46246669 0.017329752 0.16453478 12698563
0.47684619 0.014153209 0.16149721 12633026
0.48050004 0.017142305 0.16139548 12633796
0.45900002 0.020564696 0.16975458 12633028
0.46693334 0.02303884 0.16794612 12830149
0.4707619 0.02623466 0.16670269 12764099
0.48183337 0.020836236 0.16146596 12896968
0.46800002 0.031648822 0.16952182 12829894
0.81500006 0.2263554 0.16118267 922124
0.81999999 0.23126167 0.16185217 856330
0.38420004 -0.05180401 0.17563923 11579304
0.36825001 -0.040991623 0.17751595 2501931
0.3745251 -0.044134118 0.17468952 6316897
0.38145456 -0.048788819 0.17553636 11908527
0.36797661 -0.034714691 0.17578048 2172967
0.37046149 -0.035305116 0.17096557 2239530
0.36835298 -0.028057454 0.17650403 2501419
0.3739126 -0.024533214 0.17448084 8225151
0.38050005 -0.020642165 0.17401351 13948112
0.38539526 -0.015326411 0.17509764 13816271
0.39000002 -0.010829636 0.17071283 13619147
0.38900003 -0.009891212 0.17482838 13684172
0.39450547 -0.006424258 0.17495933 13355720
0.4011724 -0.0017788699 0.17387979 13093061
0.40584618 0.001726595 0.17528096 13158599
0.41384381 0.0070003299 0.1744671 13158343
0.41810003 0.011294363 0.1756696 13158600
0.42216671 0.01232799 0.17243867 13027270
0.43680006 0.015021466 0.17303663 13092807
0.44325009 0.018267905 0.17247756 13158600
0.45433334 0.018937739 0.17015199 12830405
0.44738102 0.022091735 0.1749274 13158858
0.4541786 0.024963539 0.17394121 13027529
0.4643448 0.026845122 0.17119955 12961993
0.45700002 0.030103698 0.17971335 13092809
0.46685004 0.032393478 0.1737425 12961735
0.47070009 0.036242422 0.17766318 13159370
0.47300002 0.040016066 0.17936149 12698049
0.38227779 -0.051484048 0.1863751 11645099
0.36706388 -0.041385807 0.18514898 2633257
0.37464872 -0.045780685 0.18484348 8947841
0.38105005 -0.049385466 0.18508402 12039600
0.36569944 -0.034981698 0.18489462 1712670
0.36669916 -0.027106622 0.18514928 3159346
0.37498152 -0.021990752 0.18449259 12764092
0.37900001 -0.019396642 0.18940987 13816782
0.38385952 -0.015288224 0.18481889 13684941
0.389 -0.009891212 0.18666694 13421767
0.39437497 -0.0056689759 0.18493003 13355978
0.40000007 -0.00089196744 0.18522029 12895941
0.4048335 0.0029210416 0.18524259 13093577
0.41327664 0.0084127039 0.18504597 13093064
0.41663831 0.012526213 0.1862241 13159113
0.42387891 0.015572131 0.18409093 13224393
0.43007141 0.018477673 0.18264353 13224393
0.43303448 0.021889374 0.18636563 13355979
0.44500002 0.026187969 0.1885372 13421772
0.45287812 0.027972899 0.18501718 13224393
0.45623693 0.032783605 0.18629262 13355979
0.4648965 0.03636767 0.1850602 13355981
0.47071433 0.038407162 0.18237627 13158602
0.46812496 0.042550981 0.18881224 13487567
0.47128579 0.041761074 0.18493083 13289931
0.37822223 -0.050543357 0.19772638 11710891
0.38173917 -0.051865984 0.19261922 11645099
0.35900003 -0.040560305 0.19849229 2369828
0.3635 -0.041601427 0.19407533 2699308
0.37571433 -0.047292896 0.19498925 11184546
0.38077781 -0.049597535 0.19222774 12105392
0.35829994 -0.034813501 0.19757663 2304548
0.3619256 -0.034937166 0.19283774 1975842
0.35856521 -0.027437534 0.19844806 2435619
0.36213541 -0.026559165 0.19389866 3685175
0.37620002 -0.020746443 0.19486317 13751246
0.37900001 -0.019260146 0.19579121 13751247
0.38329661 -0.014561437 0.19501559 13619405
0.38867855 -0.0092001315 0.19574043 13421769
0.39401999 -0.0043511591 0.19466627 13224388
0.40000001 -0.00080683961 0.191009 12896198
0.39833334 0.0004403831 0.19751595 13027528
0.40536854 0.0047812574 0.1947915 12962249
0.41093755 0.0093930075 0.19412632 13027785
0.41500008 0.012965887 0.19507566 13224907
0.42218181 0.017705031 0.19611782 13356750
0.42726669 0.021079116 0.19775708 13356750
0.43279168 0.02421122 0.19475849 13553615
0.44535714 0.028446499 0.19247444 13421516
0.45133337 0.029378489 0.19051588 13092808
0.44766673 0.031936742 0.19683808 13290187
0.45400003 0.035423353 0.19481958 13290444
0.46185714 0.038919535 0.19212019 13619151
0.45900002 0.040980715 0.19984135 14013909
0.46577966 0.043201521 0.19505799 13750737
0.47100011 0.048669495 0.19719012 13027013
0.47400004 0.051197093 0.19915944 10592669
0.37800002 -0.050317131 0.20085633 11907757
0.35866666 -0.040746812 0.20112485 1778460
0.3648572 -0.043815371 0.20289592 8355963
0.37693337 -0.047883444 0.20222884 12302772
0.35774994 -0.034640044 0.20140183 1581338
0.35824993 -0.026659936 0.20132367 2829607
0.36850002 -0.021447264 0.20055242 13685195
0.37800002 -0.02023037 0.20085633 13685967
0.37816671 -0.016863301 0.20424426 13619664
0.382375 -0.012961227 0.20356606 13290956
0.38731381 -0.0081380596 0.2047504 12764612
0.39307016 -0.0035123441 0.20299761 13027011
0.39754546 0.00097632728 0.20392166 12895427
0.40399995 0.0060890559 0.20360589 12698564
0.41 0.0097309807 0.20154315 13027786
0.40850002 0.010651685 0.20558614 12698308
0.41500002 0.013456863 0.20366439 12961993
0.42171067 0.018377012 0.2053235 12830407
0.42625001 0.02206229 0.20625313 12633286
0.43460655 0.026988262 0.20548886 13225164
0.43900001 0.031230336 0.2088616 13092809
0.44503573 0.033658214 0.20565332 13355979
0.45288581 0.038165968 0.20456016 13553358
0.45627993 0.042962585 0.20689227 13619151
0.463561 0.045681305 0.20396474 13750994
0.47000003 0.049298014 0.20426382 13817042
0.46900001 0.050657038 0.20858693 14079702
0.47317243 0.052370559 0.20512737 12698305
0.79217643 0.13497889 0.20466405 11250852
0.79170007 0.14482078 0.20476121 11185061
0.79224986 0.15512253 0.20490442 11185061
0.81339997 0.2240072 0.20561421 4470834
0.41800001 0.014813581 0.21036842 11579570
0.42246157 0.018398764 0.21208133 10855845
0.42615387 0.023778539 0.21186034 10330268
0.43286666 0.02824726 0.21142854 11382958
0.43757144 0.032436974 0.21275282 10922407
0.44364521 0.037071001 0.21167523 11777461
0.44593334 0.041554093 0.21182142 11119272
0.45346671 0.043962475 0.2109441 12698049
0.46560001 0.050508924 0.21339507 13092807
0.47288889 0.05409427 0.21240109 13092807
0.79240626 0.10482996 0.21479934 11053473
0.79036021 0.11497066 0.21459381 11053729
0.79078591 0.12488578 0.21451178 11119266
0.79177773 0.13515478 0.21518625 11119268
0.79204005 0.14488335 0.21505089 11119268
0.79279292 0.15506905 0.21512671 11119268
0.79180002 0.22120783 0.23611538 3814699
0.79233336 0.22098577 0.24295253 4011307
0.79282856 0.14502671 0.26536772 10987425
0.79275 0.15480709 0.26503584 10987425
0.79251999 0.16537836 0.26527137 11053218
0.79239988 0.17462936 0.26523128 11053218
0.79231584 0.11574166 0.27350086 10987425
0.79158831 0.12506972 0.27515215 10987425
0.78900003 0.13832355 0.27517676 10921889
0.79053855 0.13421407 0.27500069 10921889
0.78856659 0.14516944 0.27502471 10987425
0.78900003 0.1531924 0.27646974 10987425
0.7903685 0.15704198 0.27380225 10987425
0.7912668 0.16511874 0.2750394 10987425
0.79265374 0.17454393 0.2748107 11053220
0.7927779 0.12645952 0.28391954 10921889
0.79185194 0.13495868 0.28502977 10921889
0.78900003 0.14617358 0.28194937 10921889
0.79046661 0.14385375 0.28654534 10921889
0.78900003 0.1531924 0.2814568 10856096
0.79030442 0.15542446 0.28576809 10921889
0.79156011 0.16518056 0.28533691 10987425
0.78900003 0.12955 0.2954945 10987425
0.79100001 0.12987837 0.29439178 10987682
0.78883338 0.13690971 0.29820189 10921632
0.79100001 0.13649227 0.29399329 10921632
0.78900003 0.14063238 0.29918861 10987425
0.79124147 0.14486519 0.29524684 10921889
0.79224128 0.15496159 0.294727 10856096
0.78600007 0.13629709 0.3043023 10856097
0.78839999 0.1429258 0.30597278 10856097
0.79012501 0.1470758 0.30354548 10921889
0.79159999 0.15486476 0.3049373 10921632
0.79156673 0.19482769 0.30479288 11053218
0.7845 0.13891262 0.31125677 10856096
0.7878148 0.14622971 0.31437963 10856096
0.78874999 0.15366746 0.31709644 10856096
0.79033339 0.15680298 0.31387815 10856096
0.7924642 0.16543683 0.31514144 10921889
0.79160005 0.19483632 0.31500104 10921632
0.79263985 0.20437294 0.3154147 11053218
0.78700012 0.14817216 0.3221173 10856096
0.78803998 0.15529525 0.3247979 10856096
0.78900003 0.16131946 0.32652515 10856096
0.79104179 0.16592111 0.32465312 10921889
0.78837508 0.15736257 0.33482671 10856096
0.78900003 0.16147779 0.33349118 10724510
0.79116672 0.16633394 0.33550927 10790303
0.78900003 0.15817948 0.34167105 10921889
0.79028571 0.15856966 0.34645739 10790304
0.79136002 0.16513959 0.34454685 10790303
0.79236352 0.18507427 0.35476294 10856097
0.79196656 0.19492741 0.3550069 10724769
0.79226446 0.20492923 0.3553575 10461084
0.79287869 0.18468919 0.36511889 10725024
0.79271996 0.19511312 0.36555234 10659234
0.79183328 0.19489481 0.38460594 10658718
0.79278111 0.19477822 0.40513071 10527132
0.79200006 0.097287066 0.41744268 10264731
0.79283321 0.18443678 0.41447955 10592926
0.79254997 0.19507086 0.41464162 10527132
0.792 0.08851105 0.42862758 10264731
0.7923333 0.095008872 0.42488301 10330524
0.79205722 0.14488594 0.42457473 10396316
0.79236102 0.15473226 0.42504919 10461852
0.79011118 0.086265571 0.43545687 10264475
0.79093361 0.09468779 0.43415922 10395804
0.79136115 0.10492846 0.43439454 10461596
0.79276657 0.11532259 0.43516746 10461597
0.79245448 0.12505563 0.43491349 10396060
0.78900003 0.13878532 0.43402424 10461340
0.79053855 0.13478313 0.43508485 10461853
0.7889998 0.14593263 0.4349879 10461596
0.79000002 0.1438159 0.43364963 10461853
0.78899992 0.15454693 0.43734899 10527389
0.79038894 0.15640308 0.43273112 10527901
0.78900003 0.16095006 0.43864188 10396317
0.79151726 0.16529906 0.43432051 10396315
0.78900003 0.086374894 0.44325954 10132375
0.79000002 0.08532849 0.4413555 10132632
0.78900003 0.092608728 0.4439984 10395290
0.79000002 0.09503787 0.44363642 10329754
0.7905336 0.10482011 0.44412091 10395547
0.79270834 0.11516019 0.44518828 10527133
0.79269224 0.13507852 0.44476414 10461340
0.78900003 0.14940593 0.44279778 10461340
0.79060888 0.14429758 0.44440618 10461596
0.78899986 0.15540887 0.44418311 10395804
0.79000002 0.15005763 0.44752014 10527903
0.78900003 0.16174166 0.44457886 10396317
0.79070592 0.16641718 0.44389141 10396317
