# .PCD v0.7 - Point Cloud Data file format
VERSION 0.7
FIELDS x y z rgb
SIZE 4 4 4 4
TYPE F F F U
COUNT 1 1 1 1
WIDTH 336
HEIGHT 1
VIEWPOINT 0 0 0 1 0 0 0
POINTS 336
DATA ascii
0.41887495 -0.062469572 -0.0027161313 14079178
0.41999999 -0.065740205 -0.0010021911 13552836
0.41761407 -0.055104122 -0.0029542593 14473936
0.41786042 -0.047113203 -0.0025691611 15132382
0.42092603 -0.042670988 -0.0033405633 14803418
0.42399999 -0.038903423 -0.0015076414 13553352
0.42318183 -0.070651896 0.0076360223 12105390
0.41774461 -0.062330972 0.0055136606 13750215
0.42084861 -0.06691958 0.0061331927 12697527
0.41488022 -0.054746326 0.0053169616 14211023
0.41518959 -0.045275223 0.0052843243 15066334
0.41800001 -0.039607704 0.006907118 14606041
0.42360717 -0.035905685 0.0082687447 13619146
0.43200001 -0.03171641 0.0072580166 13553353
0.42200002 -0.07020247 0.013416517 11908267
0.41687283 -0.062983364 0.015221121 13026492
0.4207201 -0.067547701 0.014004917 12171183
0.4125399 -0.0548236 0.014946937 13947594
0.4126344 -0.044981226 0.015061394 15000283
0.41718751 -0.038684364 0.015940834 14408405
0.4241558 -0.034124769 0.014846766 13553609
0.43000004 -0.030185673 0.013696022 13619144
0.42900002 -0.029989939 0.017053673 13093060
0.4337143 -0.028427288 0.015869241 12830142
0.44075 -0.025652327 0.018035786 12106164
0.41646159 -0.063903026 0.025104892 12500148
0.4203572 -0.068537936 0.02408899 11973804
0.40875769 -0.051918082 0.026367726 14013388
0.41141561 -0.056534447 0.024372948 13355458
0.40856162 -0.046884064 0.026441539 14869211
0.4110781 -0.043243896 0.023571985 15000798
0.4157308 -0.036413185 0.025631579 14145491
0.42243752 -0.032676481 0.023087358 13355975
0.43000001 -0.030059844 0.020616658 13027267
0.42775002 -0.029652067 0.02351143 13093057
0.43162501 -0.028783172 0.022333428 12961473
0.44000003 -0.025608674 0.020581093 12304314
0.41341305 -0.06263081 0.034347728 12434355
0.4078818 -0.053405724 0.035572391 13552838
0.41086206 -0.0583742 0.034041002 13223871
0.40748689 -0.045028768 0.035263296 14869212
0.41 -0.040499464 0.031015582 14803419
0.40849999 -0.038956098 0.037096933 14737883
0.41368759 -0.035308499 0.033416767 14079954
0.42000002 -0.030344009 0.03218174 12962244
0.42100003 -0.029430687 0.032833278 12896451
0.41137505 -0.0619842 0.041873213 12368049
0.40715629 -0.054653637 0.041711062 13421251
0.41 -0.059375871 0.04125363 12762807
0.4052667 -0.044930123 0.041725565 14868955
0.40799999 -0.037934352 0.041597635 14803421
0.41133335 -0.033512395 0.041869778 13948116
0.40800002 -0.060314264 0.057699036 12039597
0.40506664 -0.054702111 0.056829207 13026492
0.40190014 -0.044995632 0.056570906 14671576
0.40540001 -0.035085239 0.056845773 14540250
0.40829411 -0.028485999 0.056936055 12566463
0.40800002 -0.060837314 0.061110239 11973804
0.40372935 -0.054886937 0.064102069 12829113
0.39900005 -0.044498362 0.066560149 14802649
0.4002049 -0.044925325 0.063124463 14605783
0.40279129 -0.034943182 0.064294793 14606041
0.40682611 -0.028604519 0.063869841 13092550
0.39863637 -0.050604142 0.077013835 13289154
0.40159187 -0.054940782 0.076840155 12368052
0.39664987 -0.044908814 0.076586418 14605014
0.39723411 -0.037124649 0.077322647 14934493
0.40099999 -0.032186694 0.076923959 14606045
0.40381822 -0.028097617 0.077798903 13553358
0.39821956 -0.051759675 0.084951602 12894139
0.40023524 -0.055234399 0.084445372 12039344
0.39524573 -0.044930737 0.085216045 14341843
0.39613655 -0.035302237 0.085254356 14934238
0.40014288 -0.031317949 0.081478119 14540250
0.39866668 -0.029217085 0.088229023 14211031
0.4032456 -0.026684638 0.084821366 13421515
0.39606899 -0.05182923 0.09486229 12499639
0.40019998 -0.055146478 0.091608442 11973039
0.39279202 -0.044832524 0.094865941 14012878
0.39371201 -0.034886662 0.094908774 14803165
0.3974469 -0.028138652 0.095492534 14276822
0.40047622 -0.025314912 0.093417965 13158344
0.39285719 -0.051288076 0.10324701 12434103
0.38899997 -0.04219272 0.10792197 14276306
0.39117131 -0.045507781 0.10426848 13684169
0.38899997 -0.037463859 0.10738923 14736858
0.39107987 -0.033826385 0.10393663 14737372
0.39329082 -0.027475167 0.10486779 14276824
0.38821426 -0.044186041 0.1153056 13683912
0.39011115 -0.047769297 0.11099371 13025470
0.38801718 -0.035791084 0.11514595 14671322
0.39000002 -0.031828567 0.11045504 14736858
0.38872728 -0.028580071 0.11878082 14606042
0.3910909 -0.026093571 0.11507977 14211285
0.39037505 -0.050479919 0.12426936 10723998
0.38638863 -0.044306472 0.12473463 13421254
0.3852272 -0.035043892 0.1248803 14605785
0.38792595 -0.027069893 0.12582792 14408665
0.39053577 -0.02380581 0.12343864 13553101
0.39300001 -0.050473802 0.13844526 11776172
0.38450539 -0.043562099 0.13519329 13355204
0.39000002 -0.049175512 0.13601895 11710380
0.3832117 -0.034860775 0.13499191 14342869
0.38558596 -0.025789043 0.13505484 14408409
0.38800001 -0.018948933 0.13986298 13355979
0.39650002 -0.05185153 0.14060588 11776425
0.38367811 -0.044248395 0.14510292 13026496
0.37899998 -0.035367072 0.14992742 2632495
0.38151145 -0.03474848 0.14514802 13224647
0.38302517 -0.025494371 0.1452453 13948115
0.38900003 -0.019908428 0.14614272 12895429
0.39457145 -0.017372193 0.14794944 13290186
0.41800004 -0.011020022 0.14891574 12567233
0.41866669 -0.0091750044 0.1484668 12764612
0.42050004 -0.0077389767 0.14862396 12764612
0.45618749 -0.0031868664 0.14875169 13027784
0.4624286 -0.0020143145 0.1478231 12961991
0.47250003 -0.00095307932 0.14708823 12698819
0.48000002 -0.00096820755 0.14718154 12961991
0.46733335 0.00088099536 0.1491314 12764612
0.47487503 0.0021046204 0.14859135 12830405
0.48340002 0.0054835691 0.1483905 12896452
0.48800004 0.010439823 0.14963457 12962244
0.49100003 0.011655003 0.149405 12830658
0.38814998 -0.051441394 0.15776791 11513770
0.39090911 -0.053118344 0.15680182 11513770
0.37829736 -0.041716762 0.15579937 2765101
0.38317072 -0.046301432 0.15481083 9277066
0.37768379 -0.035203859 0.15511315 2633517
0.38000003 -0.030122865 0.15032302 2896184
0.37832147 -0.028090823 0.15565166 2830385
0.3821395 -0.023409467 0.15446399 12171960
0.3868039 -0.01774879 0.15675734 13750737
0.39391172 -0.01405133 0.15499058 13355979
0.40175003 -0.01127033 0.15293081 13685457
0.41716671 -0.010770115 0.15232719 12764867
0.39825004 -0.0091941031 0.15893888 13290186
0.40440631 -0.0076449886 0.15686105 13158857
0.41725928 -0.0066318582 0.15503275 12764611
0.42157513 -0.0040049972 0.15507208 12764610
0.43728569 -0.0029260914 0.15397207 12764612
0.44463637 -0.0015583198 0.1535456 12896199
0.45292863 -0.0023491473 0.15106954 13224906
0.41850001 0.00062600331 0.15967482 12764612
0.42307144 0.00098699762 0.15829778 12764611
0.43513334 0.0019728725 0.15752414 12764098
0.44439536 0.0031464398 0.15582734 12764612
0.45412505 0.0039898809 0.1543155 13027527
0.46485716 0.0033428886 0.15279682 12830405
0.47539288 0.0063205636 0.15303862 12830404
0.48211113 0.0086847534 0.15195948 12764866
0.45600003 0.010822749 0.15957011 12435648
0.47900003 0.010247285 0.15808839 12764612
0.48420325 0.01399471 0.15552297 12764866
0.49066666 0.01394285 0.15121736 13027780
0.38521057 -0.052042834 0.16242658 11513513
0.37667066 -0.042884655 0.16520107 4475463
0.38117644 -0.047854494 0.16436268 11513769
0.37405208 -0.034939215 0.16506745 2305322
0.37622884 -0.02649441 0.16529289 5527383
0.38109085 -0.021712082 0.16395204 13948113
0.38576347 -0.016487086 0.16521889 13750737
0.39187184 -0.011537096 0.16413742 13619150
0.39559996 -0.0081264293 0.16598612 13421772
0.40423191 -0.0039596679 0.16479649 13224393
0.41280955 -0.0018428827 0.16159075 13092807
0.40830001 0.00051477842 0.16811162 13224393
0.41452381 0.0028194573 0.16534053 13027014
0.42423815 0.0059103691 0.1643174 12895941
0.43412501 0.0080185849 0.16511889 12830148
0.44460005 0.0086854529 0.16317183 12829888
0.45120001 0.0092311744 0.16116481 12633026
0.42800003 0.010158195 0.1693112 12961221
0.4364616 0.012210405 0.16829023 12895941
0.44460872 0.012726075 0.16627637 12961476
0.45525488 0.014907169 0.16493523 12698306
0.46182355 0.018531129 0.1649453 12764357
0.46700001 0.022781989 0.16776709 12764614
0.47000012 0.027187657 0.16753547 12566977
0.47000003 0.032060318 0.16942166 12106165
0.38388574 -0.051718365 0.17458479 11644842
0.3684167 -0.040920075 0.17757924 2567467
0.37447509 -0.043897517 0.17487438 5922395
0.38113329 -0.048504882 0.17489143 11974064
0.36794552 -0.034773253 0.17641117 2172964
0.37070182 -0.035095397 0.1717189 2370601
0.36840004 -0.028098645 0.17740105 2501671
0.37388128 -0.024852108 0.17463984 7698808
0.38052946 -0.020679714 0.17411256 13947858
0.38555893 -0.015252634 0.17509183 13816272
0.39000002 -0.010829636 0.17071283 13421768
0.389 -0.009891212 0.1766497 13619147
0.39462632 -0.0061515565 0.17529558 13355720
0.40157565 -0.0017197519 0.17357612 13027269
0.40608174 0.001747413 0.17548837 13093318
0.41390479 0.0066782963 0.17507726 13158599
0.42071432 0.0091415048 0.1719164 13092807
0.41750002 0.010886362 0.17932887 13093320
0.42647922 0.013623529 0.17554969 13092807
0.4326297 0.015854262 0.17303476 13158600
0.44233337 0.018266661 0.17187394 13093577
0.45400003 0.019277859 0.17054841 12961734
0.44766667 0.020756111 0.1742959 13159113
0.45416287 0.025147496 0.17619205 13224136
0.46580949 0.025785809 0.17257611 12961736
0.47000003 0.029309621 0.17107208 12764611
0.45766672 0.030505791 0.17854673 13355722
0.46900001 0.030894168 0.17564881 13027786
0.47126678 0.034407623 0.17537355 12896199
0.38163635 -0.051207665 0.18662788 11776685
0.36710873 -0.041302707 0.18529154 2698795
0.37440825 -0.045716953 0.18478443 9013376
0.3806667 -0.049399585 0.18521439 12039600
0.36572778 -0.034984343 0.18490817 1777950
0.36673084 -0.027069749 0.1853088 3159348
0.37461025 -0.022087894 0.1847118 12698045
0.37899998 -0.019396642 0.18668474 13882321
0.38396627 -0.015145633 0.18486764 13684942
0.38899997 -0.009891212 0.18484563 13487564
0.39425242 -0.0053937146 0.18507478 13355722
0.40000004 -0.00080683955 0.18492235 13158857
0.40479466 0.0029478781 0.18532185 13159113
0.41271427 0.0083963098 0.18508773 13027784
0.41667339 0.012738195 0.18606669 13093577
0.42496556 0.01571939 0.18332504 13158857
0.42999998 0.01884597 0.18276922 13290186
0.43363637 0.021739865 0.18616828 13355979
0.44730011 0.026187308 0.18611865 13290186
0.45177424 0.028089639 0.18311109 13224137
0.45507509 0.032725073 0.1864028 13355979
0.46457899 0.036759697 0.18523216 13421772
0.47093347 0.038371697 0.18224807 13158858
0.46766669 0.042048376 0.18843065 13487564
0.47277772 0.041899342 0.18491986 13290443
0.48600003 0.045666818 0.18656656 10197917
0.37849998 -0.050738115 0.19837365 11710891
0.38228565 -0.051912736 0.19337864 11644585
0.36376473 -0.041780293 0.19510242 2633003
0.37562749 -0.047251169 0.19508867 11118754
0.38062504 -0.049664304 0.19300561 12039600
0.35842365 -0.034911722 0.19801877 2238757
0.36177427 -0.034939408 0.19311643 2041379
0.35879999 -0.028274005 0.19888511 2369572
0.36236364 -0.026468413 0.19441596 3882813
0.37566671 -0.020688275 0.19500832 13750992
0.37863168 -0.018957881 0.19671369 13750735
0.38330093 -0.014542903 0.19492583 13619406
0.38881817 -0.009389868 0.19588746 13356234
0.3937735 -0.0045372583 0.19473064 13224389
0.40000001 -0.00080683961 0.19054079 12895428
0.39792863 0.00072886603 0.19767118 12961991
0.40474722 0.0045230165 0.19467014 13093064
0.41118175 0.0092350682 0.19455142 13093064
0.41553971 0.013205433 0.19530551 13290443
0.42112502 0.018130938 0.19637339 13422285
0.42722225 0.021364653 0.19678178 13422286
0.43424398 0.024322348 0.19418614 13553615
0.44385716 0.028424943 0.19278517 13618894
0.44760719 0.031769969 0.19603321 13290186
0.4534131 0.035621844 0.19500387 13224650
0.4616667 0.039057259 0.19180995 13619151
0.45900002 0.040980715 0.19984135 13883093
0.46532351 0.042384341 0.19521721 13685457
0.47184616 0.047187574 0.19621427 13290185
0.47511113 0.051194336 0.19832781 11316392
0.79179996 0.14483877 0.19551636 11185315
0.37755558 -0.050356291 0.20464462 11842478
0.35866669 -0.040466931 0.20135818 1712925
0.3646667 -0.043431055 0.20293792 7501170
0.37517145 -0.047636118 0.20331749 12171442
0.35799989 -0.034664538 0.20154317 1515548
0.3585926 -0.027118556 0.20151848 2105371
0.361 -0.023539051 0.20162261 7959146
0.37300003 -0.02072243 0.20146814 13816526
0.37746301 -0.016663607 0.20416866 13619152
0.38257408 -0.012740104 0.20324869 13421773
0.38725582 -0.0085159121 0.20448099 13027269
0.39312696 -0.0035882271 0.20329416 13027012
0.39755559 0.0011652397 0.20393609 12829892
0.40239999 0.0059573483 0.20336995 12632515
0.41100001 0.0094347754 0.20075183 12961992
0.40800002 0.010638648 0.20533569 12434879
0.41622454 0.014102292 0.20366625 13027529
0.4210715 0.018550089 0.20547231 12895686
0.42570597 0.022124458 0.20750201 12566979
0.43517503 0.026638355 0.20670274 13355978
0.44166669 0.029093655 0.20504232 13684944
0.43900001 0.030973408 0.20963238 12632509
0.44617242 0.033143796 0.20614824 13421772
0.45253339 0.037652966 0.20433863 13422285
0.45625454 0.043263171 0.20690803 13619664
0.46396005 0.046141509 0.20400983 13750994
0.47088888 0.048902407 0.20146365 13816530
0.46800002 0.050988205 0.2085776 13553358
0.47391841 0.053750779 0.2047219 11974581
0.79064536 0.13435537 0.20499733 11185058
0.79068011 0.1446352 0.20542647 11185059
0.79202843 0.15521082 0.20498119 11185059
0.79229999 0.16533296 0.20491694 11381924
0.79228127 0.17494978 0.20514196 11447717
0.41900003 0.01484902 0.21087171 12303291
0.42160001 0.017806569 0.21158817 11053479
0.42666665 0.023612373 0.21123147 11053480
0.4344348 0.028313346 0.21235685 11579824
0.43840009 0.032410037 0.21381889 10987429
0.44356671 0.036012523 0.21187417 11974583
0.44855559 0.041565191 0.21326055 11053222
0.45256531 0.043823574 0.21126579 12500669
0.4605 0.049738947 0.21181324 13224393
0.46566668 0.051027402 0.21110213 13421772
0.47230005 0.05477526 0.21181974 12566463
0.78899997 0.074990593 0.21706536 10527131
0.79021055 0.075224608 0.21318877 10527131
0.79130775 0.085615784 0.21463506 10790303
0.79196656 0.1346724 0.21503186 11185058
0.79192841 0.18505287 0.2152195 11382181
0.78900003 0.077832229 0.22161196 10527131
0.79000002 0.079780273 0.22004344 10658717
0.79114813 0.085866168 0.22468536 10790303
0.79119998 0.087311029 0.23371258 10790303
0.7921111 0.11543406 0.26472083 10921889
0.792 0.10675004 0.27309403 10856096
0.79128015 0.11540256 0.27419388 10856096
0.79219979 0.12451238 0.27536404 10921889
0.79223329 0.14491749 0.27537549 10921632
0.79241174 0.15493684 0.2751652 10921632
0.791875 0.12538742 0.28266793 10921632
0.79218513 0.13515595 0.28487363 10921632
0.79236001 0.1449414 0.28562453 10921632
0.79156011 0.1459078 0.31490487 10790303
0.79128003 0.19475746 0.3148717 10921632
0.79057169 0.15552132 0.32397503 10790303
0.7923333 0.16513602 0.32497695 10856096
0.79233336 0.15977518 0.34682503 10593694
0.79229409 0.14580035 0.38575855 10592926
0.79142433 0.15532538 0.3847717 10462110
