# .PCD v0.7 - Point Cloud Data file format
VERSION 0.7
FIELDS x y z rgb
SIZE 4 4 4 4
TYPE F F F U
COUNT 1 1 1 1
WIDTH 344
HEIGHT 1
VIEWPOINT 0 0 0 1 0 0 0
POINTS 344
DATA ascii
0.41875002 -0.061991569 -0.0024295705 14144971
0.42000005 -0.064488828 -0.002879262 13749957
0.41727144 -0.055059753 -0.0029515682 14408145
0.4177447 -0.046803743 -0.002559962 15001052
0.42047372 -0.042914998 -0.0039053215 15000796
0.4224 -0.070467338 0.007793373 12105136
0.41775611 -0.062027734 0.0052496274 13750214
0.42071065 -0.066579096 0.006409809 12828858
0.41485006 -0.054742929 0.0053164251 14276560
0.4148173 -0.045240186 0.0055087153 15132127
0.41775009 -0.039226364 0.0073976777 14605529
0.42365003 -0.035604853 0.0087560602 13684939
0.43099999 -0.031137174 0.0090613486 13553352
0.42233336 -0.070390262 0.01283624 11776428
0.4169108 -0.063134357 0.015211797 13092285
0.42068008 -0.067856461 0.014122157 12171184
0.41258803 -0.054831464 0.014969137 13881801
0.41254354 -0.044923395 0.01504674 14934748
0.41688573 -0.038509287 0.015901035 14343126
0.4240635 -0.03429649 0.014917439 13553610
0.43005878 -0.030656099 0.013305105 13356230
0.43430436 -0.028097492 0.01586145 12698300
0.41645911 -0.063786089 0.024850827 12500149
0.42041183 -0.068468601 0.025048776 11974061
0.40872985 -0.052339502 0.026668582 14013131
0.41153428 -0.056567937 0.024106536 13420994
0.40866694 -0.046669666 0.027049273 15000283
0.41111422 -0.043749675 0.023393556 15000797
0.41528574 -0.036827415 0.025138831 14211540
0.42330003 -0.032951303 0.021478925 13356489
0.43033338 -0.030083148 0.021135569 13093572
0.43485716 -0.028650986 0.021502348 12962243
0.41393879 -0.062880717 0.034022342 12434355
0.40794766 -0.053376347 0.035464916 13618629
0.41104001 -0.058719214 0.034696396 13223615
0.40760437 -0.045140281 0.034844715 14935003
0.40863156 -0.038685288 0.036281254 14672091
0.41262746 -0.035088014 0.033820972 14014162
0.40900001 -0.060427897 0.049052194 12434355
0.41093099 -0.061734907 0.043567568 12302769
0.4066633 -0.054833442 0.044963464 13289664
0.41000003 -0.059375871 0.041733544 12631734
0.40457499 -0.045193058 0.045294914 14803162
0.40761861 -0.03706634 0.045190562 14672091
0.41096556 -0.032674637 0.044965558 13882576
0.41200003 -0.029283779 0.04868862 12829632
0.40838462 -0.060613174 0.054913733 12171183
0.40532616 -0.054761685 0.054944627 13092285
0.40236476 -0.045814794 0.054940149 14606039
0.40540692 -0.035472233 0.055356417 14606041
0.41050005 -0.031218823 0.051153481 13619147
0.40800002 -0.028362712 0.058881592 12698562
0.4118889 -0.029115001 0.051621396 12829887
0.40830001 -0.060946546 0.062110312 11908013
0.40349999 -0.054579556 0.064966135 12894650
0.39887509 -0.045071177 0.068059392 14671576
0.40022838 -0.044742119 0.063539453 14671319
0.402832 -0.034780648 0.065022051 14671578
0.40721616 -0.028079003 0.064777888 12895427
0.3987273 -0.050530694 0.07669162 13420740
0.40156952 -0.054283693 0.074938528 12565430
0.39737454 -0.04477207 0.074907646 14605272
0.40000001 -0.049500015 0.070212476 13881547
0.39775005 -0.03767724 0.076797247 14934751
0.40140244 -0.033531163 0.074053489 14606043
0.40444115 -0.028520573 0.075212628 13684687
0.39814296 -0.051102288 0.085431352 12960445
0.40118858 -0.055092208 0.084347278 12170929
0.39522329 -0.044840489 0.085171826 14342098
0.39616802 -0.035452101 0.085448198 14868702
0.40023082 -0.031726211 0.081928171 14605789
0.3981539 -0.028765498 0.088098489 14079445
0.40189189 -0.027733881 0.083685398 13684686
0.39592859 -0.051679231 0.094806977 12565430
0.40037501 -0.055288054 0.091366775 11973037
0.39283168 -0.044837538 0.094875231 14012877
0.39366403 -0.0349347 0.094985723 14868445
0.39745614 -0.027684074 0.095161147 14342103
0.40000004 -0.024568172 0.095144317 12828606
0.39271432 -0.051138073 0.10364643 12499639
0.38899997 -0.042219497 0.10766752 14407891
0.39119795 -0.045649547 0.10419933 13618119
0.38899997 -0.03672979 0.10697591 14737370
0.39113262 -0.033550538 0.10344657 14802908
0.39395231 -0.027185425 0.1044801 14211030
0.48050004 -0.079147518 0.11696249 11776428
0.39133334 -0.050259754 0.11083188 12236722
0.38822103 -0.043711528 0.11523072 13881290
0.39007694 -0.047850832 0.1116005 12828602
0.38792372 -0.035323739 0.11489358 14737114
0.39000002 -0.030306906 0.11075937 14605789
0.38884613 -0.028442752 0.11867061 14539996
0.39112505 -0.026311446 0.11339897 14079445
0.39000002 -0.050088506 0.12414998 11184035
0.38633329 -0.044155512 0.12474869 13552583
0.38527289 -0.035048295 0.12489562 14605784
0.38798839 -0.027002938 0.12557469 14473945
0.39024994 -0.023352133 0.12390932 13421515
0.39700001 -0.05098753 0.13846031 11645355
0.38434586 -0.043145791 0.1351902 13552839
0.38337106 -0.03487581 0.13504751 14408148
0.38578129 -0.02569361 0.13518509 14408407
0.38800001 -0.019857248 0.13713804 13159370
0.37900001 -0.040690541 0.14992744 2960432
0.38346404 -0.044078972 0.14517918 13026496
0.39200002 -0.049427692 0.14038719 11578792
0.37881824 -0.034906585 0.14945219 4343115
0.38141951 -0.034750253 0.14475188 13750991
0.37900001 -0.029156348 0.14992744 3026230
0.3828823 -0.025500346 0.14519079 13948113
0.38800001 -0.01985725 0.14486691 13092807
0.39399999 -0.017946441 0.14811949 13093320
0.41800001 -0.010628602 0.14969859 12567235
0.42000002 -0.0082213888 0.14943163 12764614
0.46485716 -0.0020272394 0.14906274 12961991
0.47466668 -0.0013277208 0.14868744 12961991
0.48100001 -0.0015320689 0.14692399 13027784
0.45700002 0.00014803094 0.1497577 13093577
0.47637504 0.00099268393 0.1489916 12896198
0.48328573 0.0045297905 0.14845479 12896198
0.491 0.012230503 0.149405 13093316
0.38837501 -0.050788991 0.15635692 11710121
0.39142862 -0.052760478 0.15726629 11644841
0.37829277 -0.041803494 0.1554563 2765360
0.38319993 -0.046545833 0.15484589 9671054
0.37677971 -0.035105757 0.15514062 2567981
0.37755889 -0.027872764 0.15575974 3159349
0.38216051 -0.023229973 0.15436597 12500926
0.38678437 -0.01749872 0.15694411 13750737
0.39382088 -0.014164976 0.15491439 13355979
0.40385714 -0.010807757 0.15435216 13487820
0.41514286 -0.01097232 0.15283668 12764870
0.39833334 -0.0091960272 0.15850718 13290186
0.40469232 -0.0076986258 0.15738395 13290185
0.41635188 -0.0056405999 0.15561207 12829892
0.42130437 -0.0035923659 0.15469661 12698563
0.43650001 -0.0017729768 0.15415007 12830406
0.44900003 -0.001431236 0.15344283 12961991
0.45100003 -0.0009097117 0.15307051 13027784
0.41800001 0.00013539811 0.15899476 12895428
0.42200005 0.00090506789 0.15837137 12829635
0.43609524 0.0022823992 0.15792111 12698819
0.4445 0.003574841 0.15653364 12764613
0.45416665 0.0079477755 0.15795355 12633028
0.46600002 0.0023280929 0.15269762 12896198
0.47563639 0.0025895776 0.15171182 12830149
0.4821316 0.0075552054 0.15397646 12830148
0.45800003 0.010870218 0.15919897 12435649
0.46100003 0.01094142 0.15862295 12698821
0.48551396 0.014336814 0.15587193 12830403
0.4905 0.013938114 0.15140513 13093317
0.48600003 0.02063665 0.15755433 12172471
0.38382354 -0.051251791 0.16361034 11579564
0.37652811 -0.043007243 0.16535196 4673100
0.3812553 -0.047923062 0.16411249 11447978
0.37327886 -0.034958981 0.16511288 2370602
0.37568372 -0.026259394 0.16527905 6185055
0.3811025 -0.021470344 0.16404761 13948114
0.38534781 -0.016492484 0.16522586 13750737
0.39187106 -0.011439583 0.16462751 13619151
0.39598 -0.0080610849 0.16634989 13487309
0.40406856 -0.0040436625 0.16470677 13224393
0.41247061 -0.0017960804 0.16174132 13158600
0.40855554 0.00045123755 0.16831297 13224393
0.41423082 0.0028855223 0.16555592 13027014
0.42462504 0.0069763898 0.16517565 12961221
0.43483332 0.0072671059 0.16313939 12829635
0.44600001 0.0090157557 0.16257995 12764099
0.45314285 0.0090904739 0.16121949 12698563
0.42400002 0.010063258 0.16971403 13092807
0.43340001 0.012112586 0.1682926 13027014
0.44760004 0.011254054 0.16490546 12829636
0.456875 0.014668114 0.16506647 12698307
0.46180001 0.018421818 0.16440895 12829893
0.48299998 0.015851075 0.16082059 12764612
0.45900002 0.020564696 0.16975458 12895430
0.46617389 0.022265986 0.16694351 12895686
0.47051862 0.026303403 0.16650689 12764099
0.48533335 0.020608341 0.16131403 13027781
0.47050002 0.032644562 0.16960189 11580340
0.38395238 -0.051410802 0.17350046 11644843
0.36821431 -0.040702563 0.17699829 2567723
0.37437049 -0.044154245 0.17483069 6448483
0.38104346 -0.048822273 0.17586622 11908273
0.36775783 -0.034821406 0.17561501 2173220
0.37047362 -0.035005424 0.170929 2436138
0.36818752 -0.028162066 0.17700101 2501675
0.37409824 -0.024577666 0.17440848 8159359
0.38046157 -0.020567399 0.1735929 13948113
0.38495159 -0.015200096 0.17501353 13750736
0.39050001 -0.01084352 0.17047402 13684940
0.389 -0.009891212 0.17619438 13552842
0.39487225 -0.0060535008 0.17520744 13421256
0.40176919 -0.0018210977 0.17325097 13027014
0.40619352 0.0012701391 0.17490073 13093064
0.41397408 0.0064497967 0.17454077 13093064
0.42050004 0.009652446 0.17143016 13027269
0.41780004 0.010894185 0.17759697 13224393
0.42489365 0.013754285 0.17444627 13093063
0.43380004 0.015271684 0.17088409 13092807
0.44375002 0.017023064 0.17215715 13027014
0.45341671 0.017397052 0.17104475 12961221
0.45627081 0.024586849 0.1759959 13158600
0.465 0.025972424 0.17300345 13092809
0.47000012 0.028942861 0.17226404 12961735
0.46625 0.032355241 0.1795239 13158601
0.47175556 0.034492679 0.17555419 12961479
0.79175019 0.1247886 0.17534561 11250851
0.38214284 -0.051572751 0.18734027 11644585
0.36706385 -0.041404579 0.18542235 2633259
0.37492856 -0.045780119 0.18408236 9407879
0.38075003 -0.049079359 0.18707624 12105392
0.36555979 -0.034968309 0.18482412 1778206
0.36672553 -0.027080096 0.18526207 3093813
0.37472421 -0.022009233 0.18468529 12961473
0.37860003 -0.01937617 0.18770164 13816783
0.38408726 -0.015042872 0.18485612 13684942
0.38899997 -0.009891212 0.1848456 13487564
0.39450997 -0.0054243328 0.18505976 13290185
0.40000004 -0.00080683955 0.18492237 13027271
0.40479171 0.0028813928 0.18552348 13224393
0.4130201 0.0081437184 0.18468733 13093064
0.41693473 0.012635274 0.18631719 13224393
0.42436847 0.015989233 0.18354475 13224393
0.43000004 0.0192654 0.18318865 13355978
0.43275002 0.022139112 0.18588109 13355979
0.44400004 0.026129119 0.18811353 13355979
0.45460013 0.028243372 0.18418917 13158854
0.45673686 0.032817837 0.18646902 13290440
0.46446007 0.035534281 0.18420151 13355979
0.47068429 0.038428973 0.18225068 13158600
0.46689475 0.042262085 0.18826023 13487566
0.47178572 0.041882638 0.18472984 13421516
0.79192311 0.11505456 0.18514095 11184804
0.79118532 0.12476454 0.18497908 11316389
0.37819999 -0.050609224 0.19768541 11710379
0.38144445 -0.05147092 0.19261137 11644840
0.35885715 -0.04092849 0.19884492 2501927
0.36379063 -0.04161467 0.19443162 2699309
0.37583673 -0.047343686 0.19501738 11512999
0.38044447 -0.049257677 0.1918636 12171183
0.3583748 -0.034700621 0.19809754 2173477
0.36192581 -0.03501131 0.19333406 1976099
0.35876927 -0.027857693 0.19877766 2304294
0.3624351 -0.02643208 0.19438976 4014143
0.37405553 -0.020938896 0.19480419 13816782
0.3784546 -0.018885197 0.19594318 13750991
0.383228 -0.01438221 0.19497588 13619150
0.3884643 -0.00919485 0.19563124 13355977
0.39413705 -0.0043274723 0.19481108 13224389
0.40000001 -0.00080683961 0.19054079 12895941
0.3980715 0.00059547432 0.19740827 13092808
0.40472525 0.0047496194 0.19459747 13093065
0.41130778 0.009540162 0.19388777 13093065
0.41526428 0.012944872 0.19473295 13355980
0.42194739 0.017816169 0.19634223 13487565
0.42700005 0.020507218 0.19815023 13487566
0.43462503 0.024505859 0.19507176 13619151
0.44345456 0.028553599 0.1940908 13487566
0.45100003 0.029708464 0.19055021 13224648
0.44700009 0.03202096 0.19651568 13290186
0.45348841 0.034989521 0.19402786 13290185
0.4612 0.039017778 0.19237339 13684941
0.45900002 0.040980715 0.19984135 13685714
0.46543553 0.043550447 0.19492181 13685199
0.47000003 0.049114633 0.19692862 11974839
0.47100002 0.05087306 0.19845024 10461087
0.37800002 -0.050317131 0.20085633 11710380
0.3585 -0.041008066 0.20098479 2173475
0.36666667 -0.044516642 0.2037043 10328728
0.37579998 -0.047784157 0.20214796 12236723
0.35799989 -0.034664538 0.20154314 1646876
0.35857147 -0.027013574 0.2014745 2039836
0.36344448 -0.022742573 0.20198923 10393747
0.37262499 -0.020593503 0.20137745 13750990
0.37717474 -0.016368961 0.2043822 13290188
0.38245451 -0.012584358 0.20347694 13159115
0.38724494 -0.0082519678 0.20461462 12829893
0.39332759 -0.0033729814 0.20329632 13027012
0.39761907 0.00097267766 0.20352155 12961475
0.40328124 0.0060283141 0.20374666 12763843
0.41050002 0.0097428476 0.20130725 13224395
0.40833333 0.010647339 0.20550264 12434880
0.41520414 0.013554689 0.20387624 13027273
0.42140013 0.018290492 0.20534161 13027273
0.42625931 0.022279421 0.20742682 12632772
0.43509224 0.026756583 0.20602761 13290188
0.44000003 0.028983869 0.20186953 13619151
0.43900004 0.03138449 0.20881021 13092550
0.444125 0.033538394 0.20594744 13421772
0.45275006 0.038172465 0.20419812 13553358
0.45621744 0.042592417 0.20662794 13685201
0.46405667 0.046419658 0.2044936 13685457
0.46855557 0.051097009 0.20741306 13619664
0.47057906 0.052568067 0.20511501 12895941
0.42216671 0.018094307 0.21230055 10658978
0.42641187 0.024160549 0.21224758 10461854
0.43118182 0.028312542 0.21112524 10987688
0.43623528 0.032102536 0.2116688 11250858
0.4445 0.037170194 0.21158336 12040118
0.44885722 0.041876715 0.21223749 11777201
0.45335299 0.04366941 0.21092205 12829634
0.46350002 0.048977919 0.21102302 13355979
0.46693331 0.051602926 0.21247452 13158600
0.47028571 0.054099087 0.21214657 12829635
0.792 0.16487074 0.23516771 11250851
0.79040027 0.17511211 0.23495653 11185315
0.79072016 0.18536623 0.23505203 11185060
0.79125011 0.17496942 0.24427591 11119266
0.79162967 0.18516721 0.24479635 11185059
0.79182851 0.18483074 0.25471267 11119267
0.78900003 0.10718001 0.26799378 10921889
0.79070586 0.10543655 0.26281214 10856096
0.78899997 0.11292644 0.26594144 10856096
0.79000002 0.11619042 0.26431352 10856096
0.79172003 0.1244393 0.26500571 10921889
0.7913 0.17531127 0.26486388 11053217
0.79132003 0.18550687 0.26487139 11119266
0.78900003 0.10738524 0.27148265 10856096
0.79060006 0.11574835 0.27462536 10856096
0.79100001 0.1391371 0.30179876 10987425
0.78900003 0.19512074 0.30842394 11053475
0.78813344 0.14539854 0.31743222 10790304
0.79058337 0.14538848 0.31243515 10856097
0.78871435 0.15403427 0.31859899 10856096
0.78900003 0.1882866 0.31285688 11053219
0.79009098 0.18471284 0.3151558 10987426
0.78899986 0.19400276 0.3128958 10987425
0.79007691 0.1960275 0.31695473 10921633
0.77700001 0.1494073 0.3273797 10658717
0.7844547 0.14783293 0.3223325 10790561
0.77900004 0.15161553 0.32731056 10790560
0.78578573 0.15510733 0.32443881 10659232
0.78871435 0.1616834 0.32624814 10659489
0.79090923 0.16613828 0.32440245 10790817
0.79159254 0.19504124 0.32570526 10921633
0.77900004 0.14979188 0.33004603 10658717
0.78466672 0.15578502 0.33440882 10790303
0.78833342 0.16173722 0.33492389 10790561
0.79073334 0.16685842 0.3350167 10790560
0.78880006 0.1579549 0.3430621 10790304
0.79025006 0.15889272 0.34822527 10658719
0.78900003 0.16095006 0.34167105 10790303
0.79076934 0.16522868 0.34549904 10856097
