# .PCD v0.7 - Point Cloud Data file format
VERSION 0.7
FIELDS x y z rgb
SIZE 4 4 4 4
TYPE F F F U
COUNT 1 1 1 1
WIDTH 407
HEIGHT 1
VIEWPOINT 0 0 0 1 0 0 0
POINTS 407
DATA ascii
0.41889998 -0.062561065 -0.0025037481 14078920
0.41999999 -0.065740205 -0.0010021911 13618370
0.41771656 -0.055117559 -0.0024660828 14342351
0.41794735 -0.046955928 -0.0020549402 15066590
0.4205201 -0.042548031 -0.0030118376 14672089
0.42233333 -0.070500039 0.0075603672 12039596
0.41779539 -0.0621964 0.0056026657 13684422
0.42055282 -0.066708826 0.0057080663 12763320
0.41494012 -0.054754712 0.005317451 14276560
0.41503069 -0.045127947 0.0053972043 15001054
0.41741669 -0.039602984 0.0066583212 14474712
0.42400005 -0.035796952 0.0081322799 13619147
0.43055558 -0.031777717 0.0073716738 13619401
0.43300003 -0.029255906 0.0091033969 12961215
0.42250001 -0.070582956 0.013336431 11842474
0.41689101 -0.062986337 0.015222907 13026491
0.4205927 -0.067766733 0.014275785 12171182
0.41268915 -0.054704774 0.015024678 13882057
0.4127028 -0.044838749 0.014997699 14934748
0.41713515 -0.038474347 0.015761906 14342869
0.42371234 -0.033821426 0.014895398 13487817
0.43000004 -0.030227616 0.011724692 13487559
0.42825001 -0.029937511 0.017524254 13356230
0.43344441 -0.028150538 0.013525039 13289922
0.41644618 -0.063900977 0.025042444 12500148
0.42041671 -0.06867668 0.023847109 11842476
0.40869233 -0.05212193 0.027432237 13947597
0.41164279 -0.056142755 0.024232378 13421252
0.40856025 -0.046407327 0.027277302 14869212
0.41118309 -0.043979798 0.023284126 14869470
0.41561338 -0.036464166 0.02567503 14145748
0.42140007 -0.033056211 0.02306095 13422025
0.42725003 -0.029867603 0.021482959 13158853
0.43075001 -0.029103883 0.021660134 13158853
0.41304886 -0.062488034 0.034167118 12368819
0.40781265 -0.053560805 0.035468582 13552838
0.41082612 -0.058534674 0.033598777 13223872
0.40720391 -0.045006346 0.035145503 14934748
0.40837505 -0.038944189 0.036109518 14737628
0.41316667 -0.034834582 0.033486351 14014162
0.42000002 -0.029360779 0.03046109 12961221
0.40877777 -0.060900524 0.048679657 12302512
0.41095656 -0.061733071 0.043606721 12236976
0.40643761 -0.054944366 0.044905979 13289664
0.40437147 -0.045254931 0.045307007 14803418
0.40745592 -0.036797546 0.045485958 14606300
0.41057146 -0.032729104 0.044192147 13882321
0.41150004 -0.029247653 0.048629533 12632509
0.40800002 -0.060518939 0.055720549 11974063
0.40526584 -0.054732431 0.054885555 13092029
0.40191752 -0.04493849 0.055059727 14671833
0.40579829 -0.035078153 0.054994501 14474712
0.40807405 -0.028385492 0.056024067 12632254
0.41040006 -0.029074073 0.050708521 12566461
0.40800002 -0.060909674 0.061457559 11907757
0.4034999 -0.054685559 0.064897113 12828858
0.39879414 -0.045012195 0.068050466 14606040
0.40012929 -0.04475569 0.063743383 14540247
0.40299997 -0.034732066 0.064940043 14540505
0.40693101 -0.028182313 0.063868009 13092806
0.78533334 0.029670054 0.066760026 10527386
0.78849989 0.035077516 0.06540852 10592923
0.79176003 0.044744797 0.064835817 10658973
0.39860001 -0.050633527 0.077151082 13223360
0.40246901 -0.054922614 0.075264342 12434099
0.39709446 -0.044716597 0.07497713 14605527
0.40000001 -0.046378657 0.070524611 14473942
0.39765909 -0.03774083 0.077055082 15000287
0.40136045 -0.033698946 0.074064232 14606044
0.40406072 -0.028473662 0.075587846 13618895
0.778 0.029393002 0.075548142 10527385
0.78166676 0.028922083 0.071940087 10527385
0.77900004 0.031254437 0.078381903 10790303
0.78608686 0.035225365 0.074529298 10593178
0.78885716 0.04193902 0.077526651 10593179
0.79108703 0.045509961 0.074121833 10658971
0.3981429 -0.051102128 0.084898762 13025982
0.40165666 -0.055732422 0.084547371 11973807
0.39515048 -0.04487665 0.085180081 14342098
0.39609736 -0.03545393 0.085359484 14868958
0.40008339 -0.031636655 0.081856303 14539996
0.39866674 -0.028739987 0.088021293 14013654
0.40102634 -0.027612884 0.084444463 13684687
0.78615391 0.036926519 0.083778344 10592924
0.78878564 0.04259498 0.08464285 10658717
0.79045451 0.047191322 0.085422106 10592924
0.39624247 -0.051762942 0.094783768 12434101
0.40037504 -0.055288054 0.091366783 11973551
0.39296767 -0.044867143 0.094865538 14013134
0.3938373 -0.034831118 0.094849393 14803164
0.39756 -0.027994342 0.095465124 14276824
0.40000007 -0.025329001 0.094266437 13158342
0.78900003 0.0390439 0.09047047 10527131
0.79066664 0.038509905 0.098682679 10527131
0.78900003 0.040890962 0.09047047 10592924
0.79072005 0.044905152 0.095259741 10527131
0.39283341 -0.051270321 0.10277414 12499895
0.38899997 -0.04219272 0.10792197 14341587
0.39122623 -0.045489524 0.10424098 13618375
0.38899997 -0.037478734 0.10752018 14802394
0.39136723 -0.034189299 0.1036396 14737116
0.39415511 -0.027217116 0.10436998 14211033
0.79000002 0.039093386 0.10168156 10592924
0.79130769 0.045073219 0.10505675 10527131
0.39166668 -0.050302565 0.11092629 12236467
0.38820696 -0.043801494 0.11536426 13815499
0.39014286 -0.047628384 0.1116043 13025726
0.38792038 -0.035513796 0.11508369 14736858
0.389 -0.029318541 0.11806417 14606044
0.39049998 -0.025925105 0.11832518 14211287
0.38650468 -0.044360157 0.12475561 13486790
0.38537872 -0.035057493 0.12492993 14605785
0.3881163 -0.026927739 0.12567982 14342871
0.39005882 -0.024098372 0.12304074 13684942
0.39250001 -0.051328436 0.13735086 11776173
0.38444677 -0.043597203 0.1351624 13355203
0.38332561 -0.034870435 0.13503106 14342612
0.38571432 -0.025705675 0.13504001 14408407
0.39200002 -0.050805382 0.14038719 11841964
0.37900001 -0.040690541 0.14992744 2960178
0.38318735 -0.044136785 0.14509039 13026496
0.37899998 -0.035367072 0.14992742 2829365
0.38143283 -0.034780473 0.14514732 13224391
0.38322952 -0.025456743 0.14521135 13948114
0.38900003 -0.019908428 0.14750871 12763844
0.39421055 -0.017352318 0.14855959 13290186
0.40400001 -0.015001477 0.14846785 13290956
0.41800001 -0.010628602 0.14969859 12501442
0.41800001 -0.0091607831 0.14920931 12698821
0.45800003 -0.00092383137 0.14901321 13159370
0.46266672 -0.0016550585 0.14800245 12896198
0.47600001 -0.00096013909 0.14818367 13092807
0.48500001 -0.00097829301 0.14700808 13027014
0.46000001 0.00014900271 0.14966391 13093577
0.47533336 0.00052775198 0.1490764 13027271
0.48540631 0.0046740808 0.14833535 12961735
0.49033335 0.00743003 0.14690639 12830405
0.48833334 0.011782114 0.14935558 12961993
0.49025002 0.011635057 0.14802852 12764612
0.79227281 0.047299813 0.14479961 10395545
0.38800001 -0.052101687 0.15794298 11579305
0.39063641 -0.053413186 0.15743986 11710635
0.37824392 -0.041798148 0.15580237 2765104
0.3831358 -0.046536714 0.15489055 9605774
0.37727258 -0.035076227 0.15527561 2633517
0.38000003 -0.030122865 0.15032302 2961207
0.37808621 -0.028031625 0.15592575 2896434
0.38217047 -0.023404427 0.15446223 12040375
0.38696724 -0.017214764 0.15653643 13750737
0.39376661 -0.01412246 0.15411861 13290186
0.40250003 -0.011017551 0.1527832 13750737
0.41666669 -0.011028048 0.15236275 12896199
0.39900002 -0.0092114182 0.15970731 13355979
0.40442306 -0.0079098558 0.15738827 13159114
0.41651112 -0.0059976149 0.15552296 12764613
0.42119238 -0.0033124271 0.15542962 12698819
0.43839997 -0.0021156715 0.15515646 12698819
0.44150004 -0.0010622238 0.15397222 12699333
0.41800001 0.00013539811 0.15948404 12633026
0.42226666 0.0013909416 0.15847142 12698819
0.43649998 0.00218666 0.15793853 12633026
0.44408703 0.0033384727 0.155937 12699332
0.45433339 0.0075853616 0.15738057 12765125
0.46400002 0.0044952282 0.15422404 12830405
0.47635716 0.005379369 0.15458827 12764612
0.4820385 0.0074934331 0.15218432 12830148
0.45800003 0.010870218 0.15973507 12370624
0.46100003 0.01094142 0.15970217 12567233
0.47871432 0.01152238 0.15895425 12698819
0.48402518 0.01454898 0.15534136 12830405
0.48550001 0.020994663 0.15852743 12633281
0.38500008 -0.052455653 0.16205269 11644585
0.37657654 -0.042926304 0.16533764 4607306
0.38130605 -0.047971662 0.16444588 11776427
0.37360293 -0.034954362 0.16522726 2370857
0.37585476 -0.02637803 0.16518816 5856602
0.3812162 -0.021655262 0.16404292 14079441
0.38621977 -0.01663599 0.16520734 13882064
0.39177421 -0.011495722 0.16517776 13618894
0.39582983 -0.0081271594 0.16645326 13552844
0.40395451 -0.0042560408 0.16509359 13224393
0.41286957 -0.0019227969 0.16218285 12961991
0.40814286 0.00054188335 0.16882549 13224393
0.41500005 0.0027369799 0.16602585 12961735
0.42382863 0.0058694356 0.16360044 12764613
0.43506667 0.0078817364 0.16245683 12698819
0.44520003 0.0091046887 0.16234823 12698819
0.45200002 0.0094063077 0.16160756 12698819
0.42600003 0.010110727 0.16852002 12830407
0.43700004 0.012112582 0.16754869 12830405
0.44462502 0.012826341 0.16630602 12764612
0.45610261 0.014905098 0.16585277 12633027
0.46236667 0.017724417 0.16504282 12633283
0.47620004 0.015983745 0.16150734 12633283
0.48025003 0.01701967 0.16131133 12830661
0.4670333 0.02267874 0.16710691 12698819
0.47021437 0.026964827 0.1674547 12764099
0.48300004 0.020962954 0.16143915 13093832
0.38379997 -0.051494658 0.17415452 11710378
0.36855558 -0.04071968 0.17771786 2567724
0.37427068 -0.043915108 0.17486595 6053982
0.3811852 -0.048693087 0.17471941 11908271
0.36815089 -0.035061516 0.17657013 2172964
0.37066686 -0.034676079 0.17183737 2370855
0.36850002 -0.027959859 0.17782082 2698535
0.3740415 -0.024888359 0.17453165 7633014
0.38050005 -0.020586565 0.17323394 13947857
0.38545597 -0.015522507 0.17520939 13816272
0.39011115 -0.010934166 0.1727901 13684686
0.39485091 -0.0064761117 0.17546979 13421257
0.40125713 -0.0017740752 0.17402123 13092807
0.40560353 0.0018726157 0.17520565 13158600
0.41417247 0.0066627334 0.17424424 13093064
0.42050004 0.0093650855 0.172373 13158600
0.41850001 0.010912437 0.17877869 13158600
0.42503458 0.013733339 0.17458345 13093063
0.4338572 0.015524144 0.17099053 12961991
0.44450003 0.01782335 0.17112942 12895941
0.45400003 0.01875113 0.17054841 12698819
0.45663342 0.025485765 0.17728257 13158857
0.46463642 0.025641585 0.17308706 13027527
0.47000003 0.028897017 0.17148468 12896452
0.45900002 0.030235443 0.17942533 13224393
0.46400002 0.031810228 0.17841847 13093064
0.47115007 0.033852153 0.17507739 13027783
0.38223529 -0.051724784 0.18747543 11579306
0.36722729 -0.041245352 0.18525811 2633518
0.37441516 -0.045584004 0.18458238 8881279
0.38082355 -0.04927763 0.18683444 12105136
0.36588338 -0.034934103 0.18490355 1778207
0.36686406 -0.027110184 0.18529116 3159091
0.37472883 -0.022109484 0.18455939 12763837
0.37885714 -0.019389331 0.18712018 13882576
0.38400006 -0.014971731 0.18482675 13684942
0.38899997 -0.0098084249 0.18567349 13421769
0.39423943 -0.005692631 0.18513532 13421514
0.40000007 -0.0011579923 0.18422003 13027014
0.40473458 0.0027342401 0.18519439 13158857
0.41325495 0.0082190949 0.18488705 13092807
0.41720688 0.011856777 0.18635687 13224393
0.42442113 0.015817698 0.18540189 13224393
0.4302308 0.018811138 0.18305451 13290186
0.43369231 0.022326065 0.18623717 13355980
0.44437504 0.026416602 0.18605401 13355979
0.45276928 0.028196024 0.18322192 13158856
0.45618761 0.032924872 0.18559772 13355979
0.46438462 0.036779705 0.18544959 13421772
0.47075003 0.038104486 0.18236335 13224136
0.46730003 0.042545218 0.1881355 13487565
0.47155559 0.04099597 0.1839588 13421515
0.37850001 -0.050605208 0.1982408 11579562
0.38166666 -0.05169959 0.19315791 11710633
0.359 -0.040749401 0.19821915 2305578
0.36432615 -0.041918378 0.19412383 2567980
0.37552834 -0.047259856 0.19462831 11250082
0.38049999 -0.049610898 0.19208872 12170926
0.3582637 -0.03468968 0.19749692 2173478
0.3618404 -0.034998659 0.19271655 1976098
0.35848001 -0.027308816 0.19840512 2566694
0.36224502 -0.026444759 0.19375427 4014654
0.37542853 -0.020780006 0.19382955 13750990
0.37871429 -0.019191897 0.19484153 13750990
0.38297397 -0.014550176 0.19499132 13619149
0.38851729 -0.0091882572 0.1954653 13421770
0.39399993 -0.0042955894 0.19474699 13158854
0.40000001 -0.00080683961 0.19054079 13027267
0.39808336 0.00044030216 0.19739228 13027784
0.40522361 0.004275715 0.19468763 13093064
0.4115769 0.0090654716 0.19464439 13158600
0.4158667 0.012910499 0.19521853 13290443
0.4220556 0.017349245 0.19481258 13356492
0.42700002 0.02057644 0.19823451 13422542
0.43296361 0.024217527 0.19417466 13553615
0.44400004 0.029099872 0.19254375 13422029
0.44737038 0.032032177 0.19632298 13224394
0.45425001 0.035535775 0.19510926 13290185
0.46100003 0.038570113 0.19121413 13553615
0.46554554 0.042661671 0.19508296 13685456
0.47143757 0.047680642 0.1965638 13027526
0.47471428 0.050480306 0.19826782 11316395
0.37800002 -0.050317131 0.20262612 11842734
0.35872728 -0.040804796 0.20122646 1844513
0.36514288 -0.044090841 0.20317622 8421757
0.37639132 -0.047960546 0.20272085 12105906
0.35774997 -0.034640919 0.20140189 1515549
0.35814813 -0.026743701 0.20136207 2565924
0.36650002 -0.021330861 0.20159778 13816268
0.37475002 -0.02060101 0.20273921 13685452
0.37778857 -0.016798232 0.20407468 13554385
0.38244823 -0.012866629 0.20327707 13356492
0.38717389 -0.008383831 0.20469967 12829890
0.39343747 -0.0034901996 0.20355725 12895938
0.39745462 0.00093405321 0.20408605 12830405
0.40418029 0.0062541049 0.20337112 12764357
0.41060004 0.0095532574 0.20126078 13027786
0.40900001 0.010664723 0.20536022 12435649
0.41506386 0.013374699 0.20380016 13027529
0.42196888 0.018198805 0.20563391 12895944
0.42680648 0.021832542 0.20648108 12961736
0.43403333 0.026400182 0.20566528 13224908
0.43900001 0.031230334 0.20886159 13093066
0.44574991 0.033363532 0.20557594 13290701
0.45253664 0.038029384 0.20458674 13422030
0.45605358 0.04310352 0.20640123 13619409
0.4638947 0.045594353 0.20330784 13816530
0.47033334 0.048599329 0.20202266 13882322
0.46900001 0.050657038 0.20639107 13816532
0.47263643 0.052208081 0.20502004 13158599
0.79195994 0.056247223 0.20390286 10264214
0.79211426 0.075224608 0.20500115 10527386
0.79244429 0.1050707 0.20495525 11119010
0.78900003 0.12908822 0.20683545 11184803
0.79116672 0.12446991 0.20456193 11185059
0.78899997 0.13390377 0.20551614 11185058
0.79000002 0.13677555 0.20457569 11185059
0.79168963 0.14469382 0.20459935 11250852
0.41900003 0.01484902 0.21087171 11909305
0.42249998 0.018190784 0.21278259 10725284
0.42600006 0.023630835 0.2132546 10396318
0.4315834 0.027927192 0.21185334 10988201
0.4357143 0.032236747 0.21235304 10856613
0.44470006 0.036953632 0.21162002 12106170
0.44885722 0.041125916 0.21298799 11513774
0.4526667 0.043663025 0.21144398 12369857
0.4605 0.048660908 0.2107352 13224395
0.47371429 0.054178122 0.21226446 13421774
0.79200006 0.059587307 0.21133009 9803662
0.79169232 0.066121519 0.21310061 10395799
0.79093361 0.075245403 0.21474776 10527129
0.79200011 0.085547216 0.21503918 10790557
0.79222226 0.12492578 0.21489757 11119266
0.79046154 0.076269798 0.22159569 10461338
0.79192585 0.17431782 0.23499851 11316133
0.79221427 0.17511579 0.24529906 11185059
0.79208815 0.18497768 0.24538189 11184804
0.7914412 0.17512372 0.2549921 11119266
0.79004014 0.18520553 0.25519484 11119265
0.79151732 0.19494729 0.25490329 11250595
0.79237032 0.175033 0.26501873 11119011
0.79225004 0.18512781 0.26538402 11119011
0.78725004 0.12765086 0.29276404 10921632
0.78853339 0.13525757 0.29556474 10921889
0.79049999 0.13608941 0.29161444 10921889
0.78900003 0.14391604 0.29836771 10921889
0.7923848 0.14544597 0.29368651 10921632
0.78577781 0.13638097 0.30481008 10856096
0.78832352 0.14491059 0.3051188 10856096
0.78899986 0.15496911 0.30534548 10856097
0.79000002 0.15791759 0.30187958 10987425
0.79067868 0.16519471 0.30478197 10921633
0.78600001 0.13825761 0.3109313 10921889
0.78828001 0.14641117 0.31456399 10790303
0.7889998 0.1543649 0.31492877 10856096
0.79000002 0.15904045 0.31515566 10856096
0.79088902 0.16483538 0.31512794 10856097
0.79235995 0.19502358 0.31530309 10921889
0.78866673 0.14836881 0.32326886 10856096
0.78883314 0.15553056 0.32482475 10790303
0.78900003 0.16095006 0.32689455 10856096
0.7909584 0.16559528 0.3247734 10856096
0.78878564 0.15602668 0.33511642 10790303
0.79000002 0.1589964 0.33439827 10790303
0.78900003 0.16187359 0.33982402 10856096
0.79130775 0.16527198 0.33504561 10856096
0.78900009 0.1579276 0.34502932 10659230
0.7889998 0.16440329 0.34568644 10790816
0.7902 0.16711482 0.34108061 10856096
0.78899986 0.17480306 0.34721226 10725280
0.79076463 0.17492226 0.34254286 10856096
0.78900003 0.18348424 0.34721226 10856096
0.79080951 0.18582575 0.34368619 10856097
0.79123342 0.19474767 0.34541482 10856097
0.79135305 0.20518269 0.34519523 10461084
0.79166669 0.21153331 0.3456054 3682864
0.79000002 0.15930465 0.35504994 10659487
0.78900003 0.16649126 0.35164517 10856096
0.79073334 0.16537625 0.35686177 10725280
0.78900003 0.17449519 0.35152206 10790303
0.79074997 0.1750979 0.35659203 10725280
0.78900003 0.18311483 0.35090637 10856096
0.79100001 0.18543078 0.35614589 10725024
0.79165208 0.19460927 0.35547104 10790304
0.79211998 0.20468149 0.35459453 10461083
0.79000002 0.10875428 0.40806618 10396317
0.78900003 0.11754408 0.40539476 10592925
0.79000002 0.11391019 0.40716946 10461853
0.78900003 0.12123821 0.40447125 10527131
0.79031587 0.12587231 0.40650845 10592924
0.79181248 0.13522612 0.4047538 10592924
0.79000002 0.096887261 0.41792968 10264731
0.79000038 0.10496479 0.41542757 10330524
0.79024017 0.11495414 0.41435769 10396317
0.79100013 0.12473603 0.41455102 10396317
0.7911666 0.08823251 0.42780676 10264730
0.79088908 0.094475836 0.42539474 10264730
0.79086685 0.10486261 0.42579445 10396316
0.79152 0.11514101 0.42429355 10396316
0.78756517 0.085390203 0.43595704 10133145
0.79000002 0.0890273 0.43087548 10330522
0.78900003 0.091223434 0.43818012 10330267
0.79056543 0.094966128 0.43464333 10264731
0.7917667 0.10498317 0.43554693 10330524
0.79216659 0.19497569 0.43483782 10461342
0.79221857 0.20461066 0.43463656 10395550
0.78692311 0.086415701 0.442801 10133145
0.78900003 0.091553271 0.44457886 10198938
0.79037505 0.096240088 0.44391629 10330267
