# .PCD v0.7 - Point Cloud Data file format
VERSION 0.7
FIELDS x y z rgb
SIZE 4 4 4 4
TYPE F F F U
COUNT 1 1 1 1
WIDTH 937
HEIGHT 1
VIEWPOINT 0 0 0 1 0 0 0
POINTS 937
DATA ascii
0.78769237 -0.16301124 0.10705556 11245190
0.79172224 -0.1657294 0.10292912 11182227
0.77700001 -0.15254343 0.10910318 15657184
0.78527278 -0.15500046 0.10607842 11643553
0.79033333 -0.15577753 0.10141546 11776168
0.77689999 -0.1452487 0.10817802 15066075
0.78600001 -0.14510831 0.10432995 14803161
0.79100001 -0.14285623 0.10101533 12895933
0.77677786 -0.13613243 0.10846436 15526627
0.78572232 -0.13494021 0.10572352 15395555
0.79250002 -0.13471311 0.10153669 12763834
0.77683336 -0.12431979 0.10877582 14869212
0.7854737 -0.12507284 0.10583351 14738395
0.79166669 -0.12561445 0.10112217 12434870
0.77700007 -0.1148385 0.10827424 15132383
0.7862941 -0.1150604 0.10477381 14211794
0.79100001 -0.11505594 0.1009673 12369077
0.77759999 -0.10532615 0.10918742 15789798
0.78542107 -0.10512836 0.10669881 15527395
0.7930001 -0.10462718 0.10183228 12631733
0.78617656 -0.094796591 0.10843845 15856360
0.79377276 -0.095017202 0.10325766 12631989
0.78612489 -0.084744349 0.10865432 14935257
0.78816676 -0.076009996 0.10851821 14935515
0.78833342 -0.065258421 0.10884906 14013901
0.78900003 -0.057926923 0.10894111 12828346
0.79360014 -0.17531379 0.11514987 10525071
0.77750003 -0.16128483 0.11690518 12498096
0.78578264 -0.16626969 0.11449353 9666932
0.76640004 -0.15225644 0.11801778 14735831
0.77425003 -0.15555389 0.11437672 16118251
0.74900001 -0.14003117 0.1191989 14079696
0.75650007 -0.14364827 0.11861829 15065821
0.76379997 -0.14529759 0.11594533 15394273
0.77237505 -0.14530581 0.11206771 16250349
0.74720001 -0.13444796 0.11891244 14540247
0.75466675 -0.13490838 0.11744776 16514036
0.76437503 -0.13485037 0.11448149 15986665
0.77316666 -0.13459298 0.11127912 16184557
0.74700004 -0.12479297 0.11888062 16711416
0.75500005 -0.12476303 0.11741967 16645621
0.76375008 -0.12479399 0.11449936 16184300
0.77300012 -0.12494087 0.11150099 16579059
0.74766666 -0.1143998 0.11898672 16711673
0.7548182 -0.11509214 0.11755205 16711414
0.7630589 -0.11470619 0.11439067 16381164
0.77263635 -0.11501657 0.11112047 16513265
0.75611115 -0.10753034 0.11875276 16645878
0.76433349 -0.10472431 0.11636378 16381934
0.77294117 -0.10480363 0.11236192 16513006
0.76547068 -0.095355496 0.11833625 16513778
0.77434778 -0.095113911 0.1131383 16315885
0.7663334 -0.08496625 0.11836483 16316142
0.77433342 -0.085205249 0.11338225 16118507
0.76653343 -0.075119376 0.11839607 16052969
0.7739048 -0.075068116 0.11392481 15986919
0.78266674 -0.074461892 0.11071042 15922153
0.76609093 -0.06561745 0.11914556 15986920
0.77290004 -0.064886473 0.11485408 15986921
0.7835834 -0.064864136 0.11094233 15724774
0.76900005 -0.058258802 0.11878131 15460320
0.77411997 -0.05505823 0.11608581 16184043
0.78530777 -0.054472864 0.11182128 15527138
0.77526677 -0.045118902 0.11793076 16447215
0.78589469 -0.045058917 0.11383311 15329760
0.79020005 -0.044140041 0.11095667 12961727
0.77530771 -0.03479084 0.1186366 15987434
0.78535002 -0.035134781 0.11486322 15592675
0.79100001 -0.03492694 0.11106899 11908781
0.77545458 -0.025494905 0.11862075 15790057
0.78577781 -0.025294431 0.11502998 15132125
0.79122221 -0.0238229 0.11171667 12566711
0.77650005 -0.016790211 0.11925677 15394784
0.78544998 -0.014731253 0.11644249 14211025
0.79190004 -0.014574774 0.11212124 11513767
0.7856499 -0.0052628242 0.11674762 13290436
0.79110003 -0.0052992171 0.11200774 11579816
0.78579998 0.0044854572 0.11732348 13487815
0.79370004 0.0056490432 0.11237048 11250852
0.78599995 0.014974921 0.11772206 13553609
0.78613347 0.024546295 0.11811098 13290182
0.78710002 0.035265818 0.11881115 12172211
0.78757149 0.043714769 0.11927843 12369589
0.78800005 0.054674555 0.11987137 11119268
0.78800005 0.064820521 0.11987136 11052960
0.79359096 -0.17514445 0.12494346 10130571
0.77610004 -0.16235992 0.12532577 12302002
0.78554541 -0.16776468 0.12468121 8550257
0.75637507 -0.15181261 0.12656137 13288641
0.76425004 -0.15511273 0.12445868 14276307
0.77150005 -0.15823585 0.12232783 15592167
0.73600006 -0.14219576 0.12803958 14144463
0.74538887 -0.14459279 0.12472791 13683913
0.75533342 -0.14799288 0.12226496 13223363
0.72900003 -0.13373213 0.12966885 15394527
0.73376918 -0.13500446 0.12562174 15460834
0.74333334 -0.13534708 0.12104993 14605271
0.72866672 -0.12514266 0.12960954 15394270
0.73286664 -0.12517405 0.1252023 15591907
0.74316674 -0.12501915 0.12087827 14605271
0.72900003 -0.11495951 0.12966885 16315627
0.7336666 -0.11500427 0.1253373 15921386
0.74381822 -0.11515656 0.12106387 14605784
0.7280001 -0.1045782 0.12949097 16184042
0.73356527 -0.10518646 0.12629341 15789286
0.74476475 -0.10539416 0.12241799 15066077
0.75433332 -0.10217637 0.12092751 16711673
0.72750002 -0.094498321 0.12876207 16315370
0.7322858 -0.095395215 0.12633227 15921128
0.74406666 -0.095095061 0.12375009 15065821
0.75654548 -0.094908603 0.12136359 16711672
0.76000005 -0.090491682 0.12094949 16777207
0.72375 -0.084908098 0.12852007 15920871
0.73266673 -0.0846636 0.12603113 15461091
0.74464285 -0.085671827 0.12385223 15526626
0.75612497 -0.084280461 0.12187818 16711155
0.76000005 -0.085154153 0.12094948 16711154
0.72486675 -0.075782426 0.12859045 15855848
0.73383337 -0.074489154 0.12623125 14605782
0.74441671 -0.075563766 0.12456709 15987176
0.7540834 -0.074779317 0.12265227 16578799
0.7601667 -0.075384259 0.12097602 16578799
0.7272858 -0.065920919 0.12912013 15855335
0.7337693 -0.065435074 0.12734058 15328991
0.7453571 -0.06494505 0.12534542 15723490
0.75658339 -0.063812792 0.12320638 16315627
0.76185721 -0.064210482 0.12098888 16447214
0.72900003 -0.056935035 0.12966885 15986664
0.73385721 -0.055105958 0.12831971 14670804
0.7454167 -0.054725651 0.12647946 15591904
0.75536364 -0.055051651 0.12470981 16118504
0.76418751 -0.054870855 0.12161109 16447215
0.77000004 -0.05022293 0.12073835 16052457
0.73514283 -0.045981932 0.12879337 14408147
0.74476922 -0.045491986 0.12750648 15460319
0.7561 -0.044538528 0.12598988 16315883
0.764 -0.045288566 0.12378339 16315884
0.77112502 -0.044202052 0.12159102 16117994
0.7385 -0.03865914 0.12962979 14737626
0.7445001 -0.035774231 0.12922882 14473940
0.75533336 -0.034725204 0.12806252 15920871
0.76466674 -0.034656305 0.1261639 16118763
0.77216673 -0.034998849 0.12288407 15921128
0.74816674 -0.025150677 0.12957512 14408145
0.75690001 -0.025446096 0.12860501 15460319
0.76486677 -0.024580302 0.12601477 15329246
0.77183342 -0.025497479 0.12237913 15395041
0.74900001 -0.019045033 0.12971945 14078667
0.75577778 -0.015676193 0.12931675 14868183
0.76465005 -0.015147085 0.126426 15197660
0.77281255 -0.014333628 0.12242009 15131868
0.75900006 -0.0050846441 0.12967452 15591906
0.76490915 -0.0054494184 0.12774971 15658212
0.77399999 -0.0050341347 0.12301921 15328992
0.76585716 0.0042234589 0.12853579 15657699
0.77443349 0.0047827526 0.12323757 14605269
0.75900006 0.018902598 0.12967452 14342351
0.7651 0.015826486 0.12739703 14144716
0.77405012 0.014385328 0.12236331 14079693
0.75787497 0.025750004 0.12881601 13947592
0.76366675 0.024678491 0.1254005 14013129
0.77483332 0.024739979 0.1214914 14014158
0.75725001 0.034813929 0.12848808 14408145
0.76300007 0.035077989 0.12499372 14079182
0.77491671 0.034263272 0.12195935 14277329
0.78033334 0.03678903 0.12053186 14672344
0.75800008 0.045496628 0.12861566 14605525
0.76350009 0.044676322 0.1252028 14014160
0.77446175 0.045017973 0.12255082 14672343
0.78175002 0.044178918 0.1207507 14738394
0.75880003 0.055314027 0.12964037 14473938
0.76282358 0.054977618 0.12664643 14079696
0.77468753 0.054998275 0.12339506 14409174
0.78350008 0.056197684 0.121021 14212310
0.75900006 0.062435001 0.12967452 14473940
0.76322228 0.065163396 0.12731236 14540247
0.77546668 0.064512916 0.12352782 13750217
0.78350002 0.066585749 0.12163007 13420482
0.7665 0.072924405 0.12826373 15329765
0.77450007 0.074816681 0.12608503 13684167
0.78621429 0.074795529 0.12235644 12171441
0.79025 0.07703083 0.12067598 11382437
0.77633333 0.080823846 0.12839477 14473942
0.78635722 0.084147774 0.12684865 13684426
0.7932353 0.08622463 0.1229566 11777195
0.78900003 -0.17152131 0.13849412 10130833
0.77557153 -0.16212012 0.13328229 12366769
0.78636366 -0.16827263 0.13518533 9998221
0.75900006 -0.1543386 0.13145135 13551299
0.76700002 -0.1577609 0.1310413 14209483
0.7043125 -0.14218403 0.13670939 14012107
0.71600002 -0.14056626 0.13238502 16051433
0.72700006 -0.14102387 0.13101503 13814471
0.73100001 -0.14094415 0.13002458 14736344
0.74400008 -0.14867818 0.13059521 12301234
0.70576006 -0.13544564 0.13716161 15920617
0.71518755 -0.13475026 0.13359067 16249580
0.7231667 -0.13519715 0.13116796 14407633
0.70741677 -0.12549347 0.13811113 16316402
0.71552175 -0.12517749 0.13512914 16052715
0.72314292 -0.1246768 0.13152587 15197148
0.70866674 -0.11755878 0.13932411 16513524
0.71539289 -0.11496325 0.13692909 16183787
0.72305554 -0.11514715 0.13199256 15920612
0.71636659 -0.10519313 0.13741972 16052198
0.72299993 -0.10530123 0.13208297 15723234
0.71734625 -0.094711766 0.13682774 15920355
0.72194129 -0.095505111 0.13169099 15591391
0.71759987 -0.084603243 0.13603762 15722978
0.72050011 -0.085790247 0.13110779 15459549
0.71813327 -0.074578606 0.13613921 15328734
0.72100008 -0.074030057 0.13105795 15789798
0.71822214 -0.064780287 0.13653006 15394785
0.72186667 -0.064320683 0.13143928 15591904
0.71857893 -0.055013292 0.13764195 15395299
0.7229566 -0.05429047 0.13278258 15657441
0.71899992 -0.044371691 0.13883089 15263713
0.7240001 -0.044680178 0.13385382 15329247
0.73116666 -0.045121554 0.13005422 15460833
0.71881247 -0.033843022 0.13816324 14934748
0.72295463 -0.035078693 0.13366419 15461090
0.73230004 -0.034219772 0.13093987 15000795
0.7420001 -0.032761764 0.13024415 14408661
0.71899992 -0.025321018 0.13860135 14802649
0.72285718 -0.024423908 0.13461378 15000283
0.73375005 -0.024671538 0.13194117 15329504
0.74314278 -0.024116574 0.13094005 14474196
0.71899998 -0.016358566 0.139432 14342099
0.72342861 -0.01476223 0.13617024 14868442
0.73358339 -0.01435648 0.13305765 15197661
0.7445001 -0.014569878 0.13155229 14078923
0.75266671 -0.012087899 0.13035446 14671061
0.71900004 -0.0090246582 0.13967247 14605272
0.72290909 -0.0053814058 0.13765669 14671064
0.73353851 -0.0053118663 0.13416934 14868697
0.74549991 -0.004559556 0.13216265 14407888
0.75540006 -0.0050581852 0.13082787 15395040
0.7260555 0.0044871224 0.13763978 14605785
0.73416668 0.0045368946 0.13488185 14342610
0.74466676 0.0046015526 0.1333252 14276559
0.7544167 0.0046622609 0.13153681 14736854
0.76100004 0.006481804 0.13001622 15262941
0.7276001 0.014035751 0.13895783 14671834
0.73405015 0.015187278 0.13605854 14671574
0.7452727 0.015786408 0.13335373 14211022
0.75445455 0.014852974 0.1314639 14210766
0.76100004 0.011826348 0.13001622 15000026
0.72900003 0.024981866 0.13990845 14145491
0.73429173 0.025163254 0.13661869 14145230
0.74529421 0.025282048 0.13266614 13947336
0.75280005 0.024913963 0.13037756 14079178
0.72900003 0.03436818 0.13990846 14343127
0.73395449 0.035147004 0.13679118 14211282
0.74547058 0.035040289 0.13269627 14144974
0.7525 0.034597017 0.13032562 14539729
0.73453343 0.044948716 0.13752691 14145746
0.74504542 0.044400807 0.13362688 14079181
0.75300002 0.046076067 0.13085143 14670802
0.73492312 0.054101467 0.13826336 14868699
0.744762 0.055034779 0.13520554 13882060
0.75441664 0.055726487 0.13197789 14671060
0.73630005 0.064187847 0.13889423 15131614
0.74483335 0.065530829 0.1364519 14079439
0.75564712 0.065074578 0.13253085 15461091
0.76100004 0.069725581 0.13001622 15592935
0.73750007 0.071889259 0.13981326 15000028
0.74569231 0.074500792 0.13814059 14539734
0.75500005 0.074351318 0.1351714 14934751
0.76300007 0.07571768 0.13214099 15066593
0.77200007 0.07976976 0.13099074 14079698
0.74650002 0.08150439 0.13977188 14407891
0.7552501 0.08157336 0.13831186 14013134
0.76320004 0.082076095 0.13610697 15263716
0.77440006 0.084855072 0.13435695 15263973
0.7840001 0.088044859 0.13271789 14935008
0.78729999 0.091856949 0.135427 14803166
0.78738892 -0.17332405 0.14558227 9933711
0.77825004 -0.16371867 0.14298585 13025213
0.78299999 -0.16746885 0.14476973 9801613
0.69800001 -0.14211561 0.14630395 14078675
0.70050013 -0.1422378 0.1424325 14078675
0.69871432 -0.13623697 0.14835021 15197410
0.70137507 -0.13466579 0.14394088 15395044
0.70299995 -0.12516637 0.1445705 15987438
0.70506674 -0.11486845 0.14543153 16119023
0.70674998 -0.10498688 0.14525166 16185072
0.71075004 -0.10251296 0.1409803 16250607
0.70754164 -0.095562823 0.14641647 16250865
0.71194452 -0.094304256 0.14181727 16052714
0.70842856 -0.087667719 0.14827989 16185072
0.71313155 -0.084556177 0.14432439 16184301
0.71442854 -0.074908346 0.14546464 16052716
0.71426189 -0.064859413 0.14543183 15855337
0.71451217 -0.054963835 0.14548147 15921130
0.71536845 -0.045378391 0.14530508 15920873
0.71614289 -0.035403874 0.14505251 15657701
0.71768576 -0.025687344 0.14541632 15394784
0.71880555 -0.015752157 0.14552385 15328992
0.71899992 -0.0057785031 0.14568388 15197407
0.72000003 -0.0014523113 0.14155225 14539479
0.71899992 0.0039053166 0.14739984 15066334
0.72060007 0.0050417506 0.14209053 14736857
0.71899998 0.013698434 0.14921056 14539992
0.72203028 0.014834313 0.14409627 14736857
0.71900004 0.022114391 0.14977163 14342100
0.72284603 0.024965318 0.1450951 14342354
0.72278577 0.03492232 0.14547291 14736856
0.73000002 0.039542153 0.14010037 14540506
0.72502947 0.04501494 0.14532721 14934492
0.73062497 0.046417631 0.14064756 14606298
0.72636682 0.055500705 0.14619945 15065822
0.73099995 0.05499788 0.14114676 14671578
0.72761118 0.06430234 0.14739926 15197408
0.73136848 0.065388657 0.14252374 15000029
0.73270291 0.074831143 0.14473751 14868443
0.74000001 0.07732942 0.14028721 14671063
0.73450011 0.084801927 0.1462405 15394530
0.7447778 0.085291989 0.14235514 15000028
0.75400007 0.086293042 0.14117265 14736602
0.73633337 0.091598302 0.1482086 14605014
0.74566668 0.091595866 0.14601542 15855081
0.75550002 0.093096517 0.14587685 16118510
0.77600002 0.091689967 0.14105578 12631229
0.78742868 0.096639797 0.1434859 11908017
0.7858001 -0.16825196 0.15228426 10524822
0.69844449 -0.14220701 0.15239424 14276054
0.70054549 -0.14334624 0.15740845 13881296
0.69877779 -0.13609372 0.15137559 15263204
0.70059252 -0.13462611 0.15602297 15197156
0.69900006 -0.12904693 0.152151 15066593
0.70028591 -0.12506907 0.15496123 15592169
0.70169997 -0.11500392 0.15503739 15790061
0.70432544 -0.10483407 0.15503198 15987439
0.70586097 -0.094785407 0.15446976 15921645
0.70661092 -0.08496049 0.15463227 15592680
0.70761287 -0.075275868 0.15551932 15328994
0.71000004 -0.074565545 0.15122113 15723751
0.70821428 -0.065495841 0.15605029 15000287
0.71012503 -0.064603589 0.15166329 16184302
0.70831829 -0.055621084 0.15689181 15000801
0.71057141 -0.055020202 0.1525304 16382194
0.70871431 -0.046224754 0.15793888 14869215
0.71112007 -0.044783216 0.15332131 16184816
0.71236593 -0.035722379 0.15493456 15921131
0.71627766 -0.02575543 0.15507239 15526629
0.71766686 -0.015728204 0.15537256 15263972
0.71791661 -0.0056489999 0.15542577 15132128
0.71808326 0.0044351192 0.15546127 14934236
0.71816665 0.014523178 0.15547934 14539991
0.71850008 0.024622567 0.15555255 14342614
0.7189393 0.034506157 0.15603188 14605786
0.72000003 0.037314948 0.15166546 14802649
0.71899992 0.043808866 0.15781358 14671834
0.72062498 0.045712773 0.15292023 14605271
0.72183341 0.055154875 0.1545825 14736857
0.72402859 0.065371551 0.15517221 14868699
0.72588897 0.074721068 0.15478423 15131872
0.73049998 0.07804738 0.15045701 15394788
0.72717398 0.084094785 0.15717001 15066079
0.73133332 0.085746735 0.15252984 15723240
0.73400003 0.091308035 0.15117788 12104625
0.75900006 0.097971655 0.15455018 11447206
0.70272714 -0.14513883 0.16562623 14144467
0.7029165 -0.13553016 0.16534652 15131876
0.70202768 -0.12549852 0.16513826 15460841
0.70199984 -0.11532798 0.16530438 15724012
0.70331705 -0.10478164 0.16513944 15658475
0.7056666 -0.094758734 0.16434051 15724523
0.70627773 -0.084921002 0.16448346 15724524
0.70722246 -0.075100578 0.1647042 15395302
0.70813894 -0.065251619 0.16491693 15132130
0.70811123 -0.055304065 0.16490984 15197926
0.70794463 -0.045346659 0.16487017 15197926
0.7086429 -0.03828121 0.16586192 15263719
0.71126091 -0.033647802 0.1648816 15066340
0.71497226 -0.025708318 0.16483165 14737374
0.71555549 -0.015682198 0.16496503 14737117
0.71513897 -0.0056281169 0.16486922 14473942
0.71463889 0.0044132587 0.16475175 14013905
0.71511108 0.014462491 0.16486137 14145747
0.71655536 0.024556452 0.16519639 14277076
0.71750015 0.0346669 0.16541429 14803420
0.71813899 0.044784598 0.16556123 14803675
0.71862507 0.05454015 0.16614719 14935004
0.7201001 0.05620091 0.16095813 14934490
0.71871424 0.064649262 0.1677383 15066077
0.72038108 0.065522216 0.16234514 15065820
0.71882343 0.074869588 0.16834402 15262687
0.72059995 0.075471103 0.16292393 14736344
0.71900004 0.083045945 0.16963328 15000029
0.72126669 0.084996738 0.16476011 14341844
0.704 -0.15139502 0.17631477 12763068
0.70388901 -0.14560334 0.17546213 14079187
0.70341671 -0.13562734 0.17534323 14737375
0.70342487 -0.1251688 0.17551108 14869216
0.70455885 -0.11493568 0.17495099 14868702
0.70583332 -0.10469587 0.17512065 14737373
0.70650005 -0.094870843 0.17445868 15066339
0.707389 -0.085053831 0.17467761 15197925
0.70847219 -0.07523296 0.17494552 15197667
0.70899981 -0.065331727 0.17507499 15131873
0.70858324 -0.055342153 0.17497195 15395301
0.70791686 -0.045345046 0.17480782 15263715
0.70858824 -0.038020369 0.17482799 15263716
0.71073693 -0.033220705 0.17563458 15131874
0.71273816 -0.025629748 0.17516087 14803165
0.71285355 -0.015521459 0.17506738 14803421
0.7127856 -0.0056097331 0.17517355 14540249
0.71230936 0.0043988014 0.17505646 14277078
0.71280473 0.014314398 0.17505616 13948370
0.71430564 0.024479965 0.17470999 13816783
0.71544439 0.034567591 0.1749887 14408919
0.7161386 0.044659488 0.17515868 14671833
0.71630543 0.054730598 0.17519997 14539478
0.71588874 0.064753659 0.17509651 14144720
0.71630549 0.074855477 0.17519706 13486791
0.71784621 0.083740763 0.17538096 14079442
0.72000003 0.087880932 0.17020632 12237494
0.70590901 -0.15195581 0.18625569 13421256
0.70543748 -0.14463413 0.1847762 13618380
0.70454842 -0.13459432 0.18560308 14539996
0.70456421 -0.12499709 0.18525182 14868704
0.70597047 -0.11443832 0.18448645 14934496
0.70725018 -0.10490538 0.18457836 14539994
0.70741677 -0.094995275 0.18462211 14342871
0.70805722 -0.085252717 0.18467051 14277079
0.71000004 -0.081214033 0.18944994 14737375
0.70887494 -0.075276412 0.1833417 13947858
0.71000004 -0.075396605 0.18861885 14605789
0.70899981 -0.064999767 0.18431444 13948116
0.71000004 -0.067085996 0.18889588 14145238
0.70811123 -0.055304185 0.18480158 14408666
0.708139 -0.045358568 0.18480906 14869216
0.70899987 -0.03693502 0.1857914 14803167
0.71023083 -0.032894988 0.18401121 14869215
0.70900005 -0.029646413 0.18918312 14276824
0.71060008 -0.025435403 0.18533027 14408665
0.71140552 -0.015703229 0.1855019 14343129
0.71188885 -0.0056020524 0.18578696 14145492
0.71138901 0.0043922421 0.18565695 14079698
0.71132451 0.014498535 0.1854814 13882318
0.71219051 0.024406828 0.18502946 13750732
0.71330011 0.034298018 0.18506725 14211282
0.71522224 0.044602875 0.18498366 14606040
0.71500009 0.054630361 0.18492594 14474198
0.71391684 0.06457407 0.18464454 14342098
0.71333325 0.074544013 0.18449372 13092032
0.71517241 0.083829321 0.18511447 13487306
0.70756525 -0.15288223 0.19442034 13947345
0.70677775 -0.1445484 0.19438347 14211289
0.70588565 -0.13437925 0.19538778 14145495
0.70589173 -0.12442341 0.19563428 15000548
0.70630771 -0.11487741 0.19469739 15329512
0.70769465 -0.10497116 0.19463368 15263716
0.70846426 -0.095787048 0.19395773 14671322
0.71000004 -0.093056656 0.19838385 15263202
0.7088334 -0.087441139 0.19135128 14342870
0.71066678 -0.08500541 0.19617333 14737372
0.71102786 -0.075507082 0.19555205 14540249
0.70900005 -0.061735529 0.19139616 13882321
0.71015131 -0.065765977 0.19563702 14539993
0.708857 -0.05461153 0.1930965 14408410
0.71000004 -0.056503806 0.19787136 14145491
0.70871419 -0.045324899 0.19479647 14671581
0.71000004 -0.047971576 0.19942267 14408663
0.70899981 -0.035455652 0.19499238 14671837
0.70899987 -0.027248951 0.19397804 14277334
0.71000004 -0.023778457 0.1962831 14277078
0.7102499 -0.015564458 0.19533652 14013906
0.71119469 -0.005595969 0.19559531 13882321
0.70900005 0.0076986765 0.1991418 14013652
0.71111774 0.0041950643 0.19532846 13947858
0.70858335 0.015020466 0.19805656 13816271
0.71050006 0.014021765 0.19380976 13882319
0.70866662 0.024285071 0.19738838 13816528
0.71044457 0.024345864 0.19289407 13750990
0.70885718 0.031759445 0.19815323 13948116
0.7110647 0.035134904 0.19445622 14145492
0.71335721 0.044488348 0.19535024 14540248
0.7151112 0.05463944 0.1949982 14277075
0.71419448 0.064598292 0.19474947 13882060
0.71310794 0.074497536 0.19461064 13487046
0.7154516 0.084194094 0.19511856 13355976
0.70900005 -0.15205532 0.20121655 14145238
0.71000004 -0.1539319 0.20656982 14276053
0.70846146 -0.14393553 0.20383927 15262949
0.71000004 -0.14769895 0.2077333 15526119
0.70715642 -0.13489932 0.20493649 14013652
0.70660597 -0.12443686 0.20553756 14671582
0.70636845 -0.11460933 0.20527749 15460841
0.70791674 -0.10500354 0.20463756 15592681
0.70900005 -0.09912014 0.20506959 15394788
0.71034491 -0.094441324 0.20531049 15197409
0.71080559 -0.085464865 0.20547153 14935007
0.71119469 -0.075523935 0.20558441 14737629
0.71022224 -0.065445393 0.20530424 14540249
0.70900005 -0.053939585 0.20759159 14606042
0.70999998 -0.056082737 0.20407663 14408663
0.70899981 -0.045548186 0.2049243 14474456
0.71000004 -0.044647336 0.20540634 14539736
0.70900005 -0.036838803 0.20107824 14803421
0.70999986 -0.035228644 0.20601575 14473943
0.70900005 -0.02411381 0.20716409 14408407
0.70999986 -0.025809942 0.2047969 14277078
0.70900005 -0.018027941 0.20910048 14211030
0.7101211 -0.015335688 0.2048967 13882322
0.70857143 -0.0042739301 0.20743351 13553358
0.71050012 -0.0064235609 0.20372047 13684944
0.70780003 0.0047723157 0.20528758 13685201
0.71033335 0.0018922131 0.20117921 13619151
0.70685714 0.014294583 0.20515533 13619408
0.70735145 0.024128895 0.20462909 13487822
0.70800006 0.034089219 0.20477945 13619151
0.71000004 0.038458806 0.20108481 14014162
0.70835996 0.044074096 0.20652267 14079445
0.71053851 0.045398477 0.20251623 14277079
0.70887506 0.053126089 0.20781881 14473944
0.71153134 0.054887034 0.20364784 14935006
0.71178561 0.064383149 0.20491765 14737625
0.71212196 0.074438751 0.20513912 14145491
0.71510708 0.083699048 0.20492217 14408922
0.70833343 -0.15363973 0.21470548 14407896
0.71000004 -0.15185425 0.2118886 14868191
0.70886946 -0.14450474 0.21584395 15657963
0.71000004 -0.14603685 0.21348681 15592684
0.70775008 -0.13480623 0.21453066 14934238
0.70636106 -0.12461986 0.21493588 14408150
0.70605397 -0.11453483 0.21551286 15132130
0.70742118 -0.10510366 0.21473452 15526888
0.70885718 -0.098625891 0.21688104 15395302
0.71041381 -0.094565056 0.21485026 15526630
0.71008301 -0.085379712 0.21523777 15263717
0.71013862 -0.075410672 0.21525455 14934752
0.70900005 -0.061182268 0.21573962 14737628
0.71019995 -0.065562129 0.21524963 14737629
0.70897126 -0.055252291 0.2150197 14606042
0.71000004 -0.059606437 0.21105754 14540249
0.70899993 -0.047682703 0.21341594 14737372
0.71023816 -0.043869928 0.21635446 14737116
0.70900005 -0.031721141 0.2173994 14408406
0.71018744 -0.035983317 0.21495858 14671065
0.70871854 -0.025072593 0.21523814 14276821
0.71000004 -0.028857164 0.2118886 14342100
0.70833331 -0.015523981 0.21470612 13816273
0.70777798 -0.0055708047 0.2145378 13684944
0.70648706 0.004298314 0.21510112 13554128
0.70599985 0.014277137 0.21565311 13290957
0.70656109 0.024314977 0.21511737 13224907
0.70772243 0.034194816 0.21452254 13487564
0.70825011 0.044747971 0.21451759 13355978
0.70823687 0.055466525 0.21485274 13947857
0.70822227 0.065718606 0.21467282 14408663
0.70853341 0.073101647 0.21581782 14343387
0.71080005 0.076885939 0.21440047 15066598
0.71389288 0.08314015 0.21537544 14737633
0.70609677 -0.15317751 0.22530475 14342102
0.70761555 -0.1449071 0.22487235 15658218
0.70786119 -0.13482641 0.22450733 15461095
0.70690924 -0.12494151 0.22458172 14934237
0.70613325 -0.11465987 0.22478636 14802654
0.70694131 -0.10466494 0.22445847 15395559
0.70803237 -0.095531508 0.22512113 15461096
0.71000004 -0.092516467 0.22169511 15592682
0.70866662 -0.085564077 0.22677644 15263716
0.71000004 -0.084870718 0.22235999 15394789
0.7089231 -0.075600982 0.22797164 15526374
0.7100001 -0.075215936 0.22341506 15197409
0.70878255 -0.064121239 0.22598892 15197665
0.71007699 -0.067541018 0.2231001 15000287
0.70868558 -0.055467218 0.22479095 15000287
0.71000004 -0.051295828 0.22435452 15065823
0.70868415 -0.045612499 0.22690666 15065822
0.7101177 -0.045240946 0.22282682 14934494
0.70816672 -0.034696493 0.22554143 14737114
0.71014291 -0.03800682 0.22202455 14802908
0.70730984 -0.025436804 0.22515708 14211284
0.70669079 -0.015488015 0.22496107 14014162
0.70640451 -0.005559294 0.22487023 13750992
0.70602685 0.004248919 0.22542176 13619407
0.7059443 0.014276142 0.22555164 13685457
0.70595098 0.024897689 0.22565453 13948629
0.70683336 0.03533297 0.22500584 14277078
0.70734096 0.045502599 0.22497845 14014162
0.70738095 0.055704851 0.22517979 13816526
0.70692688 0.065497465 0.22491574 14211542
0.70781255 0.075158887 0.22485334 14672097
0.71000004 0.078349754 0.22103028 15198183
0.70900005 0.08211223 0.22846462 14671585
0.71125007 0.083234452 0.22407976 13948115
0.70457149 -0.15363777 0.23481266 14737115
0.70577759 -0.14494625 0.23502502 15592680
0.70676196 -0.13461557 0.23490997 15789549
0.70683336 -0.12470176 0.2349354 15394534
0.70659536 -0.11473506 0.23485577 14934755
0.70633334 -0.10477099 0.23476894 15066595
0.706357 -0.094852641 0.23477675 15329766
0.70690495 -0.084996559 0.23495705 15329765
0.70735729 -0.075115591 0.23510778 15394788
0.70716679 -0.065163307 0.23504448 15394788
0.70683354 -0.05520422 0.2349333 15197666
0.7065953 -0.04526072 0.23485461 15131872
0.70590222 -0.035402332 0.23474547 14934236
0.70555556 -0.02537296 0.23533644 14211284
0.70566648 -0.015465217 0.23537347 14145748
0.70552766 -0.0055528702 0.23532693 14014163
0.70466673 0.0043513081 0.23503917 13488076
0.70429742 0.014398634 0.23502773 13290185
0.70453674 0.025090227 0.23489541 13684944
0.70563877 0.035745457 0.23536444 14145495
0.70555556 0.045650467 0.23533641 14145493
0.70552766 0.055559013 0.23532704 14079700
0.70591652 0.065597378 0.23536573 14145496
0.70722514 0.075396709 0.23481767 14606049
0.70836377 0.082390882 0.23378633 13816274
0.70480961 -0.15369006 0.24463628 14539481
0.70533323 -0.14507519 0.24517132 15526887
0.70599985 -0.13447112 0.24540278 15592937
0.70599985 -0.1245546 0.24540278 15461094
0.70591658 -0.11462441 0.24537341 15263716
0.70577765 -0.10468853 0.24532454 15066080
0.70547211 -0.094734222 0.2452177 15197924
0.70536101 -0.084811404 0.24517915 15395560
0.70552766 -0.074921593 0.24523695 15263973
0.70547217 -0.065006815 0.24521767 15263715
0.70530546 -0.055084653 0.24515997 15263715
0.704889 -0.045151725 0.24501483 14935007
0.70419455 -0.03521641 0.24477278 14606042
0.70399994 -0.025316825 0.24470536 14145748
0.704 -0.015429405 0.2447051 14211541
0.70321035 -0.005362506 0.244734 14211286
0.70297265 0.0042310366 0.24450536 13421771
0.70351273 0.014670821 0.24434943 13224394
0.70353848 0.025312614 0.24473812 12829636
0.70419455 0.035672545 0.24477373 13685200
0.70441687 0.045576822 0.24485077 13882580
0.70441687 0.055472218 0.24485151 13684943
0.70536107 0.065454975 0.24518053 13882323
0.70700008 0.07560619 0.24532466 14539997
0.70800006 0.08191748 0.24432215 13947602
0.70472741 -0.15395053 0.25545776 14473433
0.70507139 -0.14502269 0.2549831 15329510
0.70558327 -0.13439167 0.25516698 15460841
0.70547205 -0.12446158 0.25512677 15263718
0.70508331 -0.1144895 0.25498733 15263715
0.70499998 -0.10457317 0.25495768 15131617
0.70497215 -0.09466695 0.25494754 15131874
0.70466673 -0.084728196 0.2548368 15329253
0.70450014 -0.074812286 0.25477591 15198180
0.70437855 -0.06479501 0.25488701 15066593
0.70371437 -0.054960825 0.25531408 14803421
0.70316654 -0.045041773 0.25511557 14737629
0.70254737 -0.035133839 0.25489101 14606042
0.70195222 -0.025243457 0.25467426 14277077
0.70233303 -0.015391381 0.25481352 14079700
0.70292461 -0.0056967242 0.25527722 14145751
0.70302534 0.0042793648 0.25494027 13750737
0.70455575 0.014249225 0.25479665 13487565
0.70447636 0.024964169 0.2547687 13224393
0.70330751 0.035815489 0.25478905 13355978
0.70361537 0.04537883 0.25489971 13619151
0.70483333 0.055505589 0.25489807 13684943
0.7056942 0.065485254 0.25520992 13882578
0.70720601 0.075463533 0.25521979 14474460
0.70854557 0.082260914 0.25420532 11776690
0.69900006 -0.160138 0.26996976 13750480
0.70000005 -0.16036709 0.26871726 13224136
0.70269221 -0.15511772 0.26489645 14210774
0.70460528 -0.14544809 0.26453766 15329766
0.70470005 -0.13479948 0.26491168 15395302
0.70483339 -0.12434936 0.26479781 15395559
0.70491666 -0.11446171 0.26482907 15198181
0.70499998 -0.10457317 0.26486021 14803424
0.70472223 -0.094634324 0.26475546 14868961
0.70472229 -0.084735349 0.2647551 14737629
0.70392501 -0.074588284 0.26503137 14868958
0.70324379 -0.064902127 0.26514226 14934495
0.70194441 -0.054823417 0.26535383 14539994
0.70122224 -0.044916917 0.26508027 14539996
0.70075017 -0.035043765 0.26490158 14474201
0.70061135 -0.025193971 0.26485088 14013908
0.70208323 -0.015384116 0.26540875 13948116
0.70303005 -0.0057568396 0.26539207 13948116
0.70357591 0.0044218702 0.26499906 13685201
0.70425022 0.014242951 0.26457798 13487821
0.70488101 0.024979796 0.26481614 13421772
0.70393956 0.03543267 0.26483688 13355980
0.70348471 0.045692854 0.26466537 13487566
0.70499998 0.055519368 0.2648606 13750738
0.70608318 0.065520883 0.26526749 13816532
0.70782363 0.07572338 0.26480022 14408668
0.70900005 0.081558965 0.26387331 11053220
0.69900006 -0.160138 0.27324247 13750226
0.70000005 -0.16091333 0.27800331 12960196
0.69900006 -0.15850163 0.27406067 13552846
0.70102865 -0.15450402 0.2746897 14276824
0.70269042 -0.14535551 0.27468017 15198181
0.7037676 -0.13551922 0.27479726 15197667
0.70427525 -0.12482648 0.27464452 15263461
0.70497221 -0.114471 0.27475169 14869217
0.70499998 -0.10457316 0.27476266 15000545
0.70483333 -0.094648793 0.27469817 14671324
0.70395005 -0.084478788 0.27492848 14606045
0.70313126 -0.074841119 0.27537656 14671581
0.70258307 -0.064742036 0.27546522 14671580
0.70119452 -0.054764494 0.27492121 14342615
0.7003057 -0.044857584 0.27457377 14211288
0.7008056 -0.035044793 0.27477086 14145495
0.70136118 -0.02522137 0.27498847 13947859
0.70249975 -0.015394189 0.27543253 13948116
0.70312798 -0.0053429059 0.27523521 14145239
0.70408589 0.0044683195 0.27452466 13553102
0.70497221 0.014257229 0.27475321 13158596
0.70561892 0.025006846 0.27500567 13093061
0.70527786 0.035725445 0.2748729 13224392
0.7048611 0.045606352 0.27471039 13224650
0.70566654 0.055571154 0.27502358 13225421
0.70652932 0.065368846 0.27511621 13487825
0.70825809 0.075270742 0.27429491 13882326
0.71000004 0.080011882 0.27671137 11579568
0.70180005 -0.16077945 0.28419831 13091779
0.7013824 -0.15474483 0.28460738 14211032
0.70052803 -0.14490776 0.28450024 15000804
0.70243227 -0.1353219 0.28511679 14935011
0.70407176 -0.12503806 0.28429028 15000804
0.7044723 -0.11438844 0.28445211 15000801
0.70497221 -0.10456888 0.28465396 15132130
0.70483333 -0.094649248 0.28459793 14803164
0.70271027 -0.0846681 0.28508112 14474456
0.70272201 -0.07462278 0.2853896 14408663
0.70294416 -0.064773984 0.2854811 14408407
0.70233315 -0.054853722 0.28523478 14211029
0.70108348 -0.04490767 0.2847254 13816528
0.70191652 -0.035099447 0.28506297 13553354
0.70211095 -0.025249874 0.28514251 13290184
0.70211095 -0.015386643 0.28514257 13553873
0.7030586 -0.0057260948 0.28528544 13882323
0.70452791 0.0043530185 0.28447521 13619149
0.70561099 0.014270897 0.28491223 13290184
0.70599979 0.025020067 0.28506899 13224648
0.70599985 0.035763003 0.28506899 12960964
0.70599985 0.045679551 0.28506899 12961220
0.70640004 0.05551054 0.28530258 13224647
0.70775014 0.065883689 0.28463736 13750739
0.7088334 0.073519848 0.28234139 14013655
0.71058828 0.075969264 0.28697136 13619153
0.71133327 0.080162138 0.28555998 10789795
0.70550007 -0.1628664 0.29570779 12763069
0.70400006 -0.15546633 0.29471788 14276568
0.70280546 -0.1453792 0.29529947 14606046
0.70330548 -0.13560337 0.29550779 14737375
0.7037552 -0.12498154 0.29487002 15000547
0.70463425 -0.11447548 0.29511791 15000290
0.70466679 -0.10452405 0.29525152 15066338
0.70416677 -0.094559953 0.29504171 14671837
0.70241642 -0.084459327 0.29513234 14474459
0.70158333 -0.074502788 0.29478076 14474713
0.70219427 -0.064703338 0.29503733 14342870
0.70291638 -0.054897495 0.29534236 14013908
0.70219433 -0.044979226 0.29504192 13684944
0.70263869 -0.035136659 0.29522815 13027012
0.70305538 -0.025283506 0.29540217 12895425
0.70216644 -0.015389485 0.29502732 13290185
0.70276284 -0.0053554429 0.29497328 13750735
0.70442516 0.0041876575 0.29490337 13816527
0.7056666 0.014271956 0.29484624 13355977
0.70599979 0.025020067 0.29498547 13619405
0.70611101 0.035769217 0.29503238 13553614
0.70683348 0.045734189 0.29533589 13224393
0.70761132 0.055723555 0.2956602 13421515
0.7082122 0.064739197 0.29477936 13684945
0.71122867 0.074207276 0.29538706 13750739
0.71350002 0.080406308 0.29644954 10724512
0.70631248 -0.16160652 0.30462509 13224137
0.70551723 -0.15513949 0.30483669 14342874
0.70434391 -0.14533789 0.30516666 14474203
0.70414305 -0.13547154 0.30474833 14671582
0.70361912 -0.12495825 0.30552202 14671582
0.70402735 -0.11425078 0.30554208 14803167
0.70352793 -0.10435592 0.3054803 14671581
0.70308304 -0.094413556 0.30528784 14408922
0.70197207 -0.084406488 0.30480635 14606300
0.70125002 -0.074466981 0.30449358 14606043
0.70219427 -0.064703017 0.30490476 14408920
0.70336115 -0.054931421 0.30541116 14540249
0.7044335 -0.045121085 0.30505151 14539996
0.70476669 -0.035243757 0.30519542 14079446
0.70448405 -0.025202738 0.30523235 13092803
0.70241648 -0.015396426 0.30499977 13422282
0.70194429 -0.0055234674 0.30479389 13948369
0.70339471 0.0045197294 0.3051185 14013908
0.70528936 0.014090918 0.30489787 13750735
0.70599979 0.025020067 0.30490202 13619407
0.70651424 0.035672534 0.30510044 13816786
0.70797235 0.045531079 0.30570802 13553358
0.70861286 0.055614926 0.30530939 13355979
0.70895439 0.064504422 0.30459404 13487823
0.71000004 0.068044588 0.30712825 13619408
0.71139401 0.073964536 0.30518723 13487566
0.70812505 -0.16254044 0.31524974 12368572
0.71000004 -0.16598229 0.31909552 10921381
0.70649999 -0.15465875 0.31523737 13816788
0.70552617 -0.14459486 0.31443539 13816530
0.70562845 -0.13451855 0.31477264 13816530
0.70509994 -0.1243967 0.31524417 14013910
0.70446676 -0.1143897 0.31496078 14211288
0.70370603 -0.10418849 0.31520149 14474460
0.70350003 -0.094469354 0.31535205 14276824
0.70311099 -0.08454182 0.3151786 14277081
0.70297211 -0.074649625 0.31511647 14539996
0.70358342 -0.064831853 0.31538954 14737374
0.70450014 -0.055020213 0.31497523 14803167
0.70533323 -0.045178965 0.31452248 14605790
0.70566648 -0.03529026 0.31467038 14211030
0.70494282 -0.025469277 0.31446496 13422025
0.70328563 -0.015297355 0.3151378 13750733
0.7026664 -0.0055297362 0.31497878 14014419
0.70299971 0.0043421839 0.31512693 14079700
0.70437515 0.014410341 0.31516451 13816273
0.70530218 0.024996268 0.31464055 13816530
0.70622218 0.035775229 0.31491703 14145238
0.70761126 0.045785036 0.31553611 13948116
0.70852381 0.05579558 0.31511292 13619151
0.70899993 0.063743979 0.31554779 13816530
0.71000004 0.066271655 0.31388751 13882066
0.71227592 0.074062951 0.31534639 13026757
0.70900005 -0.16143309 0.32196563 12895431
0.71010005 -0.16301315 0.32462686 12434879
0.70800006 -0.15403263 0.32482746 13027016
0.71025002 -0.15855885 0.32835305 11974328
0.70716661 -0.14462674 0.32527477 13290186
0.70713913 -0.13468868 0.3252618 13224138
0.70663881 -0.1246682 0.32503161 13421773
0.70580536 -0.11460704 0.32464761 13619408
0.70543736 -0.10484487 0.32499418 13619923
0.70503336 -0.094675325 0.32511777 13685203
0.70483333 -0.084748313 0.32502592 13684945
0.70500004 -0.074865632 0.32510236 13948117
0.70513332 -0.064974956 0.32516399 13684946
0.70552766 -0.055101171 0.32451957 14145240
0.70613885 -0.045230646 0.32479987 13816275
0.70625013 -0.035318419 0.32485151 13421773
0.70552778 -0.025372777 0.32451952 12895428
0.70426494 -0.015339094 0.3250525 13158599
0.70349997 -0.0055357087 0.32523337 13422285
0.70423353 0.0043504131 0.32474807 13619665
0.70409399 0.014444266 0.32499197 13619664
0.70448852 0.024776494 0.32440373 13816786
0.7058332 0.03575553 0.32465851 14211287
0.70708346 0.045751892 0.32523361 14211288
0.70800012 0.055753596 0.32565504 14079702
0.70899993 0.062969409 0.32395741 14014166
0.71026677 0.067072995 0.32553425 13882836
0.71296674 0.073784798 0.32560083 13224906
0.7088334 -0.15243442 0.33212292 11645363
0.70809102 -0.14458984 0.33225232 11908790
0.70810539 -0.1341304 0.3335126 11645362
0.70795006 -0.12456741 0.33342206 12171706
0.70744002 -0.11477345 0.33384523 11711669
0.70648295 -0.10442346 0.33399767 11909305
0.70637149 -0.09473592 0.33475849 12435393
0.70705575 -0.085014656 0.33515492 12434880
0.70716673 -0.075095735 0.33520812 12961222
0.7072857 -0.065291978 0.33514574 12895428
0.70750004 -0.055255141 0.33453763 13158601
0.70796007 -0.045512859 0.33409077 12894915
0.71000004 -0.044647336 0.33904099 12763324
0.70819229 -0.035160489 0.33435294 12237242
0.71000004 -0.03716778 0.33904099 11908276
0.70691174 -0.025228962 0.33484244 11645105
0.7057879 -0.015693568 0.33492923 12697791
0.70556659 -0.0055523636 0.3352738 12434877
0.70566648 0.0043581994 0.33449548 12764612
0.70538229 0.014070306 0.33460343 12567233
0.70544994 0.025207404 0.33459893 12961221
0.70616645 0.035772286 0.3347317 13356236
0.70713896 0.045754056 0.33519259 13488080
0.70791441 0.055628955 0.33544096 13356495
0.70873684 0.063540556 0.33485737 13816789
0.71027273 0.06749668 0.33403122 13816788
0.71144003 0.072780654 0.33532864 13093065
0.70900005 -0.081099644 0.34188303 10790826
0.70855564 -0.075151525 0.34222201 11974842
0.71000004 -0.075673625 0.34402737 10856618
0.70870006 -0.065966934 0.34223634 12369086
0.71028572 -0.062242996 0.34511659 11316398
0.70900005 -0.059522487 0.34022325 12369084
0.71175867 -0.055442084 0.34499836 11908791
0.71324152 -0.045599557 0.34548709 12369338
0.71206671 -0.03561189 0.34503114 11974324
0.7086429 -0.024181424 0.34301445 11382959
0.71023083 -0.027139684 0.3459304 10264478
0.70828575 -0.015640888 0.34367144 11448495
0.71077782 -0.01530034 0.348842 10593700
0.70814812 -0.0052964604 0.34442139 11119530
0.71000004 -0.0080806315 0.34901372 10790822
0.70789653 0.004229052 0.34466752 11119531
0.70792305 0.014061393 0.34417024 11185581
0.71025002 0.016026083 0.34913659 10264480
0.70792001 0.024424944 0.34401551 11580340
0.71039999 0.023511535 0.34921032 10527652
0.70778573 0.034315072 0.34467182 11974840
0.7083078 0.043852683 0.34422815 12238270
0.71000004 0.047101848 0.34834886 11185583
0.70887506 0.054578397 0.34203023 12698566
0.71086365 0.054618381 0.34717062 11843514
0.70900005 0.062471475 0.34022325 12633030
0.71068954 0.064312093 0.34510967 12238015
0.71069998 0.071439534 0.34320238 12171964
0.71600002 -0.050053138 0.35196313 10988201
0.71616668 -0.045035113 0.35204545 10264219
0.71433336 -0.035726652 0.35114384 10790305
0.71200001 -0.019771026 0.35166365 10330271
0.7105 -0.0039292593 0.35092282 9080204
0.71000004 0.00022998244 0.35067585 9473935
0.71200001 0.01773208 0.35166365 9672344
0.71200001 0.02106569 0.35166365 10132894
0.70900005 0.035085075 0.35018194 10922152
0.70900005 0.040894311 0.35018194 11185581
0.7105 0.045140237 0.35147724 10396066
0.71363646 0.055214014 0.35338488 10330019
0.71385723 0.061825421 0.35305983 10987691
0.78840005 0.11173326 0.35839063 10462109
0.78516668 0.10502777 0.36482617 10462109
0.78755999 0.1144186 0.36494038 10527902
0.79000002 0.1180013 0.36121464 10527903
0.78871429 0.123437 0.36752835 10527903
0.79162502 0.1254251 0.3632656 10659231
0.78804553 0.10583029 0.37463427 10461853
0.78834993 0.11467953 0.37368801 10462109
0.79000002 0.11491896 0.37909219 10462109
0.7887665 0.12489605 0.37480816 10527902
0.78900003 0.13139705 0.37491822 10659488
0.79060876 0.13641408 0.37495711 10593439
0.79210007 0.11522397 0.38473833 10462110
0.79114306 0.12526998 0.38493538 10527902
0.79123086 0.13526112 0.3853842 10527646
0.79300004 0.14505908 0.38517269 10659231
