# .PCD v0.7 - Point Cloud Data file format
VERSION 0.7
FIELDS x y z rgb
SIZE 4 4 4 4
TYPE F F F U
COUNT 1 1 1 1
WIDTH 415
HEIGHT 1
VIEWPOINT 0 0 0 1 0 0 0
POINTS 415
DATA ascii
0.45400003 -0.030674784 -0.063258417 12827829
0.45303133 -0.025094328 -0.063972875 14538191
0.45505363 -0.015401517 -0.063883148 15657704
0.46000001 -0.010619679 -0.060325392 14671835
0.45900002 -0.0095220665 -0.06449236 13157826
0.46375003 -0.007713262 -0.06135473 14539993
0.46500003 -0.041398544 -0.051543683 12959414
0.45630008 -0.033482444 -0.053859282 13090487
0.46109092 -0.038711336 -0.052912079 13090487
0.44743538 -0.023949511 -0.054138526 15525342
0.45140001 -0.028246742 -0.056803957 13616831
0.4480812 -0.018082783 -0.053975135 16381424
0.45442858 -0.013669489 -0.056037337 15526117
0.46000001 -0.010619679 -0.057633225 14933980
0.45900002 -0.0095220665 -0.051598031 14013135
0.46550009 -0.0063357707 -0.055783298 14737886
0.54735714 0.018208323 -0.052468378 11974321
0.54779994 0.021807982 -0.052687343 12040370
0.48744446 -0.051573146 -0.043382347 12959927
0.4921765 -0.054877907 -0.041906759 12894904
0.46614286 -0.040929191 -0.045537632 12827828
0.4744074 -0.044480357 -0.045221619 12959414
0.48215786 -0.04838274 -0.043918815 12894134
0.4480556 -0.031090161 -0.043785691 13288123
0.45446667 -0.03485382 -0.045461189 12827828
0.46140003 -0.038735788 -0.045599051 12827828
0.43900001 -0.022981204 -0.040100388 16249579
0.44337183 -0.024827963 -0.044939365 15459549
0.44474071 -0.016580824 -0.045318659 16184045
0.45257145 -0.011656147 -0.048907243 14999517
0.45700002 -0.009480576 -0.048699766 14474199
0.54800004 0.01899305 -0.048346478 12303030
0.54860008 0.02175393 -0.048313417 11908784
0.5165 -0.071776859 -0.030251715 12960184
0.49842861 -0.060847491 -0.036026694 13025976
0.50383335 -0.064123884 -0.03461948 13091768
0.51300001 -0.068289876 -0.031244148 12960184
0.48745453 -0.050778832 -0.035814259 12828598
0.49382001 -0.05596238 -0.035046782 12894391
0.46700001 -0.041029576 -0.035187658 12630706
0.47449997 -0.044331793 -0.034872353 12696755
0.48282355 -0.04838255 -0.035662562 12697012
0.43880001 -0.031086108 -0.031659134 14012102
0.44384998 -0.032274652 -0.035623174 13288378
0.45637503 -0.036582157 -0.038213439 12630449
0.46450004 -0.038996041 -0.036445655 12696241
0.43733329 -0.024254406 -0.034344509 15855078
0.44159999 -0.02866693 -0.037653055 14406860
0.43803132 -0.017866174 -0.034119997 16250865
0.44254842 -0.013481604 -0.034803886 15132387
0.49900001 0.0081051774 -0.037170269 13948371
0.50186956 0.0077756564 -0.033171572 13817041
0.50609088 0.012717003 -0.033732764 13685457
0.51194125 0.017088773 -0.032377366 13685714
0.51675004 0.021337796 -0.030870926 13948886
0.51776189 -0.071346596 -0.025245395 12960441
0.52246666 -0.075096682 -0.022689795 12960440
0.50622219 -0.061463065 -0.025962766 12762805
0.51340538 -0.066496275 -0.025259983 12828855
0.48400003 -0.050830595 -0.02834817 12565426
0.49700004 -0.055690382 -0.025291389 12894391
0.5017693 -0.058480866 -0.025052818 12762805
0.46575004 -0.043055989 -0.027213272 12433840
0.47200003 -0.04589181 -0.028747164 12565426
0.48000002 -0.04928682 -0.028113889 12631219
0.43388003 -0.031306729 -0.02437545 13880517
0.44100001 -0.033925988 -0.029959191 13091000
0.45457146 -0.037557524 -0.027385684 12433840
0.46166667 -0.039838944 -0.028120084 12565426
0.43243408 -0.024709107 -0.024879543 15658212
0.43488884 -0.016041059 -0.024688207 15527401
0.44228575 -0.011094959 -0.02797607 14343128
0.44500002 -0.0092316335 -0.028147424 13750737
0.50466669 0.0074247513 -0.026680741 13817040
0.51050007 0.0097260792 -0.020936536 13882574
0.50749999 0.011570998 -0.027583018 13751249
0.51317018 0.015180072 -0.025072562 13751246
0.51816672 0.021194087 -0.027315376 13816783
0.52483332 0.023621736 -0.022441482 13882575
0.53250003 0.028222565 -0.021216109 14014162
0.53900003 0.030458001 -0.020213278 14014162
0.54800004 0.033532333 -0.020550789 14079955
0.55200005 0.034640152 -0.021992257 14079955
0.53371423 -0.081845351 -0.013317904 12763318
0.51836371 -0.070546381 -0.016019795 12960184
0.52380955 -0.073935591 -0.015318749 12829111
0.53108341 -0.078362487 -0.013181669 12829111
0.50599998 -0.062026605 -0.015617146 12631476
0.51318187 -0.066425234 -0.014949644 12828598
0.49696159 -0.055865083 -0.01635167 12697268
0.50159997 -0.059138082 -0.015283744 12762805
0.42857143 -0.031250216 -0.011630131 13815493
0.43159378 -0.034488536 -0.014523959 13157562
0.42718524 -0.025160866 -0.014631489 15723748
0.43000004 -0.026033295 -0.018977759 15460575
0.4280417 -0.018482195 -0.012965252 16119536
0.43114704 -0.01600538 -0.016971463 15264228
0.51253343 0.0091257198 -0.015052009 14014417
0.51531249 0.013102142 -0.015623374 13882575
0.52344006 0.01806345 -0.014525679 13750989
0.52695841 0.022995712 -0.017034801 13750989
0.53280002 0.026371585 -0.013631793 13816783
0.5383001 0.030923169 -0.013254334 13948114
0.54289478 0.034427416 -0.014679164 13487562
0.55200005 0.03700887 -0.019408552 12763838
0.53285724 -0.081981078 -0.0038621589 12960697
0.51900005 -0.070301212 -0.0054908814 12697525
0.52477783 -0.074265815 -0.0034055558 12697525
0.53093761 -0.078444518 -0.0067056771 12697525
0.51410627 -0.065272301 -0.0045064115 12697268
0.50814289 -0.058804639 -0.004609332 12631219
0.51000005 -0.059530761 -0.0024108659 12631219
0.43400002 -0.04049949 -0.00052759663 12433840
0.42537147 -0.032101449 -0.0043252078 13683651
0.43145716 -0.036832534 -0.0057882164 12828084
0.41900006 -0.024386441 -1.8918467e-05 15987435
0.42237139 -0.025102016 -0.0052098883 15724004
0.42440397 -0.017684607 -0.0050186766 15790573
0.43000001 -0.013953644 -0.0090791546 13816530
0.52630007 0.014835318 -0.0088934135 13750989
0.53188002 0.01710749 -0.0050530839 13750989
0.53635824 0.024527904 -0.0046668053 13816526
0.53900003 0.030458001 -0.0044406671 13553610
0.54037499 0.03275045 -0.0053229998 12829887
0.53200006 -0.082315601 0.0045739193 13026234
0.52379173 -0.074024379 0.0054940316 12763062
0.53000003 -0.079235651 0.0043186583 12960441
0.50822222 -0.060777798 0.0065852264 12499890
0.51411366 -0.065300941 0.0048714299 12631476
0.50437045 -0.05708535 0.0058792792 12433840
0.43200001 -0.040762596 0.0054787653 12368560
0.4176316 -0.031254698 0.0075943791 13947080
0.42334697 -0.034418736 0.0045911148 13157563
0.43077782 -0.038519248 0.0034514992 12499890
0.41683349 -0.0247472 0.0055245627 15855848
0.42000002 -0.024936255 0.00096426392 15592420
0.41750005 -0.018346142 0.0071295542 16053484
0.42082354 -0.016609952 0.0028188641 15527142
0.52566665 0.016244028 0.0049684215 13619659
0.53050005 0.01880049 0.0018383269 13816781
0.52900004 0.021224132 0.0086449049 13685967
0.53382146 0.024153218 0.0040271962 13685196
0.53900003 0.030458001 0.0012374721 11513769
0.53070009 -0.08095561 0.01662489 13092026
0.51840001 -0.070219934 0.016965361 12565426
0.52489132 -0.074795954 0.015016067 12828598
0.53025001 -0.079273023 0.017976146 13025977
0.50843745 -0.061134279 0.014854798 12499633
0.51354992 -0.065964833 0.015001643 12565425
0.50547838 -0.057411872 0.013770149 12302510
0.42080003 -0.040252812 0.017514756 12302254
0.41636008 -0.034234926 0.015481798 13354941
0.42039999 -0.038639043 0.015135363 12565426
0.41269717 -0.024940094 0.01498783 15790054
0.41577062 -0.016709449 0.015568687 15330021
0.42055559 -0.011458317 0.017373735 14342866
0.42166671 -0.0094054034 0.017419985 14210512
0.52566671 0.018494463 0.012008579 13750990
0.528 0.022008045 0.011511915 14014162
0.53107703 -0.081405245 0.024267504 13026234
0.51825005 -0.070604615 0.025657177 12500147
0.52460003 -0.075067639 0.024853174 12828855
0.53049999 -0.079310402 0.02543286 13026233
0.50693107 -0.061711885 0.025182689 12236974
0.51288468 -0.066523604 0.024035214 12434353
0.50473076 -0.057099696 0.02315383 12170923
0.41236365 -0.040847864 0.027702015 12236461
0.42050004 -0.040716898 0.020653374 12170668
0.40804651 -0.032859087 0.027037105 14144458
0.41244265 -0.036053512 0.023762241 13091770
0.40739238 -0.025280321 0.025106642 15658725
0.41046157 -0.022187391 0.021194693 15856362
0.40866664 -0.019320119 0.02788434 15856364
0.41441667 -0.015292631 0.024704805 15066591
0.42000002 -0.010679456 0.025053341 13750471
0.42084861 -0.0084608197 0.025448084 13882316
0.52750003 -0.080096789 0.032700099 13025977
0.51773691 -0.071024373 0.03461482 12500146
0.52358615 -0.076254137 0.036285471 12763061
0.50608337 -0.061742529 0.03216283 12236974
0.51319999 -0.067164242 0.035056237 12302767
0.505 -0.05894712 0.030714763 11973802
0.41166672 -0.041307356 0.033392422 12368047
0.40448776 -0.033731028 0.035042048 13947078
0.41000003 -0.039219707 0.031175552 12499633
0.4026958 -0.025073018 0.034975324 15658726
0.4066335 -0.017569773 0.035880446 15461864
0.41437507 -0.013290639 0.032887172 14343641
0.42000002 -0.010679457 0.03046109 13552836
0.41825002 -0.0096558277 0.035717338 14211799
0.42076924 -0.0081217354 0.032107152 13355977
0.52700001 -0.080020867 0.046857432 12500146
0.5177778 -0.070405386 0.045634538 12434096
0.52402562 -0.075988136 0.045207635 12697268
0.50850004 -0.061934691 0.047988195 12039337
0.51248384 -0.065672174 0.044636991 12170924
0.4054524 -0.042423755 0.046415552 12236461
0.39765635 -0.032396786 0.047048867 14407630
0.40223068 -0.036178846 0.044184975 13486270
0.39725554 -0.025403479 0.045958485 15658469
0.4001874 -0.024197642 0.04161261 15790311
0.39825004 -0.019216001 0.048694506 15921901
0.40445682 -0.015903775 0.045404132 15264484
0.41100001 -0.010450613 0.046644956 14409178
0.40900001 -0.00944228 0.047855351 13487561
0.41100001 -0.0094884532 0.047127202 13553358
0.51900005 -0.070301212 0.052828562 12302765
0.52375007 -0.073911078 0.051370081 12500144
0.50566673 -0.062972285 0.051668014 11973801
0.51100004 -0.065630659 0.051893689 12039594
0.39693335 -0.041190706 0.056785163 12696756
0.40181819 -0.041691277 0.051286116 12499633
0.39504096 -0.03468864 0.055179246 14144459
0.40000001 -0.038965434 0.051250234 13157563
0.39426571 -0.026025333 0.053072274 15592420
0.39716664 -0.018387439 0.051738661 15921388
0.40545836 -0.013417795 0.051395144 14803421
0.51322222 -0.072459936 0.068327278 12500146
0.5036667 -0.064754061 0.067911372 12105132
0.51050007 -0.069149844 0.066303849 12433840
0.49900001 -0.059414931 0.068315297 11842216
0.39492306 -0.041334029 0.061993755 12762293
0.38862008 -0.034300573 0.068031572 14737110
0.39157537 -0.035240453 0.062990695 14342095
0.38826403 -0.025994435 0.067252889 15460835
0.39020005 -0.028282562 0.061914481 15263200
0.38875002 -0.019326473 0.068578377 15987693
0.39343485 -0.014795429 0.068898246 15330022
0.40000001 -0.010170911 0.069276072 14474460
0.40275002 -0.0078805052 0.06975235 14080473
0.50866669 -0.070688091 0.076783098 12565425
0.51161909 -0.072955966 0.074741773 12565425
0.49900004 -0.060749982 0.073572047 11775909
0.50338775 -0.065719306 0.074602805 12236460
0.49888891 -0.058882773 0.072127908 11710373
0.3870323 -0.041786704 0.076460041 13354942
0.3904286 -0.044006407 0.074406676 12301486
0.38487315 -0.035080247 0.07511171 12960700
0.38446212 -0.025074586 0.075123772 13092801
0.38689157 -0.017024638 0.07565026 15593193
0.39256677 -0.013127451 0.073200196 14737886
0.40000001 -0.010170911 0.070212476 13883093
0.39800003 -0.0091883317 0.077315219 13684944
0.4036667 -0.0075038895 0.071722269 14343389
0.509 -0.070138231 0.083685383 12368047
0.51092315 -0.072980158 0.083702005 12433840
0.49800003 -0.063571341 0.081974015 11973290
0.50466669 -0.067575835 0.0834665 12170669
0.38357341 -0.04276564 0.08524631 13025720
0.37818065 -0.033717819 0.085992806 2700078
0.38074991 -0.036475778 0.082927734 3817530
0.37795442 -0.025358295 0.085668825 2765617
0.38067737 -0.023850979 0.081222326 2962997
0.37900001 -0.019174831 0.088929281 12699329
0.38339996 -0.015286464 0.085116267 14343127
0.38699999 -0.0088412091 0.088677607 14737628
0.39300001 -0.0099929208 0.080484003 14079702
0.51000005 -0.072066918 0.097878352 12499633
0.51000005 -0.068485156 0.09907227 12236462
0.38280004 -0.050776757 0.097661689 12367278
0.37834623 -0.041813456 0.097614355 12170156
0.38157791 -0.04538703 0.094645858 13420222
0.37558562 -0.03496765 0.094893001 3027504
0.38000003 -0.03990832 0.090720698 11512740
0.37523875 -0.024941169 0.094810903 2961454
0.37806523 -0.017962007 0.095855042 12697783
0.38147622 -0.013544519 0.094546743 14605527
0.38604704 -0.0066084363 0.095590033 14869212
0.39000002 -0.0042864904 0.092347257 14079699
0.39825001 0.0017612756 0.099505715 13685456
0.40072727 0.0032857081 0.098823935 13158600
0.50849998 -0.071259156 0.10413712 12565426
0.51000005 -0.072186306 0.10313159 12565170
0.50740004 -0.06825377 0.10355496 12170668
0.51000005 -0.068485156 0.10265402 12235948
0.37861538 -0.05169471 0.10893443 13683137
0.38233331 -0.052255224 0.10483252 12762037
0.37736699 -0.044322684 0.10547947 12565171
0.38086963 -0.048839532 0.10259544 13946824
0.36870381 -0.032137021 0.10816292 2501676
0.37200877 -0.035203904 0.10417849 2699053
0.36858341 -0.025334986 0.10805536 2501160
0.37168631 -0.024544461 0.10328347 2764588
0.37704709 -0.016244367 0.10513206 12829114
0.38066661 -0.011780713 0.10392474 14671577
0.38372788 -0.0052456013 0.10510836 14540506
0.39066669 -0.00078801339 0.10058215 13949139
0.38819519 0.0023673545 0.10759165 14737885
0.39349997 0.0032080542 0.10314265 13817298
0.40000001 0.0052798074 0.10048964 13224393
0.47110537 0.026623597 0.1081754 13619660
0.37749428 -0.053152386 0.11544534 13880773
0.37574598 -0.044921435 0.11490467 11907243
0.36702883 -0.033681676 0.1153183 2501673
0.37106663 -0.03836333 0.1140946 2764590
0.36696076 -0.025158213 0.11514187 2238500
0.36900005 -0.019748693 0.11631321 4738376
0.37662962 -0.014613763 0.11551464 13092545
0.38000003 -0.010848481 0.11132947 15000028
0.37883341 -0.0084498357 0.1181312 14079183
0.38092536 -0.0048570498 0.11465044 14408147
0.38649091 0.0043003969 0.11543861 14869727
0.39008334 0.0088017778 0.11367451 14474971
0.39086959 0.011386804 0.1175828 14211799
0.44800004 0.024531208 0.11875279 13751503
0.45438465 0.026334532 0.11722883 13948626
0.46100003 0.027669163 0.11707281 14080211
0.47076005 0.027529947 0.112124 13948884
0.45850003 0.030739771 0.11912189 14146518
0.46424997 0.031938087 0.11834013 14212053
0.47111115 0.031645279 0.11467534 14146261
0.37714288 -0.060797479 0.12737148 11644326
0.37582949 -0.055038828 0.12517177 13880517
0.37467456 -0.045557287 0.12497812 11249569
0.36371407 -0.034441613 0.12491088 2633257
0.363451 -0.025039813 0.1248921 2501673
0.36726925 -0.018993827 0.12639867 7895155
0.37478372 -0.014094043 0.12464856 13223874
0.37803772 -0.0056441152 0.12522469 13816268
0.38042864 -0.0022507873 0.12169625 14672090
0.37900001 0.00012276527 0.1277463 14474455
0.38325924 0.004883192 0.1248759 14803934
0.38808891 0.0115749 0.1260801 14606556
0.39118189 0.015340986 0.12627932 14738142
0.39600003 0.020832235 0.12915014 13816783
0.44818184 0.027236499 0.12226007 13948368
0.45244443 0.029215757 0.12131063 14146004
0.44654548 0.03312682 0.12845939 14211540
0.45500004 0.034504 0.12483542 14211797
0.46207693 0.037095439 0.12254494 14211541
0.45900002 0.040980715 0.12999707 14343125
0.46385714 0.042189922 0.12764581 13882575
0.37600002 -0.06061358 0.130256 9407110
0.37476471 -0.054585028 0.13158201 11513001
0.36488891 -0.040408727 0.13504364 5066571
0.37514639 -0.046511792 0.13197334 9342346
0.36376187 -0.035308905 0.13445346 1712412
0.36295873 -0.0246286 0.13453032 1645850
0.36461291 -0.01841007 0.13313346 8947586
0.37663338 -0.012799874 0.13247305 11645615
0.38000003 -0.010996746 0.13520005 12434871
0.37875009 -0.005904851 0.13085423 12501439
0.38132682 -0.0051982449 0.13462827 10527649
0.37900001 0.00012276527 0.13085164 13357259
0.38119999 0.0042672926 0.13262334 12172986
0.38722223 0.011914144 0.1317255 14540505
0.3938666 0.016727544 0.13508645 13488075
0.39729691 0.023181058 0.13536718 13882574
0.4000589 0.028060824 0.13726819 13750731
0.40100002 0.030438049 0.1383802 13487559
0.42725003 0.035522733 0.13844475 13684938
0.43207693 0.038424246 0.13800439 14014160
0.44555318 0.036255378 0.13341765 14211540
0.45333338 0.039060023 0.13086273 14277332
0.43685716 0.041927505 0.13876937 14079953
0.44457898 0.042702362 0.137238 14277076
0.45565003 0.044952281 0.13519944 14277333
0.46200007 0.046016369 0.1323172 13158851
0.45481822 0.051446058 0.13877822 13224389
0.36406669 -0.040505599 0.14582337 6383975
0.36569116 -0.034926366 0.14532591 1054738
0.36503947 -0.025155926 0.14584053 1053965
0.36400002 -0.019481096 0.14058511 3152914
0.3982667 0.016664084 0.14126465 10527134
0.40000001 0.017921304 0.14381409 7565163
0.39831257 0.024258042 0.14107415 10987169
0.40000004 0.026700122 0.14196469 11447721
0.40033332 0.030432591 0.1411851 12171700
0.42552182 0.037429232 0.14181882 13684939
0.42595387 0.044523105 0.14579207 13947854
0.43346512 0.04557145 0.14255525 13948110
0.4427143 0.048116047 0.1415173 13948110
0.42833337 0.050275549 0.14838482 14013647
0.43321052 0.051753491 0.14696446 14079183
0.4459092 0.052388515 0.14369346 14079696
0.45228001 0.055163048 0.141939 12303286
0.36064291 -0.041011192 0.1549633 2305321
0.35885724 -0.033656154 0.15852055 1186324
0.36106309 -0.03519693 0.15395373 1449239
0.35884213 -0.027384074 0.15870976 1186323
0.36084503 -0.024615863 0.15451117 1580822
0.36100003 -0.019038836 0.15463838 3154975
0.42559999 0.046967119 0.1504277 11119011
0.42850003 0.050797261 0.15044959 14803419
0.43900001 0.055638373 0.1520808 12698043
0.34443477 -0.041081086 0.16755088 2107422
0.35566667 -0.04056903 0.16477007 725262
0.36000001 -0.04033618 0.16010937 988688
0.3447786 -0.034960117 0.16737567 1712410
0.35565227 -0.034913961 0.16354436 1580569
0.36000001 -0.039072029 0.16010937 1120274
0.3458221 -0.025198255 0.16736969 1646619
0.35609639 -0.026515141 0.16313787 1778204
0.36000001 -0.022638083 0.1617949 1843998
0.34425002 -0.019430725 0.16901883 2039834
0.44385719 0.018104564 0.16549262 9079429
0.44400004 0.02093206 0.16628587 10065553
0.33755887 -0.041122247 0.17661752 1778205
0.34015006 -0.041456468 0.17170523 1777946
0.3377499 -0.03563958 0.17595534 1712666
0.34040743 -0.034783602 0.17167997 1843996
0.33780885 -0.025384225 0.17532206 1843486
0.34144872 -0.025414029 0.17172435 1909532
0.33700001 -0.019219454 0.17630909 1777953
0.34300002 -0.019561641 0.17061546 2105628
0.33362511 -0.041237604 0.1835452 1843742
0.33235079 -0.035636798 0.18595257 2040863
0.33111119 -0.026196996 0.18589692 2106659
0.78900003 -0.23986264 0.41924775 2831922
0.78877783 -0.2391794 0.42589939 2765105
0.79218757 -0.23375539 0.42476326 5856350
0.78849995 -0.23755611 0.43518394 1975336
0.79163158 -0.23256372 0.4345915 5264727
0.787875 -0.2367515 0.44354889 1645345
0.79089993 -0.2321074 0.44432673 4408908
