# .PCD v0.7 - Point Cloud Data file format
VERSION 0.7
FIELDS x y z rgb
SIZE 4 4 4 4
TYPE F F F U
COUNT 1 1 1 1
WIDTH 1104
HEIGHT 1
VIEWPOINT 0 0 0 1 0 0 0
POINTS 1104
DATA ascii
0.78900003 -0.11149175 0.12925881 12040113
0.78900003 -0.10502703 0.12925881 11842734
0.78670007 -0.09385667 0.12869379 12566458
0.77775002 -0.084413916 0.12923649 14803419
0.78538471 -0.08488445 0.12781349 12500921
0.77716666 -0.075250767 0.12913956 15133154
0.7860834 -0.075503252 0.1270896 12370105
0.77880007 -0.065381914 0.12941095 14672859
0.78625005 -0.065086648 0.12788592 13357001
0.77816671 -0.05531317 0.12930572 14803416
0.78610003 -0.054954998 0.12786135 13684679
0.7762 -0.045176964 0.12897894 14868694
0.78525001 -0.044783905 0.12772211 14342866
0.77600002 -0.035172924 0.12894569 14605524
0.78553843 -0.034260981 0.12713063 13488071
0.77666676 -0.024798095 0.12824623 14474708
0.78640008 -0.024655264 0.12563688 12369334
0.79340011 -0.025374653 0.12217484 11711403
0.77680004 -0.015934179 0.12834917 14343379
0.78507698 -0.014449813 0.12634963 13093058
0.79360002 -0.01460372 0.12257544 11447976
0.77600002 -0.0051985285 0.12894569 14803675
0.78553325 -0.0052619255 0.12684615 13553352
0.77649999 0.0047950489 0.12902878 14408661
0.7857222 0.0048521399 0.12687683 13027265
0.79377788 0.0049001379 0.12260396 11053475
0.777125 0.015489704 0.12844877 14540247
0.78580004 0.014974077 0.12578502 13750732
0.79175001 0.01461978 0.12182963 11250598
0.77725011 0.024815286 0.12824179 14210769
0.78583348 0.025088456 0.12505643 13684939
0.79100007 0.02525478 0.12125243 10790302
0.77560008 0.034748007 0.12797022 14079439
0.78479999 0.035160821 0.12489112 13027008
0.79100001 0.03543938 0.12125243 10987422
0.7757501 0.044746425 0.12799487 14145489
0.78488237 0.045001287 0.12501279 13356229
0.79100001 0.044698104 0.12125242 10921627
0.7766 0.054791428 0.12813498 14605528
0.78568751 0.055087432 0.12491825 13948365
0.79124999 0.054899756 0.12129045 10921626
0.77600002 0.064741723 0.1280362 14803421
0.78516662 0.064892441 0.12464169 13882316
0.79137504 0.065098733 0.12107829 11117979
0.77690005 0.07482174 0.12818412 14672094
0.78594124 0.075042263 0.1249655 14277331
0.79163641 0.074891694 0.12143373 11052957
0.77766675 0.084909357 0.12922265 14934750
0.78589475 0.084788732 0.12612863 14408918
0.79250002 0.085288137 0.12163589 11776940
0.77900004 0.093258642 0.1294442 14737367
0.78604168 0.09501981 0.12662022 14606297
0.79200006 0.09515056 0.1216578 11711149
0.78822225 0.1037949 0.12769529 12237236
0.7913751 0.10577898 0.12346936 11777196
0.78866673 -0.14129263 0.13658854 12368310
0.79320008 -0.14517751 0.13395295 11447207
0.76600003 -0.13065693 0.13893643 13288897
0.77544445 -0.13348079 0.13732319 14013391
0.78637499 -0.13539748 0.13457787 13816012
0.79183334 -0.13753583 0.13126531 12894908
0.75540006 -0.12336832 0.13789728 15394017
0.76266676 -0.12433466 0.13545564 15525600
0.77416676 -0.12464937 0.13316722 14605782
0.78542864 -0.12477969 0.13129732 13750732
0.75482368 -0.11523489 0.13789624 16447473
0.76233333 -0.11485956 0.13470285 16513007
0.77327275 -0.11510892 0.13293384 14671319
0.78418195 -0.11489747 0.13113612 14408661
0.75638896 -0.10511133 0.13807943 16382194
0.76345462 -0.10471203 0.13481943 16447985
0.77384609 -0.10481907 0.13276435 15395297
0.78337508 -0.10564981 0.13085593 14672087
0.75766671 -0.0946467 0.13831384 16513523
0.76269233 -0.094379596 0.13442048 15855335
0.77406681 -0.095428079 0.13188221 15658725
0.78366679 -0.096979558 0.13021964 14737626
0.75824994 -0.085401118 0.13797677 16118509
0.76288241 -0.084846966 0.13379948 15592419
0.77300006 -0.084803 0.13115996 15198433
0.75891662 -0.075260788 0.13765503 15855337
0.76268756 -0.075075343 0.13398239 15724005
0.77266669 -0.074815236 0.13110349 15132641
0.75900012 -0.065243118 0.13830486 15789544
0.76304334 -0.064759038 0.13470742 15592420
0.77370006 -0.064953521 0.13127884 15066591
0.75900006 -0.058389626 0.13855869 15789544
0.7622084 -0.054919977 0.13541952 15789543
0.77316666 -0.054956611 0.13118832 15132126
0.76218182 -0.045171276 0.13507617 15921128
0.77228582 -0.04494888 0.13065146 14869210
0.76167852 -0.034841627 0.13528597 15855334
0.77150011 -0.034968957 0.13090532 15197921
0.75900006 -0.026406636 0.13855869 15329763
0.76287115 -0.025042079 0.13487501 15263968
0.77300006 -0.025084108 0.1302568 15132384
0.76329029 -0.015084081 0.13558689 15066846
0.77163643 -0.014694898 0.13084638 14803418
0.76415992 -0.0051190238 0.13591442 15198175
0.77240002 -0.0051739439 0.13105816 15001053
0.76469994 0.0047228695 0.13601102 15001053
0.77275008 0.0047725695 0.13111772 14803674
0.76481479 0.015034477 0.1363633 15066846
0.77254558 0.01504654 0.13132922 14606296
0.76635009 0.025006259 0.13720475 14803674
0.77226323 0.024800157 0.13212793 14408661
0.76733333 0.0352773 0.1373827 14934491
0.77147055 0.035200328 0.13190922 14342611
0.7682308 0.044243235 0.13719885 15263457
0.77189475 0.045615505 0.13244483 14671577
0.76900005 0.051556021 0.13858399 15394786
0.77190918 0.055447131 0.13444845 15065822
0.76900005 0.068658322 0.13858399 15987177
0.77183348 0.064995781 0.13427076 15132129
0.76900005 0.071358688 0.13858399 16118763
0.77206063 0.075339802 0.13447514 15000799
0.77303243 0.085130416 0.13463411 15329507
0.77390331 0.094638176 0.13507789 15592422
0.77714288 0.10109376 0.13667034 13750734
0.78600001 0.10549261 0.13463604 11974065
0.79000002 0.10937075 0.13219672 11777198
0.77900004 -0.14016895 0.14950438 11644587
0.78649998 -0.1424416 0.14449348 11052449
0.79263645 -0.14717822 0.14520521 10394519
0.76250005 -0.13184495 0.14543524 13947085
0.77399999 -0.13655603 0.14461538 12828602
0.78200006 -0.13887808 0.14092675 13092031
0.74676198 -0.12254798 0.14556134 15197665
0.75479996 -0.12698656 0.14344855 14736600
0.76050007 -0.12971878 0.14150244 13420483
0.74703336 -0.11523811 0.14505529 15855852
0.75000006 -0.11247709 0.14077838 16711673
0.74783331 -0.10606078 0.14692634 15789803
0.75172228 -0.10407057 0.14260508 16448244
0.74900001 -0.099702463 0.14900708 15987695
0.75317657 -0.094964132 0.14531931 16185072
0.7551111 -0.085143961 0.14535464 16119022
0.75672221 -0.075041957 0.1443385 16053486
0.75748587 -0.064605579 0.14435816 15987694
0.75803238 -0.054936711 0.14473265 15987180
0.75870997 -0.045189086 0.14543721 16053229
0.76000005 -0.044233166 0.14052041 14934494
0.75888473 -0.035148486 0.14543828 15987693
0.76000005 -0.036226884 0.14052041 14540249
0.75900024 -0.025645137 0.14490454 15658215
0.76000005 -0.021103906 0.14052041 14079698
0.75899988 -0.015422579 0.14671595 15526629
0.76007158 -0.013988191 0.14193153 14145491
0.75900006 -0.0060717729 0.14823253 15461349
0.76038098 -0.0046699475 0.14355648 14474199
0.75900006 0.0046879365 0.14921968 15790568
0.76049995 0.0046973182 0.14417213 14605784
0.75899994 0.015602767 0.1479505 15461606
0.76054549 0.015218442 0.14304803 14342870
0.75900006 0.022456264 0.14921968 15066848
0.76089287 0.02537596 0.14481796 14277333
0.76247197 0.035055444 0.14543401 14408663
0.76421219 0.045029014 0.14486805 14803164
0.76550019 0.054905936 0.14511062 15000288
0.76524329 0.065173291 0.14520745 15000545
0.76521623 0.074760497 0.14447768 15066337
0.7664063 0.084912054 0.14461456 15395044
0.76786363 0.093479015 0.14540435 15460579
0.77158338 0.097941972 0.1434132 16184559
0.77513325 0.10356551 0.14609852 14605270
0.78330004 0.10752877 0.14335552 12105649
0.78763652 0.11222964 0.14646576 11776941
0.79226321 0.11661742 0.14452948 11711405
0.78659999 -0.14337789 0.15464631 9999506
0.79359996 -0.14744315 0.15509313 10262677
0.75825 -0.13111009 0.15705919 13354435
0.76366669 -0.13324139 0.15281761 12302517
0.77566671 -0.13896596 0.15451586 12302517
0.74613631 -0.12306187 0.15494885 15000287
0.75200003 -0.12826894 0.15487722 14341843
0.7458216 -0.11493015 0.15479851 15724267
0.74716651 -0.10557804 0.15476431 15987695
0.74892849 -0.098190032 0.15625621 16119281
0.75027275 -0.093644142 0.15468806 16119280
0.75185728 -0.085194118 0.15530559 16053231
0.75338888 -0.074712761 0.1542877 15921644
0.75370008 -0.065038592 0.15435137 15658728
0.75502777 -0.055430498 0.1546226 15526885
0.75647229 -0.044912163 0.15491875 15263972
0.75759995 -0.035224922 0.15515028 15263716
0.75852811 -0.025501596 0.15534024 15263717
0.75861126 -0.014849873 0.15535735 14671579
0.75873321 -0.0050826231 0.15538271 13948369
0.75847238 0.0046836031 0.15532899 13816526
0.75766665 0.015322033 0.15516347 14145748
0.75844848 0.024981597 0.15547684 14079698
0.76000005 0.028712958 0.15119545 14540504
0.75895447 0.034569208 0.15736741 13750990
0.76021439 0.035459008 0.15263598 14408662
0.75894725 0.045411345 0.15790573 14145492
0.76025009 0.044443116 0.15317261 14935006
0.75856256 0.055296063 0.15778989 14474713
0.76056248 0.054774377 0.15308711 15264227
0.75879991 0.064550743 0.15841706 14606042
0.76072729 0.065571673 0.15344311 15527142
0.75900006 0.071911447 0.15928841 14737628
0.76115388 0.075429074 0.15443796 15395301
0.76269442 0.085059941 0.15440504 15921132
0.76463336 0.095120564 0.15479547 15723751
0.76700002 0.10157072 0.15745835 15921390
0.77440912 0.10590067 0.15447307 13684169
0.78100002 0.10995308 0.15171655 11645355
0.78605556 0.11404344 0.15494511 11776941
0.7902 0.11864779 0.15535265 11842734
0.79364288 0.12454364 0.15476801 11645867
0.78560007 -0.14319561 0.16364244 10130321
0.79363638 -0.14753501 0.16480759 10262163
0.75819999 -0.13110143 0.16503751 13552328
0.76200008 -0.13354234 0.16497147 12236467
0.77320004 -0.1380419 0.1657588 12499383
0.74780953 -0.12288686 0.16486041 14802395
0.75183338 -0.12794788 0.16599807 14276050
0.74755865 -0.11464275 0.16555333 15526631
0.74785709 -0.10530205 0.16453694 15855853
0.74899983 -0.09686359 0.16487138 15855851
0.75000006 -0.091837108 0.16481283 15790059
0.7503438 -0.084729321 0.16475362 15855852
0.75263906 -0.074636973 0.16470721 15789802
0.75379997 -0.065047301 0.1649626 15723754
0.75488871 -0.055422287 0.16520135 15394789
0.75502753 -0.044827577 0.16523059 15132386
0.7560336 -0.035151768 0.16544923 15066338
0.75706249 -0.025673352 0.16512068 15066596
0.75796664 -0.014836802 0.16498609 15000801
0.75812006 -0.0050788419 0.16501933 14079698
0.75803339 0.0046806005 0.16500112 13619404
0.75700003 0.015308486 0.16477585 13882576
0.75728005 0.025065519 0.16483621 14079699
0.75810009 0.034853227 0.16501449 13948369
0.75773335 0.045477889 0.16493411 14211541
0.7572 0.055196453 0.16481844 14606299
0.75743324 0.064966463 0.16486868 14803423
0.75833338 0.074659772 0.16521268 14934750
0.76000005 0.077195436 0.16053611 14803421
0.75881249 0.083848082 0.16705751 15329507
0.76040006 0.085425064 0.16239987 15197923
0.759 0.095306404 0.16787642 14868957
0.7605238 0.094861932 0.16299826 14933979
0.75900006 0.10152532 0.16876484 14803421
0.76327777 0.1031926 0.16494593 15197665
0.7728889 0.10780765 0.16380672 12631995
0.77766675 0.11130434 0.16441594 11842734
0.78541678 0.11502185 0.16467662 11842991
0.79000002 0.11861776 0.1645613 11777198
0.77733332 -0.14168881 0.17829819 12039858
0.78600001 -0.1448056 0.1753803 9933710
0.7918334 -0.14803997 0.1739015 10130576
0.75757152 -0.13124658 0.17528664 13420999
0.76363653 -0.13480724 0.17564061 12763581
0.77350003 -0.1391793 0.17560582 12105394
0.74866664 -0.12244292 0.17464685 14473943
0.75130773 -0.1270704 0.17530578 14079188
0.74850005 -0.11482181 0.17438941 14539479
0.75000006 -0.11358907 0.17876141 14276820
0.74899983 -0.10544094 0.17363468 14868701
0.75000006 -0.1030963 0.17779991 14671065
0.74900001 -0.097754218 0.17141193 15000799
0.75111121 -0.094772197 0.1759358 14671578
0.75231272 -0.085391924 0.17465556 14474455
0.75383335 -0.074755482 0.17467618 14803164
0.75471991 -0.065127149 0.17488146 15000030
0.75469983 -0.055409025 0.17487463 15329252
0.75469983 -0.044807099 0.17487459 15000800
0.75624025 -0.035161626 0.17523322 15132132
0.75688237 -0.025237981 0.17475641 15000547
0.75777769 -0.014832194 0.17470184 15000548
0.75839996 -0.0050804685 0.1748445 14539995
0.75797218 0.0046802554 0.17474598 13816526
0.75700003 0.015308484 0.17452267 13750991
0.75670016 0.025044918 0.17445247 13553356
0.75658345 0.034782887 0.17442495 13619406
0.75636131 0.045396347 0.17437382 13948116
0.75643343 0.055140331 0.17439036 14342872
0.75666684 0.064900629 0.17444463 14803164
0.75706249 0.075014576 0.17475809 15131357
0.75838232 0.084839031 0.17463197 15460322
0.75900018 0.094589949 0.17484045 14802907
0.76000005 0.099879913 0.17521429 14671578
0.76243752 0.10355112 0.17522137 14934751
0.77075005 0.10851004 0.17498906 11842737
0.78820002 0.11797996 0.17673141 11777198
0.79000002 0.11861777 0.17103422 11777198
0.79371423 0.1245542 0.175218 11579819
0.78900003 -0.1512036 0.18836482 9868174
0.76900005 -0.14016984 0.18899077 12763585
0.77446151 -0.14256331 0.1857277 10657951
0.78590912 -0.14760327 0.18461274 10065555
0.79000002 -0.14954583 0.18120594 9999762
0.75613326 -0.13216321 0.18512024 13618893
0.76362503 -0.13695736 0.18453547 12697791
0.77000004 -0.13854954 0.18022361 12368310
0.75220001 -0.12478198 0.18486656 13882065
0.75216657 -0.1150912 0.18485831 14211285
0.7518667 -0.10448251 0.18478329 14539993
0.7536 -0.095021017 0.18520696 14671579
0.75399983 -0.085156776 0.18468139 14868703
0.75430536 -0.074803181 0.18449551 14868960
0.75423318 -0.065086327 0.18447812 15263717
0.75399983 -0.055357281 0.18442173 15131874
0.75483328 -0.044812612 0.184626 15066339
0.75666678 -0.03518137 0.18507455 15198180
0.75700003 -0.025450977 0.18515553 14935008
0.75727773 -0.014823058 0.18522224 14737629
0.75779998 -0.005076448 0.18535013 14540251
0.75747216 0.0046772975 0.18527012 13750737
0.75647241 0.015296287 0.1850258 13750737
0.75600034 0.025022212 0.18491098 13487565
0.75600034 0.034756169 0.18491097 13553358
0.75594479 0.045371562 0.18489709 13619151
0.75600034 0.055108983 0.18491097 13816528
0.75600034 0.064842932 0.18491097 14013650
0.75655574 0.075518936 0.18504657 14078929
0.7579 0.085410327 0.18537532 14934495
0.75856 0.093866952 0.18486112 14605789
0.76000005 0.098100737 0.1876685 14211547
0.76381248 0.10217372 0.18503425 14474716
0.77250004 0.10785349 0.18533044 12303290
0.77649999 0.11144129 0.18447031 11777198
0.78518754 0.11629187 0.18515547 11711405
0.78900003 0.12031468 0.18651776 11645612
0.79111999 0.12486293 0.18457264 11711405
0.79302776 0.13485423 0.1846839 11645612
0.78780001 -0.15171246 0.19526947 10131346
0.79358828 -0.15711237 0.19459432 9934734
0.76900005 -0.14016984 0.19979224 12368310
0.7741819 -0.14391656 0.19520594 9736590
0.78100008 -0.14784215 0.19467813 10065553
0.75722224 -0.13270712 0.19525419 14605015
0.7646364 -0.13840166 0.19474818 13420743
0.75466657 -0.12519269 0.19518571 15329251
0.75413871 -0.11539361 0.19504826 15000287
0.75369436 -0.10473803 0.1949347 14934751
0.75399983 -0.095072657 0.19501254 15066337
0.75386101 -0.085349269 0.19497596 15197927
0.75333339 -0.074708611 0.19483943 14868961
0.75320011 -0.064996295 0.19480477 15263719
0.75388879 -0.055348471 0.19498391 15000547
0.75447208 -0.044792566 0.19513352 15066597
0.75566673 -0.03513597 0.19544144 14869219
0.75627798 -0.025425784 0.19560048 14934754
0.75700003 -0.014818074 0.19490241 14671836
0.75681484 -0.0048737922 0.19524755 14342870
0.75594461 0.0046687396 0.19551243 13684941
0.75494444 0.015266205 0.19525424 13684944
0.75469989 0.024978956 0.19519143 13553615
0.75477767 0.034699522 0.19521099 13619921
0.75436085 0.045277156 0.19510472 13750994
0.75580025 0.055095103 0.19547735 13948115
0.75600034 0.064842932 0.19552985 14342870
0.75656265 0.07529825 0.19512135 14145492
0.75796008 0.085417941 0.19514972 14671583
0.75894731 0.093289472 0.19456236 14868706
0.76022232 0.097536363 0.19573279 14409182
0.76488245 0.1023182 0.19513807 15001319
0.77327275 0.10804329 0.19497719 12961735
0.77700001 0.11120891 0.19368531 11908781
0.78612506 0.11608557 0.19538379 11777195
0.78900003 0.12031468 0.19021188 11579819
0.79192007 0.12447139 0.19499582 11711403
0.79296654 -0.16495882 0.20509006 9737358
0.78736377 -0.15172958 0.20506507 9933967
0.79194444 -0.15733042 0.20482528 9868687
0.76900005 -0.14016984 0.20159249 13025987
0.77472728 -0.14451547 0.20622446 10263195
0.78025001 -0.14770018 0.20362806 9999504
0.75643754 -0.13268061 0.20504808 14408409
0.76345462 -0.13818753 0.20598342 13289929
0.75348276 -0.12487334 0.20530887 15526887
0.75383866 -0.11548856 0.20484732 15394788
0.75429982 -0.10482118 0.20480262 15066336
0.75459999 -0.095149063 0.20488459 15066336
0.75328583 -0.08515919 0.20528199 15066593
0.7527225 -0.074647024 0.2052539 14868959
0.7530002 -0.064979196 0.2053306 15066340
0.75378114 -0.055560652 0.20499192 15066339
0.75393736 -0.044542454 0.20503429 14803424
0.75396144 -0.035192128 0.20491369 14737376
0.75496674 -0.025380468 0.20498158 14606045
0.75655568 -0.014809051 0.20452738 14408920
0.75639302 -0.0052578035 0.20480008 14079698
0.75506663 0.0046614576 0.20501062 13750735
0.75399983 0.015247818 0.20472075 13553613
0.75396144 0.024886953 0.20491369 13356749
0.75399983 0.034664217 0.20472074 13554128
0.75419986 0.045267001 0.20477596 13751250
0.7541998 0.054977763 0.20477416 14211544
0.75516665 0.064774148 0.20503673 14277081
0.75652951 0.07572443 0.2047815 14342873
0.75770003 0.085388951 0.20483732 14671839
0.75892848 0.092124932 0.20567784 15066341
0.76033342 0.096483201 0.20477898 15198441
0.76462513 0.10228139 0.2049191 15593713
0.77272725 0.10780305 0.20487165 13554130
0.77724999 0.11124469 0.20375696 11580078
0.78577781 0.11532959 0.20455858 11711148
0.79000002 0.11861777 0.20571053 11776941
0.78645456 -0.15172265 0.21486908 9803152
0.79160005 -0.15726227 0.21492979 9671565
0.77372736 -0.14466158 0.21419054 10789536
0.75527769 -0.13236648 0.21479164 14736860
0.76200002 -0.13800433 0.21491973 13618636
0.75276941 -0.12501143 0.21475556 15461095
0.75377131 -0.1152095 0.21448967 15526374
0.75458312 -0.10486136 0.21459416 15197409
0.75416648 -0.095093891 0.21447557 15065823
0.75287104 -0.085380815 0.21481839 14934751
0.7519334 -0.074568599 0.21472129 15000546
0.75260007 -0.064943545 0.21491131 15000544
0.7531178 -0.055084631 0.21443625 14934750
0.75314718 -0.044923365 0.21444482 14868959
0.75382751 -0.03492792 0.21453139 14605788
0.75452757 -0.025366459 0.21457987 14211029
0.75575006 -0.014792404 0.21492682 14277078
0.75600034 -0.0050645466 0.21499777 13882577
0.75477767 0.0046593221 0.2146493 13553356
0.75352776 0.015237391 0.21429375 13356236
0.75310349 0.024987135 0.21432497 13356492
0.75338894 0.034636714 0.21425366 13488336
0.75424981 0.045269839 0.21449898 13423312
0.75386655 0.054953165 0.21439086 13620434
0.75461102 0.064726405 0.21460199 14146008
0.75600034 0.075461783 0.2149978 14211543
0.7566002 0.085264705 0.21516752 14540510
0.75862497 0.092818081 0.21507767 14935012
0.76050007 0.097453609 0.21449657 15000805
0.76494449 0.10232527 0.21515185 15658993
0.77345467 0.10806889 0.21494204 13158858
0.77800006 0.11135204 0.21487969 11251117
0.78711116 0.11572906 0.21554986 11645612
0.79079998 0.11873788 0.21471147 11645612
0.78783339 -0.15128787 0.22435999 9868174
0.79374993 -0.15676172 0.22480665 9802638
0.7753334 -0.14465317 0.22593723 9999761
0.78240001 -0.14810719 0.22525537 9933967
0.75400001 -0.13260891 0.2249722 14473943
0.7633 -0.13841923 0.22421961 13157827
0.75219375 -0.12494953 0.22462222 15461352
0.75366664 -0.11531904 0.22492021 15592681
0.75399983 -0.10478085 0.22501969 15132386
0.75363332 -0.095027521 0.22490945 15000801
0.75294465 -0.085245267 0.22470501 15000546
0.75269479 -0.074643664 0.22463144 15066338
0.75167739 -0.064752765 0.22452389 14935008
0.7513904 -0.055271231 0.22498794 14869217
0.7530002 -0.044706233 0.22472146 14869217
0.75396651 -0.035055593 0.22501089 14474458
0.75511098 -0.025387734 0.22535044 14079700
0.75508332 -0.014780717 0.22533976 14013907
0.7549001 -0.0050579575 0.22528499 14013650
0.75358331 0.0046539921 0.2248936 13487818
0.75316685 0.015231033 0.22477123 13355979
0.75280017 0.024915133 0.22466271 13027015
0.75225019 0.034582827 0.22449708 13422030
0.7525835 0.045170579 0.22459473 13488336
0.75306678 0.054895539 0.22473963 13619666
0.75368571 0.064519979 0.22479971 13619666
0.75586683 0.075449504 0.22469242 14079957
0.75688004 0.085295841 0.22499427 14540508
0.75850004 0.09322688 0.22426416 14803940
0.76025009 0.097688213 0.22599594 14803426
0.76368755 0.10204625 0.22500058 15527149
0.7735455 0.10791696 0.22500692 13553358
0.77800006 0.11135204 0.2230756 11250603
0.78590912 0.11516237 0.22492357 11579819
0.79049999 0.11869284 0.22480972 11579819
0.78833342 -0.15107584 0.23526324 9802894
0.76900005 -0.1419701 0.23759735 10855071
0.77416676 -0.14444248 0.23406254 10986656
0.78225005 -0.14807878 0.23344669 9737103
0.75404358 -0.13315094 0.23535338 14540251
0.76200008 -0.13889392 0.23454106 13420998
0.75225824 -0.12496121 0.23492421 15329510
0.75357568 -0.11554533 0.23507658 15461097
0.75399983 -0.10478087 0.23472795 15263972
0.7539199 -0.095062837 0.23470341 15132129
0.75356668 -0.085315816 0.23459436 15000802
0.75308841 -0.074476324 0.23506655 14868704
0.75155181 -0.064977877 0.23499738 14869214
0.7510646 -0.054997493 0.23540382 14803679
0.75329036 -0.044864159 0.23467836 14672096
0.75475997 -0.035091877 0.23496576 14605790
0.75499994 -0.025385683 0.23504066 14079701
0.75373334 -0.014755146 0.23464552 13750993
0.7530691 -0.0049234196 0.23516721 13685714
0.7530002 0.0046508778 0.23529799 13553357
0.75383323 0.015245424 0.23467605 13421515
0.75342858 0.025124809 0.23511648 13224394
0.75286132 0.03461118 0.23525514 13421772
0.7519446 0.045132071 0.2349707 13619151
0.75319248 0.054770522 0.23468114 13816530
0.75561297 0.064955316 0.23506123 13816531
0.75691676 0.07555379 0.23475061 13948117
0.75713336 0.085324079 0.23481689 14540253
0.75857902 0.092777535 0.23549876 14869220
0.76040018 0.097262785 0.23493972 15000806
0.76399994 0.10230443 0.23478614 15724786
0.77345461 0.10806889 0.23485728 13290187
0.77700001 0.11120891 0.23825011 11316396
0.78553855 0.11540515 0.23548968 11645353
0.79000002 0.11861777 0.23391397 11579561
0.78616667 -0.15066062 0.24565864 9671051
0.76700002 -0.14160086 0.24505512 11381416
0.77766675 -0.14721115 0.24482132 9868174
0.75428587 -0.13295224 0.24524061 14341846
0.7610001 -0.13871165 0.2449239 12894656
0.7511667 -0.12461042 0.24527313 15395050
0.75311112 -0.11523215 0.24502748 15592685
0.75399983 -0.10478085 0.2444361 15329511
0.75399983 -0.095072657 0.24443613 15001057
0.75399983 -0.085364446 0.24443613 14803166
0.75330305 -0.074786469 0.24493091 14737375
0.75217253 -0.065029748 0.2454533 14869215
0.7531001 -0.055289373 0.24502704 14803423
0.754457 -0.044665299 0.2447107 14671838
0.75616682 -0.035158124 0.24513975 14540252
0.75672227 -0.025441898 0.24532001 14145494
0.75541669 -0.014789262 0.24489795 13948114
0.75415379 -0.0051889475 0.24516614 14013905
0.75366664 0.0046548387 0.24521135 13487819
0.75374985 0.015242862 0.24435401 13356493
0.75340754 0.024739072 0.24473353 13356237
0.75283885 0.034695413 0.24511072 13553615
0.7529335 0.045190971 0.24497132 13948628
0.7545861 0.055130564 0.24477895 14014164
0.75666678 0.064901672 0.24530064 14145493
0.7569167 0.075552866 0.24538094 14342873
0.75603336 0.08519958 0.24509217 14868962
0.75777781 0.093940027 0.24549484 15000805
0.76000005 0.099286854 0.24460208 15592943
0.76333344 0.10320198 0.24507636 15790065
0.77240002 0.10802037 0.24425295 13092808
0.77714288 0.11201026 0.24479358 11382443
0.7852 0.11643125 0.24443689 11579818
0.78900003 0.12031468 0.24747086 11448233
0.79175001 0.1249069 0.24462248 11448232
0.78540003 -0.15125206 0.25480309 9736589
0.76540005 -0.14130548 0.2544046 11775919
0.77471429 -0.14639409 0.25439054 9802127
0.78133339 -0.14973436 0.25786921 9802383
0.75500005 -0.13389158 0.25467581 14210001
0.76120007 -0.13874809 0.25479013 12960191
0.74900001 -0.12337367 0.25508916 15132132
0.7501334 -0.1252587 0.2552993 15197669
0.74900001 -0.11723669 0.2594727 15395305
0.75089478 -0.11461628 0.25512937 15526635
0.75305402 -0.10476603 0.2548705 15395048
0.75399983 -0.095072657 0.25502691 15066594
0.75399983 -0.085364446 0.25502691 14934753
0.75302869 -0.074805371 0.25482467 14934754
0.75219244 -0.064772263 0.25509349 14671837
0.75355554 -0.05532296 0.25487685 14803678
0.75427759 -0.044781506 0.25512031 14803422
0.75648016 -0.03517222 0.25497991 14408921
0.75700003 -0.025450977 0.25515544 14079698
0.75606477 -0.014658171 0.25501093 14079698
0.75521439 -0.0048718341 0.25512198 13816526
0.75372213 0.0046540373 0.25493261 13553611
0.7530002 0.015227597 0.25468862 13422026
0.75323337 0.02493096 0.25476807 13290697
0.75322872 0.034552738 0.25489306 13816786
0.75333333 0.045215119 0.25480291 14014422
0.75446659 0.054999091 0.2551848 14146008
0.75616699 0.064857744 0.25487387 14211544
0.75560009 0.075546943 0.25544024 14343128
0.75439274 0.084826097 0.2548449 14606303
0.75748277 0.094783649 0.25464451 14935526
0.76000005 0.099879913 0.2570563 15198698
0.7640667 0.10399736 0.25515175 15592172
0.77220005 0.10871418 0.25485659 11710127
0.77650005 0.11235038 0.25627288 11579051
0.78500009 0.1169505 0.25448352 11579562
0.78900003 0.12031468 0.25485909 11579562
0.79170001 0.12536244 0.25526842 11448233
0.78644449 -0.15194368 0.265688 9473675
0.79358828 -0.15776786 0.26497251 9671052
0.76850003 -0.14187779 0.26173091 12039088
0.77390915 -0.14502268 0.26595685 9737103
0.78200006 -0.14986214 0.2626667 9802383
0.75543749 -0.13394465 0.26457131 14210772
0.76228577 -0.13869183 0.26560321 13223621
0.7485925 -0.12392327 0.26608041 15527145
0.75030005 -0.12885755 0.26378646 15263716
0.74880648 -0.11505727 0.26602083 15395560
0.75000006 -0.11177478 0.26297951 15658220
0.74900001 -0.10788509 0.26794758 15790063
0.75112909 -0.10372666 0.26434937 15592427
0.75316679 -0.094966404 0.26532236 15395305
0.7537058 -0.08553791 0.26525334 14934752
0.75389987 -0.074764282 0.26470029 15000546
0.7533201 -0.065006994 0.26449755 14803424
0.75343752 -0.055314664 0.26486787 14803424
0.75396651 -0.044764105 0.26472342 14737632
0.75576675 -0.035139445 0.26446858 14408665
0.75630575 -0.025428182 0.26465797 13882577
0.75597173 -0.014924526 0.26466897 13816784
0.75585216 -0.0052607199 0.26499248 13487818
0.75439996 0.0046578855 0.26487795 13619149
0.7536 0.015239964 0.26459593 13422026
0.7538799 0.024952328 0.2646935 13487818
0.75416648 0.034671534 0.26479405 13619406
0.75403321 0.045257196 0.26474687 13882837
0.75511992 0.055045668 0.26512927 13817044
0.75569451 0.064817421 0.26444495 13948373
0.75580668 0.07529936 0.26519889 14013909
0.75596315 0.085389093 0.26503205 14408667
0.75758618 0.094122164 0.26495481 14606047
0.76000005 0.099879913 0.26506257 15132392
0.76424998 0.10327497 0.26475221 15132392
0.77200007 0.10796475 0.26545182 12500413
0.77687508 0.11187489 0.26412511 11381673
0.78523076 0.11663393 0.26494873 11579562
0.78900003 0.12031468 0.26501793 11579562
0.7929585 0.12479219 0.26518628 11448233
0.78659999 -0.15166673 0.27525932 9539980
0.79366672 -0.1576744 0.27494749 9474188
0.76900005 -0.1419701 0.27000171 9408142
0.77380008 -0.1446735 0.27530468 9605520
0.74875003 -0.13122025 0.27603716 14276824
0.75581819 -0.1343935 0.27502701 13684174
0.76187503 -0.13820393 0.27396712 13355465
0.74719983 -0.1247026 0.27534127 15329512
0.74799997 -0.1146703 0.27521309 15329512
0.74900001 -0.10735375 0.2755723 15132133
0.75023538 -0.10327569 0.27457085 15461097
0.75186133 -0.095681101 0.27542362 15461098
0.75288904 -0.085236959 0.27521193 15263718
0.75397205 -0.074770778 0.27443293 15000543
0.75356668 -0.06502872 0.27428418 15132386
0.7534706 -0.055317309 0.27450931 15000803
0.75436091 -0.044787534 0.27457607 14737632
0.75536662 -0.035120767 0.27494222 14474460
0.75613916 -0.025422188 0.27522203 13948115
0.75611138 -0.01480009 0.27521217 13882578
0.75683337 -0.0050701285 0.27547559 13421772
0.75627798 0.0046696272 0.27527261 13290186
0.75494432 0.01526588 0.2747871 13553358
0.75416654 0.024960913 0.27450413 13421772
0.75402761 0.034665462 0.27445322 13816530
0.75449985 0.045287147 0.27462614 14079702
0.75600034 0.055108979 0.27517128 13750993
0.75597262 0.064840399 0.27516112 13619408
0.75600034 0.075461775 0.27517128 13948116
0.75633359 0.085234493 0.27529225 14474460
0.75772417 0.094200514 0.27527791 14803170
0.76000005 0.099879913 0.27484801 15263976
0.76376921 0.10326731 0.27545163 15329512
0.77190006 0.10777019 0.2746326 12171703
0.77583337 0.11104194 0.27512431 11119013
0.78500015 0.115927 0.27507436 11448233
0.78718185 -0.15186264 0.28509578 9539728
0.76900005 -0.1419701 0.28170329 9736337
0.77466679 -0.14519714 0.28540599 9539726
0.74833339 -0.13114725 0.28464219 14277081
0.75657147 -0.1348698 0.28385174 14079445
0.76210004 -0.13820049 0.28595254 13223366
0.74706239 -0.12491332 0.28503424 15066597
0.74758804 -0.11418289 0.28461704 15461098
0.74899983 -0.10661873 0.28518954 15526891
0.75000006 -0.10261554 0.28483877 15527146
0.74900001 -0.092688777 0.28928089 15329512
0.75021213 -0.095712066 0.28495821 15395559
0.75113153 -0.084853388 0.28538054 15395303
0.75243258 -0.074736044 0.28460565 15395045
0.7530002 -0.064979188 0.28465608 15263973
0.75327796 -0.055303216 0.28476012 15066594
0.75438869 -0.044788688 0.28517947 15066593
0.75526679 -0.035116669 0.28551042 14540250
0.75582373 -0.025618948 0.2854619 14145493
0.75663346 -0.014809297 0.28514403 14079444
0.75711995 -0.0050723301 0.28532782 13618894
0.75539392 0.0049029579 0.28515783 13224393
0.75425696 0.015128241 0.28500539 13224393
0.75419986 0.024961861 0.28511029 13421772
0.75388879 0.03465911 0.28499195 13684944
0.75506055 0.045080468 0.28503329 14013908
0.75596178 0.055242136 0.28509465 14013908
0.75561142 0.0648086 0.28564152 13882576
0.75486112 0.075347692 0.28535616 14079702
0.75470012 0.085049316 0.28529453 14540255
0.7569167 0.095050097 0.28524697 14737633
0.76361126 0.10393545 0.28508461 14210774
0.77200007 0.10868602 0.2846064 11119014
0.77558333 0.11191583 0.28501788 11185062
0.78508335 0.11696303 0.28483114 11382440
0.78866673 0.12087953 0.2876763 11316647
0.79195839 0.12524943 0.28439325 11316647
0.78733337 -0.15170512 0.29446137 9474188
0.79288888 -0.15741631 0.29478067 9408395
0.77542865 -0.14497487 0.29456136 9539724
0.78133339 -0.14790525 0.2962822 9474188
0.74733335 -0.13097198 0.29475895 14671326
0.75600004 -0.1345145 0.29501775 13619152
0.76242864 -0.13795538 0.29472014 13026499
0.74645722 -0.12472812 0.29453865 14868961
0.74684364 -0.11482184 0.2943469 15395305
0.74764681 -0.10538938 0.29508796 15395305
0.74851441 -0.095281713 0.2953499 15395305
0.75000006 -0.094568297 0.29142287 16250614
0.7488749 -0.084929883 0.29704821 15526634
0.75000006 -0.084618963 0.29244706 15395305
0.74899995 -0.07609871 0.29804799 15592427
0.75067991 -0.073845208 0.2931619 15329512
0.74900001 -0.069017567 0.29980141 15263719
0.75162506 -0.065188281 0.29490963 15461353
0.75247246 -0.055244103 0.29502356 15263975
0.75338894 -0.044729318 0.29538399 15066339
0.75396144 -0.035192128 0.29493064 14869215
0.75496876 -0.025158422 0.2947889 14408665
0.75711113 -0.014817975 0.29507256 14211285
0.75763333 -0.005076346 0.29527634 13750733
0.7553333 0.0044202618 0.29478022 13421515
0.75425792 0.015396745 0.2946713 13421772
0.75415379 0.025095992 0.29500529 13750737
0.75380546 0.034655247 0.29554754 13948116
0.75454277 0.045314562 0.29480025 14145494
0.75463331 0.055008184 0.2944569 14079701
0.75366664 0.064641945 0.29549253 14277080
0.75283355 0.075144477 0.29516643 14277081
0.75270009 0.084824719 0.29511473 14474461
0.75590634 0.095035017 0.29487792 14934753
0.76346678 0.103916 0.29486343 14144721
0.77150005 0.10861563 0.29526353 11118499
0.77546155 0.1123881 0.29475048 11316391
0.78280002 0.11680583 0.2951844 11382440
0.78828579 0.12192055 0.29549021 11316647
0.79038888 0.12731178 0.29467872 11316647
0.79288894 0.1356907 0.29475018 11250854
0.7934801 -0.16506699 0.30460408 9342602
0.78850007 -0.15110779 0.30546021 9408395
0.79209083 -0.1564333 0.30499721 9408395
0.77442855 -0.14426956 0.30582938 9605263
0.78350002 -0.14831541 0.30535626 9473932
0.74716669 -0.13094278 0.30519053 14408411
0.75624996 -0.13519345 0.30446985 14013652
0.76450008 -0.13934962 0.30511019 13224135
0.74663883 -0.12473413 0.30497503 15000547
0.74600023 -0.11502074 0.30471304 15329512
0.74658328 -0.10549629 0.30495101 15329512
0.74716645 -0.095085017 0.30518878 15395305
0.74763882 -0.084643394 0.3053807 15395305
0.74819982 -0.07507427 0.3056103 15395305
0.74841189 -0.06566529 0.30595422 15461098
0.75000006 -0.06325718 0.30078694 15329769
0.74870831 -0.05555262 0.30720589 15592684
0.75029421 -0.054515857 0.30207533 15527404
0.74900001 -0.047538146 0.30813015 16184821
0.75137508 -0.044225279 0.30465066 15527146
0.75235295 -0.034876868 0.30481574 15395303
0.75440538 -0.02547962 0.30477938 15000547
0.75667661 -0.015018753 0.3052696 15000547
0.75703847 -0.0049356339 0.30499479 14539996
0.75463879 0.0046577808 0.30470777 13684944
0.75363886 0.015240159 0.30430368 13553358
0.75328124 0.024986295 0.30487442 13948116
0.75277168 0.034482293 0.30558953 14342874
0.7535882 0.045438491 0.30454215 14408667
0.75344831 0.054800592 0.3043783 14145495
0.7530002 0.064585611 0.30492809 14211289
0.7530002 0.075162336 0.30492797 14277083
0.75293112 0.0847288 0.30562851 14606048
0.75591439 0.094849795 0.30479133 15066084
0.75900006 0.10152532 0.3082462 15921389
0.76411772 0.10421529 0.30468795 13947601
0.77300006 0.1088268 0.3057887 10921378
0.77622229 0.11190707 0.30484352 11315879
0.78500009 0.11695051 0.30594325 11185063
0.78871435 0.1210627 0.30409238 11250855
0.79088235 0.12572221 0.30578426 11185062
0.79290617 0.13460164 0.30473122 11250854
0.79313785 0.14521033 0.30523852 11185061
0.78880006 -0.15116528 0.3157326 9408395
0.77475005 -0.1443938 0.31509557 9145225
0.78359997 -0.14833435 0.31548747 9276554
0.74880004 -0.13122901 0.31549889 13816276
0.75515389 -0.13493009 0.3151744 13553103
0.76339996 -0.13914911 0.31557032 10921382
0.74716651 -0.12482174 0.31568417 14868705
0.74686658 -0.1151545 0.31555831 14934241
0.74686104 -0.10553762 0.31555542 14803169
0.74699986 -0.095064394 0.31561384 14934754
0.74699986 -0.084571958 0.3156139 14869218
0.7470665 -0.074960485 0.31564176 15000547
0.74713874 -0.065347984 0.31567183 15263976
0.7478528 -0.05500805 0.31540674 15263720
0.74888897 -0.044462472 0.31465843 15395306
0.74899995 -0.035106383 0.31551206 15000804
0.75000006 -0.033467721 0.31108743 15197926
0.74900001 -0.02912721 0.317774 15066597
0.75151354 -0.024717074 0.31459194 15132133
0.75420517 -0.014692296 0.31496286 15198183
0.75494117 -0.0051621804 0.31470084 14934754
0.75287497 0.0048239552 0.31518283 14211541
0.74900001 0.016900128 0.31908908 13685197
0.75173694 0.01501625 0.31441465 13684941
0.74900001 0.024132997 0.31843156 14145750
0.7511251 0.024859792 0.31383702 14145494
0.74900001 0.034434352 0.31908908 14277081
0.75064522 0.034652486 0.31434587 14408411
0.75121439 0.045088153 0.31475145 14671839
0.75177801 0.054948099 0.31513417 14342875
0.75224417 0.064628512 0.31505546 14343131
0.74900001 0.079146624 0.31908908 14211290
0.75160974 0.074915253 0.31478888 14343132
0.74900001 0.083822429 0.3185046 14671841
0.75063652 0.085549682 0.31499076 14540256
0.75394291 0.09530735 0.31463385 14869219
0.75809091 0.10221073 0.31537691 15263461
0.76350009 0.10588318 0.31489587 12368568
0.77175003 0.10865082 0.31342161 10921378
0.77562505 0.11146803 0.31431219 11053219
0.78553843 0.11653768 0.31485111 11185062
0.78900003 0.12031468 0.31027099 11053477
0.79204011 0.12449053 0.31554648 11185062
0.78900003 -0.1512036 0.32135338 9276809
0.77219999 -0.14328656 0.32499161 8947593
0.78433341 -0.14847314 0.32587644 9210762
0.74825001 -0.13113263 0.32314959 13684689
0.75479996 -0.13475874 0.32508749 13290188
0.76116675 -0.13874201 0.32516229 11645106
0.74760693 -0.12464447 0.32524842 14211033
0.74730754 -0.11502048 0.32550174 14408412
0.74699986 -0.1054061 0.32511139 14408412
0.74699986 -0.095064394 0.32523197 14605790
0.74673331 -0.084542535 0.32511649 14342875
0.74691993 -0.074945472 0.32519749 14671582
0.74699986 -0.065335795 0.325232 14408924
0.74736345 -0.054630317 0.32491216 14737376
0.74811101 -0.044415973 0.32483912 14868962
0.74866664 -0.034809247 0.32508096 14540253
0.7487812 -0.025557375 0.32562354 14605790
0.75000006 -0.022143045 0.32170978 14868961
0.74879164 -0.014657933 0.32688817 14408668
0.75094116 -0.014440585 0.32177591 14868961
0.74849987 -0.0050143027 0.32675999 14276825
0.75080001 -0.0050301789 0.32161197 14803425
0.74891299 0.0052736388 0.32690307 14013909
0.75040001 0.0031698092 0.32237801 14342874
0.74854285 0.015261167 0.32515243 13882323
0.75000006 0.01077752 0.32127085 14276824
0.74856663 0.024776889 0.32503825 13750481
0.74900013 0.034434348 0.32522601 14145753
0.74900007 0.044697035 0.3254323 13882837
0.75000006 0.049404323 0.32214874 14342874
0.74899983 0.054598708 0.32746652 13751509
0.75000006 0.056220815 0.32302666 14408926
0.75004005 0.065209761 0.32479954 14013911
0.74900001 0.078190207 0.32594335 14276828
0.75000006 0.073399752 0.32444796 14408670
0.74899983 0.083822422 0.32409883 14342878
0.75000006 0.088811457 0.32536766 14737636
0.75324005 0.095259935 0.32484433 14737636
0.75825006 0.10209132 0.32413998 14935013
0.76358342 0.10616475 0.32529801 11776691
0.77300006 0.11063641 0.32931358 10855590
0.78633338 0.11745596 0.32456276 11053477
0.7925185 0.12449619 0.32539618 11053476
0.78833342 -0.15107585 0.33492157 9079434
0.76900005 -0.1419701 0.33211011 8553092
0.77262509 -0.14377177 0.33593282 9210764
0.78033334 -0.14771596 0.3351759 9013641
0.75578582 -0.13321546 0.33436522 12895944
0.76228577 -0.13818316 0.33571038 11316654
0.75245005 -0.12499793 0.33483252 13684947
0.74883336 -0.11312083 0.3315815 14671584
0.75150007 -0.11547972 0.3358922 13619153
0.74823529 -0.10444354 0.33329326 13553104
0.75033337 -0.10749217 0.33663726 13553360
0.74757147 -0.09551283 0.33298269 13618896
0.75099999 -0.092934728 0.33752218 13421517
0.74743748 -0.085058875 0.33220381 13552847
0.75287509 -0.084356129 0.33792591 12960453
0.74750006 -0.075004041 0.33157495 13487308
0.75236374 -0.075010449 0.33733693 13158088
0.74794453 -0.065418862 0.33264804 14079703
0.75260007 -0.06494607 0.33824125 13355982
0.7473889 -0.05487223 0.33240041 14276826
0.75083333 -0.055128112 0.33744726 13421517
0.74804759 -0.044537019 0.33319432 14474462
0.75000006 -0.043651149 0.33707273 14277597
0.74885708 -0.035069175 0.332928 14145240
0.75040001 -0.034188624 0.33778015 13750739
0.74899989 -0.025620366 0.33289734 14342619
0.75000006 -0.024713984 0.33757442 13684946
0.7487691 -0.014388011 0.33422774 14145240
0.75000006 -0.016436815 0.3388285 13684689
0.74819994 -0.0050124801 0.33451289 13750739
0.74877262 0.0040680845 0.33373249 13422288
0.75000006 0.0061686411 0.33817011 13027531
0.74900001 0.015146705 0.33223978 13356750
0.75055563 0.015178555 0.33732373 12501956
0.74900001 0.025228886 0.33267808 12764099
0.75069237 0.024441008 0.33765528 12304833
0.74899989 0.034609694 0.33276576 12961993
0.7500667 0.034308206 0.33745405 12501699
0.74900001 0.044556379 0.33216003 13027786
0.75040001 0.044862721 0.33655083 12633030
0.75056523 0.055399951 0.33434945 13093580
0.75107414 0.064908884 0.33423772 13159631
0.75128591 0.07474073 0.33438849 13158861
0.7514444 0.085073672 0.33401299 13488082
0.75520003 0.095155388 0.33438748 13751254
0.76000005 0.099879913 0.3380087 12632260
0.75900006 0.10152532 0.33045661 14540257
0.76372725 0.103787 0.33511353 13553362
0.77100003 0.10818472 0.33568263 10527139
0.77527279 0.11211881 0.33423984 10856356
0.78359997 0.11692572 0.33547813 10921890
0.78875005 0.12096921 0.33671513 10921889
0.79133344 0.12552455 0.33429933 10922146
0.78720009 -0.15085866 0.34457684 8947848
0.77390915 -0.14337333 0.34534779 9474191
0.78075004 -0.14779483 0.34449646 9013384
0.75866669 -0.13177441 0.3415601 11842744
0.76408339 -0.13570088 0.34459355 11842999
0.75791669 -0.1248427 0.3427017 12171966
0.76128578 -0.12577978 0.34698275 11514035
0.75650001 -0.11487007 0.34265223 12172222
0.76033336 -0.11456233 0.34705672 11777719
0.75616664 -0.1050792 0.34250185 12303807
0.7626667 -0.1041924 0.34812176 11843512
0.75780004 -0.094482437 0.3423523 12105914
0.7615 -0.096011311 0.34580654 11580340
0.75900006 -0.085634388 0.34289443 12763587
0.76342857 -0.084006622 0.346174 11974071
0.75850004 -0.075222492 0.34266853 12697795
0.7622 -0.074697055 0.34612441 11908279
0.75800002 -0.068072394 0.34244263 12105916
0.76100004 -0.069232568 0.3455795 12961225
0.75760001 -0.054736216 0.34226194 13816275
0.76120007 -0.054995842 0.34567031 12632258
0.75654548 -0.043871637 0.34275386 14211804
0.76157141 -0.04687399 0.34711352 13356753
0.75536364 -0.035444357 0.34366566 13290701
0.76120007 -0.033612046 0.34923428 12040892
0.75575 -0.025408074 0.34408227 13159372
0.76140004 -0.024706278 0.34932604 12041148
0.75508332 -0.014782213 0.34377989 13290189
0.76150006 -0.014905575 0.34937191 12238273
0.75569999 -0.0050613666 0.34406084 13027020
0.75542867 0.0051708682 0.34431624 11975356
0.76099998 0.0029170187 0.34914252 11119277
0.75505567 0.01527001 0.344652 11646905
0.75613338 0.025026472 0.34514463 11383732
0.75547063 0.03447067 0.34473854 11514548
0.76000005 0.039388001 0.34868374 11119787
0.75549996 0.045345102 0.3430852 11975356
0.7608 0.044773065 0.34869492 11712183
0.7561 0.055116266 0.34247178 12172477
0.76099998 0.054584265 0.347361 11777976
0.75575 0.0648214 0.3423132 12238271
0.76099998 0.067944057 0.347361 11711669
0.75645453 0.075105883 0.34255087 12238015
0.76100004 0.07507012 0.347361 11119789
0.75769997 0.084500082 0.34319532 11975357
0.76128578 0.08553791 0.34723726 11843769
0.75800002 0.093229368 0.34137845 12830921
0.7625556 0.095060319 0.34549436 12501958
0.76550007 0.10195115 0.3422451 12895687
0.77412504 0.1080798 0.34429425 10461857
0.77780002 0.1120524 0.34301251 10725281
0.78450006 0.11595894 0.3458434 10659488
0.78860009 0.12117721 0.34519058 10856354
0.79094124 0.1260581 0.34501645 10921634
0.78840005 -0.15108863 0.35433319 9408396
0.77600002 -0.14235525 0.35239115 9211018
0.7842223 -0.14682408 0.35551161 9474189
0.76750004 -0.13360846 0.35032794 11513520
0.77371442 -0.13520804 0.35536653 10592672
0.76700002 -0.1254455 0.35189527 11514291
0.77320009 -0.1246466 0.35745659 9935515
0.76450008 -0.11518797 0.3507483 11580340
0.77316672 -0.11468184 0.35744151 9803929
0.76666665 -0.10743848 0.35174236 12040891
0.77550006 -0.10413284 0.35791326 10198687
0.76800001 -0.09863583 0.35055616 11909305
0.77375001 -0.094163209 0.35431528 11119533
0.77387506 -0.084673561 0.35437265 11184812
0.76900005 -0.073560864 0.35101262 11316398
0.77312505 -0.075762428 0.35425475 11053226
0.78000003 -0.076439098 0.35968563 11316398
0.76900005 -0.069060251 0.35101262 12698053
0.7727778 -0.064476222 0.35374492 11250864
0.76825005 -0.054607056 0.35067028 11776949
0.77529997 -0.054381203 0.35643154 11185328
0.76500005 -0.042736411 0.35097769 12369604
0.77420008 -0.045059159 0.35737437 10527400
0.76760006 -0.034245793 0.35361028 11646135
0.77200007 -0.03407862 0.35690248 11251376
0.76900005 -0.025404369 0.35461313 11646647
0.77333349 -0.024794495 0.35812137 11120303
0.76900005 -0.015953092 0.35461313 11317170
0.773 -0.016043097 0.35781661 10791085
0.76300001 -0.0057068393 0.35006011 12435139
0.77420008 -0.0051827244 0.35846245 11119535
0.76566672 0.0062176101 0.35337603 11053739
0.77200001 0.0031388816 0.35744327 10922155
0.76381832 0.015037966 0.35303995 10462631
0.76572728 0.024853833 0.35408565 10396837
0.76500005 0.034450777 0.35348868 10790822
0.77000004 0.039004974 0.35687685 10396064
0.76620007 0.045090858 0.35296425 10988458
0.77266675 0.048485398 0.35751113 9606548
0.76766664 0.055066328 0.35220113 10528165
0.77350003 0.053896151 0.35736862 9935515
0.76900005 0.065657914 0.35281289 11185581
0.77399999 0.064272881 0.35691881 9803927
0.76783341 0.074844472 0.35227761 10659238
0.77399999 0.072728634 0.35691881 11252146
0.76880008 0.084839374 0.35272112 11711926
0.77399999 0.087224215 0.35691881 10198687
0.76700002 0.093617603 0.35009971 12567237
0.77340007 0.094582304 0.35501465 12435649
0.78000003 0.097030342 0.35968563 11185582
0.77749997 0.10461131 0.35307118 10856613
0.78380001 0.10631371 0.35776815 10725283
0.78731579 0.11501703 0.35510549 10659489
0.78900003 0.12068409 0.35312286 10659487
0.79100001 0.12529537 0.35558674 10725281
0.7932052 0.15494953 0.35490853 10922146
0.78690004 -0.14454152 0.36286771 9935253
0.79099995 -0.14649606 0.36707366 10001559
0.778 -0.13361558 0.36058465 9803410
0.78583336 -0.13557346 0.36651823 10066839
0.77900004 -0.12375607 0.3628718 10066330
0.78466672 -0.12557165 0.36704361 10066328
0.77900004 -0.11828512 0.3628718 9934745
0.7851001 -0.11461312 0.36681944 9935513
0.778 -0.10629357 0.36058465 9211792
0.78610003 -0.10500667 0.3658132 9672085
0.79000002 -0.10700954 0.36984515 9935766
0.78627276 -0.094954088 0.3635852 9408915
0.79099995 -0.095105536 0.36846161 9671571
0.78536361 -0.084820539 0.36299789 9803158
0.79220003 -0.085053839 0.36902061 9671824
0.78500009 -0.074887194 0.36301586 10000538
0.7906 -0.075628474 0.36827525 9540239
0.78637505 -0.065559641 0.36424068 9606293
0.79000002 -0.061699148 0.36799577 9605778
0.78542858 -0.054904651 0.3640303 9211793
0.79000002 -0.056150932 0.36799577 9276814
0.778 -0.044371307 0.36058465 9080208
0.78588891 -0.045125809 0.36587891 9079951
0.79000002 -0.042280398 0.36984515 8817034
0.77900004 -0.031661592 0.3628718 8816522
0.78525007 -0.035360426 0.36693552 8817035
0.77900004 -0.02527881 0.3628718 8816778
0.78660005 -0.025525901 0.36825344 8751239
0.77880007 -0.016155459 0.36277863 9804190
0.78614289 -0.014731882 0.36777788 8948622
0.78580004 -0.0052651167 0.36696267 9211537
0.77683336 0.0060085845 0.36246964 8948620
0.78485721 0.0041911537 0.36770171 9145741
0.77487504 0.014310566 0.36208567 8619654
0.78300005 0.014917766 0.36840111 8883079
0.77508348 0.024746111 0.36195663 8553860
0.78383332 0.02502577 0.36879316 9014664
0.77480012 0.034714505 0.36182413 8817031
0.78320003 0.035090853 0.36849517 9212043
0.77625006 0.043866072 0.36204642 8882824
0.78350002 0.045190021 0.3674151 9212043
0.77800006 0.055496138 0.36119255 9145740
0.7853334 0.055818968 0.36684602 9211273
0.77883339 0.064979084 0.36097088 9737878
0.78730011 0.064763874 0.36766136 9342858
0.77860004 0.074984051 0.36086273 9672086
0.78719997 0.074151561 0.36743033 9540238
0.79000002 0.078855574 0.36984515 9934996
0.77883339 0.085034974 0.36097088 9935515
0.78600001 0.084896438 0.3661325 10067098
0.79000002 0.085328482 0.36984515 10198681
0.77900004 0.091434985 0.36104813 9935515
0.78609091 0.095277615 0.36534166 10462112
0.79000002 0.093650803 0.36984515 10330524
0.78771436 0.10484114 0.36271653 10527647
0.79166669 0.10620623 0.36753783 10593695
0.78900003 0.11477349 0.36014166 10659489
0.79190481 0.11537216 0.36588573 10593696
0.7920801 0.12449384 0.36525908 10725280
0.79328555 0.13503009 0.36501643 10725280
0.79303432 0.14493518 0.36492792 10790817
0.78900003 -0.13180944 0.37122408 10133145
0.79313332 -0.13503551 0.37577173 10001559
0.78900003 -0.12534472 0.37122408 10066839
0.7932353 -0.12481648 0.37682348 10067095
0.79271436 -0.1150631 0.37562671 10067095
0.79326659 -0.074953236 0.37509087 9803922
0.78866673 0.0064100004 0.37168297 9080457
0.79325002 0.0046658171 0.37624463 9080457
0.78820008 0.0150159 0.37269288 8948871
0.79280007 0.015103774 0.37765282 9080457
0.78866673 0.025178723 0.37291357 9014664
0.79291677 0.025315097 0.37770796 9080457
0.78820002 0.035314865 0.37269288 9146250
0.7917999 0.035474051 0.37717602 9277836
0.78820008 0.044538476 0.3715865 9277836
0.79115379 0.045133587 0.37622797 9277836
0.78900003 0.05104981 0.37122408 9212043
0.79150009 0.055254664 0.37543449 9277836
0.79230011 0.065174475 0.37556094 9474701
