# .PCD v0.7 - Point Cloud Data file format
VERSION 0.7
FIELDS x y z rgb
SIZE 4 4 4 4
TYPE F F F U
COUNT 1 1 1 1
WIDTH 1023
HEIGHT 1
VIEWPOINT 0 0 0 1 0 0 0
POINTS 1023
DATA ascii
0.78900003 -0.072703421 0.10894111 11907748
0.79327285 -0.074926384 0.104739 12105642
0.79263341 -0.064688168 0.10479669 12039849
0.79273349 -0.055416998 0.10481157 12039849
0.78900003 0.087991074 0.10894111 13356484
0.78900003 0.092608728 0.10894111 12763320
0.7935999 -0.15543261 0.11485158 11710376
0.78854555 -0.14373294 0.11793958 13684417
0.79104996 -0.14548548 0.11366693 12170664
0.78794116 -0.1350501 0.11812482 13354685
0.79146671 -0.13500001 0.11298516 12236718
0.78786671 -0.12516513 0.1180048 13552061
0.79182357 -0.12514028 0.11292689 12302254
0.78720009 -0.11481316 0.11650209 13552318
0.79062504 -0.11519295 0.11170988 11315102
0.78603846 -0.10484476 0.1160266 12894389
0.79000002 -0.10516014 0.11092858 12301483
0.78599977 -0.095017292 0.11567406 12959926
0.79033333 -0.095029287 0.11097538 11907494
0.78599995 -0.084741421 0.11552276 12960180
0.79000002 -0.087590799 0.11092858 11578529
0.78633326 -0.075218931 0.11500793 12828337
0.78627789 -0.065090023 0.11499964 13156787
0.78603452 -0.05507632 0.11512183 13156787
0.79000002 -0.051527418 0.11092858 12301734
0.78661537 -0.04514375 0.11653861 13881026
0.79049999 -0.044341739 0.11173854 11972514
0.78680003 -0.034741722 0.11692103 13618625
0.79100001 -0.03492694 0.11199369 11906725
0.78686374 -0.025030566 0.11676287 12765373
0.79091662 -0.024739638 0.111982 11710890
0.78699994 -0.014713448 0.11672091 12107704
0.79049999 -0.015242652 0.11169231 11316648
0.78660005 -0.0052697272 0.11596952 11383983
0.79000002 -0.0052923164 0.11092858 12567484
0.78674078 0.0045528631 0.11640049 11449776
0.7906667 0.0058103073 0.11163865 11713459
0.7869001 0.014992069 0.11693636 11317418
0.79090005 0.015068044 0.11197965 10726050
0.7870869 0.024929995 0.11708479 11447715
0.79138464 0.025624335 0.11226162 11908009
0.78750008 0.035512425 0.11771853 10328725
0.7922858 0.034966242 0.11270262 10723223
0.78592312 0.045257494 0.11636399 10987682
0.79071426 0.043887351 0.11155729 11974318
0.78584361 0.055098385 0.11481916 11383726
0.79000002 0.050189808 0.11092858 12500921
0.78475755 0.065052085 0.11502427 11778484
0.77900004 0.075629987 0.11850228 12895934
0.78549987 0.07503397 0.11414775 11448748
0.77772731 0.086319022 0.11847253 13617854
0.78503996 0.084865227 0.11382446 11381156
0.77850008 0.092288129 0.11842622 14803415
0.78546661 0.095381707 0.11445052 12302256
0.78781253 0.10411313 0.116959 12368818
0.79078573 0.10657198 0.11302124 11710888
0.78900003 -0.1512036 0.12741174 12303027
0.79269999 -0.15497893 0.12457438 10394774
0.77900004 -0.1419926 0.1294442 10856343
0.78562969 -0.14511466 0.12502272 12565681
0.79000002 -0.14954583 0.1201756 11776423
0.7768001 -0.13443993 0.12750047 12961466
0.78264707 -0.13522013 0.12282527 12368048
0.77671444 -0.12495109 0.12620251 13552833
0.78318191 -0.12492012 0.12197041 10986393
0.77569562 -0.1148622 0.12628619 13683648
0.78180003 -0.11505149 0.12167235 11051672
0.77640009 -0.10480355 0.1250799 13024690
0.78120005 -0.10581988 0.12066574 10920603
0.7759335 -0.095113546 0.12529698 13484982
0.78000003 -0.094699033 0.12048038 10460308
0.77616012 -0.085147247 0.12533186 13222580
0.78116673 -0.084779374 0.12066058 11447454
0.77639979 -0.075177513 0.12537092 13091252
0.78200006 -0.07480441 0.12078931 10921109
0.77590919 -0.064891435 0.1257879 13024689
0.78133339 -0.065593511 0.12129499 11643036
0.77541953 -0.054970041 0.12538698 12957870
0.7802 -0.054542083 0.12051127 11707033
0.77511537 -0.045251474 0.12537208 13022635
0.78116673 -0.044548195 0.12066058 11838617
0.77553332 -0.035151534 0.12523018 12300967
0.78200006 -0.034529544 0.12078931 14013124
0.77570838 -0.025323285 0.12541063 11578785
0.78183341 -0.02476131 0.12106789 13422277
0.77608329 -0.015190556 0.12622984 11645095
0.78224999 -0.015311457 0.12174269 11645358
0.77665013 -0.0052024154 0.12632243 10856095
0.78200006 -0.0052387239 0.12170348 11382182
0.77719051 0.0044117356 0.12680167 10988965
0.78186673 0.0053780619 0.12223124 10921375
0.77857149 0.014963985 0.12767962 10923685
0.78168762 0.014777903 0.12279762 10790302
0.77804357 0.025037905 0.12667012 10131087
0.78223079 0.024624456 0.12195046 11974317
0.77775019 0.034845732 0.12650332 9802379
0.78260005 0.035061859 0.12179708 11645611
0.7780416 0.044877578 0.126551 10658717
0.78125 0.04506034 0.12158684 11513769
0.77800018 0.054890197 0.12654394 11382184
0.78130007 0.055123258 0.12159512 11382443
0.77709681 0.065331474 0.12519215 11315106
0.7802 0.061986767 0.12124167 11974065
0.77640027 0.074770764 0.12446503 11512740
0.77533346 0.084403366 0.12470747 11181974
0.77657139 0.094528601 0.12475239 12565685
0.78100002 0.098983079 0.12154785 11645355
0.77900004 0.10055325 0.12762053 14277845
0.78457701 0.10530579 0.1248541 12960699
0.78831244 0.11375199 0.12672262 11514023
0.79171431 0.11623032 0.12255281 11514280
0.78900003 0.12216175 0.12925881 11645609
0.78733343 -0.15226813 0.13574097 10657946
0.79280001 -0.15750332 0.13445741 10000016
0.76900005 -0.14106998 0.13768387 15130581
0.77513331 -0.14383014 0.13569427 11973031
0.78362507 -0.14719459 0.13250282 10329490
0.76368421 -0.13458972 0.13686676 14801616
0.77294117 -0.13535435 0.1321595 11316641
0.76359266 -0.12494596 0.13600962 12367791
0.77200001 -0.12535433 0.13129176 10460565
0.76344848 -0.11487532 0.13590965 12961469
0.77218193 -0.11494903 0.13093954 11315361
0.76377779 -0.10484671 0.13564588 12633018
0.77190912 -0.1050513 0.13105747 11643038
0.76314276 -0.095011838 0.13592376 12566713
0.77136368 -0.094963387 0.13080043 11773598
0.7632857 -0.084946238 0.13556722 12894647
0.77109092 -0.085082673 0.13091834 12103590
0.76351875 -0.075219393 0.13599809 12893876
0.77133346 -0.07468614 0.13087724 12498603
0.76363337 -0.065003291 0.13581978 13090484
0.7712 -0.064745054 0.13085479 13090482
0.76392311 -0.054983921 0.13573471 12828082
0.77090913 -0.055204749 0.13088769 12762031
0.76434493 -0.045225717 0.13607243 12500401
0.77088886 -0.044465296 0.1309025 12564140
0.76493341 -0.034671005 0.13605115 12631730
0.77116662 -0.034953065 0.13084956 12893364
0.7651602 -0.024829509 0.13609236 12630449
0.77179998 -0.025044698 0.13095705 12434352
0.76557148 -0.015241949 0.13642302 12434100
0.77192849 -0.01459452 0.13136531 12171953
0.76672226 -0.0054343352 0.13757174 11777198
0.77235305 -0.0048550293 0.13237835 12106162
0.76880008 0.0024093203 0.1381879 12172210
0.77300018 0.0051548216 0.13410378 11316905
0.77406669 0.014748582 0.13495977 10987942
0.77441669 0.024725217 0.13502181 10920860
0.77490002 0.034718908 0.13510732 11183514
0.77533358 0.044720337 0.1351818 10592407
0.77480656 0.05484049 0.1352369 10987423
0.77448577 0.06474451 0.13490748 10986137
0.77452934 0.075231269 0.13525924 11182489
0.77418751 0.085092433 0.13476042 11314075
0.77506661 0.09460406 0.13514023 12236720
0.77790004 0.10132285 0.13472417 12433839
0.78182358 0.10651812 0.13475639 12762549
0.78527272 0.11473611 0.13516374 11514023
0.7876001 0.12489691 0.13492742 11579816
0.78900003 0.13218866 0.13611932 11711402
0.79061115 0.13649943 0.13456115 11711402
0.77800006 -0.15091689 0.14748956 11183518
0.78627276 -0.15419823 0.1448767 9933454
0.79155564 -0.15828361 0.14409059 9933711
0.75900006 -0.14012393 0.14833125 16314599
0.76354545 -0.14193951 0.14441954 16117220
0.77250004 -0.14578189 0.14237919 10459539
0.75725019 -0.13429251 0.14475688 15261654
0.76000005 -0.13763979 0.14052041 13945794
0.75730568 -0.12474088 0.14445086 13024436
0.75806677 -0.1151056 0.14459753 13486527
0.75883359 -0.10545168 0.14474541 12567225
0.75900018 -0.095036797 0.14422232 12303286
0.76000005 -0.093160436 0.14941627 12369335
0.75899994 -0.086191833 0.14388919 12237235
0.76000017 -0.083648711 0.14613163 12237235
0.75900006 -0.074381121 0.14850894 11973550
0.76000017 -0.075512186 0.1443657 12236463
0.75900012 -0.064291246 0.1458564 12038830
0.76000011 -0.065805644 0.14118759 12762294
0.75899994 -0.055391219 0.14710969 11973036
0.76021439 -0.05428743 0.14233936 12499376
0.75899994 -0.044555716 0.1479505 12368046
0.76050001 -0.045476194 0.14303952 12434095
0.75875002 -0.035500985 0.14717159 11973285
0.76040012 -0.034762375 0.14213631 12368560
0.75900006 -0.027961366 0.14810915 12695727
0.76048142 -0.024677617 0.14423461 12366764
0.76116645 -0.014898332 0.14518887 11775915
0.76266676 -0.0051075681 0.14547451 10724256
0.76461911 0.0047239237 0.14494522 11447717
0.76451516 0.015430492 0.14536124 11381670
0.77000004 0.015571381 0.14056678 11250343
0.76429981 0.024997594 0.14577977 11907753
0.7704286 0.025243267 0.14090253 11710374
0.76440018 0.035142899 0.14669514 11249051
0.77136362 0.035052285 0.14179999 11644064
0.76480001 0.045008186 0.14677109 11841701
0.77181816 0.044926841 0.14171912 12630960
0.76647836 0.054782085 0.14631657 11972519
0.77146155 0.055680159 0.14194395 12499887
0.7674666 0.064928733 0.14728874 11776164
0.77159995 0.065278739 0.14266318 11511193
0.76844448 0.074207142 0.14867742 11776421
0.77211112 0.07549762 0.14416189 11510423
0.77246666 0.085243993 0.14553322 11446175
0.77356666 0.094481319 0.14568143 12170669
0.77706677 0.10212439 0.14512955 13223612
0.78200001 0.1067165 0.14416654 11710887
0.78663999 0.11443366 0.14544696 11514022
0.78855544 0.12441843 0.1446389 11579814
0.79000002 0.12848125 0.14853314 11579815
0.78900003 0.13201274 0.14095686 11711401
0.79134786 0.13573727 0.14510915 11711401
0.77625 -0.15103333 0.15578954 10590612
0.78649998 -0.1559446 0.15523972 10064783
0.79125005 -0.15904412 0.15277949 9933711
0.75900006 -0.14012393 0.15099651 15920097
0.76418185 -0.14384851 0.15511347 14670032
0.77100003 -0.14775409 0.1578961 11644326
0.75551426 -0.13493602 0.15484992 15064788
0.75550002 -0.1244407 0.15472111 12037799
0.75800002 -0.11509454 0.15523522 12630705
0.75899994 -0.10680832 0.15366174 12106159
0.76000011 -0.10294589 0.15653297 11711402
0.75900006 -0.099256776 0.15099651 13224641
0.76041389 -0.09483704 0.15496187 12172212
0.76060003 -0.08522138 0.15487739 11646129
0.75900006 -0.072604291 0.15158878 12236981
0.7600742 -0.075673006 0.15509857 11711153
0.75900018 -0.064204715 0.15519631 11447982
0.76000005 -0.069141597 0.15742257 11251118
0.75846666 -0.054798286 0.15532853 11381675
0.75783324 -0.044995017 0.15519804 11973808
0.75773329 -0.035231665 0.15517785 12236202
0.75816679 -0.025489487 0.15526566 12629420
0.75873679 -0.016207028 0.1573005 12563623
0.76020014 -0.01315983 0.1533704 12498091
0.76099992 -0.0050971061 0.15495646 11709861
0.76176643 0.0047058444 0.1551128 10921630
0.76248467 0.015175301 0.15477324 10329500
0.76199991 0.025220806 0.15516108 10329238
0.76206642 0.035034768 0.15517487 10328722
0.7620399 0.044845756 0.1551694 11447972
0.76286131 0.054717191 0.15444323 11184029
0.76323557 0.065200903 0.15472795 11644836
0.76403129 0.075033881 0.1544511 11710629
0.76455873 0.085002989 0.15498917 12433070
0.76608694 0.094832204 0.15629929 12762806
0.77127272 0.096440144 0.1517953 12695984
0.76757145 0.10241602 0.15860441 13026234
0.77388 0.10554797 0.15438646 12696242
0.78150004 0.10910814 0.15089834 11644583
0.77657139 0.11192746 0.15760541 12499634
0.78505003 0.11539714 0.15424559 11513510
0.78857136 0.12196428 0.15516436 11579816
0.79056251 0.12772539 0.15530956 11514023
0.79303443 0.13591295 0.15514317 11645609
0.77620006 -0.15166004 0.16495405 10063754
0.7869091 -0.15733691 0.16525522 9867145
0.75900006 -0.14012393 0.16876484 14999769
0.76245463 -0.14336044 0.16466451 14867668
0.77066666 -0.14769021 0.16504365 9669252
0.75648284 -0.13508147 0.16454206 14670031
0.75693327 -0.12467714 0.16476311 12300966
0.75883323 -0.1171471 0.16413899 12564652
0.7602632 -0.11253586 0.16586167 13945533
0.76093328 -0.1048529 0.1647431 12760236
0.76166642 -0.095147096 0.16490246 12433584
0.76153314 -0.085326746 0.16487238 11646124
0.76050001 -0.075419985 0.16464771 11317422
0.75899994 -0.063043237 0.16529576 11383986
0.76000011 -0.068429932 0.16471717 11383216
0.75812006 -0.054773971 0.16501917 11382447
0.75673532 -0.044721641 0.1653422 11645103
0.75620019 -0.035160765 0.16548447 11972003
0.75636113 -0.025428813 0.1655198 12760488
0.75751519 -0.015067296 0.16536945 12563626
0.75884616 -0.0068597263 0.1661339 11907240
0.7604118 -0.0037321795 0.16321407 12039338
0.76149976 0.0047055236 0.16486341 11512994
0.76300031 0.015429821 0.16518874 11118237
0.7627002 0.025244053 0.16512528 10526102
0.76280576 0.035068497 0.16514762 10263447
0.76290023 0.044896487 0.16516754 10856098
0.76300031 0.05472615 0.16518877 11053732
0.76308364 0.065450184 0.16520686 11119010
0.76239997 0.075206742 0.1650583 11249823
0.76138866 0.084911115 0.16483872 11972775
0.76170003 0.09475442 0.16490445 12565170
0.76386958 0.10295838 0.16517726 12697013
0.77071434 0.1082475 0.164408 12433841
0.7757144 0.11271527 0.16495644 12104876
0.78300005 0.11756984 0.16452572 11513509
0.78821427 0.12204141 0.16484816 11447974
0.79084617 0.12729043 0.16459584 11448487
0.79292852 0.1351694 0.16537093 11514280
0.77566671 -0.15137415 0.17519312 10590611
0.78618187 -0.15702409 0.17530696 9801865
0.75900006 -0.14012395 0.17498375 14735824
0.76372725 -0.14376269 0.17469059 14933461
0.77100003 -0.14775409 0.17459168 9933193
0.7572 -0.13447385 0.17456962 14538446
0.75830311 -0.12530735 0.17458196 12629677
0.76000005 -0.12073763 0.17788304 11840420
0.75900006 -0.11880194 0.17054167 13091252
0.76067638 -0.11461079 0.17537037 13616826
0.76239997 -0.10505448 0.17487603 13286065
0.76296693 -0.09531033 0.1750053 12957873
0.76157135 -0.085140444 0.17525735 12564656
0.75900006 -0.071893558 0.17835973 12369851
0.76038712 -0.075953834 0.17475747 12171956
0.7587716 -0.064463101 0.17505716 11646643
0.76000005 -0.069141597 0.17076637 11448752
0.75749999 -0.054728828 0.17463718 11712437
0.7555626 -0.045083515 0.17474209 11579310
0.75392854 -0.034866296 0.17526348 12564141
0.75374997 -0.025341934 0.17553601 12760229
0.75557154 -0.014760179 0.17492293 12892844
0.75824142 -0.0052000023 0.17496096 12104877
0.76000005 -0.0015329953 0.17076637 10987427
0.75900006 0.00024585446 0.17853743 12697275
0.76099986 0.004837594 0.17509355 11842479
0.76336682 0.015438291 0.175098 11184801
0.76336008 0.025265351 0.17509678 10592152
0.76353347 0.035102583 0.17513633 10920859
0.76316023 0.044911101 0.17505021 10592410
0.76300031 0.05472615 0.17501284 10855837
0.76246667 0.065396413 0.17488967 10790816
0.76119983 0.075089224 0.1754901 11250855
0.76044446 0.084805265 0.17531592 11776424
0.76013345 0.094559051 0.17524424 12104619
0.76313633 0.1029781 0.17504388 12828599
0.77080005 0.10851707 0.17499983 12434100
0.77420008 0.11117195 0.1746846 11973549
0.78557146 0.11742944 0.17493789 11448230
0.78866673 0.12026385 0.17351575 11448230
0.79271436 0.12521598 0.17502631 11382694
0.78900003 -0.16043893 0.18282363 9736842
0.79218519 -0.16514368 0.1848627 9736845
0.77570003 -0.15138069 0.18518983 10722710
0.78563648 -0.15708259 0.18522054 9605001
0.75900006 -0.14012393 0.18564475 14735825
0.76366669 -0.14337289 0.18440087 15196376
0.77166671 -0.14788187 0.18512993 9801350
0.75799996 -0.13461582 0.18540016 14341838
0.75856525 -0.12668529 0.1849592 12498868
0.76000011 -0.12152837 0.18539514 10524821
0.76116121 -0.11453962 0.18511003 13156794
0.76256663 -0.10507736 0.18473175 12760236
0.76291674 -0.09530516 0.18481559 13023405
0.76111108 -0.085478172 0.18487285 12563630
0.75894994 -0.07331036 0.18545456 12171186
0.76000017 -0.07852269 0.18419105 12170672
0.75777769 -0.064506203 0.18534465 11580847
0.7566334 -0.054666061 0.18506484 11449261
0.75424993 -0.044784181 0.18448123 11579564
0.75222594 -0.035034195 0.18520519 12302511
0.75133348 -0.025260849 0.18552415 12169892
0.75286847 -0.01473304 0.18502043 12564394
0.75676662 -0.005066717 0.18509546 12171697
0.75875002 0.00068998162 0.18602663 12961217
0.76079172 0.0060367472 0.18474656 12171955
0.76377779 0.015448349 0.18502428 11579818
0.76479995 0.025313646 0.18527296 10527132
0.76491654 0.0351662 0.185302 11118496
0.76426673 0.044975203 0.18514413 10921116
0.76286131 0.054715376 0.18480343 11249311
0.76188862 0.06534712 0.18456799 11051930
0.76099992 0.07507012 0.18524314 11315617
0.76036674 0.084796295 0.18508939 11513770
0.76016009 0.094562747 0.18503916 11579562
0.76380008 0.1021719 0.18473333 12368305
0.77210003 0.10779764 0.18523519 12434098
0.77677786 0.1119871 0.18423349 11514021
0.78574997 0.11691037 0.18559361 11382436
0.79162973 -0.16447718 0.19496447 9736587
0.77622229 -0.15158361 0.19460239 10919576
0.78545457 -0.15687898 0.195374 9670792
0.75900006 -0.14012395 0.19452892 14867668
0.76400012 -0.14373292 0.19491142 15262426
0.77180004 -0.14790741 0.19509836 10130062
0.75800002 -0.13461582 0.19515984 14671060
0.75861549 -0.12591246 0.19504492 12104625
0.76000011 -0.12118242 0.19389562 10262165
0.76074994 -0.11462174 0.19497645 13025981
0.76133317 -0.1049088 0.1951254 12893106
0.76111096 -0.095079333 0.1950683 13089455
0.75900012 -0.082503788 0.19719417 12958901
0.76026094 -0.085957758 0.19403872 12629164
0.75858819 -0.075230211 0.19468358 12039854
0.76000005 -0.079816639 0.19033727 12762807
0.75677413 -0.064849064 0.19535641 11909809
0.75452942 -0.055138711 0.19535424 11645608
0.74883336 -0.041246131 0.19864291 11445663
0.75212127 -0.045004774 0.19417615 11972776
0.74795645 -0.034549832 0.19637844 11775915
0.75037503 -0.035988875 0.19165893 11907756
0.74783307 -0.025142783 0.19516499 11907754
0.74824989 -0.015208932 0.19627595 12630446
0.75059998 -0.012407494 0.19184767 12434092
0.7486667 -0.007936229 0.19918293 12828598
0.75275868 -0.0049173045 0.19453424 12368818
0.7571516 0.0040088329 0.19552723 12368564
0.76050001 0.0079615554 0.191649 11711403
0.75900006 0.012239475 0.19852678 12169642
0.7612499 0.015785677 0.19460171 12170670
0.76266664 0.025244275 0.19546586 11776679
0.76380002 0.035114765 0.19486275 11578274
0.76364022 0.044938516 0.1948228 10658462
0.76290029 0.054718386 0.19463579 10987681
0.76203001 0.065603241 0.19490029 10790045
0.76182741 0.07527405 0.19510087 11512738
0.76099986 0.084868461 0.19504154 11578530
0.76093322 0.094658405 0.19502483 11842216
0.76418185 0.1014076 0.19447431 11382180
0.7729376 0.10712574 0.19504783 12040368
0.77825004 0.11138782 0.19399896 11448230
0.78566676 0.11576578 0.1950478 11448229
0.79000002 0.11861777 0.19969998 11316644
0.79269242 0.12473707 0.19459914 11382436
0.78900003 -0.16043893 0.20683545 9736331
0.79176009 -0.16537741 0.20481504 9736587
0.77657139 -0.15271826 0.20513543 10065040
0.78427273 -0.15681019 0.20509095 9933454
0.75900006 -0.14012395 0.2051899 14801618
0.76376927 -0.14417218 0.20530953 14538960
0.77177787 -0.14890848 0.20473167 10854811
0.75830007 -0.13466948 0.20500201 14342096
0.75852793 -0.12494148 0.2050617 11513262
0.75899994 -0.11567131 0.20667063 12960706
0.76000017 -0.1133244 0.20219845 13026238
0.75899994 -0.10598336 0.20836279 12367537
0.76026326 -0.10457405 0.2036102 12629935
0.75899994 -0.093689367 0.20797357 13023916
0.76019061 -0.095769055 0.20351975 13089453
0.75877774 -0.084688865 0.20542501 12695212
0.76000005 -0.087822914 0.20101231 11971745
0.75730544 -0.075104266 0.20472986 12236717
0.75400007 -0.065068454 0.20524625 11973802
0.74900001 -0.050606634 0.20862347 11050640
0.75171441 -0.055317827 0.20485127 11841442
0.74786949 -0.04421388 0.20594709 12233632
0.75033337 -0.047574326 0.20216322 11971231
0.74580014 -0.035427243 0.20523514 12103079
0.74494481 -0.025045594 0.20487483 11842223
0.7457779 -0.014596973 0.20510401 12105390
0.74732149 -0.0051923511 0.20584115 12565943
0.75020009 -0.0029178387 0.20087886 12433588
0.74825001 0.00068072788 0.20841339 12894651
0.75308579 0.0051860949 0.20466842 12630964
0.75760609 0.014974165 0.2051601 12104364
0.76000005 0.019224033 0.20160538 11908010
0.75900006 0.022160126 0.207559 12040112
0.76082611 0.02580242 0.20486905 11777194
0.76286125 0.03507404 0.20444745 11841701
0.76379997 0.044948995 0.20470062 11710373
0.76327801 0.054744832 0.20456043 11052188
0.76290929 0.0651915 0.20486669 11052701
0.76223075 0.075053304 0.20496494 11185058
0.760818 0.085090324 0.20527573 11316389
0.76041377 0.094472215 0.20541726 11579559
0.76475 0.10140174 0.20495282 11579816
0.77380002 0.10689027 0.20514515 12106160
0.78568757 0.11429675 0.20504649 11316644
0.7902 0.11864779 0.20530014 11382437
0.79293334 0.12462943 0.20508 11316644
0.7882728 -0.16113062 0.21536723 9605001
0.79168755 -0.16631621 0.21472178 9671050
0.77545458 -0.15306526 0.21466956 10525075
0.7828334 -0.15735234 0.21529461 9538693
0.75900006 -0.14012393 0.21496251 14077893
0.76399994 -0.14462978 0.21488371 14012101
0.77200001 -0.14975299 0.2150279 11051932
0.75884002 -0.13476567 0.21491696 14472911
0.75799996 -0.12485612 0.21467927 11907249
0.75816 -0.11512063 0.21472381 13026753
0.75823516 -0.10516093 0.21537015 12433587
0.75783336 -0.094669536 0.21551649 12958381
0.75716674 -0.084837638 0.21532732 12366758
0.75497222 -0.074874036 0.21470243 12367791
0.74900001 -0.061711643 0.2185595 12827826
0.75153577 -0.065295197 0.21485619 12301483
0.74803585 -0.054232266 0.21541956 12104098
0.75012505 -0.0574877 0.21179022 11972515
0.74581254 -0.045319967 0.215206 12300708
0.7433055 -0.035434 0.21486431 11908011
0.74208319 -0.024949439 0.21451047 11711667
0.74300003 -0.014541947 0.2147755 12105911
0.74493355 -0.0049888482 0.21533576 11974322
0.74721432 0.0037430297 0.215308 12368307
0.75075001 0.0079331342 0.21284422 12236721
0.7486667 0.011342835 0.21846199 12235692
0.75444442 0.015360788 0.2145986 12171183
0.75808698 0.024244044 0.21585925 11645353
0.7601667 0.028126195 0.21262296 12566710
0.75900006 0.031340428 0.21851617 11710889
0.76144117 0.035218429 0.21449791 11315876
0.76340002 0.044926696 0.21531102 11513513
0.76366681 0.054772604 0.21539006 11185320
0.76319468 0.065459639 0.21525784 11250081
0.76196659 0.07516367 0.21491057 11117724
0.76045454 0.084563203 0.21488835 11643810
0.75900006 0.09382572 0.2149625 11117470
0.76026094 0.094808124 0.21508722 11973292
0.76430005 0.10134232 0.21467452 12236464
0.77400005 0.10697865 0.21376999 11973803
0.78616661 0.11457189 0.21508662 11185057
0.79000002 0.11861777 0.21495757 11185058
0.79096013 0.12431854 0.21475552 11250851
0.78811121 -0.16128434 0.22505228 9604999
0.79123533 -0.16634282 0.2247469 9605513
0.77518183 -0.15317602 0.22449352 10262157
0.78314292 -0.15794028 0.22572975 9604485
0.75900006 -0.14012395 0.22473508 13288636
0.76305896 -0.14445169 0.22504081 14735825
0.77099997 -0.14955902 0.22467834 10327437
0.75893348 -0.1347819 0.22471565 14867410
0.75819421 -0.12488905 0.22449721 11972005
0.75799996 -0.11509642 0.22443897 13158080
0.75712502 -0.10543732 0.22473329 12369335
0.75646669 -0.094558924 0.22492838 12170926
0.75446874 -0.084867336 0.22537686 11908785
0.74849999 -0.073572181 0.22841561 11514028
0.752069 -0.075524732 0.22386244 11711151
0.7470302 -0.064837463 0.22534737 11972776
0.75000006 -0.068231843 0.2217776 11644327
0.74457151 -0.054667939 0.22481446 12301998
0.73871428 -0.042500347 0.22823931 11185067
0.74228007 -0.04535725 0.2242634 11842732
0.7385 -0.035029508 0.22782707 11841706
0.74104542 -0.035482731 0.22265096 12039341
0.73821419 -0.024572995 0.22660218 11841960
0.74042857 -0.025388792 0.22134027 11382697
0.73818523 -0.01473716 0.22673094 12039855
0.74073333 -0.013978627 0.22157981 11776689
0.73857147 -0.0069239433 0.22868912 12171184
0.74176913 -0.0046336362 0.22423801 11776687
0.74442118 0.0047852322 0.22499935 12499890
0.74755549 0.014115367 0.22565502 12631476
0.7515834 0.018132338 0.22268271 11907755
0.75490904 0.025044424 0.22509557 11907755
0.75788563 0.034514721 0.22483259 11710631
0.76000005 0.038498417 0.22058322 12039858
0.75878567 0.043639567 0.22708197 11906980
0.7608183 0.044774733 0.22195354 12105132
0.76196861 0.054932561 0.22538817 11250337
0.76274216 0.065564714 0.22512123 11381413
0.76123321 0.075091816 0.22539459 11118238
0.75900012 0.086802997 0.22841565 11710634
0.76017255 0.084253915 0.22419189 11709605
0.75900006 0.0914566 0.22799259 10856091
0.76065391 0.09483172 0.22467771 11710374
0.76779997 0.10162462 0.22464454 12170412
0.77464294 0.10595374 0.22535038 11775654
0.78050005 0.10988269 0.22562017 12960186
0.78630006 0.11364798 0.22526781 11710888
0.79069996 0.11798288 0.22560823 11119266
0.78866673 -0.16221742 0.2353639 9539210
0.79150009 -0.16662309 0.23493502 9474186
0.77483344 -0.15302481 0.23486529 10196623
0.78300005 -0.15822181 0.23508692 9341573
0.75900012 -0.14037777 0.23476149 13156535
0.76293343 -0.14454576 0.23500578 15064788
0.77079999 -0.14952023 0.23454502 11511453
0.75886685 -0.13477015 0.23535398 15328216
0.75855571 -0.12494842 0.23525722 12037025
0.75779998 -0.11506692 0.23502345 13157563
0.75655562 -0.1051373 0.23463662 12498864
0.75439382 -0.09512461 0.23484594 12235950
0.74815392 -0.08207614 0.23721777 11644840
0.7518847 -0.086142987 0.23393144 11579818
0.74650002 -0.0749062 0.23501076 11842473
0.74361545 -0.06497629 0.23483761 12104362
0.73863637 -0.053208098 0.23638964 11776680
0.74135005 -0.056078322 0.23373783 11841962
0.73734236 -0.045505702 0.23526189 11843506
0.74000001 -0.048266191 0.23036957 12238521
0.73594451 -0.035081074 0.23513368 12038824
0.73527777 -0.024721112 0.23492162 12234660
0.73522234 -0.014391065 0.23490275 12367276
0.73618758 -0.0047684605 0.23483117 12105132
0.73772222 0.0024471926 0.23666197 12762547
0.74186367 0.0061641438 0.23363155 12697012
0.74548662 0.014962493 0.2348571 12170925
0.74815381 0.022607347 0.23667844 12105130
0.75136846 0.026259361 0.23399863 11907238
0.75492108 0.034617882 0.23473138 11842472
0.75805885 0.045240737 0.2353123 12499117
0.75900006 0.051774006 0.23983815 10657944
0.76053578 0.055186789 0.23459969 11710115
0.76114267 0.065156624 0.23440522 11577759
0.75900006 0.078071132 0.23770595 12039081
0.76040912 0.074525423 0.2346995 11314844
0.7589708 0.084903255 0.23559579 11775911
0.76000005 0.080308996 0.23214784 10986650
0.759 0.091671973 0.23579988 11315359
0.76218754 0.096380644 0.23471041 11841959
0.76900005 0.1010627 0.23039636 12960697
0.77300006 0.10353126 0.23572704 11776167
0.78060001 0.10806938 0.23569918 11513509
0.78737509 0.11269648 0.23497953 11710888
0.79140002 0.11790258 0.2352546 11250595
0.79304004 -0.17425832 0.24502641 9539979
0.78900003 -0.162286 0.24562378 9342600
0.79118758 -0.1663256 0.24480142 9474186
0.7753334 -0.15322442 0.24520043 9934478
0.78370011 -0.15844634 0.24488917 9342599
0.75900012 -0.1406316 0.24440715 13222586
0.76281255 -0.14462724 0.24505596 14801617
0.77099997 -0.14955902 0.24453251 12828085
0.75820017 -0.1346522 0.24490999 15261910
0.75757128 -0.12465955 0.24546574 11379862
0.75680006 -0.11491508 0.24534173 13156791
0.75455552 -0.10486156 0.24461429 12497575
0.74880004 -0.091612436 0.24748297 11972778
0.75153857 -0.095441632 0.24458244 12038310
0.74699998 -0.084659733 0.24506947 11973031
0.75000006 -0.088715754 0.241091 12302509
0.74374294 -0.074928649 0.24516165 11906978
0.73880005 -0.062601253 0.24671444 11841702
0.74134785 -0.066465952 0.24368989 12170150
0.73763657 -0.054864511 0.2448577 11710884
0.7350834 -0.045366094 0.24518456 12170923
0.73427761 -0.03500104 0.24491686 11907752
0.73361093 -0.024665661 0.2446945 11709087
0.73262507 -0.014170309 0.24496344 11709604
0.73266661 -0.0050633075 0.24492304 11908270
0.73486841 0.0046336073 0.24479234 12302256
0.74000001 0.0089014657 0.24076369 13223356
0.73700005 0.012892711 0.24772088 11908270
0.7425999 0.015947757 0.24392323 11908266
0.74630302 0.025074691 0.24545693 11973802
0.75000006 0.028335158 0.24050574 11382433
0.74840003 0.031428996 0.24735141 11844275
0.75243753 0.035312694 0.24436657 11843503
0.75655556 0.045411892 0.24526209 12565426
0.75818521 0.055071618 0.24628332 11579560
0.76000011 0.056671403 0.24091664 11579303
0.75876188 0.065376133 0.24635974 11448231
0.76026672 0.064793438 0.24166174 11447458
0.7586956 0.075074263 0.24537812 11381924
0.76000005 0.072836466 0.2408658 11315869
0.75802946 0.084536374 0.24547987 11249825
0.75880003 0.091728799 0.24510333 12301486
0.76294452 0.096700057 0.24495098 11973291
0.77454549 0.10460176 0.24515837 12500147
0.78712499 0.11254628 0.24538407 11842477
0.79076922 0.11759499 0.24489203 11119011
0.78828579 -0.16240294 0.2559447 9342087
0.79137504 -0.16671267 0.25469774 9539466
0.77481258 -0.15370315 0.2548084 9933710
0.78362501 -0.15888917 0.25357971 9473673
0.759 -0.14172308 0.25529659 13419965
0.76362509 -0.14623509 0.25425673 14999509
0.77000004 -0.14936504 0.2505244 13552323
0.75787866 -0.13507868 0.25480562 14801874
0.75677431 -0.12479911 0.2549071 11051668
0.75454843 -0.11474481 0.25535196 13091254
0.74900001 -0.10233259 0.2594727 11776685
0.75232363 -0.10517115 0.25461039 12433066
0.74751717 -0.093956403 0.25575799 11711663
0.75037503 -0.098348916 0.25336143 11513767
0.74468756 -0.085348092 0.25497758 11579305
0.73825002 -0.073321059 0.25704351 11777457
0.74187499 -0.076685749 0.25367305 12236975
0.73631591 -0.064856447 0.2547994 11777200
0.73413879 -0.055476148 0.2550351 12433070
0.73247218 -0.045204103 0.25460121 12958129
0.73227781 -0.034905314 0.25453418 12170929
0.73170292 -0.0244861 0.25449648 11710376
0.72900003 -0.010856777 0.2593706 11580843
0.7307502 -0.014685137 0.25514421 11250594
0.72900003 -0.0074435724 0.2593706 12304054
0.73080021 -0.0045529245 0.25504759 11448236
0.73162204 0.0044042515 0.25446844 11776687
0.73368412 0.015022539 0.2547037 12039854
0.73694116 0.022973437 0.25671211 12236975
0.74257696 0.026519362 0.25376749 12105647
0.74639285 0.034879219 0.25544444 12303283
0.75100005 0.038482625 0.25137329 12041138
0.74875003 0.040996145 0.25807104 11777193
0.75297225 0.04544168 0.25482056 12500916
0.75520009 0.05505199 0.25542828 11908009
0.7566154 0.064692654 0.25461322 11579304
0.75697142 0.075432405 0.25438473 11710631
0.7571851 0.085264109 0.25482345 11447460
0.75861108 0.092594475 0.25481045 12039597
0.76309103 0.097689934 0.25493157 11249569
0.76900005 0.1010627 0.25920027 10131348
0.77436846 0.10463917 0.25470993 12894908
0.78725004 0.11360252 0.25475234 11908270
0.79000002 0.11861776 0.25518209 11053473
0.78825009 -0.16282438 0.26430488 9341830
0.79091668 -0.16684724 0.26520026 9407623
0.77461541 -0.15375422 0.26401851 10130831
0.78380001 -0.15938154 0.26419157 9407623
0.75783342 -0.14256988 0.26519215 13288122
0.76349998 -0.14721359 0.26449177 14998740
0.75618416 -0.13499494 0.26493853 14670546
0.75500011 -0.12524699 0.26508021 11052449
0.7485556 -0.11210532 0.26788583 11973804
0.75230008 -0.11576023 0.26437005 12697013
0.7469666 -0.10456332 0.26552534 11909040
0.75033337 -0.10807741 0.26110512 12697009
0.74440545 -0.095279187 0.26484549 11579818
0.73791307 -0.08410836 0.26644546 12038055
0.74143749 -0.086546645 0.26303431 12169900
0.73502445 -0.074595235 0.26482344 11842731
0.73230034 -0.064908795 0.26482752 11775909
0.72885716 -0.053146146 0.26882598 11711661
0.73105717 -0.055800818 0.2643542 12235946
0.72813648 -0.044625919 0.26696441 12369077
0.73064989 -0.045432724 0.26200938 12302254
0.72739273 -0.034490794 0.26706508 11646894
0.73066658 -0.034828648 0.26167333 11974321
0.72720575 -0.024249014 0.26663774 11514541
0.73046142 -0.025414106 0.26120532 11580336
0.72702777 -0.014703772 0.26537383 11513252
0.73000002 -0.018561913 0.26143533 10461081
0.72672522 -0.0055055949 0.2655707 11841705
0.72751731 0.0037603418 0.26682538 12170411
0.73062503 0.0056891865 0.26187235 11908012
0.72880006 0.011838158 0.2688536 12368303
0.73134309 0.015011995 0.26440904 12105647
0.7350263 0.025149476 0.26522234 11776939
0.74150002 0.029749889 0.2612136 12434867
0.73874998 0.031801485 0.26845974 11053472
0.74383342 0.035478029 0.26487675 12105390
0.74763322 0.044233959 0.2657651 12171439
0.75050008 0.048339609 0.26218733 12040107
0.74900001 0.051676344 0.26940876 12170668
0.752069 0.054946098 0.26478204 11907494
0.75457132 0.064748824 0.26478189 12236717
0.75619471 0.075482458 0.26461989 12038823
0.75729996 0.085343428 0.26500764 11841189
0.75881809 0.092134804 0.26384336 11776168
0.76240003 0.096629627 0.26554126 11513255
0.76900005 0.10106269 0.26280072 11052962
0.77524996 0.10529435 0.26561114 11645099
0.78726083 0.11348383 0.26471061 11447719
0.79000002 0.11835356 0.26601434 11119265
0.79196167 0.12462103 0.26487103 11119266
0.78780001 -0.16093375 0.27475548 9407879
0.76900005 -0.15097131 0.27810282 13683648
0.77337503 -0.15296592 0.27357361 11183258
0.78200006 -0.15771022 0.27325213 9210241
0.75687504 -0.14305601 0.27548757 13353912
0.76249999 -0.14746541 0.2735188 15327701
0.75255895 -0.13526002 0.27469054 14933202
0.74846661 -0.12381309 0.27774331 10919060
0.75081825 -0.12575017 0.27336276 10854297
0.74692857 -0.11497886 0.27567589 12894133
0.7502501 -0.11831082 0.27132171 14473426
0.74376315 -0.10501187 0.27479002 11842731
0.7376191 -0.093995519 0.27657762 12235947
0.74128574 -0.096322186 0.2727893 11775651
0.73434144 -0.08475668 0.27489254 12038825
0.72900003 -0.071441151 0.27984983 11381154
0.73160011 -0.075329028 0.27550179 12170155
0.72770375 -0.064755715 0.27657285 12433839
0.73066676 -0.066131331 0.2719366 12497829
0.72507149 -0.054933913 0.27493769 12237488
0.72295743 -0.04452778 0.27485451 12566199
0.71899998 -0.033430941 0.27881637 12499890
0.72214288 -0.03478517 0.27397391 12368563
0.71899992 -0.024734452 0.27811503 12434098
0.72149986 -0.024647079 0.27313435 12171439
0.71883333 -0.015754096 0.27762946 12368562
0.72114289 -0.015201853 0.27273116 12433837
0.71894437 -0.0056575113 0.27767265 12894906
0.72099996 -0.0056731361 0.27255678 12236206
0.71899998 0.0029260051 0.27836752 12763322
0.72197074 0.0051073087 0.27386373 12762550
0.72463411 0.01443077 0.27522528 11842476
0.73074996 0.018199336 0.2711125 11645099
0.72830009 0.022401605 0.27787498 11579304
0.73187107 0.025829755 0.27415046 11776941
0.73588008 0.033801075 0.27593955 12105905
0.74220008 0.0372505 0.27344817 12039854
0.7454595 0.044629134 0.27498609 11908526
0.74803996 0.05403946 0.27629951 12039340
0.75030005 0.057679683 0.27327132 11908010
0.7527222 0.065005533 0.27470815 12302000
0.754861 0.075349964 0.27475473 11973805
0.7567333 0.085280426 0.27543652 12039596
0.75885719 0.09110105 0.27506849 11908009
0.76304764 0.095779531 0.27488431 11512737
0.77452636 0.10427659 0.27489823 11184804
0.78000003 0.10798631 0.27660286 10987684
0.78670591 0.11281897 0.27545741 11513769
0.79000002 0.11779581 0.2751146 11053473
0.79250002 0.12436343 0.27513859 11119265
0.7881667 -0.16180752 0.28503448 9276038
0.76733333 -0.15064408 0.2846823 15065045
0.77400011 -0.15459038 0.2847667 9736329
0.78333336 -0.15928663 0.28511429 9341829
0.75580001 -0.14307541 0.28423974 13617342
0.76114291 -0.14739276 0.28506014 14604237
0.74900001 -0.13196544 0.28366995 15064019
0.75119048 -0.13600595 0.28468406 14801616
0.74793935 -0.12503301 0.2846258 11051417
0.75000006 -0.12968357 0.28966713 10919833
0.74486679 -0.11484887 0.28506804 12631733
0.73899996 -0.10084277 0.28368863 12499635
0.74153578 -0.10584152 0.2846598 12039339
0.73618519 -0.094618209 0.2844601 12170669
0.73321873 -0.08473143 0.28490376 11907497
0.72900003 -0.071441151 0.28411633 11841705
0.73092008 -0.075737342 0.28503641 12302513
0.72552782 -0.064974621 0.28479025 12104878
0.71899998 -0.05098423 0.28731245 11117724
0.72096884 -0.055149823 0.28409737 12236718
0.71899992 -0.044003494 0.28574193 11645352
0.7202 -0.047649425 0.28152919 12236717
0.71883333 -0.03426544 0.28520188 11579817
0.71806663 -0.024983602 0.28489602 11710634
0.71678013 -0.015607207 0.28510121 11645354
0.71735126 -0.0059386226 0.28499794 12237490
0.71872222 0.0044403989 0.28515774 12500405
0.71899992 0.011497336 0.28585124 12368307
0.72072011 0.016162209 0.28436324 12368563
0.72611433 0.024332171 0.28510088 12500405
0.73074996 0.028890764 0.28180391 12105905
0.73262513 0.035573803 0.28492317 12631735
0.7367143 0.04323427 0.28736433 12499892
0.74311537 0.045942787 0.28379336 12368562
0.74597383 0.055437911 0.28516728 12303025
0.74823803 0.064053394 0.28614867 12171439
0.75063634 0.067179658 0.28256276 12498864
0.74900001 0.070379511 0.28928089 12632761
0.75243586 0.075040884 0.28491217 11908525
0.75557137 0.084963098 0.28531072 12434099
0.75866669 0.090824418 0.28235886 12565428
0.76311123 0.094740167 0.28469813 11907754
0.77149999 0.099585153 0.28803796 10658460
0.7753334 0.10449444 0.2847563 10527129
0.78664285 0.11437193 0.28520405 10658716
0.79000002 0.11861777 0.28107378 10987425
0.79203713 0.12469553 0.28509426 10987680
0.78750002 -0.162901 0.2949332 9276039
0.76900005 -0.15097131 0.29160461 14736595
0.77481818 -0.15459119 0.29397413 10525591
0.78175002 -0.15896468 0.29507285 9276038
0.75833338 -0.14207187 0.29318294 12170155
0.76287508 -0.14508504 0.29552934 12433328
0.75434792 -0.13450719 0.29457545 12499891
0.7481001 -0.12235071 0.29243687 10657172
0.75161546 -0.12603916 0.29584229 9143935
0.74640918 -0.114848 0.29479581 11052960
0.74425924 -0.10546204 0.29481024 10986652
0.73839998 -0.093797639 0.29106429 10986394
0.74295002 -0.095593251 0.29668787 9670793
0.736 -0.084800996 0.29307905 9867914
0.74140006 -0.086543255 0.29814807 9604484
0.73271435 -0.075405076 0.29434866 9802896
0.72700006 -0.06582091 0.29342628 10066324
0.71900004 -0.051104456 0.29200134 10921888
0.72122228 -0.056048103 0.29205909 10921373
0.71880764 -0.043907419 0.29399389 9870485
0.71817875 -0.034234092 0.29406914 10592665
0.71706426 -0.025381109 0.29454523 10855064
0.71675003 -0.015588765 0.29474384 11250594
0.7172057 -0.0054458235 0.29487845 10855322
0.71860003 0.0043198527 0.29522768 10330009
0.71900004 0.01033205 0.29340398 9080455
0.72127599 0.014968405 0.29528445 10197650
0.72688013 0.024336604 0.29428196 11249825
0.73049998 0.02816887 0.29809722 10066322
0.73145479 0.035108455 0.29495883 12237492
0.73448384 0.045225032 0.29459843 12763322
0.73785716 0.051937547 0.29558727 12631993
0.74251997 0.056214824 0.29372895 12631735
0.74584377 0.064793259 0.29487941 12303027
0.74796546 0.074027531 0.2958236 12500405
0.75044453 0.077738322 0.29198495 12763577
0.74900001 0.081484519 0.29921693 12368562
0.75413334 0.085170642 0.29496449 12303284
0.76350009 0.093195245 0.29521236 11908013
0.77250004 0.098509394 0.29443946 10329239
0.77657145 0.10205908 0.2944757 10592924
0.78311116 0.10699264 0.29532877 10658717
0.78766668 0.11396723 0.29438218 10724510
0.79040003 0.11719783 0.2982395 10724510
0.78866673 -0.16190998 0.30337045 9145223
0.79223531 -0.16600895 0.30565214 9145480
0.77725005 -0.15213738 0.30292076 8947329
0.78522229 -0.1568134 0.30511105 9013381
0.76500005 -0.14212707 0.30172855 14210507
0.77285719 -0.14475599 0.30650568 11250084
0.75866669 -0.13355124 0.30130237 14013131
0.76250011 -0.13511907 0.30520761 12171442
0.75711769 -0.12476401 0.3043043 9670279
0.76050001 -0.12675272 0.30855864 12367791
0.74900001 -0.110223 0.30155483 10394772
0.75466669 -0.11566976 0.30502045 10000015
0.74785721 -0.10405345 0.30159569 10394516
0.7552222 -0.10583157 0.30700967 9802121
0.74850005 -0.095257819 0.3031058 9802121
0.75650001 -0.094504148 0.30811641 9670790
0.74571437 -0.084803618 0.30272484 9868426
0.75600004 -0.087360695 0.30791274 10197391
0.71700001 -0.012356574 0.30042088 8158585
0.71800005 -0.0048099789 0.3008399 8618109
0.71833342 0.0030372215 0.30097958 10527647
0.72399998 0.016146598 0.30270362 10790042
0.72836363 0.022558816 0.30301234 10855323
0.73091668 0.026903098 0.30425507 10790045
0.73441184 0.035534933 0.30326965 10131861
0.74300003 0.035028197 0.30957547 11447976
0.7366364 0.044450011 0.30300662 9276036
0.74050003 0.047046177 0.30636719 9539208
0.73866671 0.050963666 0.30142966 11776428
0.74391675 0.055900615 0.30531695 10921374
0.74642104 0.064897239 0.30401304 12434099
0.75050008 0.066128716 0.30918652 12631221
0.74805552 0.074670553 0.30292687 12631734
0.75066668 0.074930996 0.30749783 12828600
0.74900001 0.081952095 0.30295756 12961212
0.7523334 0.085765637 0.30465639 12632248
0.75833338 0.090784512 0.30442253 12566713
0.76344454 0.093783185 0.30477673 11776943
0.77280003 0.09794382 0.30570862 10329496
0.77649999 0.10023055 0.30626315 10592667
0.78682357 0.10611874 0.30518684 10592924
0.79000002 0.10937075 0.30789012 10658717
0.78900003 0.11107937 0.30195922 10724510
0.79195654 0.11552946 0.30571124 10724510
0.78755558 -0.15256733 0.31400654 9211016
0.79218179 -0.15721092 0.31573775 9211273
0.77600002 -0.1420521 0.31303164 9145480
0.78387505 -0.14632571 0.31697237 9408652
0.76733333 -0.13268147 0.31193018 10592667
0.77333331 -0.1359825 0.31557801 9474702
0.764889 -0.12489733 0.31372401 11973547
0.77150005 -0.12527198 0.31874156 9408135
0.76325011 -0.11499992 0.31354839 10525587
0.77149999 -0.11624207 0.31964403 9210755
0.76380008 -0.10524891 0.31377542 11841446
0.76420009 -0.096347548 0.31376165 10196881
0.77000004 -0.09168236 0.31721997 10065553
0.76100004 -0.087938473 0.31173071 8420982
0.77350003 -0.085746743 0.31866187 9736845
0.74600005 0.029930435 0.31257182 9606029
0.74500006 0.037738577 0.31040877 10987425
0.75279999 0.035493489 0.31542099 10329752
0.74566674 0.044755604 0.31068656 11184803
0.75383329 0.045244787 0.31585398 10987680
0.74766666 0.052752778 0.31151986 11184544
0.75557148 0.055834897 0.31607959 10657943
0.75557148 0.064932421 0.31418571 10131086
0.76000005 0.066965193 0.31843778 9736840
0.75643754 0.074952036 0.31329674 10789019
0.7608 0.075050853 0.31877297 9671051
0.75770009 0.084679633 0.31268552 12763578
0.76166677 0.0844495 0.31735384 10197139
0.75900006 0.090864323 0.31091145 13158851
0.76499999 0.092478633 0.31516245 13027265
0.77233338 0.097884677 0.31275791 10329755
0.77550006 0.10010147 0.31313288 10592924
0.78654993 0.10613738 0.31528956 10593179
0.79000002 0.10937075 0.31066424 10658717
0.79211545 0.11508981 0.31506032 10724510
0.78711116 -0.14449929 0.32283583 9803409
0.79099995 -0.14644498 0.32710567 10000787
0.77700007 -0.13344619 0.32146746 9869201
0.78460008 -0.13566932 0.32654268 10000530
0.77487504 -0.12559541 0.32217747 9605771
0.78220004 -0.12426539 0.32773954 10000530
0.77500004 -0.11404946 0.32245603 9606026
0.78416663 -0.11447499 0.32856357 9803408
0.77525002 -0.10569371 0.32188103 9211525
0.78325009 -0.10380863 0.32680646 9671820
0.77600002 -0.095116638 0.32150847 9013635
0.78583336 -0.094479047 0.32742223 9145732
0.77800006 -0.083528347 0.32051578 9474186
0.78642857 -0.085745566 0.32583016 9013891
0.76100004 0.038549069 0.3206383 8553854
0.77200007 0.03819875 0.32708028 8619906
0.76216674 0.045452718 0.32142991 8948098
0.77400005 0.047361363 0.3297396 8619388
0.76375002 0.054326668 0.32224703 9408390
0.7713334 0.053813905 0.32740179 9013889
0.76488894 0.065903947 0.32287666 9604484
0.77283335 0.065081708 0.32864049 9539463
0.7651819 0.074993797 0.32337964 10723993
0.77150005 0.075202271 0.32867453 10066578
0.7665 0.083687425 0.32205904 9671820
0.77254546 0.08558248 0.32681993 10329750
0.76900005 0.090261236 0.32040852 11578279
0.77557147 0.093368888 0.32496285 10724766
0.78325003 0.097895227 0.32817888 10395799
0.78773344 0.10524904 0.32415622 10658971
0.79033333 0.10818356 0.32806423 10658971
0.78866673 -0.1345228 0.33137256 10000530
0.78800005 -0.12518586 0.33201444 10066323
0.78860009 -0.11604913 0.33226722 9934737
0.78850007 -0.10403636 0.33037919 9606029
0.78510004 0.035540938 0.33447167 8027512
0.77600008 0.044209123 0.33059162 8619389
0.78525001 0.045750871 0.33683234 8619132
0.77500004 0.055586852 0.33016559 9079682
0.78554553 0.054919351 0.33750403 8948611
0.77616668 0.06475582 0.33187488 8619133
0.78412503 0.064496502 0.33726662 9343627
0.77570003 0.074701957 0.33318949 9671565
0.78200006 0.075915784 0.33863974 10132628
0.77714294 0.083162233 0.33289811 10461338
0.78344446 0.085843988 0.33722886 10461337
0.77900004 0.091434985 0.33004603 10395799
0.78726679 0.095109932 0.33527023 10527386
0.79000002 0.097349614 0.33840528 10658971
0.78850007 0.10177951 0.33130273 10593178
0.79195243 0.10531797 0.33544624 10658971
0.78850007 0.067168728 0.34191632 9673106
0.79237503 0.064599104 0.34649768 9541776
0.78738463 0.075261444 0.34366733 9935507
0.79049999 0.074510224 0.34810412 9935507
0.78800011 0.085281447 0.34341899 10329752
0.79033333 0.085982136 0.34749079 10527131
0.78900003 0.090761669 0.34167105 10592924
0.79177284 0.095210508 0.34514892 10592925
