# .PCD v0.7 - Point Cloud Data file format
VERSION 0.7
FIELDS x y z rgb
SIZE 4 4 4 4
TYPE F F F U
COUNT 1 1 1 1
WIDTH 1062
HEIGHT 1
VIEWPOINT 0 0 0 1 0 0 0
POINTS 1062
DATA ascii
0.79380012 -0.07487195 0.10508043 11974313
0.78900003 -0.064391643 0.10894111 11776160
0.79359281 -0.06476628 0.10440601 12040105
0.79303342 -0.014595552 0.10484758 11119263
0.78900003 0.058438063 0.10894111 13092540
0.78900003 0.064902782 0.1089411 13223869
0.79271996 0.065207288 0.10388098 11052444
0.78900003 0.072291039 0.10894111 13552578
0.79158062 0.075038128 0.1046311 11381409
0.79348499 0.08520072 0.10465544 11448230
0.79360604 0.11493211 0.1046716 11711661
0.7883001 -0.14350352 0.1180704 13618628
0.79163158 -0.14517391 0.1138857 12302766
0.7875883 -0.13498949 0.11807114 13420735
0.79113328 -0.13494346 0.1129379 12302768
0.7877332 -0.12514381 0.1179845 13486526
0.79125011 -0.12535498 0.11283865 12368304
0.78748 -0.1148538 0.11654384 13618111
0.79033333 -0.11568914 0.11179733 11183773
0.78615391 -0.10486057 0.11604346 12828852
0.79000002 -0.10516014 0.11092858 12039084
0.78603566 -0.094838962 0.11568696 13025718
0.79033333 -0.095030069 0.11097539 11775910
0.7862758 -0.084604792 0.1157287 12829364
0.79000002 -0.086666107 0.11092857 11710115
0.7865001 -0.075235344 0.11503231 12829108
0.78599995 -0.065067999 0.11495844 13223605
0.78575855 -0.055056389 0.1150806 13157044
0.79000002 -0.051527418 0.11092858 12302504
0.7860769 -0.045113139 0.11645798 13815232
0.79090005 -0.044364553 0.11179471 11841956
0.78608328 -0.034556407 0.11604524 13289661
0.79049999 -0.035522498 0.11130702 12105130
0.78621864 -0.024878357 0.11487439 12435641
0.79000002 -0.029334571 0.11092858 12829111
0.78624249 -0.014970381 0.11524503 11910840
0.78653568 -0.0054670917 0.11536621 11318963
0.79000002 -0.0025182103 0.11092858 12502974
0.78656673 0.0048590982 0.11596427 11383986
0.79000002 0.0048794062 0.11092859 12766144
0.78623992 0.014979307 0.11591537 10791076
0.79000002 0.015051129 0.11092858 13093566
0.78670365 0.024812277 0.11639467 11053215
0.7906667 0.026170921 0.11163865 11974574
0.78719997 0.035268892 0.11698155 10789530
0.79100001 0.03543938 0.11199369 10394517
0.78600001 0.045428582 0.11594275 10987682
0.79040003 0.043183275 0.11135463 11908784
0.78556246 0.0550781 0.1146628 11581104
0.78412145 0.065000519 0.11493158 11844531
0.77900004 0.076845758 0.11850227 13093312
0.78531253 0.075054951 0.11445256 11645612
0.77766675 0.085813768 0.11890499 13814723
0.78534627 0.085035354 0.11408341 11578536
0.77900004 0.092346817 0.11850227 15000537
0.78571868 0.095385209 0.11439911 12171183
0.78804547 0.10499348 0.1163542 12106161
0.79000002 0.10646455 0.11145699 11514280
0.79072016 0.11502603 0.11473288 11580073
0.78860009 -0.15149637 0.12697726 11842481
0.79238099 -0.15565413 0.12477606 10329497
0.77900004 -0.14108077 0.12853238 13421504
0.78518528 -0.14530513 0.12461092 12434099
0.77700013 -0.13435291 0.12681113 13421248
0.78276932 -0.13534829 0.12217446 11775657
0.77661914 -0.12493606 0.12618692 13552064
0.78290915 -0.12487702 0.12192807 11183006
0.77578264 -0.11487498 0.12629993 13749441
0.78180003 -0.11505149 0.12167235 11117468
0.77615398 -0.10492449 0.12512128 12959668
0.78079998 -0.1057657 0.12060396 10658711
0.77521056 -0.094833709 0.12488886 12630445
0.77454847 -0.085145079 0.12612061 12630443
0.78049999 -0.084708579 0.12055761 11578783
0.77488887 -0.075031072 0.12602964 12828080
0.78100002 -0.074708752 0.12063484 10921368
0.77490002 -0.065054804 0.12603137 12827569
0.78100008 -0.064652912 0.12063485 11314842
0.77473688 -0.054874659 0.12567106 12629164
0.78000003 -0.056353163 0.12048038 11707032
0.7755335 -0.045137066 0.12432136 12694184
0.77522582 -0.035284564 0.12500595 12104358
0.78000003 -0.034441225 0.12048038 13946819
0.77540743 -0.025296882 0.12480664 11513764
0.78033334 -0.024103185 0.12053186 14015440
0.77581477 -0.015488749 0.12568061 11185313
0.78122228 -0.01437753 0.12127808 12304312
0.77604997 -0.0051987465 0.12622544 11119524
0.78110003 -0.005233163 0.12156352 11382441
0.77700007 0.0044105593 0.12677029 10857381
0.78153336 0.005376705 0.12217927 10790048
0.77846676 0.014831552 0.12753209 10792359
0.78173333 0.014893007 0.12257647 10856094
0.77791685 0.0248356 0.12653024 9934478
0.78191662 0.024966432 0.12169099 12237747
0.77740014 0.034830287 0.12644587 9868432
0.78220004 0.035043936 0.12173507 11777455
0.77780014 0.044899561 0.12632926 10724253
0.78127283 0.044978857 0.12150717 11513511
0.77761912 0.055036947 0.12626491 11513254
0.78088892 0.054688893 0.1214295 11777198
0.7768485 0.065115064 0.12489377 11446689
0.78000003 0.061727788 0.12108904 11908270
0.7760002 0.074907854 0.12454586 11512995
0.77528119 0.084531859 0.12456964 11116439
0.77707696 0.09436062 0.12506413 12499635
0.78125 0.098557681 0.12204413 12500154
0.77900004 0.10055325 0.1294442 12698297
0.78537041 0.10512819 0.12498192 13224130
0.78887504 0.11152354 0.12554419 11514023
0.79109102 0.11625795 0.12463316 11514280
0.79336655 0.12469677 0.12532778 11580073
0.79341656 0.13491814 0.12533467 11711659
0.787 -0.15312535 0.13560611 10395288
0.7917273 -0.15796253 0.13374683 9802895
0.76800007 -0.1411854 0.13840143 15328217
0.77516675 -0.1442191 0.13555768 11776680
0.7832858 -0.14775147 0.13277225 10724508
0.76384217 -0.13461752 0.13689473 14867666
0.77300006 -0.13536449 0.13216968 11251106
0.76371449 -0.12509224 0.13589606 12630965
0.77227271 -0.12498877 0.13111959 10394261
0.76299995 -0.1148084 0.13583119 13027008
0.77181822 -0.11489489 0.13087744 11381154
0.75900006 -0.10103361 0.13855869 11712177
0.76352006 -0.10513725 0.13551365 12567741
0.77127272 -0.10496573 0.13094939 11708576
0.75900012 -0.094180107 0.13830486 12566971
0.7632916 -0.095050134 0.13449438 12566714
0.77079999 -0.097552434 0.13096765 12432043
0.75900006 -0.085042112 0.13789237 12763579
0.76419997 -0.084979385 0.13348806 13158332
0.75900006 -0.077934787 0.13855869 12302254
0.7632004 -0.074970864 0.13466817 13157046
0.76319474 -0.064965419 0.13484515 13287605
0.764 -0.05513633 0.13504878 12959927
0.77000004 -0.051124223 0.13155386 13419965
0.76427585 -0.04522042 0.13605914 12500658
0.77100003 -0.044873379 0.13082108 12498606
0.76486683 -0.0346683 0.13603894 12763060
0.77099997 -0.034946289 0.13082108 12827828
0.76516014 -0.024828948 0.13609217 12499634
0.77109998 -0.025022451 0.13083817 12500917
0.76571429 -0.015244492 0.13644864 12369077
0.77178574 -0.014591388 0.13134107 12238004
0.7666316 -0.0053234189 0.1373983 11777456
0.77225006 -0.0049470598 0.13216139 12041139
0.76775002 0.0033961877 0.13835695 12106676
0.77259266 0.0050744023 0.13339907 11317930
0.76900005 0.011050551 0.13858399 11448235
0.77334487 0.01485886 0.13467762 10988455
0.77386117 0.024707997 0.13492514 10789785
0.77450007 0.034700751 0.13503811 11052700
0.77505565 0.044704832 0.13513437 10592152
0.7748065 0.05484087 0.13523726 11053214
0.77459991 0.064753838 0.13492821 11052441
0.77420008 0.075336114 0.13511848 11051673
0.7740646 0.085243963 0.13481991 11314845
0.77503341 0.09460023 0.13513367 12237234
0.778 0.10110804 0.13542496 13025978
0.78355008 0.10628121 0.13460173 12762292
0.78839999 0.11284134 0.13469718 11514023
0.79049999 0.11776813 0.13505626 11514280
0.79291993 0.12462725 0.13547105 11580073
0.79326928 -0.16488439 0.14502861 10000531
0.77700001 -0.15072291 0.14547932 10065294
0.78550005 -0.1549806 0.14446798 10065553
0.79000002 -0.15879287 0.14514256 9868175
0.75900006 -0.14012393 0.14744283 16380393
0.76345462 -0.14257437 0.14521974 15722462
0.77149999 -0.14559317 0.14219488 11643296
0.75707155 -0.13426106 0.1447227 15130838
0.76000005 -0.13763979 0.14052041 14011587
0.75719458 -0.12472229 0.14442934 13024436
0.75823337 -0.11513091 0.14462928 13486783
0.75847244 -0.10540245 0.14467536 12436155
0.75816673 -0.094710603 0.144618 12369591
0.75870001 -0.085007638 0.14472049 12237492
0.75900024 -0.075269543 0.14477758 12236463
0.75897169 -0.064733192 0.14489889 12301742
0.76000005 -0.06024573 0.14052041 13485758
0.75884998 -0.055180602 0.1464361 11973547
0.76020014 -0.054210283 0.14162488 12499631
0.75866657 -0.04504424 0.14737743 12368047
0.76044446 -0.045149401 0.14238204 12565936
0.75868738 -0.035387322 0.14715931 12170411
0.76040012 -0.034880985 0.14213632 12434352
0.75892848 -0.026403816 0.14780954 12301484
0.76042861 -0.024760326 0.14322661 12367793
0.76113868 -0.014897497 0.14518346 11710381
0.76272404 -0.0052316478 0.14533196 10658721
0.76421231 0.0049656155 0.14438504 11448231
0.76405144 0.015473232 0.14470138 11513513
0.76424223 0.024968773 0.14519776 11842472
0.77000004 0.027288176 0.14056678 11644835
0.76425797 0.034991141 0.14649424 11183774
0.77099997 0.035445776 0.14165084 11579043
0.76555002 0.045052372 0.1460211 11908010
0.77181822 0.044928547 0.14171912 12368303
0.76621056 0.054722574 0.14685786 11906982
0.77152944 0.055603564 0.14254364 12434352
0.76753849 0.064520188 0.14757949 11776681
0.77188236 0.065620199 0.14314015 11708828
0.76871437 0.074290052 0.14907277 11908010
0.77220714 0.075428225 0.14445624 11575960
0.77220029 0.085213788 0.14548251 11380895
0.77319354 0.094550349 0.14575824 12236464
0.77707148 0.10199519 0.14510417 13354687
0.78371429 0.10680044 0.14464235 11841961
0.7884286 0.11231808 0.14485301 11513767
0.7912001 0.11707106 0.14505464 11514280
0.77600002 -0.1513384 0.15478168 9932940
0.78581816 -0.15628402 0.15499587 9999503
0.79000002 -0.15879287 0.15254018 9670794
0.75900006 -0.14012393 0.15099651 16117478
0.76309091 -0.14364243 0.15489262 14736082
0.77075005 -0.14815859 0.15739515 11051420
0.7554571 -0.13492654 0.15483873 14933973
0.75538886 -0.12442161 0.15469919 11906728
0.75803334 -0.11509991 0.15524191 12499889
0.75891453 -0.1055906 0.15529466 11909038
0.75883341 -0.095385559 0.15377657 12238004
0.76000005 -0.092567384 0.15771909 11975862
0.759 -0.085752845 0.15206262 11974578
0.76000017 -0.084679708 0.15641434 11515058
0.75899994 -0.073335938 0.15381849 11711923
0.76000017 -0.077402048 0.15602465 11383474
0.75880575 -0.064593062 0.15539896 11316397
0.7577666 -0.054747704 0.15518533 11250347
0.75730562 -0.044962935 0.15509014 12039344
0.7573334 -0.035213299 0.15509573 12301740
0.75791669 -0.025480397 0.15521468 12498605
0.75866669 -0.016428676 0.15724444 12694957
0.76046157 -0.012488808 0.15361461 12497838
0.76107687 -0.0049601668 0.15476578 11578790
0.76266676 0.0047118836 0.15440293 10921633
0.76256251 0.015252642 0.15494116 10330269
0.76212007 0.025224872 0.15518606 10198421
0.76256675 0.035058338 0.15527734 10329237
0.76250011 0.04487272 0.15437026 11447716
0.76300025 0.054726735 0.1544711 11249821
0.76360613 0.065089226 0.15483499 11579300
0.76445466 0.074921973 0.15451533 11645094
0.76449996 0.084995672 0.15497676 12301998
0.76552016 0.094582669 0.15579884 12828599
0.77075005 0.097009495 0.15175419 12499375
0.76666671 0.10215259 0.15770318 13157821
0.77395654 0.10581268 0.15420231 12499634
0.78200006 0.1082632 0.15008013 11908011
0.77628577 0.11188591 0.15754621 12499635
0.7856667 0.11490324 0.15476343 11447975
0.79124999 0.1183431 0.15185362 11514023
0.78875005 0.12166186 0.15829971 11448233
0.79355568 -0.16529481 0.16488715 9868687
0.77616668 -0.15237828 0.16440429 10261643
0.78527278 -0.15701033 0.16491097 9801864
0.75900006 -0.14012393 0.16876484 14933974
0.76300001 -0.14369406 0.16429137 14539215
0.77150005 -0.14875472 0.16522115 9735042
0.75575751 -0.13475688 0.16504268 14867924
0.75646871 -0.12482093 0.16499327 12301739
0.7587778 -0.11610205 0.16437376 13091512
0.76000017 -0.1120035 0.16704628 13682622
0.75900006 -0.10902935 0.16165751 13024692
0.76051992 -0.10451178 0.16547228 12761006
0.76074994 -0.095032878 0.16470283 12499377
0.76103318 -0.085270092 0.16476315 11581103
0.75900006 -0.070827454 0.16787642 11515059
0.76033336 -0.075807571 0.16453093 11121071
0.75893348 -0.064603254 0.16519643 11317937
0.75756001 -0.054733325 0.16489756 11579570
0.75647235 -0.044914376 0.16554517 11710384
0.75600022 -0.03515131 0.16544111 12103589
0.7561112 -0.025420249 0.16546467 12826283
0.75726485 -0.015029439 0.16545646 12563371
0.75880003 -0.0072145662 0.16569999 12104876
0.76033336 -0.0038074467 0.16332527 12039339
0.76158309 0.0047060051 0.16488117 11775911
0.76263899 0.01542112 0.16511054 11118497
0.76300031 0.025253901 0.16518874 10526360
0.76300031 0.035077985 0.16518873 10263448
0.76300031 0.044902064 0.16518874 11053477
0.76300031 0.05472615 0.16518879 11053730
0.76286137 0.065430924 0.16515821 11315872
0.76189983 0.075157642 0.16494985 11118494
0.76102924 0.084766775 0.16449997 11907753
0.76136649 0.094712712 0.16483359 12565683
0.7638334 0.10390715 0.16500558 12763063
0.77000004 0.10840445 0.16039521 13485760
0.7739616 0.11412591 0.16498071 11711146
0.78224999 0.11882888 0.16111216 11382440
0.77900004 0.12061343 0.16591726 11382694
0.78513336 0.12524392 0.16458057 11448487
0.78824997 0.13481051 0.16619493 11514023
0.79016668 0.13590819 0.16120468 11514280
0.78900003 0.14063238 0.16620007 11579816
0.79196161 0.14522885 0.16446686 11579816
0.78875005 -0.16084987 0.17768747 9605258
0.79196161 -0.1652519 0.17466441 9737102
0.77611113 -0.15257129 0.17519562 10394257
0.78433347 -0.15684049 0.17398936 9736328
0.75900006 -0.14012395 0.17498375 14866898
0.764 -0.14427154 0.17524032 13880260
0.77214295 -0.14926569 0.17452982 10393487
0.75692308 -0.134561 0.17518714 14407374
0.75818753 -0.12494028 0.17485285 12235948
0.76000005 -0.12073763 0.17877264 12367021
0.75900006 -0.11820967 0.17113395 12827827
0.76062495 -0.11438105 0.17558166 13616829
0.76123995 -0.10489574 0.17461018 13220788
0.76146644 -0.095122986 0.17466216 13024181
0.76096654 -0.085262634 0.17543697 12433586
0.75899994 -0.072330937 0.17641887 12040630
0.76021749 -0.077054478 0.17445134 12171956
0.75850004 -0.064567342 0.17486759 11581108
0.75713331 -0.054702178 0.17455244 11712181
0.75523335 -0.044841964 0.17499802 11645358
0.75392848 -0.034866292 0.17526348 12499375
0.75374985 -0.025341805 0.17553602 12695209
0.75511771 -0.014777508 0.17496923 12761517
0.75807691 -0.005281047 0.17538446 12171185
0.76000005 -0.0015329953 0.17165595 11973551
0.75900006 0.00024585446 0.17853743 12828865
0.7609393 0.0048370063 0.17507961 11973551
0.76300031 0.015429587 0.17501336 11316131
0.76300025 0.025253901 0.17501286 10658200
0.7632336 0.035088904 0.1750671 10986650
0.76304024 0.044904228 0.1750222 10855068
0.76216656 0.054665793 0.17482194 10855840
0.76171398 0.065459482 0.17548046 10790047
0.76103324 0.075072549 0.17545143 11513769
0.75900006 0.088495217 0.17883356 12105391
0.76025009 0.084394671 0.17504859 11842219
0.75900012 0.094417997 0.17891817 11381924
0.76007158 0.095504306 0.17440428 12368304
0.76259083 0.10436549 0.17459334 12302771
0.77480006 0.11452542 0.17155227 11447974
0.78260005 0.11860647 0.17511402 11448230
0.78673685 0.1249143 0.17435481 11448230
0.79020005 0.12715739 0.17866217 11448230
0.78860009 0.13280763 0.17239301 11382694
0.79173332 0.13568403 0.17592172 11514023
0.79185194 -0.17537075 0.1845815 9737359
0.78874993 -0.16269693 0.18461247 9605771
0.79000002 -0.16775537 0.18518928 9671565
0.77637506 -0.1526486 0.18466453 10262417
0.78366673 -0.15691067 0.18525514 9604999
0.75900006 -0.14012393 0.18475632 15130070
0.76350009 -0.14363869 0.18495512 15261657
0.77122229 -0.14839989 0.18432011 10459026
0.75822222 -0.13485175 0.18496202 14407376
0.75893331 -0.12755628 0.18426657 13091775
0.76026672 -0.1226778 0.18553944 10459288
0.76145148 -0.11458346 0.18518083 13288125
0.7626 -0.1050828 0.18474147 12629678
0.7621665 -0.095212355 0.18463556 13088942
0.76059997 -0.085222788 0.18514577 12695730
0.75873339 -0.07453344 0.18540087 11908528
0.76000005 -0.079816639 0.18322058 12827832
0.75744438 -0.064477541 0.18526348 11515567
0.75623339 -0.054637551 0.18496627 11514798
0.75402766 -0.0447702 0.18442678 11710895
0.75235504 -0.035040345 0.18523712 12368563
0.75177789 -0.025275532 0.18563396 12104102
0.75271058 -0.01473112 0.18498246 12498859
0.75650001 -0.0050639152 0.18503024 12171698
0.75875008 0.00068998162 0.18602665 12830145
0.76083332 0.0060370546 0.18475693 12171957
0.76344448 0.015440696 0.18494385 11514283
0.76413327 0.025291495 0.18511252 10396316
0.7641111 0.035128806 0.18510698 11250083
0.76353347 0.044931892 0.18496712 11052700
0.76266676 0.054700818 0.18475646 11184033
0.76129019 0.065151781 0.18514165 11183006
0.76087987 0.075057812 0.18521433 11380901
0.75900006 0.087754868 0.18253529 11908529
0.76011556 0.084290199 0.18537043 11513516
0.75899994 0.094417982 0.18270613 11842733
0.76000017 0.095609903 0.18642309 11776686
0.76373345 0.10323562 0.184954 12237492
0.77166671 0.10803745 0.18573509 11974063
0.77642864 0.11190803 0.18588357 11382182
0.78675008 0.11744065 0.18552351 11514023
0.78900003 0.12031468 0.18097657 11382694
0.79252177 0.1245668 0.1854967 11382437
0.78900003 -0.16043893 0.19113541 9671048
0.79265219 -0.16521761 0.19505142 9671562
0.77580005 -0.15121864 0.19247764 10985369
0.78507686 -0.15625356 0.19562627 10196878
0.75900006 -0.14012393 0.19452891 14932691
0.76343757 -0.14295921 0.19499223 15327450
0.77280009 -0.14809905 0.19535303 10130316
0.75900012 -0.13460307 0.19484623 14670546
0.75899994 -0.12733074 0.19488427 13025982
0.76006263 -0.12230436 0.19435608 10262424
0.76111096 -0.11467618 0.19506852 12960446
0.76240009 -0.10505532 0.19539806 12827827
0.76169431 -0.095153525 0.19521804 13089712
0.75900006 -0.082080729 0.19660188 13024695
0.76029176 -0.085929334 0.19434048 12629678
0.75839394 -0.075453557 0.19477628 12040111
0.75643343 -0.065276869 0.19563977 12041137
0.75436103 -0.055386297 0.19510324 11579814
0.74879998 -0.040776767 0.19840023 11380127
0.75218183 -0.045009088 0.19419304 11973291
0.7479564 -0.034549523 0.19637813 11973038
0.75037503 -0.035988584 0.19165891 11907500
0.74779993 -0.025141275 0.19603251 11842219
0.75000006 -0.025215631 0.19134437 12631217
0.74839121 -0.015448305 0.19695035 12631217
0.75040001 -0.01298977 0.19249922 12499627
0.74900001 -0.008524497 0.19985634 13157565
0.75306678 -0.0050406815 0.19476643 12434613
0.75736678 0.0036759311 0.19581951 12368567
0.76033342 0.0077619948 0.19239788 11842734
0.75900006 0.012239477 0.1985268 11907500
0.76131248 0.015787233 0.19461764 12105392
0.76286209 0.025127931 0.19536173 11711146
0.76360005 0.035104945 0.19481203 11643557
0.76352006 0.04493257 0.19479233 10789532
0.76300025 0.054725837 0.19466107 11053218
0.762281 0.06554772 0.19481301 10855840
0.76169986 0.075139016 0.19522238 11447203
0.76113868 0.084883265 0.19507766 11578272
0.76079994 0.094642207 0.19499162 11842217
0.76491666 0.10187351 0.19440164 11579304
0.77350003 0.10739154 0.19552727 12040113
0.77800006 0.11135205 0.19302551 11316389
0.78580004 0.11541795 0.19483182 11316645
0.79000002 0.11861777 0.19785058 11316901
0.79314816 0.12466616 0.19492452 11448231
0.77590007 -0.15141971 0.2052156 10657689
0.78600001 -0.15676586 0.20451349 9670537
0.75900006 -0.14012393 0.20696673 14998997
0.7632001 -0.14340575 0.20519103 14998998
0.77183342 -0.1482154 0.20504574 10591382
0.75900012 -0.13479345 0.20518994 14407887
0.75900024 -0.12514776 0.20531678 11514032
0.76000005 -0.12073763 0.20101231 9671571
0.75899994 -0.11554442 0.20726286 12895427
0.76018763 -0.11375944 0.20273001 13026496
0.759 -0.1054757 0.20874356 12498865
0.7605499 -0.10480063 0.20382734 12499375
0.759 -0.093764752 0.20866281 13286832
0.76044005 -0.095457762 0.20404708 13089708
0.75868005 -0.084509775 0.20577759 12826797
0.76000005 -0.087645009 0.20207982 11971487
0.75702786 -0.075076267 0.20465463 12171182
0.75393099 -0.064940393 0.20542911 11908265
0.74900001 -0.051191106 0.20803899 11642264
0.75163651 -0.055531785 0.20460868 11972772
0.74765223 -0.044505052 0.20626742 12299938
0.75040001 -0.047188532 0.20198591 11906207
0.74550015 -0.035537854 0.20502791 12037800
0.74491674 -0.025044171 0.20486723 11973808
0.74602789 -0.014601573 0.20517248 12040112
0.74760002 -0.005427503 0.20634049 12500920
0.75044453 -0.0034648294 0.20160763 12302771
0.7486667 0.00082698138 0.20794614 12895421
0.75328571 0.0051867622 0.20472291 12631220
0.75751513 0.014972717 0.20513499 12039596
0.76000005 0.019224033 0.20160538 11974318
0.75900006 0.022278581 0.20821051 11842734
0.76091993 0.025756456 0.20467395 11842217
0.76263893 0.03506285 0.20438713 11907237
0.76343352 0.044928893 0.20460102 11775652
0.76316684 0.054737002 0.20453015 11118237
0.76232344 0.065227114 0.20456545 11184032
0.76167989 0.075136535 0.20502184 11316134
0.76067638 0.085040763 0.20537975 11250854
0.75900006 0.091752738 0.20874357 11908786
0.76051855 0.09467373 0.20517027 11513768
0.76581818 0.10146239 0.20483111 11645354
0.77406675 0.10692656 0.20533775 12237235
0.78600001 0.11513235 0.20534641 11316645
0.79000002 0.11861777 0.20154938 11382183
0.78900003 0.12216175 0.20868249 11316901
0.79124141 0.12525576 0.20460905 11382438
0.78825003 -0.16028643 0.21678716 9605002
0.77622229 -0.1534005 0.21418527 10131090
0.78425008 -0.15740827 0.21430498 9670795
0.75900006 -0.14012393 0.21496248 13880774
0.76311767 -0.14456749 0.21486135 14341326
0.77116662 -0.14959134 0.21569778 10525847
0.75880003 -0.13475847 0.21490511 14342096
0.75823337 -0.12489406 0.21474446 11908274
0.75823998 -0.11513305 0.21474618 13027268
0.75791675 -0.10532556 0.21554033 12433589
0.75774997 -0.094658911 0.21549296 12892849
0.75693339 -0.084811799 0.21526124 12433068
0.75477773 -0.074854463 0.21464755 12302257
0.74883336 -0.062282514 0.21792628 12630447
0.75144005 -0.065550625 0.21443695 12235948
0.74753118 -0.054283101 0.21510236 12103585
0.75000006 -0.058048408 0.21136007 12235175
0.74535495 -0.045240454 0.21526003 12301480
0.74283791 -0.035294831 0.21489301 11908269
0.74135721 -0.024924692 0.21516775 11646386
0.74305409 -0.014659639 0.21495548 12171704
0.74503469 -0.0051095895 0.21521421 12040115
0.7475 0.0035565097 0.21532759 12500149
0.75099999 0.0076674125 0.2128908 12236721
0.74900001 0.01076315 0.21914399 11643556
0.75444734 0.015170585 0.21487512 12236463
0.75808001 0.024524722 0.21569334 11711148
0.76025003 0.028277609 0.21175642 12698295
0.75900006 0.031784635 0.21807197 11053217
0.76103115 0.035378538 0.21414395 11447718
0.76246667 0.044871617 0.21504967 11579049
0.76316696 0.054737322 0.21524873 11185064
0.76275009 0.065420814 0.21513221 11250595
0.76109982 0.075079516 0.21466671 11249053
0.75900006 0.089087494 0.21407408 11446434
0.76021439 0.083890073 0.21505155 11775142
0.75899994 0.093477309 0.21433538 11973293
0.7601251 0.096560091 0.21550262 11775914
0.76490915 0.10150468 0.2143546 12237235
0.77490908 0.10761435 0.21418943 12369077
0.78595233 0.1153883 0.21497363 11250597
0.78894109 0.12269602 0.21399039 11316646
0.79015386 0.12803231 0.21482204 11316646
0.78800005 -0.16023558 0.22502056 9605256
0.79304767 -0.16577658 0.22487132 9605002
0.77545458 -0.15323021 0.22457333 10327951
0.78300005 -0.15738586 0.22542576 9473415
0.75900006 -0.14012395 0.22473507 13025980
0.76276475 -0.14439534 0.22495446 15130841
0.77079999 -0.14952023 0.2255232 10656145
0.75863343 -0.13472934 0.22462647 14736339
0.75799984 -0.12485613 0.22443897 11906468
0.75730002 -0.11499061 0.22423039 13158851
0.75700003 -0.10519776 0.22502898 12500666
0.75626677 -0.094651625 0.22498608 12170673
0.75402939 -0.084851071 0.22543895 11909043
0.74837506 -0.073559649 0.22837728 11579822
0.75189662 -0.075506873 0.22381085 11777201
0.74711752 -0.064885728 0.22522531 11973035
0.75000006 -0.069109723 0.22207023 11447462
0.74456108 -0.054773726 0.22493953 12367534
0.73874998 -0.042996675 0.22825041 10987940
0.74225003 -0.045300756 0.22404325 12039342
0.73850012 -0.03462537 0.22716403 11776427
0.7408824 -0.036388274 0.22227748 11973807
0.73842889 -0.0249507 0.22568047 11645098
0.74000001 -0.020548539 0.22170781 11711407
0.73822242 -0.014738276 0.22674224 11908273
0.74071437 -0.013631269 0.22167318 11579313
0.73855555 -0.0064841714 0.22838238 11711153
0.74162507 -0.0046056812 0.22385502 11776946
0.74453855 0.0046696556 0.22493976 12565683
0.74756002 0.013894874 0.22579153 12500405
0.75150007 0.017962927 0.22301374 11974319
0.75447059 0.02497662 0.22515163 11776941
0.75768584 0.034506161 0.22477354 11908267
0.76000005 0.038498417 0.22058322 12303286
0.75884622 0.043291368 0.22694382 11841445
0.76075011 0.045067161 0.22258066 12302514
0.76166648 0.055037327 0.22544104 11250597
0.76194423 0.065351821 0.22560495 11381926
0.7608332 0.075052895 0.2252768 10921121
0.75900006 0.08642225 0.22917716 12040371
0.7600314 0.084537834 0.22448435 11513513
0.76089287 0.094465829 0.2249783 11710889
0.7676 0.10123876 0.22458744 11908269
0.77442855 0.10566572 0.22489774 11513511
0.78000003 0.1098123 0.22273605 10658717
0.78638464 0.11312294 0.22540668 11711404
0.791125 0.11786111 0.22591494 11185061
0.79304016 0.12464669 0.22460942 11250854
0.78814286 -0.16131976 0.23507854 9539209
0.79320008 -0.16649635 0.23467222 9605258
0.77466673 -0.1529921 0.23481363 10262161
0.78255558 -0.15790959 0.23567711 9473159
0.75900006 -0.14071622 0.23628446 13354428
0.76271427 -0.14463988 0.23425095 15262169
0.77000004 -0.14936504 0.23430113 11445404
0.75843346 -0.13469382 0.23521934 15327704
0.75799984 -0.12485611 0.23508589 11839647
0.75736672 -0.11500145 0.23488975 13092028
0.75627792 -0.10509916 0.23455034 12433327
0.75428122 -0.095165677 0.23497723 12170158
0.74807698 -0.082068048 0.23719364 11448488
0.75160009 -0.086327292 0.23397894 11514028
0.7464 -0.074895859 0.23497961 11710891
0.74389476 -0.064975858 0.2347852 12038314
0.73877776 -0.052991021 0.23671457 11316901
0.74131817 -0.055926431 0.2339333 11907756
0.737158 -0.045449391 0.23493077 11778226
0.73616672 -0.035091147 0.23520562 11973545
0.73541665 -0.024726208 0.23496577 12234918
0.73522228 -0.01439126 0.23490268 12367790
0.73612505 -0.004767749 0.23481165 12040110
0.73805571 0.002448211 0.23676896 12631989
0.74204546 0.0061659054 0.23368917 12369331
0.74562162 0.014965006 0.23489963 12040623
0.74816674 0.022427978 0.23670478 12105901
0.75136852 0.026351893 0.2343685 11645094
0.75497371 0.034620672 0.23474759 11842986
0.75805891 0.045240466 0.2353123 12368046
0.75900006 0.052366287 0.23924588 11316134
0.76042312 0.055158593 0.23460436 11644838
0.7608999 0.065263331 0.2350942 11644067
0.75900006 0.077538073 0.23776518 11644581
0.76014298 0.074476667 0.23443659 11118750
0.75888604 0.084759302 0.23548691 11710376
0.76000005 0.080308996 0.23125826 11711407
0.75889999 0.091563091 0.23607521 11249055
0.76244444 0.0962395 0.23447926 11907498
0.77305883 0.10341025 0.23523037 11973805
0.78060007 0.10806938 0.23497018 12237490
0.787 0.11172062 0.23486784 11579818
0.79250008 0.11725728 0.23523289 11053474
0.78842866 -0.16164207 0.24623549 9408138
0.79186672 -0.16658473 0.24466459 9473930
0.77520007 -0.15309727 0.24495792 9671052
0.78325009 -0.15812582 0.24428967 9342345
0.759 -0.14101236 0.24516864 13683135
0.76391673 -0.1455057 0.24496536 14999251
0.77100003 -0.14955902 0.24507399 12894391
0.75808007 -0.13463041 0.24487153 15196374
0.75759989 -0.12466408 0.24547498 11379607
0.75670016 -0.11490021 0.24530938 13157048
0.75424325 -0.10474615 0.24467935 12497832
0.74883336 -0.092084058 0.24772783 12170159
0.75142312 -0.095629305 0.2445443 12169381
0.74706453 -0.084666498 0.24509066 11776169
0.75000006 -0.088715754 0.241091 12302509
0.74427277 -0.075157709 0.245003 11972772
0.73900002 -0.060311053 0.24822339 12960183
0.74140531 -0.06529481 0.24487686 12235686
0.73817259 -0.054703776 0.24493457 11710886
0.74000001 -0.058660313 0.24162987 12039081
0.73545957 -0.045506153 0.2451466 12171182
0.73441654 -0.035007689 0.2449628 11973290
0.73355532 -0.024663989 0.24467513 11577504
0.73246342 -0.014233887 0.2450408 11643812
0.73278117 -0.0050687017 0.2447909 11908526
0.73500001 0.0046342053 0.24483626 12368820
0.74000001 0.0089014657 0.24076369 13093312
0.737077 0.012318945 0.24750759 11974320
0.74254835 0.016001012 0.24411185 11974573
0.74623537 0.025215147 0.24545997 11908778
0.75000006 0.028335158 0.24050574 11316642
0.74837506 0.032216035 0.24677271 11843759
0.7523793 0.035777695 0.2441204 12106417
0.7563889 0.045402139 0.24520797 12500404
0.75826937 0.054865889 0.24581796 11645102
0.76000005 0.05753557 0.2408658 11513771
0.75881821 0.065085076 0.2462398 11316908
0.76000017 0.065186016 0.24142493 11579306
0.75882608 0.075086929 0.24542078 11382696
0.76000005 0.072836466 0.2408658 11185058
0.75791168 0.084523648 0.24544226 11249826
0.75850004 0.091692887 0.24500713 12302001
0.76205885 0.096481837 0.24447362 11973549
0.77419055 0.10442842 0.24532592 12697270
0.78000003 0.10798631 0.24099599 12369332
0.78726315 0.11316699 0.24576062 12039855
0.79072726 0.11738152 0.24346739 11119265
0.79305726 0.12464902 0.24502011 11185315
0.78800011 -0.16076331 0.25532669 9473674
0.79330003 -0.16623893 0.2549468 9473673
0.77483338 -0.15302502 0.25481567 10197139
0.78257143 -0.15756257 0.25592187 9210501
0.759 -0.1415454 0.25458583 13617087
0.76353842 -0.14591646 0.2552948 14998995
0.77075005 -0.14951053 0.25347403 14275531
0.75766659 -0.13504145 0.2547344 14802130
0.75670981 -0.12478804 0.25488546 11051670
0.75409669 -0.11467697 0.25519937 13222838
0.74877781 -0.10337377 0.25803193 11973803
0.75140005 -0.10600409 0.25382671 12564393
0.74711108 -0.094546854 0.25526795 11711919
0.75000006 -0.099250324 0.25162557 11381408
0.74478137 -0.085358225 0.2550101 11579306
0.7385 -0.073064379 0.25808236 11712181
0.74203122 -0.075923197 0.25406942 12040113
0.73680013 -0.064468734 0.25548601 11645873
0.74025005 -0.067778498 0.25167578 11908528
0.73454046 -0.055301402 0.25487462 12235948
0.73255563 -0.045209609 0.25462955 12958898
0.73202789 -0.034893692 0.25444686 12039858
0.73141044 -0.024394315 0.25469369 11579304
0.72900003 -0.012197679 0.25863919 11711405
0.73073351 -0.014931225 0.25468269 11119010
0.72900003 -0.0063058375 0.25880173 12040632
0.73081481 -0.00438852 0.25424811 11382703
0.73160535 0.0043400461 0.25461608 11908273
0.7343421 0.014945867 0.25493175 12039341
0.74000001 0.019295586 0.25115782 11578792
0.7374 0.022163894 0.25735062 12302772
0.74251616 0.026093429 0.25419521 12040370
0.74638712 0.03479648 0.25501227 12172212
0.75000006 0.038869739 0.2519182 11974577
0.7486667 0.041137751 0.25877276 11448230
0.75338888 0.045321323 0.25486448 12435126
0.75606251 0.0552807 0.25533351 12236461
0.75697309 0.064807624 0.25442502 11579306
0.75722855 0.075457379 0.25447136 11448233
0.75714821 0.085259758 0.25481087 11447974
0.75864708 0.092494398 0.25497943 12236720
0.7626667 0.097406119 0.25468233 11446949
0.76900005 0.1010627 0.25649989 11710637
0.77457899 0.10476245 0.25496966 12500922
0.78723997 0.11430208 0.25473022 11711407
0.79000002 0.11861777 0.25888091 10987684
0.79092008 0.12431273 0.25548068 11119268
0.78816676 -0.16211458 0.2647371 9342344
0.79123527 -0.16645214 0.26483998 9407880
0.77471435 -0.15378369 0.26526758 9802378
0.78399998 -0.15916134 0.26478091 9342087
0.75841665 -0.14267974 0.2653968 13354172
0.7633847 -0.14725953 0.26486194 14933716
0.7566945 -0.13527162 0.26479355 14736338
0.7553637 -0.12514679 0.26488733 11118497
0.74837506 -0.11232134 0.26779622 11841962
0.75210005 -0.11573057 0.26430026 12763062
0.7465589 -0.10477754 0.26530468 12040369
0.73900002 -0.091451272 0.26984856 11708824
0.74380571 -0.095241658 0.26477796 11645609
0.73800015 -0.084346808 0.26652995 11972259
0.74126679 -0.086294994 0.26257598 12104106
0.73556101 -0.074565656 0.26501614 11842987
0.7325334 -0.064929865 0.26491198 11907240
0.72887504 -0.052873116 0.26849735 11908269
0.7311179 -0.05594334 0.26429999 12236461
0.7281251 -0.044580694 0.26665667 12500662
0.73061109 -0.045564055 0.26174858 12301996
0.72722864 -0.034591895 0.26651737 11712432
0.73046154 -0.035016056 0.26094228 11975093
0.72708112 -0.024330497 0.26617992 11449009
0.73037499 -0.026052462 0.26092789 11776948
0.72655565 -0.014931398 0.26515305 11579046
0.72607332 -0.0056091342 0.26524386 11776425
0.72738707 0.0037528807 0.26648182 11973545
0.73061532 0.0062892726 0.26178664 12105132
0.72874999 0.011752109 0.26909113 12105387
0.7315557 0.014938883 0.2646066 12303024
0.73527789 0.024772361 0.26518464 11776940
0.74120003 0.029390913 0.26232162 12368821
0.7385 0.031790867 0.26836905 11381665
0.74396676 0.035483841 0.26492399 12171185
0.74765384 0.043799784 0.26600611 12105905
0.75123078 0.047862526 0.26321861 12040625
0.74900001 0.051091868 0.26999325 12499635
0.75276673 0.054874852 0.26517996 11776680
0.75475001 0.064738162 0.26440674 12171437
0.75586146 0.075447701 0.26450312 12039081
0.75646687 0.085249677 0.26471531 11972775
0.75853848 0.09203919 0.2645523 12105389
0.76242858 0.096887365 0.26527214 11447717
0.76900005 0.1010627 0.26370084 11514025
0.77568746 0.1056913 0.26508394 11119525
0.78657901 0.11297307 0.26463777 11514284
0.79011112 0.1178125 0.26569977 10987682
0.79272002 -0.17418829 0.27461979 9342600
0.78800005 -0.1620803 0.27482802 9277062
0.79094124 -0.1664985 0.27520093 9277063
0.76766676 -0.15070952 0.27581921 14143686
0.77457148 -0.15465929 0.2735123 10263185
0.78250003 -0.15911718 0.27565506 9211012
0.75738901 -0.14337364 0.27567422 13485499
0.76128578 -0.14742048 0.27467439 15327702
0.75381076 -0.13492481 0.27467844 14802131
0.74827284 -0.12237887 0.27769226 10919829
0.75138462 -0.12599951 0.27402806 10722967
0.74668968 -0.11500897 0.27542612 12959927
0.75033337 -0.11861669 0.27105913 14407633
0.73900002 -0.10010134 0.27849862 12631221
0.74336839 -0.10523088 0.27491882 12039854
0.73754174 -0.09414997 0.27614743 12301995
0.74100006 -0.096904024 0.27231237 11775651
0.73434991 -0.084690467 0.2747643 12170667
0.72900003 -0.071441151 0.27984983 11644324
0.73184621 -0.075478859 0.2753374 12170409
0.72792006 -0.064794138 0.27657053 12499376
0.73081243 -0.066272765 0.27220458 12629159
0.7252143 -0.054945402 0.27499217 12368562
0.71900004 -0.042183541 0.27904075 12632504
0.72288382 -0.044868164 0.27430397 12631737
0.71899992 -0.033767581 0.27803084 12500404
0.72170365 -0.034683812 0.27329084 12369333
0.71870583 -0.024708265 0.27718404 12171696
0.72140014 -0.024845537 0.27228576 12172469
0.71841669 -0.01574464 0.27662653 12106416
0.72081256 -0.01526976 0.27174851 12368558
0.71886361 -0.0059627574 0.27702916 12698297
0.72085011 -0.0053354339 0.27199444 12302254
0.71899998 0.0026641751 0.27844232 12764091
0.72185713 0.0051123714 0.27396259 12566197
0.72463417 0.014223561 0.27543163 11974318
0.7306 0.018366436 0.27156955 11316646
0.72750008 0.022986831 0.27781156 11711404
0.73200011 0.025944294 0.27374354 11711404
0.7353667 0.034271445 0.2756888 12171954
0.74171436 0.03744873 0.27257404 11974573
0.73900002 0.04002966 0.27849862 11053218
0.74481589 0.044617042 0.27490342 11974061
0.74774987 0.053998515 0.27639627 12170412
0.75033337 0.057038292 0.27296141 11907498
0.7530278 0.064884037 0.27452672 12236976
0.75455517 0.075317934 0.2746439 11974063
0.75603348 0.085201152 0.27518293 12236463
0.75854546 0.09177909 0.27472532 11907754
0.76347059 0.096766092 0.27520615 11250082
0.77405 0.10408892 0.27521363 10856097
0.78000003 0.10798631 0.27477688 14014159
0.7868824 0.11284395 0.2755188 11579819
0.79049999 0.11795308 0.27477404 10987682
0.78736365 -0.16278899 0.28516257 9145479
0.79172724 -0.16722848 0.28505918 9211016
0.76900005 -0.15277156 0.28710401 11709349
0.77412498 -0.15538187 0.28448975 9210499
0.78033334 -0.15867661 0.28311402 9145221
0.7563889 -0.1437773 0.28475696 13617857
0.76212507 -0.14917679 0.28475922 14933717
0.74900001 -0.13170242 0.28533566 13617602
0.75124002 -0.13567029 0.28465757 14736338
0.74761754 -0.12484808 0.28493661 11183261
0.75000006 -0.12968357 0.28088829 10853525
0.7445001 -0.11479194 0.28492743 12697271
0.73899996 -0.10096633 0.28325611 12631476
0.74124986 -0.10597559 0.28491277 11841961
0.73668009 -0.094685823 0.2843169 12171182
0.74000001 -0.098504432 0.2892696 12500146
0.73354536 -0.084847614 0.28487477 11974061
0.72900003 -0.07178247 0.28394568 12039339
0.73087507 -0.075832501 0.28506184 12236719
0.72575682 -0.064884871 0.28475526 12105388
0.71899998 -0.051272772 0.28678343 11052703
0.72103328 -0.05547104 0.2841045 12105389
0.71854287 -0.044224653 0.28520617 11711404
0.72000003 -0.048647232 0.28145149 12894393
0.71775007 -0.034738366 0.28456199 11645354
0.71714693 -0.025543205 0.28473008 11579561
0.71639979 -0.015533413 0.28482249 11579817
0.7171315 -0.0058178212 0.28483456 12238003
0.71866661 0.0044401847 0.28513587 12500920
0.71899992 0.011654558 0.2853888 12237492
0.72058338 0.016259922 0.28448948 12237491
0.7245 0.024746308 0.28463382 12435124
0.73000002 0.029288495 0.28023371 12040367
0.72850007 0.03157372 0.28647843 12698295
0.73218757 0.036397338 0.28433737 12500917
0.73656255 0.042808976 0.28608784 12631991
0.74270004 0.046926446 0.28414908 12368563
0.74597377 0.055439208 0.28516808 12237491
0.74846661 0.063905641 0.28673762 12303027
0.75094122 0.066633962 0.28309974 12170927
0.74900001 0.070379511 0.28928089 12698297
0.75278956 0.07505101 0.28489664 12105903
0.75564289 0.084970392 0.28533813 12499891
0.75874996 0.091278598 0.28416622 12433845
0.7631765 0.095994428 0.28497994 11381670
0.76900005 0.1010627 0.28170329 10395545
0.7744 0.1056949 0.28501976 10658717
0.78000003 0.1098123 0.28116786 11119011
0.77880007 0.11183127 0.28729859 10856096
0.78476006 0.11555655 0.28427356 10856096
0.7883333 0.12304392 0.28700101 10921889
0.79105556 0.12618494 0.28370988 11053475
0.78689998 -0.16277759 0.29470825 9145479
0.79310012 -0.16777155 0.29517686 9145479
0.76700002 -0.15057865 0.29264179 14079950
0.77422225 -0.15462212 0.29438627 10066325
0.78200006 -0.15901552 0.29836491 9144970
0.75840008 -0.14178857 0.29326767 12630962
0.76100004 -0.14456619 0.29442424 12960186
0.77200001 -0.14975299 0.29997128 8553343
0.75435007 -0.13485323 0.29488236 12499891
0.74790919 -0.12327516 0.2923615 9867658
0.75150007 -0.12613136 0.29611263 8946814
0.7462728 -0.11482621 0.294743 11118752
0.74442863 -0.10544421 0.29473928 11052187
0.73875004 -0.092717841 0.29094288 11644839
0.74264997 -0.095293574 0.29595926 9803149
0.73627782 -0.084702998 0.29336965 9671305
0.74125004 -0.08739122 0.29800153 9473668
0.73237503 -0.074990071 0.29336363 9803410
0.72633338 -0.065761924 0.29315674 10000785
0.71900004 -0.051946055 0.29200134 11053988
0.72066671 -0.056566685 0.29239571 10461079
0.71813059 -0.043697607 0.29336575 9936536
0.71789676 -0.034132633 0.29442221 10264215
0.7172333 -0.02545738 0.2941952 11052445
0.71706879 -0.015686003 0.29471958 11184548
0.71732354 -0.0054472303 0.29492715 10789788
0.71863896 0.0044402415 0.29521948 10330268
0.71900004 0.010752847 0.29242212 9145999
0.72121423 0.015070482 0.29543358 10197396
0.72619241 0.02449853 0.29453155 11184545
0.73033333 0.02873222 0.29859897 9605772
0.72900003 0.031808276 0.29179603 12632503
0.73150015 0.035711311 0.29542741 12369076
0.73553574 0.045013487 0.29490119 12763834
0.74150002 0.048844405 0.29072329 12895677
0.73900002 0.050409734 0.29666376 12435125
0.74351436 0.055198245 0.29496735 12566712
0.74645168 0.064786978 0.29460749 12303283
0.74799985 0.073976159 0.29595977 12631991
0.75063634 0.077403098 0.29198834 12698040
0.74900001 0.081601411 0.29839867 12434613
0.75396442 0.085351929 0.29459691 12303284
0.75900006 0.090864323 0.29758522 13027012
0.76312506 0.093820311 0.2945101 11250856
0.77199996 0.098972842 0.29590669 10592668
0.77635717 0.10462978 0.29387575 10658717
0.78225005 0.10829722 0.29708844 10658717
0.78494734 0.11525036 0.29504356 10724510
0.78835291 0.12347388 0.29471028 10921889
0.79027271 0.12807705 0.29647657 10921889
0.79223996 0.13564846 0.29485419 11053475
0.78800005 -0.16134241 0.30360708 9079434
0.77575004 -0.15184347 0.30233613 8882053
0.78455561 -0.15606968 0.30586958 9013640
0.76600003 -0.14231285 0.30212295 14079691
0.77300006 -0.14452352 0.30707958 11250598
0.75850004 -0.13381797 0.30138409 14013129
0.76270002 -0.13545355 0.30510789 12040110
0.75716668 -0.12462126 0.30455041 9802378
0.7608 -0.12763354 0.30844301 12039340
0.74900001 -0.110223 0.30155483 10197393
0.75438893 -0.11562692 0.30490813 10131086
0.74771434 -0.10403276 0.3015382 10328980
0.75455558 -0.10573972 0.30673814 9802123
0.74787503 -0.096050844 0.30241612 9737098
0.75674999 -0.095861271 0.30821821 9277317
0.74522233 -0.084084161 0.30293906 9803147
0.75600004 -0.087360695 0.30791274 10132625
0.73900002 -0.079341188 0.30098876 10131600
0.74419999 -0.077809416 0.30206209 9605514
0.71800005 -0.012373809 0.3008399 7435634
0.71800005 -0.0048099789 0.3008399 7829620
0.72391671 0.016480958 0.30261472 10986654
0.7279231 0.022653017 0.30329412 10921116
0.7310909 0.027311115 0.30414736 10855580
0.73443758 0.035701983 0.30310893 10197908
0.74349999 0.035923801 0.30978376 11251108
0.73714286 0.045108896 0.30282187 9671820
0.74220002 0.044715539 0.30820131 10066580
0.74400002 0.055110533 0.30477005 10987681
0.74695241 0.064859062 0.30389664 12434613
0.75050008 0.066128716 0.30918652 11842221
0.74805886 0.074413463 0.3028248 12697273
0.75085717 0.075578175 0.30732507 12631480
0.74900001 0.081484519 0.30213931 12697784
0.75310004 0.08557979 0.3050558 12632249
0.75866669 0.090824418 0.30455795 12764092
0.7626251 0.093755476 0.3041355 11842735
0.77212501 0.098537743 0.30612114 10592668
0.77733344 0.1015531 0.30598709 10592924
0.78569233 0.10722101 0.30614036 10592924
0.78846669 0.11358892 0.30378672 10790303
0.79033333 0.11722913 0.30688998 10593438
0.79218191 0.12425905 0.30545509 10856352
0.78822225 -0.1531058 0.31488594 9277065
0.79150003 -0.15739714 0.31619659 9342858
0.77600002 -0.1420521 0.31303164 9211272
0.78366667 -0.14671838 0.31632903 9408394
0.76733333 -0.13268225 0.31133088 11316389
0.77350003 -0.13543017 0.31581858 9671823
0.76511121 -0.12493602 0.31381506 11908010
0.77050006 -0.12376 0.31877849 9342855
0.76276934 -0.11513647 0.31355783 10657172
0.77050006 -0.11428765 0.31922972 9079682
0.76300013 -0.10513753 0.31344655 11841449
0.77149999 -0.10811464 0.31964403 8882049
0.76133329 -0.097778834 0.31186727 10000530
0.77050006 -0.094898172 0.31742597 9934737
0.76500005 -0.0848049 0.31426936 9079684
0.77050006 -0.085425824 0.31742597 9737616
0.77400005 -0.078567848 0.31886786 9539981
0.74700004 0.029970556 0.31299081 10000530
0.74875003 0.035300449 0.31372407 10461338
0.75566673 0.037400633 0.31780592 9014406
0.74600011 0.045294534 0.31117612 11316646
0.75479996 0.045301367 0.31714672 9935251
0.74800003 0.054529332 0.31122038 10724252
0.75550002 0.057726659 0.31567147 11052960
0.75592315 0.06517642 0.31414634 10066323
0.76000005 0.066075608 0.31843778 9736328
0.75640011 0.074734181 0.3131555 10724254
0.76066679 0.075631075 0.31842056 9605259
0.75787497 0.084076755 0.31266901 12632252
0.76172733 0.085032023 0.31689328 10724000
0.76350003 0.092297316 0.31365255 12895681
0.77200001 0.098204814 0.31298453 10329753
0.77700013 0.10120654 0.31464338 10658717
0.78529418 0.10645384 0.31562117 10658717
0.78890914 0.11190615 0.31459996 10658974
0.79088235 0.11657379 0.31525809 10659230
0.78750014 -0.14431311 0.32381639 9934994
0.79062498 -0.14735152 0.32733664 10066580
0.77760005 -0.13300213 0.32217139 9869201
0.78470004 -0.13642029 0.3267681 10000787
0.77550012 -0.12501363 0.32330129 9671822
0.78150004 -0.12872759 0.32744622 10000787
0.77562499 -0.11595806 0.32362449 9672077
0.78200006 -0.11416219 0.32765573 10000787
0.77516669 -0.10500263 0.3220723 9013635
0.78350002 -0.10521609 0.3273693 9540236
0.77639997 -0.09607625 0.3216742 9277064
0.78633338 -0.094853438 0.32732543 9145478
0.79100001 -0.090479292 0.32957494 8948099
0.7828334 -0.084962606 0.32433963 8684927
0.76666671 0.037935607 0.32482067 8752008
0.77400005 0.034222398 0.32838061 7567736
0.76420003 0.044975497 0.32377556 9803665
0.77283335 0.044575948 0.32924256 8356476
0.76525003 0.053097531 0.32332793 9210756
0.773 0.056345087 0.32810792 9539205
0.76457149 0.065961041 0.32240027 9407363
0.77216673 0.065626949 0.32775447 9933193
0.76563638 0.075037993 0.32357204 10723482
0.77250004 0.075299755 0.32910052 10066066
0.7665 0.083688021 0.32205847 9671569
0.77236366 0.085561566 0.32674316 10263962
0.76900005 0.090261236 0.32040852 11908529
0.77569228 0.094263308 0.32487437 10724512
0.78300005 0.098320045 0.32899123 10592924
0.77700001 0.10029509 0.32010379 10658717
0.78630006 0.10573466 0.32494751 10724510
0.78886658 0.11340021 0.32573184 10790303
0.79025006 0.11711394 0.32371151 10725024
0.78900003 0.12031468 0.32874164 10921889
0.79234391 0.12482787 0.32473668 10790816
0.78900003 -0.14012124 0.33151221 10329752
0.79147631 -0.14435665 0.33524537 10263960
0.78837508 -0.13424343 0.3324036 10198166
0.79115385 -0.13537349 0.3373338 10263960
0.78744447 -0.12550858 0.33260128 10000787
0.7881667 -0.11506168 0.33208466 9869201
0.78833342 -0.10309201 0.33030936 9803408
0.77649999 0.035698049 0.33080465 7634039
0.77775002 0.044860609 0.3331579 8488062
0.78525001 0.045290567 0.33775237 8751235
0.77550006 0.055623885 0.33037859 9210498
0.78610003 0.055465437 0.33765754 8816771
0.77649999 0.064784408 0.33141133 8881532
0.78570002 0.064810649 0.33766881 9145991
0.77612507 0.075426757 0.33314478 9868687
0.78280008 0.075389937 0.33825439 10000530
0.77700007 0.08412803 0.33263555 10461338
0.78314286 0.085112229 0.33782601 10395545
0.78638887 0.095271319 0.33553204 10527131
0.78877783 0.10468832 0.33193195 10658717
0.79107141 0.10581677 0.33661655 10724510
0.79119998 0.1150928 0.33429158 10790303
0.78900003 0.12123821 0.3305887 10921889
0.79123998 0.12502714 0.33530912 10856096
0.78900003 0.068596907 0.34167105 9672592
0.78800011 0.075335905 0.34289944 10066838
0.79211116 0.074843235 0.34734687 10001559
0.78809094 0.085289568 0.34345925 10527131
0.79150003 0.086106576 0.34800419 10396060
0.78866673 0.091339014 0.34214243 10527131
0.79168427 0.095559046 0.34546915 10592925
0.79158354 0.10495734 0.35483086 10593696
0.79239285 0.11507023 0.35486433 10724767
0.79043365 0.10480502 0.36449799 10593694
0.79130781 0.14489144 0.41512954 10462878
0.7902416 0.14442545 0.42469054 10593694
