# .PCD v0.7 - Point Cloud Data file format
VERSION 0.7
FIELDS x y z rgb
SIZE 4 4 4 4
TYPE F F F U
COUNT 1 1 1 1
WIDTH 783
HEIGHT 1
VIEWPOINT 0 0 0 1 0 0 0
POINTS 783
DATA ascii
0.78900003 -0.15212713 0.13849412 14211024
0.7876842 -0.14444983 0.13699839 13816006
0.79100007 -0.14618772 0.13251685 12170667
0.78724122 -0.13504107 0.13646486 13552068
0.79000002 -0.1347506 0.13127203 11906214
0.78764999 -0.12512968 0.13733234 14342352
0.79150009 -0.1242821 0.13204852 11774370
0.78766674 -0.11499123 0.13825773 14803154
0.79290479 -0.11509069 0.13280906 12695983
0.78723538 -0.10446795 0.13774741 14606031
0.79300004 -0.10555985 0.13225393 12236457
0.78628004 -0.09457694 0.13639005 13553604
0.79088891 -0.096021041 0.13203621 11775906
0.78577763 -0.084770732 0.13628475 13421505
0.79039997 -0.084861048 0.13133849 11907494
0.78600007 -0.075187609 0.13611925 13223355
0.79000002 -0.074644975 0.13127203 11907494
0.78619361 -0.06493295 0.13597487 13222840
0.79000002 -0.065397955 0.13127203 11907494
0.78688461 -0.055149905 0.13606229 12631732
0.79000002 -0.054301526 0.13127203 11974574
0.78753567 -0.045176703 0.13665323 12368562
0.79025 -0.044142891 0.13177592 11579816
0.78775007 -0.035014316 0.13804163 12827568
0.79257894 -0.034800135 0.13247693 11645096
0.78794438 -0.024646441 0.13830714 12429981
0.78762507 -0.014265915 0.13801983 11772313
0.78710002 -0.0052732406 0.13723534 12103595
0.78742856 0.0044697872 0.13768864 11711663
0.78784621 0.015152177 0.13857394 10922144
0.78799999 0.025158998 0.13831702 11382184
0.78850007 0.034714025 0.13871342 12171701
0.78811121 0.046172787 0.13874699 10655633
0.78782356 0.054932699 0.13817704 12299684
0.7876001 0.064787038 0.13732342 12694702
0.78724986 0.074895151 0.13726166 11908270
0.79058331 0.075212747 0.13229369 11118752
0.78705001 0.085009269 0.13722619 12501179
0.79242855 0.085857853 0.13180502 11447976
0.78763157 0.094585218 0.137766 13355200
0.79261118 0.095196471 0.13231976 11645867
0.78900003 0.10184405 0.13849412 11842988
0.79165518 0.10512653 0.13454768 11842989
0.78900003 -0.16043893 0.14772944 10327953
0.78696299 -0.15416028 0.1450247 11511969
0.77900004 -0.14108077 0.14585707 15526622
0.78210729 -0.14458963 0.14505865 13354942
0.77900004 -0.1383453 0.1467689 14868435
0.78120691 -0.13463755 0.14506787 13354944
0.77900004 -0.12132454 0.14798467 15001052
0.78137946 -0.12558338 0.14491004 13421252
0.77856261 -0.11434589 0.14736882 14869208
0.78200006 -0.11534064 0.14262399 11710888
0.77816677 -0.10479982 0.14691396 14472652
0.78166658 -0.1055151 0.14232872 11775393
0.77720708 -0.094800189 0.14551876 13026233
0.78075004 -0.095706016 0.14070147 9934223
0.7767002 -0.085207023 0.1445135 12499896
0.77666694 -0.075202733 0.14450713 12040625
0.77707714 -0.065306962 0.14528386 11974574
0.78079998 -0.064085282 0.1407105 15131609
0.77741671 -0.05563511 0.14639236 12171957
0.78136373 -0.054289218 0.1419747 13684682
0.77786672 -0.045272555 0.14746432 11316140
0.78211761 -0.044872124 0.14266846 13422024
0.77777791 -0.035254408 0.14744735 10921120
0.78212506 -0.034878019 0.14289099 12894650
0.77753341 -0.025231216 0.1474008 10590354
0.78206658 -0.025378326 0.14276664 13419707
0.77789479 -0.014986327 0.14727764 9933710
0.78200006 -0.015576522 0.14264698 13749189
0.77770013 -0.005210151 0.146522 11315358
0.78140002 -0.0052361088 0.14173208 13486529
0.77761912 0.0044134352 0.14689678 11511454
0.78186673 0.0053794673 0.14236477 13881542
0.77766681 0.014816155 0.14742638 11838881
0.78233331 0.014905063 0.14281437 13881029
0.7781502 0.024663139 0.14715359 11250083
0.78262496 0.025216809 0.14263962 11776170
0.77849996 0.034879342 0.14849661 10656917
0.78383344 0.035272893 0.14323667 11184802
0.77768749 0.04530948 0.14765812 10329750
0.78360862 0.044516873 0.1428853 11908011
0.77722228 0.055139914 0.14673465 10988457
0.78225011 0.054734532 0.14234325 12236206
0.77700013 0.064825155 0.14638914 11317422
0.78225011 0.06526307 0.14188655 11512491
0.77695459 0.07507316 0.14596739 11646386
0.78175008 0.074600741 0.14156674 11251630
0.77610004 0.084734991 0.14531063 12435129
0.78150004 0.085324563 0.14083664 10723481
0.77723533 0.093905561 0.146488 13881030
0.78307152 0.097021982 0.14294836 11841447
0.78700006 0.10456672 0.14543678 12434869
0.79040003 0.10868637 0.14207017 11842734
0.78900003 0.11107937 0.14865297 11711402
0.79184616 0.11526144 0.14483878 11711147
0.78900003 -0.16043893 0.15511768 10131343
0.78577781 -0.15406601 0.15489273 11182747
0.78126931 -0.14437938 0.15521607 12762036
0.77900004 -0.13165857 0.15801476 15196884
0.78049999 -0.13537364 0.15485801 13353657
0.77838105 -0.12435313 0.15563141 13617853
0.78000003 -0.1281756 0.15273961 10590096
0.77680022 -0.11509395 0.15557502 12829368
0.77650034 -0.10518122 0.15538506 12499633
0.7762503 -0.095153168 0.15533607 12432816
0.77596688 -0.085126504 0.15528034 12695985
0.7759726 -0.075135671 0.15528163 12104877
0.77628022 -0.065170348 0.15443511 12696756
0.77611798 -0.054950755 0.15504342 12960184
0.77603364 -0.045166168 0.15529349 12368561
0.77633363 -0.035187647 0.15444548 11579822
0.77644014 -0.025195742 0.15446724 11841965
0.77690023 -0.015207337 0.15455763 11513770
0.77664018 -0.0052030045 0.15450591 11645868
0.77625036 0.0050207535 0.15476963 11974319
0.77600032 0.014784398 0.15528679 11906212
0.77605599 0.024777897 0.15529756 10919059
0.77646691 0.034787614 0.15537864 10723223
0.77577794 0.044744927 0.15524258 10986649
0.77506644 0.054684334 0.15510005 11578534
0.77519441 0.064674541 0.15512459 10921120
0.77516645 0.074652627 0.1551192 10791333
0.77427781 0.084535576 0.15494163 11776428
0.77509993 0.094608612 0.15510488 13091258
0.77820003 0.10044999 0.15481384 14540246
0.78430444 0.10571408 0.15490966 13158853
0.78855562 0.11183771 0.15544024 11711403
0.79133338 0.11686439 0.1547516 11580073
0.78900003 -0.16043893 0.16342947 9933711
0.79263645 -0.16573836 0.16502546 10065554
0.78646427 -0.15460333 0.16507366 10789019
0.77844453 -0.14229658 0.16579737 12567227
0.78146666 -0.1461028 0.16436833 12368821
0.77728587 -0.13518231 0.16477036 12566714
0.77696568 -0.12537777 0.16473106 12565943
0.77630031 -0.11514957 0.16534303 11709864
0.7760402 -0.10511877 0.16528697 11512487
0.77600032 -0.095121711 0.16527829 11447461
0.7761603 -0.08514712 0.16531271 12169643
0.77686679 -0.075221136 0.16546471 12430503
0.7774334 -0.065267891 0.16467573 13353144
0.77731264 -0.0554768 0.1652184 12630961
0.77723998 -0.045236096 0.16554424 12367017
0.7774446 -0.035237875 0.16467746 12367280
0.77793324 -0.025243802 0.16478139 11645098
0.77761114 -0.015223092 0.16471277 11251368
0.77703363 -0.005205608 0.16458906 11579304
0.77676505 0.0045827669 0.16479951 12105136
0.77636015 0.014791539 0.16535616 11973807
0.77670044 0.024798723 0.16542934 11841708
0.77740008 0.034830336 0.16557945 11710637
0.77709997 0.044822119 0.16551539 11052963
0.77700013 0.054820422 0.16549416 11117985
0.77633363 0.064768344 0.16535038 11906728
0.77535981 0.07467024 0.16514219 11578018
0.77436662 0.084544808 0.16493018 11118494
0.77459997 0.094547577 0.16498011 12565942
0.77766675 0.10038114 0.16472457 13026238
0.78427279 0.10583108 0.16520344 12434358
0.78881818 0.11189335 0.16481951 11513770
0.79086667 0.11689771 0.16474135 11579819
0.7929287 -0.16475877 0.17504726 9934222
0.78626931 -0.15422736 0.17503974 10855585
0.77789998 -0.14270344 0.17478882 11908019
0.78109092 -0.14702937 0.17500606 12170677
0.77683359 -0.13523275 0.17454919 11974071
0.77700019 -0.12525731 0.17458615 12499897
0.77723348 -0.11528651 0.17463939 11381928
0.77744001 -0.10530842 0.17468642 11645612
0.77706695 -0.09525308 0.17460285 11644843
0.77712023 -0.085252464 0.17461485 11513254
0.77833325 -0.075362697 0.17488715 12696244
0.77884001 -0.0653864 0.17500001 12499634
0.77796662 -0.055296067 0.17480367 12631219
0.77748007 -0.045250341 0.17469271 12170671
0.77783334 -0.035255201 0.17477255 12696243
0.77888006 -0.025274353 0.17500883 12366762
0.77896154 -0.015318152 0.17453605 12040113
0.78000003 -0.014811793 0.17845571 12763325
0.77839136 -0.0049781059 0.17458352 12041656
0.78000003 -0.0079643168 0.17891219 13224903
0.77760017 0.0048015704 0.17472285 11779001
0.77736014 0.014810498 0.17466849 11252914
0.77868181 0.0239511 0.17405325 10593956
0.78062505 0.027436759 0.1779137 11712433
0.77900004 0.036269478 0.17275596 9539468
0.7806471 0.03432969 0.17648208 11844018
0.77859986 0.044908531 0.17494653 11512483
0.77883995 0.054950166 0.17500025 10985882
0.7769357 0.064963967 0.17474817 11249569
0.77553332 0.074687146 0.17516527 11315106
0.77466655 0.084578365 0.17496991 11249568
0.77506888 0.0944793 0.1749046 12171442
0.77820003 0.10044999 0.17485765 12894910
0.78457153 0.10582692 0.17514831 12105392
0.78900003 0.11200289 0.17543539 11579817
0.7907896 0.11669149 0.17466486 11579817
0.78900003 -0.16043893 0.18282363 9670282
0.79180777 -0.16507763 0.18497005 9933454
0.78677791 -0.15439823 0.18490116 11381156
0.77899998 -0.14225312 0.1844143 12564659
0.78153342 -0.14611574 0.18536194 13354174
0.77727795 -0.13531098 0.18465646 12960188
0.77700025 -0.12525733 0.18459044 12698300
0.77752787 -0.11532965 0.18471587 12566971
0.77810001 -0.10539779 0.18485114 12763836
0.77736121 -0.095288724 0.18467467 12105136
0.77813339 -0.085362956 0.18486042 12038830
0.77897203 -0.07542643 0.18505909 12040627
0.77899992 -0.065336287 0.18522282 12238523
0.78000003 -0.067309119 0.1807382 13094347
0.77849984 -0.055333808 0.18494758 12565431
0.77800006 -0.04528103 0.1848308 12695988
0.77855551 -0.03528798 0.18496183 12105133
0.77899992 -0.025278809 0.18506558 11249825
0.77900016 -0.017504288 0.18530557 11644069
0.78011763 -0.01274574 0.1850626 11380126
0.77900004 -0.0021792045 0.18506561 10789014
0.78020841 -0.0059881364 0.18535262 11774884
0.77896005 0.0051392424 0.18399864 10658204
0.78000009 0.0040872446 0.18749437 12565941
0.77885729 0.014751772 0.18342584 10067097
0.78000003 0.01486061 0.18840736 12830142
0.77900004 0.0214523 0.18255809 10659491
0.78090912 0.026180364 0.18518734 10659744
0.78171992 0.035022482 0.18479741 10329756
0.77900004 0.047464684 0.18212751 11644330
0.78023809 0.043915387 0.18531688 10658980
0.77880764 0.055087917 0.18431926 10594469
0.78000003 0.055032481 0.18986815 13029067
0.77771431 0.064753793 0.18489298 10922918
0.77700013 0.07482893 0.1855022 10263700
0.7761668 0.084741786 0.18530267 10592411
0.7767601 0.094811507 0.18508027 11645610
0.78000003 0.098856337 0.18986815 13159105
0.77900004 0.10055325 0.18050648 10790303
0.78488016 0.10521557 0.18510191 11908784
0.78900003 0.11138722 0.18405499 11514026
0.79152632 0.11621651 0.18545766 11514025
0.78900003 -0.16043893 0.1994472 10195079
0.79237038 -0.16477044 0.19514456 9867657
0.78670365 -0.15472533 0.19483906 12037027
0.77807689 -0.14322677 0.19584361 12762290
0.78175002 -0.14752765 0.19471556 13024176
0.77666706 -0.13520357 0.19541889 13223096
0.77670401 -0.12541184 0.19492385 13353655
0.77664542 -0.11534737 0.19468145 13091256
0.77676028 -0.10521573 0.19453417 12895935
0.77640027 -0.095170118 0.19444427 11844278
0.77760011 -0.085304171 0.19474451 11646129
0.77863324 -0.075393192 0.19500281 11711664
0.77888 -0.065388627 0.19506517 12171185
0.77899998 -0.055740573 0.19536591 12632252
0.78000003 -0.052092504 0.19291149 11512749
0.77900004 -0.045490954 0.1950957 12566718
0.78000003 -0.041745204 0.19534613 11579814
0.77899992 -0.03515169 0.1950957 12236979
0.78000003 -0.039919212 0.19534613 13290432
0.77879995 -0.025272598 0.19504552 11775396
0.77886665 -0.015245953 0.19506192 11643809
0.77900016 -0.0056745396 0.19646347 11512997
0.78000009 -0.0044137728 0.19291148 9998215
0.77900004 0.00086021709 0.19813512 13091515
0.78046447 0.0052125873 0.19494022 11248542
0.78141367 0.014950913 0.19494461 11512486
0.78177762 0.024961183 0.19487718 11249828
0.78209984 0.035040863 0.19495688 11052704
0.78202766 0.045105852 0.1949394 11842476
0.78107697 0.054965753 0.19540507 11053217
0.77899992 0.065317668 0.19529112 10461342
0.78000003 0.06051046 0.19260715 10922664
0.77828002 0.074952021 0.19491549 10527393
0.77683884 0.084961303 0.1947304 10922149
0.77719063 0.093824565 0.19490224 12171184
0.78080004 0.098957732 0.19554882 12369075
0.78645831 0.10505188 0.19466169 11842735
0.79000002 0.10937075 0.19877528 11513769
0.79288012 0.11534381 0.19486181 11448488
0.78833336 -0.16264237 0.20518446 9736328
0.79127276 -0.16730121 0.20372477 9933965
0.77900004 -0.15111086 0.20786126 10526871
0.78356516 -0.15551029 0.20469077 11512740
0.77714294 -0.14529547 0.20495985 12961472
0.78000003 -0.14947885 0.20082413 12105908
0.77600032 -0.13508758 0.20524414 13223872
0.77625018 -0.12494119 0.20472591 13091514
0.77668601 -0.11507607 0.20464669 13157048
0.77743763 -0.10496455 0.20494352 12959926
0.77823526 -0.095127039 0.20471293 12696757
0.77823323 -0.085375801 0.20492499 12564401
0.77752793 -0.075286746 0.20473638 12170928
0.77753347 -0.065276049 0.20473766 11843248
0.77788895 -0.055288747 0.20483166 12895677
0.77856654 -0.045313533 0.20501024 12500920
0.77899981 -0.035308905 0.20512579 12106165
0.77899992 -0.02527881 0.20512579 11381926
0.77891648 -0.015247573 0.20510413 11249568
0.77876663 -0.0052169859 0.20506379 11184289
0.77884614 0.0039691897 0.20627679 11577762
0.78020012 0.0070112408 0.20233664 12038827
0.7790001 0.01368105 0.20802706 11907236
0.78094745 0.015552624 0.20395303 11577503
0.77900016 0.025139833 0.20796852 11972774
0.78105259 0.024696309 0.20311445 11379868
0.77900004 0.033078089 0.20831721 11249821
0.78104538 0.035658233 0.20449838 11381153
0.78135288 0.044852722 0.20547396 12038314
0.78053582 0.055134069 0.20520271 12169644
0.77896762 0.065665655 0.2052055 11052449
0.78000003 0.060875662 0.2048413 12566198
0.77883327 0.075005598 0.20508209 10330525
0.77731442 0.084736578 0.20481248 11249828
0.77780008 0.093753956 0.20462778 12039085
0.78157145 0.098533794 0.2056713 12500148
0.7869091 0.10417438 0.20494741 12697527
0.79040003 0.10942613 0.20535257 11316390
0.7883333 -0.16288832 0.21527331 9605001
0.79049999 -0.16722155 0.21463096 9736588
0.77900004 -0.15111086 0.21515588 11907754
0.78360003 -0.15613437 0.21523373 11315362
0.77650017 -0.1449798 0.21504939 12894649
0.77611464 -0.13523684 0.21513791 13157564
0.7768802 -0.12523751 0.21457078 13156793
0.77710021 -0.11526784 0.21463156 13024952
0.77796447 -0.10479131 0.21467331 12959928
0.7788077 -0.09497413 0.21545276 12631221
0.78000003 -0.094699033 0.21178009 10064009
0.77896005 -0.085455149 0.21514465 12762293
0.77730018 -0.075266026 0.21468602 13024692
0.77700019 -0.065231279 0.2146035 12959670
0.7782858 -0.055577006 0.2146996 12434614
0.78000003 -0.051788174 0.21908407 14146000
0.77888906 -0.044826344 0.21401124 10921632
0.78000009 -0.046701472 0.2183015 13619399
0.77879983 -0.035300542 0.21509996 11120039
0.77820009 -0.025253784 0.21493322 10461087
0.77806658 -0.015229359 0.21489663 10790308
0.77732009 -0.005207934 0.21469091 10856354
0.77760011 0.0048052375 0.21476881 11711145
0.77895838 0.014764972 0.21529619 11907238
0.78000003 0.016686603 0.21178009 14210762
0.77899992 0.025028856 0.21528165 11576990
0.78000003 0.020338591 0.21178009 14473421
0.77900004 0.034901742 0.2151559 11840164
0.77900004 0.041284524 0.21424404 11840425
0.78020835 0.04652372 0.2153374 12235178
0.77900004 0.05815332 0.21697953 10525070
0.7801739 0.054409422 0.21468517 12236205
0.77899998 0.065431051 0.21542606 11051673
0.78000003 0.061119124 0.21299742 13947078
0.77884001 0.07500726 0.21511117 10789274
0.77740014 0.084875859 0.21471377 11249567
0.77786672 0.093124516 0.21484254 12039084
0.78216672 0.098216377 0.21511574 12894136
0.78775012 0.10435964 0.21526785 12762550
0.79057139 0.10892145 0.21491387 12171696
0.78849995 -0.16350281 0.22503071 9670795
0.79012501 -0.16760413 0.22562793 9736332
0.77900004 -0.15111087 0.22518598 12301230
0.78370005 -0.15652213 0.22479963 11315363
0.77625954 -0.14533049 0.22489814 13486529
0.77603263 -0.13494651 0.22506043 13683650
0.77700025 -0.12525687 0.22460738 13091258
0.77730572 -0.11529846 0.2246951 13025722
0.77766675 -0.10533816 0.22479956 12630192
0.77813888 -0.095383853 0.22493635 12498348
0.77806658 -0.085356958 0.22491618 12564911
0.77794451 -0.075326934 0.22488359 12499119
0.7784332 -0.065350659 0.22502436 12497064
0.78000003 -0.060005147 0.22821404 14866118
0.77899998 -0.058886133 0.22245051 12827059
0.78054547 -0.054148588 0.22513551 12958382
0.77900004 -0.041691687 0.22336233 11643553
0.78085709 -0.046144925 0.22498386 11709601
0.7786175 -0.035078503 0.22480787 11447204
0.77750009 -0.025230994 0.22475389 11316647
0.77805567 -0.015229126 0.2249155 11251113
0.77776659 -0.0052119247 0.22483127 11382185
0.77727795 0.0048018037 0.22468832 11448495
0.77820003 0.014827644 0.22495298 11710892
0.77886093 0.02486738 0.22514534 11447976
0.77866656 0.034886338 0.22508834 11709604
0.77900016 0.043739442 0.2276409 9538179
0.78028578 0.04557173 0.2236 13024690
0.77900016 0.055391017 0.22609782 11644324
0.78011119 0.05463402 0.22175334 13223610
0.77899981 0.064992025 0.2251859 11710634
0.77886665 0.075009733 0.22514804 11775657
0.77769446 0.084907331 0.22480944 11513769
0.77821434 0.092644863 0.22483052 12632509
0.78192317 0.097553201 0.2251157 12434616
0.78723806 0.10425305 0.2250654 12960699
0.79000002 0.10937075 0.22466695 11185059
0.79253578 0.11509276 0.22505401 11448232
0.7882309 -0.16255474 0.234455 9802124
0.79049999 -0.16722155 0.2349873 9736074
0.77850008 -0.15169774 0.23552042 11710893
0.78300005 -0.15657586 0.23479335 11315878
0.77617264 -0.14498679 0.23511393 12566973
0.77600044 -0.13508761 0.2352185 12698816
0.7761336 -0.12511714 0.23525837 12632511
0.77650028 -0.1151785 0.23536867 12895939
0.77688909 -0.10543532 0.23498212 12433589
0.77776664 -0.095337443 0.23484315 12104107
0.77888 -0.085445732 0.23518032 11972262
0.78000003 -0.080091082 0.23734401 13551292
0.77900004 -0.076341093 0.23217668 10721941
0.78061116 -0.07436683 0.23692171 12038310
0.77899998 -0.066701785 0.23235035 11578015
0.7802918 -0.063755944 0.23621523 11841445
0.78143328 -0.054626118 0.23503587 13088945
0.77900004 -0.042603515 0.23886338 12760229
0.78117859 -0.045663022 0.23463139 12103334
0.77900004 -0.035491265 0.23594554 12893360
0.78007424 -0.03559472 0.23499908 11183516
0.77900016 -0.024670927 0.2337572 12499633
0.78010011 -0.026227033 0.23773988 9999246
0.77900004 -0.016768429 0.23187272 13355970
0.78070837 -0.014901109 0.23657072 11051673
0.77900004 -0.0040028575 0.23217666 12567740
0.78089476 -0.0056168474 0.2367513 11184289
0.77855992 0.0053549539 0.23450115 11778741
0.78020006 0.0020787155 0.23850092 9079686
0.77856004 0.014833364 0.23508483 11449774
0.77896661 0.024870625 0.2352062 11055017
0.77868003 0.034887031 0.23512062 11316904
0.77900016 0.043472908 0.2352161 11514539
0.78000003 0.047728498 0.234605 10723995
0.78020704 0.05492131 0.2348257 11644839
0.7790001 0.066069633 0.23256351 12827824
0.7800526 0.064454846 0.23707181 12564658
0.77900016 0.075195782 0.23504239 12695469
0.78000003 0.074205413 0.236431 13946053
0.77886653 0.085037157 0.23517635 12499375
0.77900004 0.091738932 0.23460817 13619142
0.78224999 0.096489713 0.23519075 13027007
0.78774071 0.10530521 0.23491783 12303284
0.79174066 0.11538166 0.23494314 11448233
0.78822231 -0.16212706 0.24497043 9670539
0.79157144 -0.16665567 0.24536547 9670539
0.77827269 -0.15179874 0.24460188 11578536
0.78328574 -0.15718424 0.24449852 11249828
0.77576929 -0.14517674 0.2449263 12038828
0.77563363 -0.13502364 0.24509284 12236721
0.77564013 -0.12503752 0.24509507 11841969
0.77583367 -0.11507974 0.24515657 12302519
0.7762146 -0.10494681 0.24469279 12237495
0.77708364 -0.095253758 0.24464209 12434874
0.77853328 -0.085406996 0.24509734 12236723
0.78000003 -0.080091082 0.241909 13618378
0.7790001 -0.076797016 0.24843752 12631993
0.78054547 -0.074415751 0.24431957 11643816
0.77900004 -0.064715311 0.24912143 12695727
0.78038466 -0.064882174 0.24420598 12104363
0.77873343 -0.054560971 0.2481394 12170156
0.7806471 -0.055110142 0.24356006 12894135
0.77874994 -0.045020308 0.24600191 12367020
0.78016669 -0.046625003 0.24226482 14275270
0.77858335 -0.036201064 0.24648069 11379870
0.78008342 -0.033531521 0.24284792 13684677
0.77900004 -0.026874507 0.24866551 10327179
0.7803334 -0.024887094 0.24414305 12236721
0.77900004 -0.016160546 0.24980529 9603711
0.7808668 -0.015285256 0.24491888 11775651
0.77900004 -0.005218626 0.24980529 9999501
0.78064001 -0.0052302685 0.24484682 11709603
0.77900004 0.0066351183 0.24547412 11249570
0.78004169 0.0045133228 0.24473695 11710376
0.7790001 0.015587598 0.2456606 10263190
0.78000009 0.012806365 0.24441972 13092543
0.77899998 0.024380662 0.24510588 10591640
0.78000009 0.026181772 0.24592619 12236463
0.7790001 0.034584586 0.24449289 11315874
0.78000003 0.035311744 0.24720435 10986652
0.77900004 0.04242431 0.2418268 11052701
0.78027272 0.045919403 0.24564706 12106161
0.77900004 0.058609232 0.24980529 8884112
0.78116012 0.055114321 0.24501131 11645870
0.77863652 0.06603802 0.24869394 11119788
0.7805202 0.064642251 0.24415325 11909301
0.77850014 0.07546404 0.24543706 11842735
0.78000003 0.071922928 0.24327849 11381927
0.77722234 0.084856786 0.24468334 11974063
0.77840006 0.092276156 0.24633124 13025980
0.78270006 0.096912064 0.24466905 13157822
0.788037 0.10561771 0.24491341 12303285
0.78900003 0.11181819 0.24784026 11185061
0.79060012 0.11559973 0.24456529 11448231
0.78827286 -0.16113062 0.25512621 10525077
0.77670002 -0.15139276 0.25615704 12629421
0.78257138 -0.15573254 0.25461426 12103592
0.77509993 -0.14491178 0.25490466 12827313
0.77447218 -0.13482176 0.25469726 12828084
0.77439994 -0.12483811 0.25467363 12434868
0.77452773 -0.11488596 0.25471559 12500403
0.77499998 -0.10497694 0.25487065 12106158
0.77575016 -0.095090061 0.25511721 11974319
0.77636707 -0.085169844 0.2553198 12171446
0.77683336 -0.075219356 0.25547221 12170932
0.77666676 -0.065203905 0.25541642 12237235
0.77652806 -0.055193391 0.25537249 12960957
0.77673352 -0.045206524 0.25544107 12500663
0.77708364 -0.035221662 0.25555551 12104619
0.7777409 -0.025438836 0.25526506 12103592
0.78000003 -0.021659272 0.25012597 11509140
0.7784 -0.015236974 0.25507727 11709862
0.78000003 -0.014355295 0.25012597 10130827
0.77828002 -0.0052138031 0.25503814 11185318
0.77830017 0.0050484622 0.25534806 11448491
0.78000003 0.0028090484 0.2504912 9604748
0.77696687 0.014801725 0.25551566 11119783
0.77675003 0.024800887 0.25544417 10922920
0.77800018 0.034663718 0.25553057 11120042
0.78000003 0.037685536 0.25012597 9869973
0.77866662 0.044912294 0.25516555 12172213
0.78000003 0.044989511 0.25012597 9870229
0.77737939 0.054972135 0.25580731 12105137
0.78000003 0.053571682 0.25049117 9080460
0.77583343 0.064726256 0.25514308 11776940
0.77503121 0.07497941 0.25510681 11514029
0.77488238 0.084868468 0.25461766 12237235
0.77642858 0.093473278 0.25546992 12959673
0.78188896 0.098486289 0.25439122 13223103
0.7872963 0.10511085 0.25471628 11973550
0.78900009 0.1125906 0.25385162 11250854
0.7881667 -0.16319184 0.26550591 9210502
0.77615786 -0.1527627 0.26553127 12565426
0.78327274 -0.15844218 0.26450798 12104876
0.77400011 -0.14470512 0.26541549 13288123
0.77365732 -0.13455097 0.26532236 12761779
0.77320015 -0.12464485 0.26514006 12498605
0.77325022 -0.11469644 0.26515698 12301999
0.7736668 -0.10479663 0.26529974 12170928
0.77425003 -0.094906583 0.26549965 12171700
0.77449995 -0.084965691 0.26558512 12105905
0.77427781 -0.074972026 0.26550934 11975093
0.7742334 -0.064998768 0.26549423 12435131
0.77441663 -0.055043023 0.26555663 12763835
0.77503324 -0.045107737 0.26576746 12040883
0.77511102 -0.035132896 0.26579362 11710636
0.77515167 -0.024988428 0.26522857 11644327
0.77566677 -0.015392032 0.26465625 11774881
0.775765 -0.0050903666 0.2649478 11973545
0.77553666 0.004678647 0.26516318 12170927
0.77466655 0.014758374 0.26564205 12235949
0.7743333 0.024722911 0.26552823 11578792
0.77493763 0.034890693 0.26533625 11317419
0.77528584 0.044717595 0.26494405 11383470
0.77451605 0.054820307 0.26573604 11909043
0.77380013 0.064686909 0.26521584 11711404
0.77316689 0.075364158 0.26512823 12039856
0.77270013 0.085269116 0.26496837 13026234
0.77541667 0.093893342 0.26536953 12828599
0.78039998 0.098907031 0.26486829 12762808
0.78649998 0.1045199 0.26463589 12565944
0.79000002 0.10937075 0.26627854 12500664
0.78657895 -0.16392438 0.27520189 9605774
0.7906 -0.16853739 0.27388167 9342601
0.77536374 -0.15313119 0.27495691 12303285
0.78049999 -0.15871049 0.27495047 10461595
0.77324003 -0.14456376 0.27510998 12566202
0.77300018 -0.13456534 0.27502537 12303282
0.77300012 -0.12461253 0.27502537 12170669
0.77300018 -0.11465964 0.27502537 12499120
0.77292013 -0.10469616 0.27499652 12104620
0.77306682 -0.094761834 0.27504876 12105134
0.77336007 -0.084840447 0.27515212 12104876
0.77316689 -0.074864641 0.27508387 12171697
0.77304006 -0.064898737 0.2750394 12698560
0.77320015 -0.054956291 0.27509573 13290182
0.77340007 -0.045013055 0.27516624 13487557
0.77336681 -0.035053764 0.27515447 12829372
0.77332008 -0.025094211 0.27513799 11909300
0.77387887 -0.014900893 0.27484226 11776424
0.77373087 -0.0053231576 0.27507481 12432809
0.77350026 0.0047775339 0.2752018 12367016
0.77348024 0.01473611 0.27519467 12498089
0.77340007 0.024692852 0.27516621 11972005
0.77359998 0.034659807 0.27523738 12039082
0.77343345 0.044610243 0.27517816 12040109
0.77313358 0.055452581 0.27507183 11383214
0.77276015 0.065375745 0.27493894 10659752
0.7718609 0.075236797 0.27552137 11448750
0.7719999 0.084999427 0.27524891 12434358
0.77544439 0.094721749 0.2751531 12959415
0.7856667 0.10425625 0.27531323 12631993
0.79000002 0.10937075 0.27460086 11382184
0.78647625 -0.16431481 0.28481498 9539981
0.79000002 -0.16803989 0.28847137 9408395
0.77565008 -0.15355177 0.28477442 12829883
0.78140008 -0.15889351 0.28533342 11448233
0.7723031 -0.14488316 0.28496665 12040626
0.77145171 -0.13502312 0.28425905 12303284
0.77177137 -0.12518811 0.28465167 12237491
0.77180636 -0.1152111 0.28438967 12829882
0.77162844 -0.10529491 0.28460005 12632504
0.77194434 -0.094623856 0.28458792 12434871
0.77240002 -0.084735088 0.28475535 12565941
0.77261096 -0.0748109 0.28483316 12368560
0.77240008 -0.064845324 0.28475532 12303798
0.77216643 -0.054883137 0.28466856 12699072
0.77253342 -0.044962622 0.2848044 12567226
0.77266675 -0.035021577 0.28485382 11842990
0.77283341 -0.025078697 0.28491575 11842222
0.77275032 -0.015126671 0.28488475 11513770
0.77256656 -0.0051759188 0.28481659 11644580
0.77241665 0.0047710962 0.28476086 11774881
0.7725333 0.014718118 0.28480428 11971748
0.77258331 0.024667205 0.28482294 11315104
0.77290028 0.034628365 0.28494072 11907242
0.77263921 0.0445645 0.28484359 11841707
0.77163875 0.055345349 0.28447479 11317418
0.77123338 0.065246232 0.28432456 10659751
0.76900005 0.078859694 0.2892043 12961732
0.77027601 0.074927181 0.28475037 10527138
0.76900005 0.08326029 0.28840423 13619403
0.77059102 0.085775293 0.28384247 11710122
0.77400011 0.094476983 0.28498176 12892850
0.77880007 0.10052744 0.28620392 12630964
0.78599995 0.10591147 0.28486142 13092286
0.78682357 -0.16411725 0.29554582 9605260
0.79000002 -0.16840978 0.29438949 9342088
0.77605557 -0.15357171 0.29538894 13026747
0.78200006 -0.15901552 0.29470354 10658715
0.77178574 -0.14455248 0.29446769 13421763
0.77023357 -0.1349856 0.29477823 12565943
0.76900005 -0.12332471 0.29584807 11906986
0.77000022 -0.12601338 0.29370448 12499634
0.76900005 -0.11631663 0.29610524 11972008
0.77015406 -0.1149305 0.29447013 12696499
0.77115631 -0.10558433 0.29456696 12500147
0.77180767 -0.095302157 0.29461682 12632248
0.77110004 -0.085254975 0.29426718 12829371
0.77116656 -0.074670702 0.2951349 13092028
0.77149993 -0.06476929 0.29526201 13026750
0.77136093 -0.054826688 0.29521003 12501180
0.77186656 -0.044923279 0.29540247 12369077
0.77199978 -0.034991615 0.29545316 12237232
0.7719999 -0.025051655 0.29545304 11908268
0.7716943 -0.015106265 0.29533485 11842990
0.77140009 -0.00516818 0.29522207 12368561
0.77063894 0.0047589461 0.29493105 12368561
0.7704668 0.014679448 0.29486486 12237235
0.77149987 0.024632908 0.29526031 11645869
0.77162492 0.034909815 0.29553378 11974833
0.77158815 0.044769283 0.29508147 11776683
0.77097219 0.055297799 0.29505959 11382437
0.77020019 0.065159202 0.29476497 10790562
0.76900005 0.078659676 0.29480505 9735047
0.77000022 0.073434316 0.29486793 11315621
0.76900005 0.083960392 0.29520512 12564913
0.77000004 0.088576026 0.29468772 12631478
0.77366662 0.094437391 0.29518458 12434355
0.7786001 0.10050162 0.29524633 12039344
0.78590465 0.10600671 0.29503378 11841965
0.78900003 0.11107937 0.29734156 11184804
0.78793746 -0.16379847 0.3044349 9473417
0.77740002 -0.15225755 0.30243379 9934483
0.78330773 -0.1563215 0.3056359 10000017
0.77529413 -0.14484157 0.30381685 9933969
0.78100002 -0.14875749 0.30895337 9341832
0.77490479 -0.13476665 0.3055101 9934222
0.7739048 -0.12501697 0.30511695 10394257
0.77442861 -0.11525854 0.30506364 10788243
0.77463645 -0.10525813 0.3026467 11182747
0.78100002 -0.10670345 0.30895337 11973037
0.77560008 -0.095071979 0.30227983 10656919
0.78300005 -0.091397226 0.30974454 9670797
0.77475005 -0.084540859 0.3036505 10525849
0.78100002 -0.08842244 0.30895337 7894899
0.773875 -0.074935615 0.3052322 9474444
0.77305019 -0.06489943 0.30490524 9408393
0.77316672 -0.054954376 0.30495125 9867406
0.77365005 -0.045027383 0.30514267 9998477
0.77375001 -0.035070937 0.30518171 9472904
0.77315009 -0.025090029 0.30494502 9867404
0.77229619 -0.014816718 0.3051115 10590609
0.77211988 -0.0051726294 0.30544388 10525331
0.77190006 0.0047667925 0.30535671 10328982
0.77184004 0.01470552 0.30533305 10461341
0.77219987 0.024654543 0.30547598 10132380
0.77185202 0.034982659 0.3051365 10527139
0.77185714 0.044842225 0.30553252 11315883
0.77160007 0.055342991 0.3052372 11381672
0.77127999 0.065250427 0.30511102 11380900
0.76900005 0.079459779 0.30060583 12697012
0.77044845 0.074944101 0.3049047 10920347
0.76900005 0.082835235 0.30218104 13092286
0.77076477 0.086011477 0.3058612 11512742
0.77446163 0.094463959 0.30511203 11052707
0.77900004 0.10055325 0.30269122 11645611
0.78554177 0.10577283 0.30515352 11382440
0.78900003 0.11107936 0.30472979 11053218
0.78763652 -0.15463108 0.31342375 10329495
0.7858668 -0.14447138 0.31468597 10132373
0.78582358 -0.1352272 0.31616896 10132373
0.78506255 -0.12506157 0.31596422 9671824
0.78633332 -0.11559291 0.31560862 9934997
0.78677779 -0.10554719 0.31328684 10790561
0.7870909 -0.095054917 0.3128728 10461081
0.78593755 -0.084381558 0.31493604 10789530
0.79000002 -0.0866661 0.31898654 10066065
0.77780002 -0.072947472 0.31169391 10987165
0.78350002 -0.075682983 0.31618112 9737357
0.7766 -0.065199092 0.31175902 10724510
0.78250003 -0.064779624 0.31779197 9408650
0.77716666 -0.055237416 0.31198668 11052702
0.78287506 -0.055415232 0.31771481 9145478
0.77679998 -0.045210011 0.31092888 10853782
0.78291678 -0.044648487 0.31612849 10263187
0.77700007 -0.034307592 0.31146488 9474184
0.78250003 -0.035238415 0.31618908 9738128
0.77630001 -0.025192365 0.31163847 9472642
0.78300005 -0.025001274 0.31789312 9013889
0.77635711 -0.015456419 0.31283095 9603200
0.78257143 -0.01597311 0.31847423 9407878
0.77540004 -0.0051959143 0.31309253 8881276
0.78140002 -0.0052361088 0.31825796 9869712
0.77577782 0.0052964431 0.31425628 9144705
0.78033334 0.0045157582 0.31904161 8092787
0.77594739 0.014591802 0.31498998 9342342
0.78000003 0.018512597 0.31951374 9408393
0.77627784 0.02478545 0.31435737 8947587
0.78100002 0.020364666 0.31992337 9211014
0.7756843 0.034944039 0.31488258 9474448
0.78000003 0.031294554 0.31951374 8420730
0.77516669 0.0447115 0.31481501 9408652
0.77528572 0.054957598 0.31473535 9738128
0.77409518 0.06479606 0.31442297 9474956
0.77296561 0.075189114 0.31470215 9604999
0.77404356 0.084946617 0.31495029 11051933
0.77675003 0.094053067 0.3133342 11316133
0.78214282 0.097039059 0.31777525 10790046
0.78683335 0.10540774 0.31509984 10987425
0.78900003 0.11107937 0.31211805 11053218
0.78811115 -0.074365176 0.32201722 10000786
0.7881667 -0.065246962 0.32378259 10000787
0.78788894 -0.055079427 0.3227466 9737615
0.79112494 -0.054609887 0.32708147 10066580
0.78841668 -0.044963721 0.32203928 9342857
0.79208332 -0.045173224 0.32724616 9934994
0.78780007 -0.034786578 0.32178792 9211014
0.79119998 -0.034936469 0.32688132 9737615
0.78799999 -0.025003076 0.32350174 9211014
0.79109097 -0.024324013 0.32860363 9474699
0.78760016 -0.014495635 0.32355005 8882306
0.79100001 -0.014557742 0.32865024 9474442
0.78753853 -0.0048510213 0.32416409 8816512
0.79066676 -0.0056054071 0.3288196 9277064
0.78615803 0.004806207 0.32494646 8882305
0.79000002 0.001180598 0.32915828 9474443
0.78526676 0.014961886 0.3253521 8684928
0.78591287 0.02529176 0.32482198 8947586
0.78506678 0.03517152 0.3252691 8882310
0.78355557 0.045196936 0.32464325 8619394
0.78500003 0.055385251 0.32524195 9277319
0.77850002 0.066772193 0.32117766 9540490
0.78428572 0.064776175 0.32573196 9408904
0.77700001 0.074829496 0.32192278 9737098
0.78400004 0.07500159 0.32766154 10066578
0.77800006 0.082816593 0.32173076 10131345
0.7840001 0.085443795 0.32589772 10592666
0.78658825 0.095034614 0.32481569 10724510
0.79000002 0.097349614 0.32915828 10856096
0.78855562 0.10383871 0.32260871 10921632
0.7909444 0.10600415 0.32729056 10921889
0.78900003 0.0085673565 0.3305887 9408650
0.78900003 0.015032078 0.3305887 9211271
0.78900003 0.025190927 0.3305887 9145479
0.79168189 0.025276072 0.33474791 9277064
0.78871435 0.036127567 0.33099672 9342858
0.78850001 0.044556834 0.33130276 9474444
0.78885716 0.0540752 0.3307927 9408649
0.79152936 0.055193197 0.33546591 9474443
0.78871435 0.065142818 0.33126059 9803406
0.79191661 0.064678401 0.33598423 9606029
0.78845459 0.075429529 0.33304557 10066580
0.78850007 0.084936179 0.33176389 10724510
0.79186684 0.085405245 0.33722988 10658717
0.78900003 0.090761669 0.3305887 10790303
0.79226321 0.095043965 0.33488733 10856096
