# .PCD v0.7 - Point Cloud Data file format
VERSION 0.7
FIELDS x y z rgb
SIZE 4 4 4 4
TYPE F F F U
COUNT 1 1 1 1
WIDTH 615
HEIGHT 1
VIEWPOINT 0 0 0 1 0 0 0
POINTS 615
DATA ascii
0.79650003 -0.65398765 -0.40501264 11183277
0.79566681 -0.64474273 -0.40506741 11183534
0.78880006 -0.67264396 -0.39225253 11709369
0.7914167 -0.67552191 -0.39636597 11117233
0.78790009 -0.66468102 -0.39328212 12300990
0.7911666 -0.66558623 -0.39793661 11511475
0.78818184 -0.65527397 -0.39389163 12169402
0.79100001 -0.65526158 -0.39816093 11314351
0.78778565 -0.6454854 -0.3927246 10853802
0.79100001 -0.64461464 -0.39769858 11249329
0.78799999 -0.63525081 -0.39296287 12235710
0.79083329 -0.63414216 -0.39776883 11315121
0.78825003 -0.62530196 -0.39216408 11841207
0.79153854 -0.62463063 -0.39757809 11051949
0.78825009 -0.61561644 -0.3917025 11578293
0.79171425 -0.6141504 -0.39680237 11249329
0.78844452 -0.60392338 -0.39215815 11446962
0.79200006 -0.60552239 -0.39748639 11184047
0.78850007 -0.59504437 -0.39210364 11381682
0.792077 -0.59481835 -0.39756373 11315119
0.78900003 -0.58711052 -0.39161301 11512498
0.79217654 -0.58466941 -0.39548287 11314862
0.79308349 -0.57482547 -0.39457425 11578289
0.79442859 -0.56537372 -0.39510998 11513009
0.79584211 -0.55562061 -0.39481646 11578801
0.79649997 -0.54514182 -0.39440498 11645106
0.79649997 -0.53488642 -0.39440498 11775922
0.79680002 -0.52482754 -0.39455393 11775922
0.79553336 -0.4853186 -0.39473617 11776692
0.79505885 -0.47512391 -0.39484322 11776692
0.7922501 -0.68435204 -0.38510847 10789036
0.7876001 -0.67518699 -0.38526431 11117231
0.77900004 -0.66173369 -0.38117865 14143707
0.78350008 -0.66555488 -0.38558513 13945815
0.77775002 -0.65498173 -0.38261628 14012377
0.78260005 -0.65434313 -0.38770556 13157065
0.77757138 -0.64491665 -0.38152 11315374
0.78283334 -0.64467567 -0.38626313 10920106
0.77900004 -0.63984984 -0.38117865 11184303
0.78288889 -0.6347928 -0.38491762 12367810
0.78325003 -0.62465674 -0.38509518 12038586
0.78438896 -0.61529911 -0.38555369 11973049
0.78421742 -0.60485971 -0.38469481 12236222
0.78491318 -0.59476912 -0.38511574 11973820
0.78651857 -0.58484948 -0.38527066 12236220
0.78779167 -0.57506722 -0.38479197 12170170
0.78805876 -0.56535655 -0.38398513 12367805
0.79000002 -0.56381238 -0.38841054 11841974
0.78824997 -0.55541134 -0.38362995 12236988
0.79074997 -0.55370247 -0.38831693 12171194
0.78845459 -0.54475474 -0.38295296 12105916
0.79110003 -0.5451504 -0.38802665 12105914
0.78845459 -0.53468728 -0.38278529 12171454
0.7918334 -0.53545958 -0.3883864 12236987
0.7884286 -0.52577591 -0.3824971 12368060
0.79160011 -0.52511036 -0.38827223 12302266
0.78845459 -0.51522207 -0.38295296 12301753
0.79150009 -0.5148524 -0.38822332 12104887
0.78854543 -0.50504458 -0.38316497 12367803
0.7913 -0.50453484 -0.388125 12302010
0.78846157 -0.49441954 -0.38339534 12499647
0.79087502 -0.49546963 -0.38814721 12302010
0.78853339 -0.48523441 -0.3839983 12302524
0.79100001 -0.48490101 -0.38890219 11908023
0.7884444 -0.47502825 -0.38364744 12105916
0.79042858 -0.47397566 -0.38835707 11842744
0.78853852 -0.46535808 -0.38187075 12434624
0.79114288 -0.46461439 -0.38738659 12039866
0.78872734 -0.45530701 -0.38140658 12434623
0.79109091 -0.45481977 -0.38625434 12105145
0.78845459 -0.44508219 -0.38110712 12500158
0.79135722 -0.44528893 -0.38722757 12105657
0.78868747 -0.4351325 -0.38222694 12500159
0.7910769 -0.43465969 -0.38780171 11974071
0.78871435 -0.42652446 -0.38092059 12894916
0.79205263 -0.42454851 -0.3860068 12171706
0.79492861 -0.68497074 -0.37554201 10393762
0.78775007 -0.67408538 -0.37516168 10458534
0.79033333 -0.67876172 -0.37562236 10459300
0.77779996 -0.66071427 -0.37512612 14078171
0.78244448 -0.66669607 -0.37512752 13682645
0.77472728 -0.65357167 -0.37455308 14078171
0.77508557 -0.64482349 -0.37454566 12565186
0.77669996 -0.63486767 -0.37460095 11907517
0.77692878 -0.62450641 -0.37471154 12039613
0.77734625 -0.61504388 -0.3747721 11908026
0.78000003 -0.61145532 -0.37984195 11907256
0.77866679 -0.60684997 -0.37407121 12104379
0.78021431 -0.60235959 -0.37459627 11973050
0.78184837 -0.59515387 -0.37469471 12367808
0.78291684 -0.58533144 -0.37484649 12104894
0.78416139 -0.5750398 -0.37464449 12433344
0.78517234 -0.56480348 -0.37488252 12564929
0.78519994 -0.5548721 -0.37502247 12302013
0.7852667 -0.54480767 -0.37505537 12499648
0.78568 -0.53497887 -0.37525299 11973305
0.78607684 -0.52484477 -0.37487459 12104376
0.78584617 -0.51464421 -0.37547323 12038581
0.78511995 -0.50482225 -0.37498444 12367803
0.78477776 -0.49503544 -0.37475312 12367546
0.78503567 -0.48511538 -0.37501025 12433851
0.78568971 -0.47504923 -0.37513036 12302780
0.78628576 -0.46518025 -0.37475315 12303552
0.7864092 -0.45539129 -0.3746807 12435393
0.78604549 -0.44506043 -0.3745082 12631488
0.78576195 -0.43500131 -0.37441602 12631488
0.78687996 -0.42504552 -0.37486854 13025732
0.78821051 -0.4154999 -0.37374163 12828609
0.79028571 -0.41363129 -0.37797931 12762817
0.78900003 -0.40917674 -0.37191102 12697793
0.796 -0.68456221 -0.36526892 10130847
0.78811115 -0.67254913 -0.36411151 10721708
0.79049999 -0.67705435 -0.36552241 10195875
0.78355557 -0.66621661 -0.36628687 14405858
0.7761364 -0.65476263 -0.36523971 14143449
0.77540004 -0.6450597 -0.36489522 12696516
0.77683365 -0.63503766 -0.36465862 11907005
0.77715188 -0.62482357 -0.36472341 12236994
0.77772731 -0.61524445 -0.36532533 12038843
0.78100002 -0.61338139 -0.36090228 12038842
0.77844453 -0.60861546 -0.36754215 11972023
0.78213525 -0.60446548 -0.36479521 11907771
0.78440017 -0.59549087 -0.36493081 12170943
0.7845152 -0.58494192 -0.36473131 12104892
0.78496766 -0.57509953 -0.36495179 12170685
0.78530532 -0.56505722 -0.36495963 12302270
0.78603017 -0.55495578 -0.3650445 12433597
0.78627276 -0.54508787 -0.3656584 12433340
0.78673548 -0.53504622 -0.36540571 12498620
0.78687525 -0.52508563 -0.36591759 12039096
0.78623325 -0.51511008 -0.36539087 12170427
0.78591412 -0.50491303 -0.36516446 12302525
0.78564501 -0.49467078 -0.36520597 12236476
0.78589994 -0.48545381 -0.36523658 12367546
0.78594422 -0.47536236 -0.36525795 12170680
0.78579998 -0.46515658 -0.36519116 12565698
0.78583312 -0.45505798 -0.36520541 12237248
0.7852999 -0.44463977 -0.36495742 12631747
0.78471428 -0.43531996 -0.36501414 12368317
0.78493929 -0.42505589 -0.36520886 12828099
0.78587085 -0.41469261 -0.36477944 13026502
0.78854555 -0.40854892 -0.36503971 12040122
0.79380006 -0.40536386 -0.36537278 11119020
0.79635715 -0.68580246 -0.3551828 10328226
0.78837508 -0.67200482 -0.35577464 10129827
0.79133332 -0.67715156 -0.35448617 10196130
0.78407699 -0.66520143 -0.35471132 13616598
0.77610523 -0.65401757 -0.35537618 14143449
0.78000003 -0.6589312 -0.35062608 14011351
0.77546155 -0.64462155 -0.35472992 12828101
0.77817392 -0.63671279 -0.35637778 10920626
0.78150004 -0.63328594 -0.35366154 12893900
0.77900004 -0.62526065 -0.35929483 12171201
0.78264868 -0.62447333 -0.35473436 12105149
0.78358829 -0.61496758 -0.35541743 12170171
0.78465712 -0.60513341 -0.35534209 12104635
0.78499991 -0.59516037 -0.35471144 12236475
0.78487498 -0.58484519 -0.35499877 12039353
0.78537917 -0.5744614 -0.35475513 11908537
0.78617233 -0.56476068 -0.35479566 12105916
0.78697246 -0.55520338 -0.35468113 12171195
0.78700012 -0.54508984 -0.35469386 12301754
0.78769463 -0.53542739 -0.35500723 12367803
0.78800005 -0.52549052 -0.35514456 12499645
0.78742874 -0.5151037 -0.35475424 12697025
0.78661287 -0.50448775 -0.35466632 12368318
0.78633314 -0.49492604 -0.35439187 12434112
0.78624135 -0.48579237 -0.35450941 12500162
0.78536659 -0.4750143 -0.35487726 12368830
0.78567994 -0.465085 -0.3550182 12632000
0.78599989 -0.45515531 -0.35516325 12566465
0.78616124 -0.44465119 -0.35422483 12632003
0.78567737 -0.4350037 -0.35477719 12303037
0.78487092 -0.42489615 -0.35536349 12565435
0.78509378 -0.41419247 -0.35475343 13157577
0.78845459 -0.40866965 -0.35492966 12632003
0.79400015 -0.4046675 -0.35478032 11382449
0.79485011 -0.68496889 -0.3445552 10722469
0.78900003 -0.67133665 -0.34543642 10261154
0.79092854 -0.67583561 -0.34442872 10326688
0.78600007 -0.66547447 -0.34522343 13551059
0.77735722 -0.65266961 -0.3457953 14341339
0.78185719 -0.65840816 -0.34361449 13748436
0.7766391 -0.6442728 -0.34456769 12763076
0.77890915 -0.63894629 -0.34516209 10722475
0.78168756 -0.63404799 -0.34497967 12761543
0.78327608 -0.62464422 -0.34482828 12170944
0.78462064 -0.61526579 -0.34478691 12235707
0.78555542 -0.60569417 -0.34484765 12104889
0.785972 -0.59497714 -0.34503064 11973560
0.78606433 -0.58474773 -0.34492251 12105659
0.78634292 -0.57487619 -0.34532374 11909305
0.78696436 -0.56532967 -0.34480736 12171710
0.7871381 -0.55516165 -0.34474766 12302524
0.78700006 -0.54508984 -0.34456077 12302010
0.7870335 -0.5349794 -0.34457549 12433082
0.78768003 -0.52527612 -0.34485921 12499389
0.78793341 -0.51530147 -0.34496915 12697025
0.78704 -0.50458336 -0.34457815 12565440
0.78700006 -0.49534568 -0.3445608 12236734
0.78696674 -0.48525348 -0.34460735 12565957
0.78634381 -0.47502863 -0.34542176 12368061
0.78643739 -0.46518895 -0.34500313 13025729
0.78623533 -0.4550209 -0.34536168 12697534
0.78651744 -0.44488257 -0.34466767 12960709
0.78648263 -0.43445194 -0.34458873 12566466
0.78559995 -0.42457974 -0.34486669 12566208
0.78565699 -0.41462243 -0.34475949 12960453
0.78861547 -0.40802985 -0.34569427 12632001
0.79500014 -0.40333143 -0.34469947 11842742
0.78900003 -0.67022836 -0.33620113 10064543
0.79172224 -0.67614704 -0.33468306 10261921
0.78722221 -0.66503453 -0.33513299 14012122
0.77900004 -0.65079182 -0.33832282 14736609
0.78221053 -0.65492231 -0.33465451 14078683
0.77875006 -0.6449995 -0.33707422 13025477
0.7809999 -0.64403003 -0.33289292 11972788
0.77900004 -0.63984984 -0.33832282 10853539
0.78181243 -0.63495088 -0.33530995 12498626
0.78290021 -0.6246013 -0.33512726 12236993
0.78441185 -0.6153968 -0.33489159 12039354
0.78599989 -0.60530066 -0.33492172 12105916
0.78662062 -0.59492743 -0.33518571 12171197
0.78693354 -0.58465129 -0.33532026 12302012
0.78725004 -0.57455224 -0.33486214 12368062
0.78797227 -0.56513202 -0.33484074 12170426
0.78751862 -0.55480474 -0.33516023 12565183
0.78707421 -0.5447312 -0.33517551 12499131
0.78721893 -0.53458691 -0.33492264 12498619
0.78780013 -0.52535653 -0.33476686 12565183
0.78800005 -0.51534462 -0.3348527 12499905
0.78750002 -0.50487882 -0.33463895 12565697
0.78755891 -0.49504605 -0.33444667 12369088
0.7877813 -0.48511752 -0.33498904 12632258
0.78785729 -0.47480628 -0.33465937 12302779
0.78733349 -0.4644067 -0.33487552 12829379
0.78692311 -0.45491117 -0.33510301 12368825
0.7861923 -0.44493151 -0.33486229 13025728
0.78624153 -0.43488935 -0.33515206 12763073
0.78676009 -0.42520592 -0.33524579 12631745
0.7877143 -0.41544464 -0.33486107 13157833
0.79000002 -0.41031185 -0.33292842 13159115
0.78880006 -0.40894976 -0.33833146 12566210
0.79490328 -0.40678585 -0.33504927 12040122
0.7913751 -0.67410064 -0.32516962 10327458
0.78752381 -0.66432422 -0.32477346 13946326
0.78342867 -0.65431875 -0.32535422 14473437
0.78247058 -0.6451779 -0.32539001 12434110
0.78365886 -0.63463497 -0.32533139 12235966
0.78513896 -0.6249783 -0.32515717 12368318
0.78654051 -0.61518759 -0.32494918 12105659
0.78741193 -0.60501188 -0.32560107 12105917
0.78780013 -0.59464806 -0.32541361 11908284
0.78783339 -0.58439809 -0.32555917 12499391
0.7878148 -0.57536799 -0.32504013 12367548
0.78734624 -0.56539226 -0.32457978 12434111
0.78703141 -0.55489981 -0.32471064 12236476
0.78700012 -0.54508984 -0.32521576 12499646
0.78765643 -0.5356319 -0.32491061 12302525
0.78800005 -0.52549052 -0.32470667 12499903
0.78800005 -0.51534462 -0.32470661 12499903
0.78800005 -0.50519866 -0.32470673 12632259
0.78800005 -0.49505273 -0.3247067 12434624
0.78800005 -0.4849067 -0.32470673 12894145
0.78786218 -0.47483671 -0.32471392 12630717
0.78748161 -0.46451303 -0.3246299 12631746
0.78734487 -0.45488635 -0.32519853 12368828
0.78700024 -0.44468015 -0.32521585 12960194
0.78700012 -0.43454707 -0.32521582 12631488
0.7870627 -0.42502296 -0.32535693 12566209
0.78795838 -0.41647425 -0.32468981 12895173
0.79120004 -0.41105652 -0.3249124 12829637
0.79627782 -0.40828681 -0.32531798 12237499
0.79235303 -0.67493486 -0.315368 10327713
0.7881363 -0.66505176 -0.3150337 13551824
0.78454179 -0.65450525 -0.31501541 14276059
0.78374308 -0.64479232 -0.31456271 12367805
0.78508323 -0.63504249 -0.31523311 12236222
0.78623319 -0.62462318 -0.31477585 12499389
0.78750014 -0.61456764 -0.31528288 12236988
0.78807408 -0.60452837 -0.31510225 12171196
0.78828573 -0.5947513 -0.31480527 12171199
0.78800005 -0.58452165 -0.31548312 12368577
0.78728002 -0.57477343 -0.31519511 12170938
0.78684008 -0.56524104 -0.31501946 12434366
0.78700012 -0.55522305 -0.3150827 12170937
0.78703851 -0.54490364 -0.31495625 12499391
0.7874828 -0.53512472 -0.31540263 12170941
0.78800005 -0.52549058 -0.31548315 12566211
0.78800005 -0.51534462 -0.31548306 12566209
0.78800005 -0.50519866 -0.31548306 12500675
0.78800005 -0.4950527 -0.31548312 12303040
0.78800005 -0.4849067 -0.31548312 12697538
0.78800005 -0.47476074 -0.31548303 12762560
0.78792006 -0.4645676 -0.3154507 12960196
0.78800005 -0.45539117 -0.31548303 12499643
0.78746682 -0.44494537 -0.31526914 12960193
0.78700006 -0.43454701 -0.3150827 12631486
0.78635997 -0.42498967 -0.31482771 12500414
0.78783876 -0.41555202 -0.31494224 12829380
0.7908572 -0.41075605 -0.31609958 13158601
0.79586369 -0.4079296 -0.31456414 12237498
0.79288244 -0.67527622 -0.30509838 10524322
0.78811765 -0.66383648 -0.30511042 14078169
0.79000002 -0.66922843 -0.30518734 11905975
0.78561532 -0.65483481 -0.30476525 13947609
0.78499991 -0.6447776 -0.30509317 11841976
0.78558606 -0.63498473 -0.30544749 12236477
0.78625804 -0.62455374 -0.30510676 12367548
0.78745961 -0.61471009 -0.30525199 12302268
0.78830302 -0.60448563 -0.30531478 12434110
0.78876907 -0.59453773 -0.30457091 12170682
0.78810006 -0.5845964 -0.30537596 12433854
0.78736681 -0.57483685 -0.3050907 12367548
0.78709388 -0.56507701 -0.30475411 12433597
0.78755903 -0.55534536 -0.30538157 12368317
0.78794456 -0.5448215 -0.30531529 12697539
0.78800005 -0.53471428 -0.30533716 12236990
0.78800005 -0.52549052 -0.3053371 12434881
0.78800005 -0.51534462 -0.30533704 12434623
0.78800005 -0.50519866 -0.30533704 12303296
0.78784853 -0.495377 -0.3055307 12368830
0.7875759 -0.4851481 -0.30492294 12565952
0.78800005 -0.4747608 -0.30533707 12631745
0.78800005 -0.46461478 -0.3053371 12829122
0.78800005 -0.4553912 -0.30533716 12763330
0.78800005 -0.44524521 -0.30533716 12697538
0.78716683 -0.43463972 -0.30501357 12565437
0.78663337 -0.4251374 -0.30480662 12565435
0.78785294 -0.41586575 -0.30500811 12632001
0.79079998 -0.41072732 -0.30549735 13158601
0.79533327 -0.40699035 -0.30470011 12040121
0.79338896 -0.67457885 -0.29483464 10525093
0.78842103 -0.66303474 -0.29534858 13880790
0.79000002 -0.66811877 -0.29483071 13551570
0.78652185 -0.65419447 -0.29535687 14276572
0.785972 -0.64465648 -0.29535142 11513270
0.78599989 -0.63455927 -0.29536197 12829129
0.78606445 -0.62517244 -0.29535666 12170940
0.78693539 -0.61504787 -0.29479352 12368062
0.78770381 -0.60499543 -0.29487643 12302524
0.78800005 -0.59466761 -0.29519114 12302268
0.78800005 -0.58452165 -0.29519111 12434110
0.78800005 -0.57529807 -0.29519117 12433853
0.78800005 -0.56515211 -0.29519114 12434110
0.78800005 -0.55500621 -0.29519111 12369087
0.78835291 -0.54488611 -0.29467067 12040381
0.78863323 -0.53514373 -0.29450375 12172481
0.78859365 -0.52554035 -0.29425797 12435394
0.78803337 -0.5153051 -0.29514188 12434366
0.78796005 -0.50517321 -0.29517627 12500157
0.78716004 -0.49544704 -0.29487693 12565439
0.78720015 -0.48533478 -0.29489115 12631489
0.78800005 -0.4747608 -0.29519117 12697027
0.78800005 -0.46461475 -0.29519117 12434367
0.78800005 -0.4553912 -0.29519111 12895174
0.78800005 -0.44524524 -0.29519108 12566209
0.78732002 -0.43472493 -0.29493669 12566208
0.78700006 -0.42533508 -0.29481652 12565182
0.78806251 -0.41552874 -0.2948682 12895173
0.79000002 -0.41031185 -0.29501566 12369857
0.79527587 -0.40713698 -0.2950899 11645877
0.79475003 -0.67499995 -0.28504342 10261665
0.78853339 -0.66207957 -0.28542238 14012375
0.79042858 -0.66721267 -0.28420484 14341085
0.78666669 -0.65456688 -0.28522077 14540000
0.78599989 -0.64467943 -0.28524169 11513267
0.78600001 -0.63455927 -0.28524172 12565699
0.78600001 -0.62535906 -0.28524172 12039612
0.78606665 -0.6152907 -0.28526625 12302783
0.78646421 -0.60488349 -0.2856088 12171452
0.78681493 -0.59510309 -0.28533351 12434110
0.78710359 -0.58493632 -0.28577009 12171452
0.78730786 -0.5750047 -0.28557631 12369088
0.78751528 -0.56522292 -0.2851229 12171708
0.78778797 -0.55535871 -0.28471768 12500159
0.78862488 -0.5455215 -0.28469402 11909307
0.78899986 -0.53594691 -0.28522217 12171968
0.79000002 -0.53329718 -0.2820698 12303297
0.78899974 -0.52507472 -0.28454706 12434368
0.78855169 -0.51465589 -0.28508422 12631746
0.78790009 -0.505135 -0.28500861 12303036
0.78700012 -0.49534568 -0.28468341 12697536
0.78755569 -0.48555338 -0.2848841 12565952
0.7883333 -0.47496086 -0.28516445 12500674
0.78836668 -0.46483114 -0.28517622 12632261
0.78829998 -0.45556489 -0.28515238 12960967
0.78800005 -0.44524521 -0.28504524 12697021
0.78773338 -0.43495265 -0.28494766 12697021
0.78716147 -0.42524388 -0.2845923 12697022
0.78792864 -0.41661236 -0.28501853 12960708
0.79143751 -0.41105628 -0.28443369 11975098
0.79425007 -0.67492396 -0.27487329 10656681
0.7884286 -0.66222894 -0.27478531 13946582
0.79042858 -0.66747695 -0.27548319 14472927
0.78621739 -0.65394127 -0.27499732 14670814
0.78624982 -0.64488375 -0.27520803 11709872
0.78663349 -0.63507015 -0.27534169 12499392
0.78599989 -0.625359 -0.27512148 11842231
0.78599977 -0.61523885 -0.27512145 12565697
0.78599989 -0.60511863 -0.27512151 12236732
0.78599977 -0.59499836 -0.27512151 12236986
0.78599989 -0.58487815 -0.27512148 12170422
0.78599977 -0.57475793 -0.27512139 12236472
0.78673083 -0.56494868 -0.27431422 12236729
0.78772426 -0.55557358 -0.27492961 12236987
0.78866655 -0.54531956 -0.27513179 12171710
0.7889998 -0.53539282 -0.27524805 12434882
0.7888146 -0.52562398 -0.27538934 12236987
0.78824991 -0.51517862 -0.27478975 12960195
0.78800005 -0.50519872 -0.27489915 12303037
0.7877242 -0.49503857 -0.27467486 12566211
0.78830773 -0.48530763 -0.27514756 12500675
0.78899974 -0.47536317 -0.27524805 12565951
0.7889998 -0.46520442 -0.27524805 12632001
0.7886799 -0.45578533 -0.27513671 12632257
0.78800005 -0.44524521 -0.27489918 12434877
0.78800005 -0.43509921 -0.27489915 12697534
0.78800005 -0.42495328 -0.27489921 12895170
0.78825009 -0.41586059 -0.27498642 12961220
0.79091668 -0.41124916 -0.27529982 12040377
0.79568428 -0.40825924 -0.27463943 11448754
0.7924 -0.67460328 -0.26530558 10854061
0.78838891 -0.66458344 -0.26447412 14144476
0.79000002 -0.66922843 -0.26542518 14801637
0.78649998 -0.65462452 -0.26497263 14342620
0.78735495 -0.64510548 -0.26492107 11577519
0.78728575 -0.63579553 -0.26484132 12697027
0.78600001 -0.62535906 -0.26500127 12236473
0.78586662 -0.61513418 -0.26495686 12433339
0.78600001 -0.60511857 -0.26500127 12630204
0.78613335 -0.59509879 -0.26504567 12433852
0.78604007 -0.58490813 -0.26501456 12236728
0.78633332 -0.57500052 -0.26511288 12368315
0.7875759 -0.56459486 -0.26502919 12236987
0.78828573 -0.55441511 -0.26498133 12368828
0.78896749 -0.54478437 -0.26492956 12434623
0.78866661 -0.53516746 -0.26497835 12632259
0.78789288 -0.52561742 -0.26504716 12434110
0.78791183 -0.51506943 -0.2649951 12762563
0.78815627 -0.50495225 -0.26457426 12303038
0.78844118 -0.495058 -0.26511693 12500416
0.78889972 -0.48546013 -0.26505506 12632000
0.78899974 -0.47536314 -0.26508918 12894659
0.78899974 -0.46520436 -0.26508915 12763072
0.78864503 -0.45558611 -0.26482022 12631229
0.78802866 -0.44512966 -0.26489443 12499901
0.7883333 -0.43528265 -0.26486394 12435135
0.78800005 -0.42495328 -0.26475316 12829380
0.78843987 -0.41577601 -0.2650854 12829379
0.79135716 -0.41114664 -0.26415843 11974070
0.78900003 -0.67115188 -0.25493038 13747920
0.79100001 -0.67563206 -0.25507134 10656165
0.78715003 -0.66506535 -0.25479355 14406360
0.78576666 -0.6544193 -0.25572658 14275798
0.78731042 -0.64552957 -0.25438538 11248810
0.78740758 -0.63549191 -0.25482562 13157064
0.78609997 -0.62543911 -0.25491315 12301754
0.78591645 -0.6151734 -0.25485361 12301753
0.78626472 -0.60467154 -0.25474951 12564411
0.78690636 -0.59510815 -0.25540477 12367803
0.78700024 -0.58470124 -0.2552053 12565439
0.78700012 -0.57456791 -0.25520533 12434367
0.78738713 -0.56527627 -0.25512332 12434109
0.78774077 -0.555233 -0.25431964 12762817
0.78796673 -0.54483688 -0.25459665 12565181
0.78796005 -0.53468722 -0.2545945 12565438
0.78696305 -0.52459478 -0.25468194 12565952
0.78728133 -0.51510334 -0.25472096 12369088
0.78844827 -0.50472087 -0.25488013 12368830
0.78896135 -0.49494612 -0.25477603 12631230
0.7889998 -0.48552209 -0.25493038 12631742
0.78899974 -0.47536317 -0.25493038 12632258
0.7889998 -0.46520439 -0.25493038 12960709
0.78899974 -0.45504549 -0.25493035 12763069
0.78824008 -0.44445908 -0.25468501 13025986
0.78836 -0.43529814 -0.25472489 12499901
0.78800005 -0.42495331 -0.25460726 12697794
0.78853339 -0.41693312 -0.25477991 12566209
0.7930001 -0.41207683 -0.25529304 12040378
0.78833342 -0.67289275 -0.2447188 14340311
0.79040003 -0.67770886 -0.2442811 11709108
0.78538096 -0.664267 -0.24483117 14274772
0.78353167 -0.65423286 -0.24514082 14670039
0.78518188 -0.64492291 -0.24450834 11314603
0.78630769 -0.63502055 -0.24471703 13223115
0.78560007 -0.62504077 -0.24463767 12368060
0.78575855 -0.61520767 -0.24481338 12368061
0.78617865 -0.60505766 -0.24488305 12236732
0.78649992 -0.59504765 -0.24472062 12499647
0.78664273 -0.58476436 -0.24515967 12433853
0.78685194 -0.57486844 -0.24482195 12433854
0.78700006 -0.56535614 -0.24507216 12565698
0.78700012 -0.55522305 -0.2450722 12499646
0.78688467 -0.544797 -0.24517915 12434365
0.78676933 -0.5351544 -0.24507244 12368572
0.78580761 -0.52494872 -0.24470201 12368574
0.78574991 -0.51498842 -0.24461964 12500159
0.78665507 -0.50509608 -0.24484009 12763330
0.78789657 -0.49514586 -0.24548027 12697023
0.78826916 -0.48528466 -0.24532694 12959938
0.78863323 -0.47514161 -0.24558194 12697281
0.78879982 -0.46508643 -0.24563368 13026503
0.78847992 -0.45566905 -0.24553442 12500156
0.7877242 -0.4452489 -0.24542582 12632255
0.78680772 -0.43465334 -0.24487291 12566464
0.78657711 -0.42489344 -0.2450837 12501185
0.78790909 -0.41676891 -0.24468492 13553617
0.79135299 -0.41177455 -0.24544741 11909306
0.78824997 -0.67305219 -0.23531067 14341850
0.79016668 -0.67831033 -0.23434232 11315633
0.7865926 -0.66491026 -0.23450691 13947090
0.78448284 -0.65461236 -0.23421437 13881550
0.78472221 -0.644853 -0.23425603 11183530
0.78549993 -0.63480455 -0.23470598 13092039
0.78506649 -0.62461674 -0.23436044 12631488
0.78487992 -0.61528027 -0.23522487 12763073
0.78486657 -0.60516471 -0.23522158 12565952
0.78510708 -0.59484726 -0.23470162 12763074
0.78522849 -0.58509141 -0.23454118 12894403
0.78622216 -0.57491869 -0.23470688 12762818
0.78752786 -0.56481189 -0.23509707 12697282
0.78750014 -0.55465496 -0.23508725 12697281
0.78670007 -0.54488289 -0.23484756 12894402
0.78619987 -0.53533363 -0.23469926 12565950
0.78524989 -0.52569276 -0.23474434 12631745
0.78531426 -0.51529437 -0.234566 12763330
0.78594422 -0.50480014 -0.2346234 12960709
0.78667754 -0.49496305 -0.23469339 12960964
0.78720015 -0.48520377 -0.23512995 12895171
0.78797227 -0.4747439 -0.23522939 12959936
0.78800005 -0.46461484 -0.23523763 13223364
0.7877 -0.45521879 -0.23514874 12697532
0.78628576 -0.44539571 -0.23505521 12566459
0.78496003 -0.43525958 -0.23525125 12566461
0.78417253 -0.42488217 -0.23514228 12894916
0.78682756 -0.41621745 -0.23479249 12763843
0.79128581 -0.4111096 -0.23449619 11447726
0.78900003 -0.67084408 -0.22845578 10197152
0.78858346 -0.66387516 -0.22756539 11250091
0.79143751 -0.66558188 -0.22305997 10788773
0.78833336 -0.65459055 -0.22641581 9539474
0.79066664 -0.65575701 -0.22168775 10130840
0.7881667 -0.64484143 -0.22536772 9934233
0.79000002 -0.64597881 -0.22064318 10000025
0.78825915 -0.63528943 -0.22523224 9934747
0.79000002 -0.63501441 -0.22011478 10857393
0.78776002 -0.62528372 -0.22502059 10066078
0.79000002 -0.62854153 -0.22011478 11185584
0.78661305 -0.61521268 -0.22546311 10987177
0.78630549 -0.60473746 -0.22552289 11250349
0.78729033 -0.59493232 -0.22547899 11842484
0.78769231 -0.58485997 -0.22507174 11645106
0.79000002 -0.5841558 -0.22011478 8289665
0.78799999 -0.57509905 -0.22502258 11842484
0.79000002 -0.57490879 -0.22011478 8487047
0.78825003 -0.56500113 -0.22535895 11908536
0.79000002 -0.56566179 -0.22011478 8882574
0.7884444 -0.55490863 -0.22501203 11842741
0.78818518 -0.54481715 -0.22521204 12039863
0.7879231 -0.5348748 -0.22520955 11382189
0.78729624 -0.52495354 -0.22529653 11119276
0.78758055 -0.5152775 -0.22514774 11382189
0.78803849 -0.50501013 -0.22495879 11842739
0.78820688 -0.49502274 -0.22527657 12763845
0.78839988 -0.48515281 -0.22520453 12830153
0.78820002 -0.4748812 -0.22514787 12829381
0.78820002 -0.46473268 -0.2251479 13289926
0.78784013 -0.45529911 -0.22504534 13092546
0.78700012 -0.44486535 -0.22498699 12566459
0.78521436 -0.43480989 -0.22534148 12237753
0.78390932 -0.42472064 -0.2247535 13027016
0.7869615 -0.41694734 -0.22557092 13093579
0.79533345 -0.65471125 -0.2151798 10658469
0.79413348 -0.6448406 -0.21475151 8685451
0.79396981 -0.63490587 -0.21462193 9212309
0.78900003 -0.62312824 -0.21983616 10592422
0.79383874 -0.62487608 -0.21458039 8751756
0.78887504 -0.61402702 -0.21910867 10329251
0.79348147 -0.61507106 -0.21405956 8685710
0.78881818 -0.6049372 -0.21894594 10658215
0.79270369 -0.60450363 -0.21371405 9013905
0.78900003 -0.59449881 -0.21983616 8552837
0.79288596 -0.59471583 -0.21428134 9408404
0.78900003 -0.58895761 -0.21983616 8158079
0.79480571 -0.58521926 -0.21503426 9737366
0.79543328 -0.57494509 -0.21528599 9803674
0.79400009 -0.56493837 -0.2149798 9935515
0.78900003 -0.55478692 -0.21983616 10264483
0.79273343 -0.55493534 -0.21437302 10198173
0.78900003 -0.54462808 -0.21983616 10461606
0.79206681 -0.54519725 -0.21419334 10132380
0.78900003 -0.53539276 -0.21983616 10790057
0.79211444 -0.53517145 -0.21417953 10264225
0.78900009 -0.52481413 -0.21899657 11514037
0.79255569 -0.52481467 -0.2133995 10724774
0.78900003 -0.51507509 -0.21891263 11579572
0.79204184 -0.51505131 -0.21372543 11316652
0.78900003 -0.50583977 -0.21937439 10855847
0.79148155 -0.50454676 -0.21434672 11645357
0.78900003 -0.49475735 -0.21983616 8947852
0.79171884 -0.495186 -0.21398489 11711407
0.78900003 -0.48552203 -0.21983616 9013391
0.79138726 -0.48531649 -0.21410105 11711149
0.78899997 -0.47500801 -0.21869953 10000024
0.79085004 -0.47545892 -0.21359196 12171699
0.78899997 -0.46533629 -0.21812098 10000019
0.79066664 -0.46495214 -0.21320358 12105906
0.78899997 -0.45557323 -0.21851683 9144708
0.79130447 -0.45439902 -0.21330675 11448233
0.78900003 -0.44488662 -0.21891263 8289661
0.79222226 -0.44519022 -0.2132412 10133151
0.78861529 -0.43458718 -0.21816626 7698043
0.7911579 -0.43567407 -0.21341629 10199460
0.78804761 -0.42475891 -0.21684574 8552836
