# .PCD v0.7 - Point Cloud Data file format
VERSION 0.7
FIELDS x y z rgb
SIZE 4 4 4 4
TYPE F F F U
COUNT 1 1 1 1
WIDTH 1120
HEIGHT 1
VIEWPOINT 0 0 0 1 0 0 0
POINTS 1120
DATA ascii
0.76730001 -0.10411473 0.10881777 16250093
0.77230448 -0.10524119 0.10443123 16184043
0.76539999 -0.094241023 0.10735013 16381422
0.77193755 -0.095639803 0.10296863 16184299
0.76545841 -0.084870286 0.1065796 16053227
0.77181822 -0.085163951 0.10213271 16118761
0.7651177 -0.075297654 0.10700767 15987434
0.77175009 -0.07427603 0.102718 16052970
0.76555574 -0.06516695 0.1074923 15658726
0.77246666 -0.064851001 0.10303874 16052713
0.7650001 -0.054932192 0.10730246 15724262
0.77216673 -0.054883193 0.1029984 15987177
0.76600009 -0.045213349 0.10765968 16052971
0.77279991 -0.044977676 0.10308398 15986921
0.76658338 -0.034743082 0.10853634 16118509
0.77225012 -0.035002951 0.10391277 16118252
0.76770002 -0.02491142 0.10869439 15527400
0.77270001 -0.025073439 0.10397408 15461093
0.76733333 -0.015021906 0.10864263 14803423
0.77262515 -0.015125441 0.10396377 14935006
0.76621425 -0.004877802 0.10771344 14540249
0.77187508 -0.0053970953 0.1031862 14869212
0.76566672 0.0047288528 0.10750737 14606041
0.77227777 0.0047713118 0.10301388 14935007
0.76505005 0.015649019 0.10706141 14539993
0.77176917 0.014287095 0.10266868 14737628
0.76442295 0.025367813 0.10540055 13816272
0.77071428 0.022930434 0.10151856 14343125
0.7587778 0.037350658 0.10812286 13750480
0.76286215 0.034547541 0.10353783 13947858
0.75820845 0.045506541 0.10735032 13882066
0.76326662 0.044917602 0.10181041 14277335
0.75765002 0.0552289 0.10727058 14013653
0.76261115 0.054696895 0.10172273 14277078
0.75729162 0.064953387 0.10721945 13882067
0.76164705 0.065064132 0.10169991 14145749
0.75666684 0.074980542 0.10742525 14013911
0.76241177 0.075105272 0.1018011 14013909
0.75812507 0.082994699 0.10844825 15000549
0.7634545 0.084735066 0.1045121 14868962
0.77150005 0.087395467 0.10155775 13684175
0.76625001 0.091732249 0.10804083 15658478
0.77455556 0.094140545 0.1048269 14671327
0.78400004 0.097761154 0.10251348 13223367
0.78675002 0.10247687 0.10724455 11711152
0.793625 0.10581227 0.10400222 11777199
0.78736848 -0.16428167 0.11424679 9732210
0.79050004 -0.16814624 0.11747638 10459793
0.77647066 -0.15233369 0.11512154 10653571
0.78230006 -0.15816212 0.11534573 9994350
0.76850003 -0.14187779 0.11735389 15592164
0.77316672 -0.14515436 0.1140665 14143946
0.76477784 -0.13469297 0.11586657 15459807
0.7713334 -0.13758616 0.1113157 16183784
0.76221216 -0.12514475 0.11529173 15657958
0.75900006 -0.11524828 0.11901353 15395558
0.76226676 -0.11485243 0.11416591 15592423
0.75881821 -0.10440133 0.11801583 15263972
0.76195002 -0.10535137 0.11331793 15592935
0.75828576 -0.094345883 0.11661802 15264229
0.76080006 -0.095575012 0.11181435 15789800
0.75810003 -0.084941745 0.11620867 15461351
0.76050007 -0.085210189 0.11123659 15592680
0.75799996 -0.075170368 0.11619323 15395558
0.76050013 -0.075418286 0.11123658 15461350
0.75840926 -0.06488061 0.1164984 15198179
0.76042873 -0.064221807 0.11160748 15329764
0.75869989 -0.054814398 0.11630134 15198436
0.76050013 -0.054944329 0.11123659 15461350
0.75899994 -0.045671251 0.11695614 15198436
0.76058823 -0.0444763 0.11213925 15593193
0.75900006 -0.0352908 0.11901353 15395815
0.7610001 -0.034810409 0.11378881 15592937
0.759 -0.024807487 0.11830278 15330022
0.76130438 -0.02532281 0.11363713 15132388
0.759 -0.014857224 0.11812512 14474457
0.76137501 -0.01490425 0.11314467 14408666
0.75892848 -0.0044499165 0.11722549 14079956
0.76087505 -0.0056545124 0.11251507 14211286
0.75833344 0.0046827453 0.1162448 14342871
0.76050013 0.0046972013 0.11123659 14408922
0.75811541 0.015058269 0.1158694 14145492
0.76060009 0.01609296 0.11107317 14211027
0.75847822 0.025335701 0.11568796 13619149
0.76000011 0.024392109 0.11078279 13618124
0.75776476 0.034626745 0.11464325 13290186
0.75578129 0.045580529 0.11529905 13882323
0.75463337 0.055008974 0.11567454 14079446
0.75369442 0.064643398 0.11553105 13947859
0.75241661 0.075105831 0.11533482 14145239
0.75617856 0.085094713 0.11521625 15132647
0.76000005 0.089204863 0.11027446 15527148
0.75875002 0.090834394 0.11630907 15396077
0.76207697 0.093430892 0.11482854 15264234
0.77228576 0.097622119 0.11283196 12632256
0.77700001 0.10029509 0.11273799 11645104
0.78740013 0.10569403 0.11553864 11842992
0.79162502 0.1089019 0.11416701 11842991
0.78850007 -0.16156863 0.12271646 9997702
0.79316676 -0.16593271 0.12540595 9999501
0.77587503 -0.15118708 0.12461188 10985371
0.78383332 -0.15618092 0.12550853 9076859
0.76491666 -0.14211343 0.12441554 15262942
0.77145463 -0.14685775 0.12507066 14670806
0.75900006 -0.13123977 0.12700927 15855081
0.76054168 -0.13543944 0.12481841 14406351
0.75882369 -0.12478336 0.1254638 15592680
0.76000005 -0.12874392 0.12094949 15395557
0.75846672 -0.11516798 0.1251431 15527143
0.75799984 -0.1053367 0.12506744 15527144
0.75738883 -0.09461505 0.12496658 15461608
0.75690001 -0.084806971 0.12488571 15395558
0.75675005 -0.075046636 0.1248607 15395816
0.75661123 -0.064404011 0.12483747 15264230
0.75769997 -0.054740552 0.12501781 15198181
0.75890338 -0.045544267 0.12461498 15330022
0.76000005 -0.042098157 0.1291337 15329765
0.75899994 -0.0352908 0.12256718 15395815
0.76000017 -0.035337295 0.12806618 15264229
0.75900006 -0.024761422 0.12421241 15330023
0.76000011 -0.027825229 0.12846157 15264229
0.75900024 -0.014857224 0.12523243 14606300
0.75833333 -0.0050814259 0.12512213 14343128
0.75755548 0.0046775844 0.12499461 14474714
0.75705552 0.015309351 0.1249119 14343127
0.75633341 0.025031922 0.1247903 14014162
0.7553333 0.0347252 0.12462381 13948115
0.75438219 0.045068733 0.12472875 14145751
0.7530002 0.054890297 0.12512383 14079704
0.75126678 0.064433195 0.12483584 13750739
0.75057578 0.07484293 0.12519947 13948118
0.75446445 0.085216381 0.12479693 15132392
0.75793338 0.092275605 0.1258239 15395565
0.76300007 0.096216984 0.1245058 13948118
0.77100003 0.099520616 0.124505 11447984
0.77485716 0.10261168 0.12642147 11842993
0.78528565 0.10714693 0.12497038 11842991
0.79000002 0.10937075 0.1201756 11777198
0.78900003 0.11107937 0.12648821 11711405
0.79226935 0.1158234 0.12486914 11711405
0.79306072 0.13499708 0.12519097 11711405
0.77720004 -0.15076169 0.13460717 9472390
0.7858125 -0.15611666 0.13517368 9867660
0.76685721 -0.14208783 0.1338415 14077640
0.77321434 -0.14675893 0.13572423 13551297
0.76153851 -0.13531663 0.13490936 14143949
0.75880778 -0.12437506 0.13462965 15790316
0.76000005 -0.1291887 0.13740686 15855596
0.75823998 -0.11513305 0.13487086 15461351
0.75799996 -0.10533671 0.13482712 15461351
0.75711423 -0.094453134 0.13542883 15263715
0.75683337 -0.08479996 0.13550499 15197922
0.75680566 -0.075051039 0.13550058 15132386
0.75697142 -0.064562395 0.13540383 15132387
0.75800002 -0.054761745 0.13482769 15132643
0.75899988 -0.046113327 0.13573192 15000801
0.76000011 -0.042231593 0.13318133 15593194
0.75900006 -0.038844466 0.13855869 14606046
0.76000017 -0.035189029 0.13503461 15132644
0.75900006 -0.021964554 0.13855869 14145495
0.76000017 -0.02580601 0.1349287 14803422
0.75900012 -0.014539932 0.1351954 14343129
0.76000005 -0.019324733 0.13251413 14737628
0.75807697 -0.0049425904 0.13504484 14146008
0.75741661 0.0046777348 0.13560836 13882580
0.75686115 0.015304408 0.13550933 13619408
0.75476664 0.02497921 0.13513397 13355979
0.75388879 0.034658849 0.13497819 13487565
0.75372213 0.045237668 0.13494813 13553358
0.75333339 0.054914758 0.13488032 13421515
0.75297236 0.06458196 0.13481601 13289931
0.75133336 0.075075008 0.13492204 13421517
0.75243336 0.084797002 0.13471596 14408669
0.75614291 0.093814149 0.1353797 15066599
0.76033336 0.098736823 0.13346066 14539998
0.76350003 0.10093722 0.13610353 12960966
0.77450001 0.10450694 0.13232268 11777200
0.78466672 0.10863238 0.13222039 11908784
0.7881667 0.11096203 0.13557763 11777198
0.79245001 0.11620674 0.13539095 11711405
0.7935186 0.12512885 0.13536866 11711405
0.79196417 0.13500261 0.13550745 11711405
0.79339999 0.14513241 0.13555473 11645612
0.78900003 -0.16043893 0.14588237 9737358
0.79165393 -0.16461785 0.14487489 9737358
0.77900004 -0.15111086 0.14038612 9800837
0.78528577 -0.15522668 0.14536853 9802124
0.76900005 -0.14016984 0.14578494 13222334
0.77357149 -0.14540733 0.14509906 13419968
0.7637406 -0.13544476 0.14498526 13946571
0.759 -0.1223556 0.14243542 14341844
0.76016009 -0.12638704 0.14603133 14671065
0.75900006 -0.11505084 0.14428404 14736602
0.76000005 -0.1171793 0.14941627 15328482
0.75847244 -0.1054031 0.14467829 14868701
0.75780642 -0.09480983 0.14526597 14934494
0.75716001 -0.084836416 0.14531355 14803164
0.75703335 -0.075074315 0.14528869 14803422
0.75764513 -0.06434878 0.1452349 15000546
0.75823325 -0.054779548 0.14463122 15066082
0.75900024 -0.045190293 0.1446507 15132132
0.76000005 -0.040674817 0.14941627 15263719
0.759 -0.036771495 0.14300078 14934495
0.76000017 -0.034348864 0.14615443 15263461
0.75900006 -0.024300762 0.14454728 14013909
0.76000011 -0.029209031 0.14566025 14605532
0.75844455 -0.014847651 0.1446707 14079959
0.75782758 -0.0051998133 0.14470722 13750737
0.75703335 0.0046755946 0.14528877 13816528
0.75613362 0.015289403 0.14511538 13619151
0.75374073 0.025141831 0.14504777 13553358
0.75283355 0.03460994 0.14536236 13487565
0.75362498 0.045013014 0.1449649 13553358
0.75399989 0.054963194 0.1447064 13816273
0.75379986 0.064653367 0.1446685 13421515
0.75252956 0.075320482 0.14504725 13421516
0.75223356 0.084773287 0.1452485 14342617
0.75592601 0.094042428 0.14507429 14935012
0.76000005 0.099879913 0.14052041 15132133
0.76350003 0.10123648 0.14563301 14803425
0.77450001 0.1072313 0.14773066 11579820
0.78100002 0.10995308 0.1444032 11711407
0.78733337 0.11330487 0.14639328 11776942
0.7922501 0.11710209 0.14450818 11711405
0.78900003 -0.16043893 0.15696475 9868432
0.79270846 -0.16545004 0.15476449 9737359
0.77825004 -0.15096538 0.15573502 9472905
0.7856667 -0.15578046 0.15497075 9802127
0.76824999 -0.14183164 0.15733089 13552071
0.77329999 -0.14602673 0.15456392 14144207
0.76357144 -0.13580376 0.15490346 14407380
0.75900006 -0.12057877 0.15988068 15394275
0.76033336 -0.12524197 0.15482149 15328739
0.759 -0.11347144 0.15665005 15065567
0.76000017 -0.11676066 0.15485844 14999775
0.75900024 -0.1054757 0.15543859 15131617
0.75841659 -0.094743438 0.15531953 15328995
0.75789994 -0.084919326 0.15521355 15065824
0.75783324 -0.075153045 0.15520003 15197667
0.75799984 -0.064523421 0.15523383 15263718
0.75806659 -0.054768059 0.1552469 15131877
0.75895649 -0.046721499 0.15593158 15000547
0.76000017 -0.042180274 0.15475379 15132133
0.75900006 -0.03469852 0.15988068 15066340
0.76000017 -0.035337292 0.1547538 15329512
0.75899994 -0.023783693 0.1560732 14474460
0.76000017 -0.027983373 0.15475379 14540253
0.75880575 -0.014853971 0.15539974 14079703
0.75856674 -0.0050820527 0.15535145 14342875
0.7577498 0.0046792082 0.15518373 13816530
0.75669456 0.015301365 0.1549675 13816273
0.75457138 0.024783144 0.15484886 13684687
0.75283343 0.034610465 0.15505828 13750480
0.75432348 0.045485001 0.15474218 14145495
0.7553333 0.05506023 0.15469025 13619151
0.75486106 0.064743593 0.15459326 13618893
0.75353122 0.074993156 0.15486999 13750220
0.75272018 0.084826574 0.15503392 14473946
0.75606906 0.094181873 0.15499057 15066597
0.76370007 0.10126324 0.15460989 14803427
0.77563643 0.1078819 0.15463604 11711151
0.78728575 0.11531917 0.15504341 11711405
0.79123342 0.12467062 0.15493694 11645612
0.78900003 -0.16043891 0.16527654 9802382
0.79261905 -0.16595064 0.16484043 9802638
0.77642864 -0.15087257 0.16511039 9406600
0.78431261 -0.15593368 0.16486531 9867407
0.76645464 -0.14231738 0.1655239 14077900
0.77241677 -0.1468219 0.16466415 15788517
0.75900006 -0.13183205 0.16817255 15131617
0.76125938 -0.13552716 0.16438045 14999774
0.75895232 -0.12463221 0.16646975 15657960
0.76000017 -0.12607516 0.16161633 15262945
0.759 -0.11524827 0.16521116 15394788
0.76000005 -0.11540012 0.16009133 14539479
0.75900012 -0.1054757 0.16521114 15394788
0.75826669 -0.094724573 0.16505103 15328997
0.75732005 -0.084854342 0.16484438 15394535
0.75722581 -0.075007811 0.16499515 15197413
0.75713331 -0.064449959 0.16480424 15460840
0.757074 -0.054761842 0.16518472 15526374
0.75775003 -0.045154054 0.1652693 15394789
0.75820005 -0.035253603 0.1650347 15197668
0.76000005 -0.036226884 0.16009133 15197926
0.75829995 -0.025494175 0.16505677 14605788
0.7584666 -0.014847098 0.16509368 14211288
0.75820017 -0.0050793779 0.1650362 14277081
0.75731254 0.0048972759 0.16517487 14211288
0.75600022 0.015287288 0.16544144 14013909
0.7559002 0.025018672 0.16542177 13684944
0.75562513 0.034518369 0.16481091 13947859
0.75597173 0.045499824 0.16531084 14277081
0.75573343 0.055088758 0.16538356 14013909
0.7545833 0.064719237 0.16513053 13816273
0.75255561 0.075114705 0.16468602 14013652
0.7486667 0.084369332 0.16860873 14539997
0.75088465 0.085025184 0.16364503 14605789
0.75531048 0.09445411 0.16501647 15132390
0.76000005 0.099879913 0.16542885 15526891
0.76211119 0.10134764 0.16410166 14474204
0.77355558 0.10669744 0.16516447 11448236
0.78000003 0.1098123 0.16247825 11777198
0.7881999 0.1160437 0.1650165 11711405
0.7889998 0.1251331 0.16716379 11579819
0.79000002 0.12473503 0.16214283 11514026
0.78900003 0.1323206 0.16804713 11448233
0.7904762 0.135873 0.16413018 11645612
0.79257703 0.14512786 0.16488209 11579819
0.78837502 -0.1610045 0.17598788 9802381
0.79195243 -0.16607469 0.1747656 9802381
0.77591681 -0.15202877 0.17494805 9538958
0.78380001 -0.15681438 0.17446013 9867918
0.75900006 -0.14012393 0.17942584 13420485
0.76400006 -0.1432884 0.17523693 14802395
0.77214289 -0.14849015 0.17478466 14407894
0.75755554 -0.13394845 0.17533647 15394790
0.76025009 -0.13813014 0.17215692 13420486
0.75587177 -0.12484562 0.1748661 15657962
0.7560789 -0.11522125 0.17546479 15657961
0.75747222 -0.10526321 0.17462766 15789292
0.75705713 -0.09469936 0.17440669 15591913
0.75612909 -0.084892377 0.17446116 15460328
0.75582868 -0.075030424 0.17437656 15394792
0.75557595 -0.06488096 0.17443104 15526634
0.75387192 -0.055235948 0.17508285 15461098
0.75387502 -0.044624928 0.17493966 15461097
0.75480008 -0.035095379 0.17489092 15329255
0.75519514 -0.025454106 0.17485501 14934241
0.75650012 -0.014807118 0.17440575 14605532
0.75700003 -0.0050712442 0.17452264 14605789
0.75655895 0.00446282 0.17468107 14539997
0.75483322 0.015262448 0.17490597 14342874
0.75496 0.024988636 0.17493352 13816530
0.75570595 0.034951821 0.174481 14013909
0.75500011 0.045388415 0.17539582 14145751
0.75332254 0.055082746 0.17557627 14211287
0.74883336 0.066565163 0.17819101 13948116
0.75206906 0.064169466 0.17420167 13750736
0.74804169 0.075615078 0.17559309 14013909
0.7504167 0.07300055 0.17197944 13684687
0.74753118 0.085062414 0.17463462 14737631
0.75000006 0.08978688 0.1702752 15329769
0.74860001 0.091722444 0.17661613 15330283
0.75380766 0.096221671 0.1744605 15527149
0.75900006 0.10152533 0.17764901 14408668
0.76344448 0.10331374 0.17392139 12960964
0.77300006 0.1070172 0.17006816 11513771
0.78722215 0.1154414 0.17463027 11645612
0.79000002 0.11861777 0.17935653 11579819
0.78899997 0.12466848 0.1731925 11580074
0.79025 0.12536249 0.17767935 11580073
0.78900003 0.13139705 0.17266479 11580074
0.79122734 0.13589467 0.1747548 11579817
0.79353327 -0.17436738 0.18480198 9868688
0.78840005 -0.1629014 0.18545309 9736846
0.79081815 -0.16703683 0.18475936 9736845
0.77483344 -0.15302502 0.18497901 9736337
0.78308326 -0.15832183 0.18511398 9802384
0.75842863 -0.14179394 0.18588339 13946829
0.76314294 -0.14561495 0.184615 15920876
0.77100003 -0.14955902 0.1831633 15262949
0.74849999 -0.13161421 0.18789434 14473690
0.75393105 -0.13560233 0.18442938 14999774
0.74729615 -0.12442288 0.18572789 15591913
0.75012505 -0.12619336 0.18171778 15460582
0.74689662 -0.11497749 0.18475984 15657706
0.75025004 -0.1130406 0.18087006 15789546
0.7470001 -0.10552052 0.18595894 15789291
0.75273329 -0.10442761 0.18111382 15789546
0.74772221 -0.09515506 0.18726079 15789292
0.75186366 -0.095282435 0.18229507 15723753
0.7476666 -0.084647812 0.18724699 15855085
0.75204164 -0.085142486 0.18217821 15723498
0.74793333 -0.07504721 0.18731363 15460840
0.7527917 -0.074652843 0.18236075 15657448
0.74789989 -0.065064773 0.18695502 15460581
0.75193757 -0.065549277 0.18215385 15526374
0.74730307 -0.054627992 0.184927 15526888
0.75033337 -0.057723682 0.18089014 15526630
0.74709386 -0.044902407 0.18425773 15395048
0.74689281 -0.035601474 0.18555199 15329513
0.75016671 -0.034294046 0.18114258 15263719
0.74740911 -0.025446212 0.18654548 15197927
0.75120008 -0.024609698 0.1821522 15000547
0.74800009 -0.014977926 0.18800434 14803425
0.75289655 -0.014583888 0.18314397 14802912
0.74837506 -0.0047942875 0.18852027 14868961
0.75396305 -0.0051161014 0.18391456 14737375
0.74850005 0.0046230829 0.18833269 14803425
0.75346678 0.0046519651 0.18340355 14868961
0.74850005 0.015136595 0.18833272 14540253
0.75250018 0.0152169 0.18316944 14540253
0.74850005 0.02477398 0.18833271 14277081
0.75199997 0.024889821 0.1830477 14211288
0.74850005 0.034411367 0.18833269 14277081
0.75193334 0.03456866 0.18303123 14145495
0.7481876 0.045343235 0.18759677 14474460
0.75145459 0.044460665 0.1829163 14342874
0.74762952 0.055665161 0.18587558 14408410
0.75022227 0.054687031 0.18144862 14408410
0.74706656 0.064950377 0.18447165 14079702
0.74638891 0.074501738 0.18430553 14145494
0.74633336 0.084980488 0.18429178 14540254
0.74747616 0.093485884 0.18494949 15198699
0.75311112 0.098388523 0.18390809 15198441
0.75866675 0.10148073 0.18556166 14540511
0.76275003 0.10381253 0.18388179 11777203
0.77200007 0.10748351 0.18490243 11579566
0.77900004 0.11149517 0.18780109 11579819
0.78588891 0.11473685 0.18516545 11711405
0.79000002 0.11861777 0.18305534 11711405
0.79140007 0.124389 0.18523358 11514026
0.78800005 -0.1620803 0.19550498 9605775
0.7923125 -0.16656415 0.19507068 9605774
0.76600003 -0.15038234 0.19632182 12829377
0.77466667 -0.15426441 0.19473192 9802645
0.78433341 -0.15948997 0.19550984 9605520
0.7557143 -0.14339647 0.19532226 14868444
0.76275003 -0.14818224 0.19414568 15000289
0.74707693 -0.13409065 0.1957085 15130593
0.75157148 -0.13799936 0.19224559 13486021
0.74463904 -0.12488429 0.1948145 15395048
0.74332494 -0.115261 0.19507425 15460841
0.74359518 -0.10507464 0.19492817 15658220
0.74414289 -0.094700791 0.19507058 15658220
0.74419445 -0.084979862 0.1949387 15658220
0.74409759 -0.075427122 0.19518633 15395304
0.74395239 -0.065070137 0.1950195 15461096
0.74366683 -0.054598909 0.19494563 15395302
0.74325716 -0.044999223 0.19483866 15329512
0.74299991 -0.035416041 0.19477025 15329513
0.74416673 -0.025017923 0.19507773 15132133
0.74538904 -0.01459027 0.19452654 14935011
0.74516135 -0.0048799454 0.19466333 14869218
0.74521625 0.0044857189 0.19464608 14737632
0.74594456 0.015085176 0.19467215 14606046
0.74591678 0.025561282 0.19466485 14211288
0.74596685 0.035168219 0.19467799 14474460
0.74588907 0.044767641 0.19465786 14408667
0.74533349 0.055203136 0.19451348 14474460
0.74442118 0.065362215 0.19528317 14408667
0.74451458 0.074589424 0.19442429 14342618
0.74500012 0.084829211 0.19442782 14606561
0.74648005 0.093911178 0.19498929 15067883
0.75116664 0.098719031 0.19427486 14803941
0.75550002 0.10105715 0.19539486 14803940
0.76500005 0.10501889 0.19068937 12500668
0.77380008 0.10893943 0.19451678 11316647
0.77900004 0.11149516 0.1950957 11711405
0.78811771 0.11660042 0.19488239 11579819
0.79234612 0.1243974 0.19494332 11514026
0.78644449 -0.16237578 0.20554723 9671052
0.76450008 -0.15187757 0.20487595 11645357
0.77355558 -0.1560951 0.20559958 9539211
0.78100002 -0.15881217 0.20108159 9605774
0.74738473 -0.14269057 0.20642026 14803164
0.75407702 -0.14628185 0.20392659 14869471
0.76050007 -0.14930257 0.20203415 13487561
0.74397302 -0.13476452 0.2048175 14670811
0.73881817 -0.12334791 0.20783116 15328998
0.74131829 -0.12581636 0.20419301 15197669
0.73832023 -0.11473563 0.20633811 15395048
0.74054551 -0.1149678 0.20185509 15460585
0.73844445 -0.10521222 0.20693088 15526377
0.74075007 -0.10423998 0.20263976 15657451
0.73790002 -0.095028944 0.20682546 15395304
0.74075007 -0.095570125 0.20242308 15592427
0.73748159 -0.085187711 0.20611468 15460841
0.74060011 -0.086100832 0.2017754 15461098
0.73768985 -0.074734405 0.20558855 15395305
0.74085724 -0.075823374 0.20139977 15461098
0.7378667 -0.064536802 0.20551939 15197670
0.74050003 -0.064769037 0.20105533 15461098
0.73842859 -0.055242378 0.2063362 15132647
0.74049997 -0.054365553 0.20174825 15329512
0.73870009 -0.045241434 0.20713718 15132390
0.74046671 -0.045869622 0.20266348 15132133
0.73891318 -0.035409369 0.20679134 14671582
0.74030769 -0.034954343 0.20206918 15000804
0.73900002 -0.0251785 0.20823352 14539996
0.741 -0.024723167 0.20367867 14737632
0.73899996 -0.014229818 0.20851178 14408923
0.74212903 -0.014610803 0.20339896 14737632
0.73899996 -0.0049506603 0.20843315 14409437
0.74191666 -0.0051153433 0.20331706 14540768
0.73900002 0.0015368853 0.20886563 14343644
0.74199992 0.0050298814 0.20455605 14409181
0.74292308 0.014824529 0.20478602 14409180
0.74347204 0.025478167 0.20447086 14211802
0.7438001 0.035066076 0.2045621 14277596
0.74386114 0.044646293 0.20457806 14474717
0.74352765 0.055069562 0.20448674 14540253
0.7425161 0.065282457 0.20491013 14408667
0.74285728 0.075206891 0.20461264 14211032
0.74402785 0.084719315 0.20462444 14737634
0.74618524 0.09418606 0.20531562 15329771
0.75000006 0.098565705 0.20275682 15197928
0.75445455 0.10172389 0.20532006 15066342
0.76300001 0.10563275 0.20359197 11842485
0.77240002 0.10874233 0.20501208 11316393
0.77900004 0.11149517 0.20147848 11579819
0.78807151 0.11608951 0.2052737 11580074
0.79000002 0.11861777 0.2043235 11711404
0.77866673 -0.16016059 0.21324016 9670795
0.78636366 -0.16392195 0.21551438 9539979
0.79333335 -0.16813192 0.21416055 9539979
0.75825006 -0.15063593 0.21741062 13553101
0.76440006 -0.15311296 0.21416044 11052451
0.77540004 -0.15876387 0.21525486 9605003
0.74490011 -0.14310358 0.21550134 14736859
0.75320005 -0.14786942 0.21331421 13882064
0.73858333 -0.13232051 0.21638344 14868444
0.74150002 -0.13663444 0.21425653 14473686
0.73719466 -0.12488338 0.21482393 15066593
0.73600012 -0.11459403 0.21427374 15132387
0.73560625 -0.10517289 0.21475247 15132131
0.73488104 -0.095242865 0.21500981 15132133
0.73482943 -0.084808595 0.21512148 15000804
0.73527795 -0.074638054 0.21426709 14935010
0.736 -0.064372189 0.21447915 15131877
0.73746681 -0.055005547 0.21490631 14868961
0.73761129 -0.04551914 0.21494764 14671581
0.73863661 -0.035547804 0.21490701 14211029
0.74000001 -0.03152011 0.21939801 13684687
0.7390002 -0.024371445 0.21476716 14013652
0.74000001 -0.027824422 0.21928251 13684687
0.73822254 -0.014451479 0.21512686 13948116
0.73800021 -0.0049439622 0.21506177 14145752
0.73857599 0.0043269405 0.21562165 14145752
0.74000001 0.007169113 0.21131368 13817300
0.73891318 0.014604548 0.2170949 13882323
0.74087507 0.015959188 0.21221277 14145752
0.73900008 0.025375437 0.21804994 13816530
0.74111986 0.025362557 0.21267243 14014166
0.73899996 0.035154168 0.21857728 13816530
0.74120826 0.034799855 0.21324676 14211801
0.73900002 0.04002966 0.21967819 13750737
0.74131703 0.044599976 0.21502927 14342874
0.74205416 0.054844413 0.21466792 14211545
0.74233341 0.065407641 0.21458666 14343131
0.74181247 0.075076118 0.21481472 14211031
0.74255544 0.084551714 0.21464886 14671840
0.74533337 0.094942689 0.21521442 14935011
0.74816662 0.10095138 0.21451856 15000548
0.75362504 0.10345405 0.21431339 13619152
0.76475 0.10722054 0.21300866 11250348
0.77000004 0.10840445 0.21086754 11316139
0.77400005 0.11077954 0.21377492 11645355
0.7865333 0.1161378 0.21428499 11579562
0.79000002 0.11861777 0.21819402 11513769
0.79274189 -0.17461026 0.22523512 9539979
0.78530008 -0.16428573 0.22516486 9474187
0.79216671 -0.16850077 0.22528215 9474187
0.75833338 -0.15183705 0.22602071 13290183
0.76050007 -0.15286326 0.2233977 11711153
0.7748 -0.15936525 0.22487643 9539981
0.74379176 -0.14341454 0.22501822 14605018
0.7536 -0.14971215 0.2257801 13619150
0.73830003 -0.13327906 0.22534606 14737115
0.74062514 -0.13803232 0.22427911 13026241
0.73544449 -0.12458707 0.22464705 14671836
0.73456687 -0.11497806 0.22437906 14868959
0.73497134 -0.10555254 0.22462714 14869215
0.73549992 -0.095322646 0.22552742 14539996
0.73606682 -0.08505664 0.2257027 14408411
0.73636127 -0.074747205 0.2249314 14408411
0.73761302 -0.064651817 0.22461554 14408668
0.73840022 -0.055076264 0.22468704 14474203
0.73850018 -0.046040099 0.22425176 14211031
0.74025005 -0.042650007 0.22828138 13553101
0.73899996 -0.037820894 0.22239678 14145238
0.74113041 -0.034534331 0.22627202 13750480
0.74153346 -0.0249316 0.22564204 13289929
0.73899996 -0.012859288 0.22190249 13355722
0.7413913 -0.015003642 0.22650358 13158600
0.73886669 -0.0042582308 0.22332896 13750738
0.74040002 -0.0060006222 0.22754793 13487566
0.73890018 0.0045635947 0.22483821 13619152
0.73826689 0.01492965 0.2246462 13487822
0.7385174 0.025159599 0.22460324 13290442
0.74000001 0.029689707 0.2286372 13092807
0.73900014 0.034839623 0.22400324 13553358
0.74000001 0.034886766 0.22863719 13224136
0.7390002 0.044620845 0.22433594 13750737
0.74000001 0.042682353 0.2286372 13027014
0.73900014 0.05426294 0.22589053 13750738
0.74053854 0.055982582 0.22160174 14013909
0.73900014 0.065460846 0.22625224 13882324
0.74075001 0.064835072 0.22171484 14079702
0.73900014 0.074547537 0.22519776 13948117
0.74027276 0.076332666 0.22289129 14277081
0.74212497 0.085047349 0.22495145 14408668
0.74530315 0.095414579 0.2248826 14737633
0.74788898 0.10237411 0.22407161 14539997
0.75537503 0.10568677 0.22652259 11579567
0.78675008 0.11628798 0.22465891 11448233
0.79000002 0.11861777 0.22374223 11448233
0.79329163 -0.17493124 0.23419386 9474187
0.784091 -0.16395035 0.23457952 9408395
0.79260004 -0.16859293 0.2356139 9474188
0.75600004 -0.15018894 0.23889017 13618896
0.76020002 -0.15280297 0.23487933 12763586
0.77400005 -0.15920071 0.23370636 9474188
0.74377286 -0.14341223 0.23502521 14210518
0.75400001 -0.14979161 0.23384711 13092552
0.73850006 -0.13390453 0.23461752 14145238
0.74016666 -0.13837974 0.23475428 12565693
0.73616672 -0.12470803 0.23520868 14342617
0.73664516 -0.11457842 0.23466843 14408410
0.73800004 -0.10476366 0.23512493 14408412
0.73852181 -0.095675752 0.23419519 14079704
0.74000001 -0.094346784 0.23868486 13948118
0.73853844 -0.08567559 0.23270814 13882325
0.74064714 -0.085331455 0.23760919 13816530
0.73887509 -0.074570388 0.23326282 13750738
0.74028569 -0.075642958 0.23788588 13355979
0.73899996 -0.066269986 0.23140383 13948118
0.74038446 -0.064023003 0.23602313 13816531
0.73900002 -0.051660988 0.23005827 14540253
0.74103034 -0.054745935 0.23537098 14277082
0.74192607 -0.045301493 0.2342536 13816530
0.74366677 -0.035447072 0.23499551 13422029
0.74433333 -0.025024569 0.23520546 12632257
0.74406666 -0.014566469 0.23512125 12566977
0.74220002 -0.0049739708 0.23453256 12961735
0.73900002 0.0080244318 0.23005827 13290186
0.74121433 0.00433027 0.23446813 12961222
0.73900002 0.014944482 0.23005827 12896198
0.74133331 0.014992057 0.23512571 12566720
0.73900002 0.02186453 0.23005827 12238268
0.74196422 0.025674494 0.23470698 12567234
0.74243999 0.035001706 0.23460859 12829893
0.73900002 0.048679721 0.23005827 12895428
0.74182767 0.044373736 0.23453489 13027016
0.73900002 0.054734763 0.23005827 13421773
0.741 0.054882411 0.23501946 13027015
0.73900002 0.065114833 0.23092325 13421774
0.74114281 0.065675877 0.23642805 13421773
0.73899996 0.073764898 0.23092328 13750739
0.74130005 0.075122617 0.23606911 13750738
0.74323344 0.084630772 0.2348574 14277083
0.7457431 0.095514521 0.23490064 14737633
0.74750006 0.10217532 0.23532781 13158599
0.7536 0.10504212 0.23352888 11250858
0.76700002 0.10977765 0.23877496 11514280
0.77400005 0.11259149 0.23914218 11514280
0.78900003 0.11846761 0.23546493 11382183
0.79000002 0.11861777 0.23113987 11448233
0.78633332 -0.16439924 0.24458371 9474188
0.75600004 -0.15018894 0.2441996 13487308
0.76083344 -0.15293027 0.24486929 12829378
0.77550006 -0.15950924 0.24596033 9408140
0.74395663 -0.1435595 0.24485239 13684430
0.75420004 -0.14983134 0.24467441 13026757
0.73855007 -0.13332368 0.24400958 14079445
0.74088895 -0.13755181 0.24625595 12632000
0.73723328 -0.12488806 0.24504204 14276824
0.73834491 -0.11532874 0.24421863 14211288
0.74016666 -0.11123327 0.24746056 13816531
0.73900002 -0.10875139 0.24043834 14803170
0.74103224 -0.10479618 0.24501862 14013910
0.74178565 -0.094710238 0.24500643 13948372
0.74181503 -0.085238852 0.24463652 13816528
0.74169976 -0.075290509 0.24479204 13684943
0.74216646 -0.064911999 0.24494648 13553101
0.74339992 -0.054577172 0.24535295 13553358
0.74475878 -0.04520857 0.24477911 13750737
0.74616677 -0.035566743 0.2445194 13224651
0.74679989 -0.025107654 0.24472688 12369086
0.74636662 -0.01461184 0.24458425 12105913
0.74475873 -0.0048702499 0.2447786 12238012
0.74400002 0.0045951596 0.24468003 12238012
0.74430549 0.015052455 0.24478057 12172218
0.74494439 0.025529237 0.24499086 12106940
0.74516684 0.035130344 0.24506396 12435648
0.74472237 0.044697098 0.24491747 12698307
0.74411118 0.055112738 0.24471667 12961221
0.74369705 0.065291047 0.2449753 13027014
0.74337035 0.075135082 0.24495527 13553358
0.74366665 0.084678471 0.24456747 14079960
0.7457431 0.095264971 0.24512616 14145753
0.74750006 0.10239421 0.24364075 11447980
0.75300002 0.10424832 0.24763867 11053988
0.78500003 0.11664501 0.24192047 11448231
0.79100007 0.11876792 0.24532287 11382694
0.78540003 -0.16338415 0.25553489 9276808
0.75700003 -0.1503876 0.25692925 12698047
0.76140004 -0.15304418 0.25485942 12434362
0.77600002 -0.15961207 0.2515682 9408395
0.74521059 -0.14327335 0.25467232 13355721
0.75300002 -0.14900769 0.25379714 12237496
0.73900002 -0.13124156 0.25168341 14539998
0.74233323 -0.13574685 0.25542739 13026758
0.73841685 -0.12487184 0.25328648 14145238
0.74014282 -0.12599964 0.25813702 14211031
0.73876923 -0.1169652 0.25286916 14276824
0.7408824 -0.11341423 0.25594693 14211032
0.74300009 -0.10478435 0.2550427 14342615
0.74458337 -0.094756559 0.25532973 14342870
0.74436682 -0.085145101 0.2552563 14408920
0.74458373 -0.075582646 0.25532973 14474457
0.74469465 -0.065133989 0.25536764 14408409
0.74536693 -0.054722082 0.25472581 14540251
0.74723321 -0.044420525 0.25507158 14606043
0.75000006 -0.040139623 0.25981915 14869218
0.74823081 -0.036136873 0.25193146 13552844
0.75050002 -0.034267016 0.25673014 13947602
0.74900001 -0.025182011 0.2507056 12895429
0.75112504 -0.025254672 0.25581551 13224391
0.74812007 -0.013279859 0.25405452 12961219
0.75020003 -0.017670933 0.25690293 13224646
0.74673074 -0.0051376894 0.25498942 13290441
0.74629992 0.0046096118 0.25504535 13224392
0.74659991 0.015098719 0.25514752 12829635
0.74699998 0.02544819 0.25516301 12764612
0.74707687 0.035018172 0.25544423 12961991
0.74659997 0.044810213 0.25514695 13158857
0.74570018 0.055229653 0.25483939 13421772
0.74483365 0.065337099 0.25471714 13421772
0.74445462 0.074704893 0.2555232 13553101
0.74427807 0.084746897 0.25522485 14079703
0.74623328 0.095453352 0.25472951 14211548
0.74900001 0.10106441 0.25508916 12764101
0.75475001 0.10361037 0.25394997 11447982
0.76000005 0.10521743 0.25794587 11250603
0.78600001 0.11617713 0.25849015 11382953
0.77800006 -0.16002345 0.26496577 9474188
0.78680003 -0.1636754 0.26520091 9276808
0.79220003 -0.16665331 0.26516789 9408393
0.75850004 -0.15068561 0.26187652 12500413
0.76260006 -0.15221786 0.26739597 12434620
0.77700001 -0.15981776 0.2682631 9342602
0.74711764 -0.14328097 0.26520124 13355722
0.75480002 -0.14818354 0.26502067 12303034
0.74421883 -0.13456728 0.26511359 13092550
0.74262083 -0.1249311 0.26524013 13947859
0.74318182 -0.11569216 0.2648938 14474459
0.74450004 -0.1052022 0.26488641 14868960
0.7455669 -0.094880693 0.26526469 14868958
0.7452001 -0.085241169 0.2651341 15000544
0.74455571 -0.075580686 0.26577508 15000543
0.74452806 -0.065118894 0.26576516 15132386
0.7455408 -0.054852795 0.26454648 15263973
0.74749994 -0.044924743 0.26529607 15527146
0.75000006 -0.040139623 0.26420856 15526891
0.75217253 -0.034849349 0.26512629 14868961
0.75266677 -0.025307564 0.26514676 13948114
0.74894434 -0.012030582 0.26559031 13816783
0.75037503 -0.017433671 0.26488847 13816783
0.74793327 -0.0050109746 0.26523244 13948369
0.74816662 0.0046220641 0.26531529 14014162
0.74867719 0.014659708 0.26495948 13685200
0.75000006 0.017800575 0.26859796 13684944
0.74885702 0.024952568 0.26401505 13553358
0.75000006 0.023945745 0.26859796 13750737
0.74847209 0.034408819 0.26542366 13685202
0.74772203 0.044877484 0.26515758 13356493
0.74686098 0.055316389 0.26485178 13488078
0.74610728 0.064804956 0.26489621 13422285
0.74560016 0.07442338 0.26527801 13750993
0.7457335 0.08491306 0.26532558 14145495
0.74745458 0.0936995 0.26450652 14343389
0.7518 0.098098554 0.26678032 14343134
0.75600004 0.10188419 0.26442567 12172221
0.76000005 0.10343826 0.26773131 11119789
0.78650004 0.11556336 0.26578882 11251367
0.79139996 0.11882798 0.26489773 11185574
0.7926538 0.12472778 0.26510251 11251109
0.77800006 -0.16002345 0.27316168 9276809
0.7858572 -0.16374312 0.27539331 9276808
0.79336363 -0.16791409 0.27432808 9342600
0.76340008 -0.15255588 0.27428836 11776690
0.77583331 -0.15927619 0.27512586 9211017
0.74840003 -0.14167102 0.27363262 13618125
0.75373328 -0.1456289 0.27616474 12631486
0.74637932 -0.13484393 0.27489457 12960708
0.74489653 -0.12459214 0.27561042 14276567
0.74496573 -0.11486096 0.27485341 14868961
0.74511147 -0.10528947 0.27469626 14868961
0.74513918 -0.09482798 0.27470624 14934753
0.74450016 -0.085161127 0.27446988 15197669
0.74330014 -0.075453714 0.27489811 15131876
0.74326676 -0.065008402 0.27488568 15132133
0.74465734 -0.054545164 0.27465242 15395305
0.74685711 -0.044464231 0.27521405 15658476
0.74870002 -0.036563434 0.27759618 15197924
0.75090486 -0.034327365 0.2737748 15263972
0.74900001 -0.024305301 0.27832198 14408152
0.75075006 -0.025494054 0.27388605 14145238
0.74887991 -0.013923299 0.27562976 13619151
0.75000006 -0.017973106 0.27232897 13684944
0.74796289 -0.0048176148 0.2752606 14145751
0.74716657 0.0046148472 0.27545339 14079702
0.74790305 0.014533042 0.27580872 13816530
0.75000006 0.018854033 0.27175832 13685201
0.74890006 0.024787687 0.27784643 13488078
0.75000006 0.024823627 0.2729874 13553615
0.74843329 0.034406938 0.2750445 13750994
0.74803323 0.044896912 0.27489817 13619152
0.74713326 0.055336464 0.27456713 13224649
0.74692303 0.065072916 0.27469239 13224393
0.7464723 0.074509941 0.27519971 13553615
0.74650002 0.085000627 0.27520889 14013910
0.74790013 0.092162326 0.27485067 14408667
0.75312501 0.097327277 0.27522585 14408667
0.75800002 0.10139155 0.27501386 13553102
0.76362509 0.10460554 0.27526602 11118762
0.77300006 0.10882681 0.27773976 11316909
0.77700001 0.11120891 0.277358 11251886
0.7865715 0.11468408 0.27564478 11186089
0.79089999 0.11801289 0.27491194 11119782
0.79209989 0.12449691 0.27532929 11053989
0.79172236 0.13462847 0.27519658 11119525
0.79150015 0.1447846 0.2751188 11053476
0.77900004 -0.16022913 0.28901383 9079177
0.78645456 -0.16461061 0.28483382 9145222
0.79233336 -0.16853623 0.28468624 9145222
0.76600009 -0.15268992 0.28380683 11776177
0.77377778 -0.15734799 0.28536013 8947333
0.75600004 -0.14415558 0.2846981 12697792
0.76140004 -0.14912342 0.28658581 12039349
0.74816674 -0.13360049 0.28312132 13289673
0.75159997 -0.13629736 0.28694186 12171192
0.746355 -0.12454637 0.28493524 13882067
0.74568981 -0.11485301 0.28523457 14277081
0.74533349 -0.1053215 0.28524899 14408667
0.74508357 -0.094820894 0.28515255 14342874
0.74413353 -0.085118875 0.28478929 14277080
0.74338883 -0.075461678 0.28450495 14605789
0.74338889 -0.065020077 0.28450459 14737119
0.74366659 -0.054597255 0.28460833 14868706
0.74523348 -0.045116607 0.28520736 15263721
0.746975 -0.035605051 0.28499895 15197669
0.74749982 -0.025131574 0.28432468 14473433
0.7479164 -0.01464004 0.284484 13750994
0.74757129 -0.0051968684 0.28466579 13948630
0.74699986 0.0046138177 0.28501093 13948373
0.74706239 0.01532641 0.2847065 13619409
0.74733323 0.025085585 0.2843788 13488336
0.74794096 0.034643393 0.28449455 13488336
0.74772203 0.04487871 0.28441066 13553615
0.7483331 0.05495932 0.28388575 12895685
0.75000006 0.057305258 0.28878924 12895173
0.74852937 0.06518162 0.28281239 12567233
0.75000006 0.064986721 0.28769192 12435648
0.74796283 0.074950226 0.2849912 12567235
0.75000006 0.072229244 0.28966713 12500672
0.74783331 0.084568344 0.28460118 13422545
0.75025004 0.08718317 0.28888521 12698823
0.7486667 0.091379903 0.28214237 14277340
0.75452381 0.096139632 0.28535742 14079960
0.75900006 0.10152532 0.28159374 13684687
0.76349998 0.10374068 0.2843262 12434620
0.77233338 0.10813209 0.28261885 11119270
0.77700001 0.11120891 0.28190541 11250857
0.78738463 0.11595915 0.28567272 11119527
0.79000002 0.11861777 0.28384787 10988197
0.79080027 0.12521836 0.28506055 11053732
0.79100013 0.13543363 0.28513381 10987684
0.79152 0.14478813 0.28532228 10987684
0.78563637 -0.16310282 0.29473341 9013639
0.79162502 -0.16769202 0.29601204 9079430
0.76700002 -0.15057865 0.29354072 10987174
0.77407688 -0.15531802 0.29478276 9341837
0.78100002 -0.15881217 0.29981166 9079177
0.75820005 -0.14317217 0.29176944 12368827
0.7621001 -0.14498053 0.29541141 11513262
0.77000004 -0.14936504 0.29919416 11974069
0.75550014 -0.13514818 0.29462409 12039864
0.76100004 -0.13871165 0.29926011 11382189
0.7478947 -0.12379166 0.29337052 13027016
0.75139999 -0.12746289 0.29654169 12763845
0.74759263 -0.11487697 0.29561093 13158602
0.7470358 -0.10525007 0.29533273 13487566
0.7464 -0.094988905 0.29526767 13619152
0.74565405 -0.085091278 0.29510692 13619663
0.74489659 -0.07546474 0.29455286 13750736
0.74437511 -0.064888634 0.29479316 13882323
0.7442503 -0.054641165 0.29528868 13882323
0.74480015 -0.045091074 0.29550567 14671583
0.74590343 -0.03541315 0.29490048 14605789
0.74688882 -0.025110634 0.29458496 14145237
0.74699986 -0.014622327 0.29462901 13488079
0.74699986 -0.0050042556 0.29462901 13554130
0.74724984 0.0046161744 0.29472864 13554130
0.74782336 0.014865954 0.29475051 13093579
0.75000006 0.019556338 0.29844594 13159374
0.74817652 0.024455223 0.2928791 12830664
0.75050008 0.025500054 0.29798651 12764616
0.74885708 0.03442762 0.29223123 13159630
0.75150007 0.034046054 0.29728553 12830409
0.74850005 0.043757096 0.29200861 13290445
0.75108337 0.046253074 0.29594782 12567236
0.75271428 0.055039026 0.29491442 12961737
0.75344837 0.064471342 0.29465303 12435649
0.75316674 0.075178385 0.29530326 12106171
0.75394744 0.084872387 0.29509896 12304064
0.75694746 0.093979679 0.29421765 13290701
0.76060009 0.098533556 0.29625615 13948375
0.76411122 0.10241161 0.29411986 13882838
0.7731111 0.10723677 0.29637879 11185323
0.77900004 0.11149517 0.29448479 10921891
0.78686661 0.11569562 0.29518166 10921890
0.79000002 0.11861777 0.29864311 10921889
0.79080659 0.12465242 0.29467842 10987682
0.79192585 0.13518076 0.29494298 10987682
0.79280001 0.14502238 0.2950623 10987683
0.78828579 -0.16240294 0.30471846 8947845
0.79223084 -0.16694716 0.3056927 9013637
0.7766251 -0.15292329 0.30358911 9276556
0.78399998 -0.157326 0.30647039 9013638
0.76633334 -0.14387654 0.30075732 11119530
0.77345461 -0.1455936 0.30597019 9145740
0.75900006 -0.13123977 0.30202729 11579572
0.76370001 -0.1345585 0.30497205 11053739
0.77300006 -0.13908935 0.30940789 9211022
0.75529426 -0.12446621 0.30409223 12632773
0.76033336 -0.1279112 0.30789694 11777722
0.75333339 -0.11526701 0.30477473 12369086
0.74900001 -0.10408602 0.30155483 12961224
0.755 -0.10525846 0.3064214 12040636
0.74783343 -0.095171422 0.30108514 13224909
0.75418186 -0.094613552 0.30637309 12106428
0.74760008 -0.083938733 0.3016921 12961991
0.7536667 -0.086498387 0.30637711 13224650
0.74750006 -0.075004272 0.30182692 12895684
0.7561667 -0.074988745 0.30798063 12500672
0.74690008 -0.066026665 0.30175933 13092806
0.755 -0.06515459 0.30750543 12698051
0.74700004 -0.05421881 0.3027485 13619153
0.75250006 -0.055249304 0.30678138 12829637
0.74646157 -0.044385213 0.30389526 13948118
0.75133342 -0.046076015 0.30835697 12698308
0.74668968 -0.035440728 0.30400151 13948116
0.74703324 -0.025115689 0.30426082 13356494
0.74736655 -0.01462931 0.30439776 12896200
0.74761897 -0.0054249913 0.30391783 12764871
0.75050008 -0.0032695963 0.30830747 13093580
0.74807137 0.0041210474 0.30243257 12699079
0.75271428 0.0045218612 0.30733129 12370115
0.74900001 0.011639861 0.30243155 12172991
0.7538572 0.016253743 0.30515441 11975868
0.76000005 0.01981709 0.30954191 11515317
0.75469232 0.024572317 0.30357996 11778234
0.76066667 0.025769733 0.30862653 11778490
0.75650007 0.035285402 0.30331227 12172735
0.76200002 0.035033967 0.30857265 11580856
0.75608343 0.045382466 0.30175331 11910076
0.76116663 0.044199169 0.30675137 11186096
0.75777775 0.054844242 0.30233061 12435906
0.76257145 0.055333845 0.30676466 11909304
0.7578333 0.064999595 0.30156299 12106684
0.76181817 0.064934842 0.30574515 11909562
0.75820005 0.074794844 0.30170894 12106684
0.76227278 0.074709587 0.30608922 11383474
0.75900006 0.084467724 0.30131656 11843000
0.76358336 0.085155874 0.3057918 11579827
0.75900006 0.090864323 0.30025047 11317168
0.76459998 0.094579466 0.30390126 12105914
0.77225006 0.0983271 0.30865645 11776949
0.76700002 0.1016988 0.30072063 13817045
0.7743572 0.10539766 0.30477026 11382445
0.78100002 0.10995308 0.307125 10791075
0.7863571 0.11452483 0.30515501 10724769
0.79000002 0.11861776 0.30511603 10724768
0.79165393 0.12449929 0.30518568 10856352
0.78900003 -0.16043893 0.31119454 9013637
0.79283339 -0.16539802 0.31549063 9211273
0.78770006 -0.15464416 0.31400171 8948101
0.79100007 -0.15683468 0.31784761 9145480
0.77600002 -0.14235526 0.31060869 8618883
0.78454554 -0.14584328 0.3158696 8816517
0.79000002 -0.14954583 0.31991127 9408652
0.77430004 -0.13515531 0.31482425 9474450
0.78200006 -0.13887808 0.31850234 9211020
0.76477784 -0.12388268 0.31387827 11449268
0.77100003 -0.12880123 0.31673068 10264480
0.76287508 -0.11539333 0.31294855 11843513
0.77000004 -0.11241207 0.31721997 12171705
0.76383334 -0.10345616 0.31349143 10987947
0.77000004 -0.10700432 0.31721997 11053224
0.76410002 -0.094559036 0.3138988 10921641
0.76354545 -0.085061707 0.31375214 11711155
0.76330006 -0.075695135 0.31339175 11843512
0.75900006 -0.06016646 0.31091145 12106684
0.76185721 -0.064974986 0.31259447 12369856
0.75825006 -0.055671357 0.31060421 11975098
0.76300001 -0.05512495 0.31433615 11843512
0.77050006 -0.052961759 0.31922972 11909305
0.75800002 -0.043674305 0.31360716 12304319
0.7615 -0.043427367 0.31639284 12436418
0.75485718 -0.034339346 0.31325632 12895941
0.76033336 -0.03713353 0.31679749 12830149
0.75566655 -0.02540498 0.31397247 12435647
0.75616676 -0.014800982 0.31417966 12172479
0.76300001 -0.019401014 0.31969476 12698821
0.75625002 -0.0048438241 0.31310627 12040892
0.7610001 -0.0050964816 0.31707525 11843514
0.75800002 0.0048606135 0.31121159 11975098
0.76242864 0.0040741949 0.31512213 11909048
0.75900006 0.010906851 0.31091145 12304063
0.76442862 0.015589309 0.31364888 11251118
0.76620001 0.025360286 0.31242716 11646646
0.77525002 0.024753967 0.31938282 10922154
0.76880008 0.034445215 0.31312606 12040892
0.77275002 0.03733262 0.31609327 10987949
0.76675004 0.046022289 0.31049615 10001309
0.77339995 0.045335017 0.3159067 9408915
0.76900005 0.051556021 0.3114073 10988201
0.77454549 0.054482058 0.31580028 10658466
0.78000003 0.058684465 0.31951374 8750469
0.77416676 0.065646909 0.31501439 10593702
0.78050005 0.063289993 0.31971854 8882312
0.77457154 0.074595772 0.31561282 9738903
0.7736668 0.085224874 0.31405458 9869461
0.78066665 0.082493611 0.31978682 9672594
0.77490908 0.094256513 0.31314319 10527135
0.78250003 0.096430093 0.31870598 10330523
0.77675003 0.10208179 0.31181896 10198168
0.78540003 0.10616393 0.31676328 10462109
0.78822225 0.11302139 0.31365588 10527903
0.79130775 0.11667874 0.31630963 10593696
0.7929284 -0.15507294 0.32500955 9605773
0.78800011 -0.14178777 0.32279253 9342859
0.79141182 -0.14534672 0.32615057 9540236
0.77900004 -0.13105069 0.3227514 9211273
0.78575009 -0.13648005 0.32509115 9408653
0.77749997 -0.12442452 0.32364771 9145995
0.78566676 -0.12573051 0.3288869 9737616
0.77466673 -0.11490531 0.32095608 10725027
0.78160006 -0.11501856 0.32565841 9145738
0.7757144 -0.10377287 0.32191113 10132376
0.78385723 -0.10512269 0.32738844 9277066
0.77518183 -0.094610147 0.32199675 9540501
0.78540003 -0.095356986 0.32908028 9277327
0.77477777 -0.085397772 0.32201159 10330786
0.78350002 -0.085033394 0.3282842 8554632
0.77630007 -0.075169586 0.32254416 10396068
0.7852 -0.075115666 0.32863131 8750985
0.77480012 -0.064682312 0.32137603 10856618
0.78000003 -0.065939628 0.32499173 9869723
0.77555567 -0.056033626 0.32253674 11382961
0.78525007 -0.053978838 0.32901746 10132382
0.77700001 -0.041584644 0.3273797 12436419
0.78100008 -0.04606406 0.3284564 11515062
0.76400006 -0.030157669 0.32011378 11448752
0.77649999 -0.035191491 0.3280791 10922667
0.76475006 -0.024367502 0.32042804 12106682
0.77680004 -0.025208354 0.3291139 8882824
0.76440006 -0.014066786 0.32028139 10725289
0.77537507 -0.014724625 0.32805777 8685701
0.76666671 -0.006929223 0.3212311 9014413
0.77800006 -0.0088545512 0.32962236 8883078
0.77600002 0.0047911806 0.32446313 9408399
0.78200006 0.0063563385 0.32826594 8750468
0.778 0.012091707 0.32415843 9539983
0.78420001 0.014938755 0.32747769 8750722
0.77766675 0.023917252 0.32159266 10263965
0.78600001 0.025832092 0.32675821 8750723
0.77719998 0.034820627 0.3201862 9080206
0.787 0.035260163 0.32698944 8948100
0.77866673 0.042179078 0.32079041 8619140
0.78583342 0.045014616 0.32574078 8948100
0.79000002 0.048340406 0.32915828 9013892
0.7868889 0.054290265 0.32499814 8882307
0.79083341 0.054870557 0.32888904 9145478
0.78700006 0.064738266 0.32422355 8882308
0.79000002 0.064985044 0.32730886 9342857
0.78616667 0.074793056 0.32388023 9474445
0.7906667 0.076147228 0.32820311 9474700
0.78571433 0.085650824 0.32317081 10001558
0.7906 0.085392825 0.32848361 9804179
0.78736365 0.094765775 0.32336923 10264729
0.79099995 0.094696626 0.32864958 10264730
0.78833342 0.10391251 0.32169756 10462108
0.79187506 0.10522921 0.32646528 10462108
0.78850007 -0.13357298 0.33037919 9803408
0.7881667 -0.11506325 0.33023953 9540237
0.78800005 -0.107661 0.33016971 9408650
0.78900003 -0.09302111 0.33243576 9409167
0.78900003 -0.084709331 0.33243576 9080204
0.79310006 -0.085151389 0.33694905 9474443
0.78800005 -0.071688913 0.33016971 8618885
0.79214299 -0.074448749 0.33614635 9342859
0.78800005 -0.065232389 0.33016971 8750471
0.79270595 -0.065021686 0.33629036 9277066
0.78850007 -0.05511903 0.33130273 9211536
0.79221433 -0.055647906 0.33577874 9145482
0.78700006 -0.044656336 0.33320576 9014414
0.79083329 -0.04664652 0.33660269 9145740
0.77900004 -0.034397077 0.33004603 9672343
0.7858572 -0.035485435 0.33426857 9080205
0.79225004 -0.034056846 0.33936915 9277835
0.78642857 -0.024201542 0.33556214 8685700
0.79025 -0.026569748 0.33851236 9080455
0.78636366 -0.014972539 0.3358463 8817284
0.77900004 -0.0070422795 0.33004603 8948871
0.78571427 -0.0050010784 0.33394417 9080199
0.79133338 -0.0046812692 0.33866823 9080455
0.78766674 0.0048665558 0.33248889 9013894
0.78850007 0.015946083 0.33037919 8553600
0.79192007 0.04475018 0.33552161 9211530
0.79267722 0.055090204 0.33536237 9212043
0.79258347 0.085065566 0.33518386 10067350
0.79304767 0.094764791 0.33529195 10330522
0.79212511 0.14472146 0.40473565 10396317
0.78900003 0.15725595 0.40816534 10396317
0.79077184 0.15475243 0.40431854 10462110
0.79133338 0.16513266 0.40473875 10527390
0.79096305 0.1448887 0.41514671 10396316
0.78899986 0.15638101 0.41565078 10396315
0.79000002 0.15255977 0.41401333 10462108
0.78900003 0.16168888 0.41777006 10527901
0.79032016 0.16551258 0.4146938 10527389
0.78900003 0.13878532 0.42848301 10396317
0.79158825 0.13460566 0.42470726 10330524
0.78787994 0.14589041 0.42765 10396317
0.79037499 0.14388332 0.42275277 10264731
0.78806043 0.15505721 0.42578754 10330524
0.79000002 0.15005763 0.42162848 10527903
