# .PCD v0.7 - Point Cloud Data file format
VERSION 0.7
FIELDS x y z rgb
SIZE 4 4 4 4
TYPE F F F U
COUNT 1 1 1 1
WIDTH 415
HEIGHT 1
VIEWPOINT 0 0 0 1 0 0 0
POINTS 415
DATA ascii
0.45900002 -0.070770122 -2.0724525e-05 13552582
0.46000001 -0.070924304 -0.0021745062 14012620
0.45813042 -0.064924367 -0.0022150334 15395296
0.4601053 -0.064420305 -0.0059166905 15395295
0.45839128 -0.056817859 -0.0013751285 15724775
0.46102867 -0.054367688 -0.0045548314 15461346
0.46273685 -0.048139766 -0.0019027023 14672088
0.45778576 -0.072077319 0.0065210541 12829114
0.46080002 -0.073853128 0.0040787845 12631479
0.45416063 -0.064713165 0.0052888361 15131868
0.45500004 -0.054864999 0.0052586421 15724261
0.46000001 -0.050463803 0.0010560985 15066591
0.4579334 -0.048304193 0.0076233717 15000796
0.46226475 -0.0457705 0.0053603719 14342868
0.44900003 -0.070279412 0.018899834 12631480
0.45480004 -0.071507029 0.012434384 12697272
0.44838101 -0.063960865 0.017671831 14539731
0.45164457 -0.06604667 0.01304103 14276303
0.44843471 -0.055507492 0.016682271 15658469
0.45070967 -0.054036569 0.011959166 15592676
0.44900003 -0.048994288 0.019162614 15395553
0.45583993 -0.045739572 0.015242982 14606039
0.46141669 -0.041705791 0.012849498 13619145
0.45900002 -0.039608829 0.017171711 13158594
0.46500003 -0.039038021 0.011953312 12566457
0.44800001 -0.070122883 0.025150398 12434355
0.44504657 -0.06472484 0.025196366 13947594
0.4445312 -0.055215012 0.023842543 15461347
0.4473078 -0.047657974 0.024262555 15198432
0.45318621 -0.043220505 0.022846054 14408661
0.45700002 -0.039221335 0.022656336 13158853
0.43900001 -0.064945899 0.036635056 13487043
0.44207993 -0.065761968 0.03242936 13355457
0.43482366 -0.06288211 0.046503007 13420993
0.43271011 -0.055138018 0.046617132 15000026
0.43371049 -0.045804944 0.046975795 15329506
0.43888891 -0.038786363 0.047470856 14145489
0.44155559 -0.03580226 0.046955451 13092802
0.42900002 -0.060620986 0.058229841 13355199
0.43200001 -0.06160073 0.053236086 13420993
0.4277764 -0.054238599 0.056668945 14737366
0.43036118 -0.055834081 0.051921327 14605525
0.42723534 -0.048928652 0.057515353 15329761
0.43000004 -0.048430983 0.05144494 15526628
0.52880007 -0.083514027 0.069300219 12236974
0.42735717 -0.061532177 0.063577466 12697013
0.42410094 -0.054930281 0.065256983 14342095
0.4238413 -0.046380598 0.064890228 15395041
0.42700005 -0.039846271 0.06445235 15000797
0.43200001 -0.036260217 0.063693635 13882319
0.52693033 -0.083654478 0.074701056 12237232
0.52600002 -0.07925275 0.075087227 11908267
0.42200002 -0.060125791 0.075062081 12105646
0.41782352 -0.052397937 0.076818585 14276303
0.42069098 -0.056020107 0.07429079 13487042
0.4171553 -0.046706788 0.07685481 15263457
0.42000005 -0.048042104 0.071265042 15263969
0.41800001 -0.039495692 0.07924331 15394788
0.42060003 -0.036293745 0.079736218 14539479
0.41531929 -0.054040853 0.085181378 13354946
0.42066669 -0.058951814 0.080733649 12237232
1.3750001 -0.057494808 0.086848214 15000282
1.383 -0.051354066 0.087353513 15263454
0.41302651 -0.044755612 0.084954448 15394787
1.3858334 -0.044969976 0.085908972 15724007
0.41586667 -0.036149722 0.085947782 14737115
0.42113805 -0.032396384 0.082419842 13882062
1.388 -0.038542397 0.086043485 15395556
1.3910002 -0.03428233 0.086774141 15395556
0.41900003 -0.028064765 0.08899653 12565688
0.4206154 -0.028495487 0.086250767 12894653
1.306 -0.068365432 0.09777686 14473681
1.3155 -0.062702946 0.098488092 14605524
1.3240001 -0.064660795 0.096024968 14539731
1.33 -0.064953819 0.093346566 14473938
0.40756252 -0.05097314 0.096937194 13683655
0.41269696 -0.053800259 0.092256844 12959932
1.3240001 -0.058461785 0.099124476 14737110
1.3335 -0.055759504 0.098270737 15131868
1.3470001 -0.054747328 0.096116394 15460833
1.3576666 -0.05359092 0.095289141 15066589
1.368 -0.050797079 0.096013613 15198431
1.3743334 -0.053174287 0.091092505 15065821
0.4072642 -0.044993404 0.095511265 15065822
0.41027778 -0.045277264 0.090692163 15065821
1.376 -0.044114787 0.096572362 15527142
1.3812501 -0.044012032 0.091284163 15527142
0.40833333 -0.038580887 0.094668597 15066593
0.41328341 -0.033989709 0.092565887 14408408
1.3770001 -0.038236946 0.099868864 15395556
1.384111 -0.035191316 0.093899466 15461349
0.41737506 -0.028687855 0.093043931 12960963
1.3840001 -0.028711416 0.097136579 15329763
1.393 -0.019115008 0.09776824 15329763
1.2550001 -0.075980902 0.10864852 13224641
1.276 -0.071278013 0.10747939 14210766
1.284 -0.071724899 0.10514737 13750215
1.299 -0.072562806 0.10029376 14013387
1.2850001 -0.065762781 0.10673064 14276559
1.294 -0.064705044 0.102937 14342352
1.3033334 -0.066695593 0.10062834 14539731
1.312 -0.061003331 0.10129748 15263454
0.40475869 -0.051461376 0.10446927 12828090
1.2875001 -0.058356553 0.10844806 14802903
1.2915001 -0.056269411 0.10651711 15000282
1.3045001 -0.056068555 0.10377227 15066075
1.314 -0.058020227 0.10145189 15197661
1.3240001 -0.053812519 0.10377373 15197661
1.3340001 -0.0526575 0.10143226 15131868
0.40260011 -0.044857308 0.10510851 14802392
1.3390001 -0.049720243 0.1033821 15329247
1.3460001 -0.046826825 0.1039249 15395297
1.368 -0.041189544 0.10882366 15526372
1.3735001 -0.041355144 0.10443752 15460836
0.40337506 -0.035377089 0.1065962 14934495
1.3751111 -0.034962732 0.10616758 15460836
1.3800001 -0.033474341 0.10008644 15461349
0.40837499 -0.0283086 0.10836835 13619151
0.41062504 -0.027503001 0.10692325 13027014
1.3775001 -0.028576571 0.10796642 15526629
1.3818002 -0.024782496 0.10441934 15329763
1.386 -0.017720627 0.10441377 15132384
1.3900001 -0.015819829 0.1008117 15198177
0.48300001 -0.073339812 0.11418007 12105390
0.49100003 -0.07800287 0.11951957 12236463
1.2490001 -0.074155673 0.11836283 13355200
1.2523334 -0.074186467 0.11330231 13355714
1.2525715 -0.067035988 0.11806853 14013387
1.2636001 -0.064075433 0.11353242 14408145
1.2770001 -0.062365435 0.11055311 14473938
0.40100002 -0.050965 0.11443593 12367539
1.2746667 -0.055286955 0.11532342 15000282
1.2857502 -0.054508485 0.11357087 15000282
0.39817032 -0.044198062 0.11435357 14538964
0.40027016 -0.046749167 0.11207113 14012620
1.335 -0.043321196 0.11869957 15855591
1.3560001 -0.040828232 0.11580396 15592420
0.39822221 -0.037626043 0.11464588 15197663
0.40115091 -0.033812918 0.1124226 14934493
1.367 -0.036891755 0.11514446 15460834
1.3718001 -0.032954015 0.11490452 15460834
0.40548569 -0.027118573 0.11330362 13487563
1.375625 -0.025717918 0.11627273 15460835
1.3800001 -0.022167226 0.11300886 15198177
1.378 -0.018909177 0.11768396 15263713
1.3822501 -0.015325751 0.11521283 15066591
1.3840001 -0.0092716031 0.11981636 14671833
0.48333335 -0.074525818 0.12066857 11973804
1.2490001 -0.068307817 0.12274873 13946311
0.39180559 -0.043218076 0.12816103 14144462
0.39122224 -0.034756966 0.12816638 14934237
1.3675001 -0.037973143 0.12319051 15592164
1.3706669 -0.033247557 0.12507996 15592164
0.39469236 -0.026446937 0.12855603 14079698
1.3747778 -0.025300421 0.12545499 15526371
1.3776001 -0.01761332 0.12635697 15395041
1.3802501 -0.013285323 0.12514587 15197920
1.3825001 -0.0076423497 0.12615825 14868956
0.38869232 -0.042011697 0.13574733 14605269
0.39092168 -0.045850277 0.13521147 12763066
0.38796803 -0.035464663 0.13514198 14933978
0.39025006 -0.031086965 0.13130902 14868444
1.37325 -0.032505594 0.13415851 15658212
0.38841674 -0.026886307 0.13779487 14540249
0.3921563 -0.025789024 0.13309187 14145492
1.3753333 -0.025310643 0.13516472 15592419
1.3776001 -0.016968135 0.13667759 15330017
1.3805001 -0.014095234 0.13405634 15263711
1.381 -0.0092515051 0.13410491 15198432
0.38651013 -0.043792401 0.14553995 13420995
0.39053339 -0.047597181 0.14211494 12171183
0.3841733 -0.034926858 0.14481254 13289669
0.38512146 -0.026175983 0.14527868 13816528
1.3770001 -0.022119036 0.14177543 15658212
0.38900003 -0.019908428 0.14933002 12895428
0.39300001 -0.018578993 0.14963807 12303544
1.378 -0.018909177 0.14187838 15460833
1.3800001 -0.015706018 0.1420843 15330017
0.38671425 -0.051736303 0.15844563 12038828
0.39039999 -0.052516013 0.15662973 11907501
0.37884617 -0.041288272 0.15784799 2962481
0.38274774 -0.044937085 0.1546566 7697777
0.3784304 -0.035179559 0.15673128 2699053
0.38080296 -0.034778919 0.15204291 2961200
0.37854847 -0.028034164 0.15755214 3224114
0.3821103 -0.024256526 0.15423506 10395548
0.38559264 -0.016954932 0.1562369 14211541
0.39431256 -0.014551116 0.15439011 12566460
0.40100002 -0.010570901 0.15881714 12303544
0.39000002 -0.009916639 0.15975687 13027010
0.40150002 -0.0092691332 0.1592975 12237751
0.3829706 -0.051822588 0.1649663 12104877
0.3771233 -0.042488437 0.16575614 3620410
0.38136762 -0.047446154 0.16456906 11579047
0.37480003 -0.034976259 0.16491908 2501930
0.37655726 -0.02605251 0.165316 6185053
0.38053331 -0.021404661 0.16318189 13684168
0.38281822 -0.014975853 0.16500686 14079697
0.39800003 -0.010120058 0.16023876 12632509
0.40000001 -0.010170911 0.16010757 12698302
1.427 -0.016240932 0.16028593 15789544
1.4306666 -0.015165216 0.16516289 15592165
0.38717574 -0.0073539801 0.16650361 13553354
0.39157695 -0.0047449991 0.16479665 12632509
0.40000001 -0.008766301 0.16057578 12303544
1.4280001 -0.0078948783 0.16374123 15395043
1.4315 -0.0054017305 0.16497947 15197664
0.39250001 0.00058714818 0.1690506 12698302
1.4280001 0.00046255623 0.16708422 14935007
0.3816604 -0.052575938 0.1751873 12302513
0.3749902 -0.043972585 0.17525849 6184798
0.38068962 -0.04904687 0.17425765 12697272
0.36882067 -0.034550883 0.17855494 2107172
0.3708536 -0.035100967 0.17398894 2370345
0.36883333 -0.028661786 0.17900412 2829610
0.37405303 -0.024755301 0.17485853 7435376
0.37862745 -0.017360356 0.1764743 13553353
0.38060236 -0.013583683 0.17402565 13750732
1.424875 -0.015383052 0.17630357 15460836
0.38399994 -0.0053291363 0.17512652 13750733
0.39025 -0.0010154222 0.17242061 13224389
1.419 -0.0061841682 0.17931877 15263972
1.4251112 -0.0065822429 0.17415422 15263458
0.38799998 0.0014731532 0.17790756 13487818
0.39221436 0.00308325 0.17552626 13093059
0.40460005 0.0063890666 0.1780508 12764095
0.41370368 0.0081682066 0.17756589 12171958
1.4173332 0.0037763237 0.17910816 14540249
1.424 0.0028407383 0.17375529 14803419
0.41280001 0.011537047 0.1784697 12106165
0.37824401 -0.051926475 0.18601751 12697272
0.38068426 -0.052738968 0.1816899 12368306
0.36790627 -0.041653004 0.18639238 2764333
0.37421569 -0.045919307 0.18454102 9078916
0.38000003 -0.049693774 0.18056898 12959932
0.36727002 -0.034927152 0.18387021 1909792
0.36782816 -0.027487457 0.18492678 2764076
0.37323087 -0.02255776 0.18471673 10329239
1.4210001 -0.022825817 0.18289812 15395810
0.37783056 -0.015021815 0.18512014 13290181
0.38000003 -0.010848481 0.18086551 13356232
1.4130001 -0.016081596 0.18682669 15592934
1.4210001 -0.016172646 0.18289812 15461605
0.37849233 -0.0060927672 0.18714388 13422025
0.38122883 -0.0043129101 0.1829658 13619404
1.399 -0.0028219216 0.18989171 15066591
1.4053335 -0.0061277281 0.18746145 15329763
1.4143335 -0.0061657806 0.18369319 15132384
0.37900001 0.00078819966 0.18963167 13685200
0.38514903 0.0033688326 0.18562995 13619405
0.39221433 0.0080217971 0.18415442 13027781
0.40200004 0.0090701729 0.18097921 12829887
0.41166672 0.0094490377 0.1805176 12369337
1.4046668 0.003742568 0.18737252 14803419
1.4123334 0.0037622182 0.18343419 14737626
0.3950834 0.011951091 0.18724233 13028037
0.40478045 0.013469721 0.18326667 12566718
0.4118 0.014212973 0.18247592 12237753
0.41800001 0.020684855 0.18981896 12172475
0.46728572 0.022656236 0.18578717 12303545
0.47169566 0.026946351 0.18745953 12172215
0.46850002 0.037715141 0.18944561 10921890
0.47278571 0.031853203 0.18892254 12171700
0.37800002 -0.051300362 0.19092575 13092031
0.36109096 -0.041769382 0.1983756 3160631
0.37566671 -0.048834462 0.19052863 12434102
0.3585 -0.03807056 0.19930628 2042406
0.36012506 -0.035872549 0.19884007 2304551
0.36012506 -0.026438687 0.19894569 3681321
0.37240002 -0.021148458 0.19055659 11513771
0.37633336 -0.014847932 0.19133037 11842739
1.3920001 -0.014212657 0.19708598 15592676
1.4036666 -0.013785738 0.19161917 15527140
0.37797314 -0.0050906353 0.19134775 12961732
1.3890001 -0.0044275876 0.19828939 15658727
1.3947144 -0.006545194 0.19490303 15263970
1.4030001 -0.0077578328 0.19043465 15329763
0.37850001 0.0022440671 0.192197 12895685
0.38338891 0.006569399 0.19103876 13027268
0.39050001 0.0092681665 0.19058572 13093317
1.3935556 0.0037145179 0.19567193 14869212
1.4020001 0.0037362417 0.19029891 14605784
0.39555934 0.014436908 0.19290091 13093573
0.40236846 0.018671816 0.19192718 13028037
0.41233334 0.019439159 0.1911052 12698561
0.406625 0.021314414 0.19369531 13093830
0.41604763 0.023839023 0.19437698 12699073
0.42190713 0.026780877 0.19346978 12698561
0.45900002 0.029160913 0.19446871 12829635
0.46466669 0.028435862 0.19160616 12698048
0.47000003 0.028759481 0.19032697 12501436
0.4240953 0.032099403 0.19660437 12370107
0.45805001 0.035322521 0.19733243 12698303
0.46488464 0.035305288 0.19371422 12500668
0.47000003 0.033317778 0.19064131 12500666
0.46224144 0.043434989 0.19691736 11382441
0.35866666 -0.040956978 0.2010076 1581856
0.35813716 -0.034883447 0.20149662 1383963
0.35864002 -0.027018383 0.20178489 2039064
0.36000001 -0.023480849 0.20140494 7361099
1.3890001 -0.012556773 0.20154107 15658212
1.3890001 -0.0044275876 0.20154107 15198431
1.3750001 0.0036642882 0.20916641 15197661
1.383 0.0028726892 0.2055199 15000540
0.42100003 0.029210646 0.20054421 13159623
0.42611364 0.034356739 0.20585714 13159367
0.43050003 0.038940649 0.20758906 13159623
0.45866671 0.037909191 0.20220149 12698815
0.45999998 0.039777752 0.20221511 12501179
0.43466666 0.04118352 0.20891935 13028294
0.46244934 0.045779098 0.20513564 12501179
0.46187502 0.050831184 0.20811263 12171960
1.348 -0.012186126 0.21768188 15657958
1.352 -0.012222286 0.21357909 15526372
1.3465002 -0.0050810375 0.21665075 15526373
1.3523334 -0.0058905054 0.21415846 15460579
1.3429 0.0057750866 0.21622626 14737372
1.3525 0.0051833438 0.21207613 14606041
1.3610001 0.0068131047 0.21022283 14606040
1.3390001 0.012972221 0.21622853 14474460
1.3410001 0.014037251 0.21759482 14013652
0.42675003 0.035507031 0.21312106 12435132
0.4300909 0.038948927 0.21370701 12698559
0.43517241 0.042407073 0.21419166 13028038
0.44403121 0.047186662 0.2150494 13028041
0.45765212 0.047844857 0.21242751 12500668
0.44850004 0.051068272 0.21941859 12962763
0.45569015 0.054400761 0.21582885 12566719
0.46133336 0.054693982 0.21183777 11579566
1.348 -0.012186126 0.22083761 15526374
1.35425 -0.014621101 0.22503594 15592679
1.3475001 -0.005084225 0.22154462 15526374
1.3525001 -0.0058955238 0.22632475 15329763
1.3447502 0.0051583014 0.22345588 14868957
1.3510001 0.0020189721 0.22765452 15066591
1.3440001 0.013020661 0.22490531 14474456
0.44750002 0.050430022 0.22050017 12962762
0.45323536 0.055323511 0.22204629 12962762
1.3575001 -0.013861559 0.23192775 15527142
1.3620001 -0.015501156 0.23588504 15987693
1.3570001 -0.0043255845 0.23184232 15658728
1.365 -0.0043510851 0.2364046 15527142
1.35575 0.0051990282 0.23162876 15000798
1.3670001 0.00044279717 0.23675099 15132384
1.372 0.0052634021 0.23761693 14539990
1.355 0.014713267 0.23150061 14145491
1.3750001 0.011711539 0.23813652 14736856
1.3740001 -0.01402945 0.24117987 15132386
1.3740001 -0.0059880526 0.24117987 15527144
1.3816 -0.0053731808 0.24704425 15526886
1.3765001 0.0020588357 0.24161869 15395044
1.3836 0.0036886116 0.24610682 15329250
1.3865001 0.011810075 0.24337402 14868442
1.399 0.010278415 0.24884324 14802649
1.4020001 0.013582564 0.24937685 14210512
1.3940001 -0.0044423551 0.25448063 15592167
1.4030001 -0.0044710436 0.25940806 15526374
1.3966666 0.003722809 0.25278875 15328995
1.4050001 0.0037442364 0.25648874 15394788
1.416 0.0070884321 0.25849682 14803421
1.4133334 0.01369002 0.2536011 14671321
1.4230001 0.013783669 0.25811023 14671835
1.4080001 0.00045607786 0.26033255 15460581
1.416 0.0037735505 0.2618117 15526374
1.4230001 0.0054590101 0.26477042 15328995
1.4250001 0.013805388 0.26013982 14935007
1.431 0.015537342 0.26291132 14737115
0.79133338 0.17779016 0.38559648 10987684
0.79123807 0.17613654 0.39468256 10987682
0.78900003 -0.02144742 0.40770358 2765359
0.78900003 -0.014931392 0.4073444 2567980
0.78900003 -0.0080562122 0.40816534 988948
0.79000002 -0.0052923164 0.40868264 988948
0.78900003 -0.021088269 0.4132961 2699565
0.79029179 -0.025723262 0.41523242 4015169
0.78899986 -0.015840266 0.41458601 2567980
0.79000002 -0.011456997 0.41525829 2436394
0.79100007 -0.0054939059 0.41534969 923156
0.79100001 0.068770789 0.4184587 10395545
0.79166669 0.076242372 0.41664827 10395801
0.78900003 -0.020853722 0.42610827 2765612
0.79178262 -0.025778802 0.42499754 4014400
0.78882593 -0.015159681 0.42597905 2436648
0.79000002 -0.012689933 0.42273813 2304808
0.78900003 -0.0089797443 0.42848301 2370341
0.79100001 -0.0049403002 0.42529467 2173220
0.78900003 0.068135142 0.42617422 9935766
0.79025006 0.068243228 0.42176133 10198166
0.78900003 0.073346503 0.42716369 10329753
0.79035723 0.075785793 0.42360196 10395545
0.79153585 0.085297301 0.42489585 10527387
0.78866673 -0.020669335 0.43076321 2831408
0.78842866 -0.01371815 0.4313364 2371111
0.78900003 -0.0089797443 0.4303301 2173475
0.79142857 -0.005035345 0.43364215 2239011
0.78890002 0.073575057 0.43175298 10132631
0.79033339 0.078991719 0.43455377 10264217
0.78900003 0.12770292 0.43850997 10724510
0.79148412 0.12463723 0.43430996 10790304
0.78899992 0.13541713 0.43728375 10593693
0.79139996 0.13466625 0.43209952 10725278
0.78863329 0.14518274 0.43566814 10659230
0.79000002 0.14450943 0.43087548 10724764
0.78899997 0.15382569 0.43692684 10790816
0.79061109 0.15675573 0.4330582 10790816
0.78900003 0.11785194 0.44572231 10724512
0.79095459 0.11463472 0.44402054 10659231
0.78865206 0.1250768 0.44410729 10658975
0.79000002 0.12108364 0.44073901 10724511
0.78869998 0.13503958 0.44401407 10724767
0.78895813 0.1452426 0.44415978 10725023
0.78899986 0.15521444 0.44432896 10659487
0.79000002 0.15930465 0.44104722 10725280
0.78900003 0.16187359 0.4451066 10462878
0.79030454 0.16515861 0.44383091 10659745
