# .PCD v0.7 - Point Cloud Data file format
VERSION 0.7
FIELDS x y z rgb
SIZE 4 4 4 4
TYPE F F F U
COUNT 1 1 1 1
WIDTH 356
HEIGHT 1
VIEWPOINT 0 0 0 1 0 0 0
POINTS 356
DATA ascii
0.46579999 -0.07444565 -0.00024015081 12828859
0.45822221 -0.064859189 -0.0021209468 15395297
0.46000001 -0.065001525 -0.0050461539 15066587
0.45856518 -0.056699116 -0.0012350824 15790312
0.46084386 -0.053790044 -0.0037300051 15395553
0.46334612 -0.047615949 -0.0020649896 14737367
0.45757145 -0.071929716 0.0090069743 12697269
0.46466669 -0.076240286 0.0058916509 12236719
0.45250008 -0.064477742 0.0089832535 15000025
0.45294741 -0.054705307 0.0089641288 15658212
0.45775005 -0.047801338 0.0090873549 15000539
0.46125001 -0.044661194 0.0091565493 14145489
0.454 -0.071327932 0.013699622 12631220
0.44820461 -0.0639088 0.017504411 14539475
0.45152274 -0.066210531 0.013046055 14342094
0.44835469 -0.055363365 0.017109213 15658214
0.45091665 -0.054829698 0.011970983 15658213
0.44900003 -0.049257062 0.019425392 15526372
0.4558143 -0.045663197 0.015308874 14671576
0.4616667 -0.041727755 0.01285651 13750217
0.46550003 -0.039079994 0.011420708 13026492
0.44833335 -0.070524648 0.024117215 12433844
0.44492766 -0.064830802 0.025048399 13947338
0.44450831 -0.055068579 0.023600835 15526885
0.44777787 -0.047644064 0.02424244 15198434
0.45340547 -0.04333571 0.022353208 14474454
0.45580006 -0.039332688 0.023663029 13290181
0.44337499 -0.066740148 0.031569533 13289406
0.43470597 -0.062715255 0.046101112 13486787
0.4327088 -0.055129439 0.046096824 15000283
0.43254551 -0.045293372 0.048369449 15329507
0.4382 -0.038221963 0.048911475 14145491
0.42899999 -0.060955752 0.058229845 13158078
0.43136001 -0.061865214 0.053091761 13420993
0.42766678 -0.054107852 0.056633111 14803160
0.43021631 -0.055989716 0.052079234 14539988
0.42822924 -0.047226619 0.056785513 15461348
0.43057153 -0.043452419 0.054014303 15198177
0.4352251 -0.035908591 0.055617161 13685196
0.42728573 -0.061450768 0.063280664 12697270
0.42394465 -0.054886803 0.065186016 14276559
0.42342111 -0.04801463 0.065125063 15395297
0.43540001 -0.032474495 0.060117818 13158596
0.42199999 -0.060125794 0.075767733 12236464
0.41775763 -0.052469909 0.077178836 14407377
0.42070371 -0.055657297 0.074210308 13618373
0.4173243 -0.04574164 0.076799445 15394786
0.42063904 -0.044120356 0.072658107 15460835
0.41811112 -0.038907021 0.078502506 15197666
0.42236066 -0.034754373 0.076727606 14145491
0.42414287 -0.028941398 0.076435819 12237235
1.3130001 -0.064123586 0.089079663 14934487
0.41492242 -0.053922787 0.085170828 13486275
0.42033336 -0.05857658 0.080997407 12499635
1.3346001 -0.053928949 0.084916353 15132638
0.41278559 -0.044807229 0.085000575 15394787
1.3360001 -0.049608845 0.087512486 15395810
1.344125 -0.045185495 0.084501565 15527396
1.3510001 -0.040677685 0.086913675 15395810
0.41585866 -0.036163215 0.085824035 14737371
0.42108345 -0.032310177 0.082946926 13816783
1.3566667 -0.036612619 0.086749159 15395810
1.365 -0.033106979 0.087810822 15527141
1.3700001 -0.031628177 0.089739598 15395810
0.41900003 -0.027819544 0.089241758 12632509
0.42128572 -0.02916907 0.085218787 12566202
1.291 -0.081182681 0.099676095 13421250
1.2927144 -0.074805535 0.096781515 13816264
1.29425 -0.065226033 0.096640825 14539987
1.3045001 -0.062182121 0.09308318 14672085
0.40783334 -0.05086736 0.097440697 13749706
0.41248718 -0.05385045 0.092701882 12894140
1.3050001 -0.057622828 0.096169792 15000539
1.3150001 -0.05498594 0.096907929 15001052
1.325 -0.053854916 0.094540715 15132638
1.33 -0.052499603 0.090233013 15330017
0.40728462 -0.045017611 0.095729597 15131358
0.41013038 -0.0449517 0.090817355 15131359
1.334 -0.047659423 0.094872266 15527396
1.3423333 -0.043559164 0.094210625 15658982
1.3523334 -0.040717829 0.094915606 15527396
0.40775004 -0.037808411 0.096758217 15131873
0.41307795 -0.033952631 0.093398429 14474200
1.358 -0.037709348 0.092132658 15527396
1.3638 -0.035952173 0.096356995 15527139
1.3726667 -0.031689737 0.096343488 15527140
0.41542858 -0.028414564 0.09471605 12895169
1.3770001 -0.0285662 0.098257072 15395556
1.279 -0.083422244 0.10773209 12631221
1.2880001 -0.08099404 0.10245971 13092285
1.2851669 -0.074800231 0.10574078 13421762
1.2900001 -0.07357002 0.1026188 13487813
1.2853333 -0.065781407 0.1067591 14145230
1.2902501 -0.064521901 0.10263868 14342609
0.40468961 -0.051485218 0.10481019 12828859
1.2866668 -0.058821127 0.10737357 14802903
1.2931429 -0.054936834 0.10502724 15197661
1.304 -0.052999638 0.10220614 15066332
1.314 -0.051868029 0.10145189 15066845
0.40252385 -0.044888571 0.10507692 14802393
1.325 -0.047649466 0.10540303 15329504
1.3360001 -0.043353647 0.10940567 15526626
1.3406668 -0.043505084 0.10351156 15395553
1.3560001 -0.040828232 0.10310861 15461603
0.40399098 -0.03518191 0.10587057 15000285
1.3666668 -0.036882501 0.10338553 15461603
1.3732001 -0.032985866 0.106665 15527140
0.40835294 -0.028321285 0.1079471 13684940
0.41093758 -0.027463395 0.10550049 13223878
1.378 -0.028586945 0.1031673 15527142
1.3809001 -0.02476687 0.10564748 15329763
1.386 -0.01771922 0.1044147 15198179
1.3900001 -0.015819829 0.1008117 15329765
1.2620001 -0.083792955 0.11368373 12565428
1.2720001 -0.082965672 0.11012024 12762805
0.47814289 -0.070683993 0.11766841 11973550
0.48368752 -0.074227564 0.11716907 12039343
0.491 -0.076279879 0.11492181 11973550
1.2575001 -0.077603586 0.11769643 12894393
1.26425 -0.075060807 0.11536506 13289407
1.2745 -0.074670248 0.11133043 13355199
0.47614285 -0.06879577 0.11653712 11841964
1.2640001 -0.067648642 0.1183048 14013387
1.2750001 -0.065848105 0.11515282 14210766
1.2815001 -0.064834923 0.11169238 14408145
0.40125003 -0.050946355 0.11375155 12302259
1.284 -0.058197323 0.11266087 14802903
0.398577 -0.043403659 0.11374492 14736600
0.40023795 -0.046251722 0.11201523 14144207
1.3570001 -0.040858343 0.11430215 15724005
0.39869231 -0.037993439 0.11413705 15263200
0.4009648 -0.033968855 0.11240464 15000286
1.3742001 -0.033010829 0.11575092 15592419
0.4046112 -0.027173467 0.11307827 13552842
1.378 -0.028586945 0.11768396 15658212
1.3805716 -0.024484316 0.11582576 15460834
1.3852 -0.016410148 0.11505444 15198176
0.49100003 -0.080301747 0.12296789 12105136
0.47850001 -0.07041616 0.12263896 11841965
0.48302445 -0.07514552 0.12408041 12039343
0.49100003 -0.079152308 0.12181845 12170929
1.256 -0.074571282 0.12049635 13355201
0.47700003 -0.069078751 0.12169657 11907759
0.39900002 -0.050310332 0.12794906 11447208
0.40000001 -0.050436419 0.12920614 11380902
0.39218757 -0.0436064 0.12782624 13947339
0.39180958 -0.034898352 0.1278245 15000283
1.3752 -0.033035319 0.12549467 15461604
0.39540005 -0.026152659 0.12819394 14013904
1.3775001 -0.028576571 0.1273161 15461349
1.3801429 -0.024477096 0.12548314 15526885
1.3843001 -0.015426042 0.12567428 15263713
1.3890001 -0.0093050981 0.12675257 14737626
1.3922001 -0.0067144274 0.12378542 14869212
0.39400002 -0.050602239 0.13649164 11973291
0.38871437 -0.042167429 0.1358505 14605011
0.39096153 -0.046097662 0.13487656 12762552
0.38690478 -0.035259243 0.137508 14868184
0.3915 -0.033088718 0.13035478 14935005
1.3775001 -0.033413112 0.13215265 15592934
1.383 -0.031928297 0.13915555 15987693
0.38828582 -0.026427111 0.13827644 14539990
0.39362502 -0.025325803 0.13185515 13947854
1.3826667 -0.025445346 0.13588908 15461349
1.3868572 -0.016246578 0.1353713 15395558
1.3900001 -0.014192821 0.13985988 15329765
1.3890001 -0.0093050981 0.13163008 15132386
1.3923335 -0.0055224947 0.13357569 14869214
0.38667718 -0.043661326 0.1455992 13486789
0.39066669 -0.04773635 0.14181197 12236720
0.38391066 -0.034916889 0.14519741 12763325
0.38471821 -0.026079996 0.14545833 13816270
1.3915 -0.023982471 0.14326833 15461349
1.4020001 -0.022520617 0.14763153 15658728
0.38633335 -0.01977195 0.14920996 13421511
1.3973335 -0.01590017 0.14386894 15263971
1.4056667 -0.015995011 0.14801763 15724522
1.3955001 -0.0077122711 0.14041328 15066593
0.38645837 -0.05200851 0.1585636 11973803
0.39156249 -0.05235279 0.15523863 11908011
0.37878576 -0.041427862 0.15794928 2830893
0.38314399 -0.045237005 0.154673 8092534
0.37837914 -0.034973502 0.15659721 2699050
0.38060772 -0.03504638 0.15192457 2961713
0.37861544 -0.02813714 0.15781976 2830379
0.38186559 -0.024284627 0.15437447 10198170
0.38498771 -0.01680444 0.15619567 14211284
0.39381248 -0.011793632 0.15797079 12763839
0.40033332 -0.010491523 0.15867876 12303544
1.4115001 -0.017714942 0.15193623 15460579
0.47425002 -0.077563502 0.16734615 11908781
0.3831163 -0.052041624 0.16583814 12170670
0.3769601 -0.04254682 0.16558357 3883584
0.38136509 -0.047621522 0.16463606 11710633
0.37435439 -0.034957886 0.16491921 2501930
0.37629199 -0.025947494 0.16537589 6381662
0.38042858 -0.021600332 0.16283214 13487303
0.38260433 -0.014999052 0.16503748 14145490
0.38698703 -0.0073408838 0.16641891 13553354
0.39206666 -0.0056350273 0.16407067 12698045
0.39200002 0.00012697621 0.16883525 13224646
0.38144177 -0.052126065 0.17523059 12565172
0.36900002 -0.040480748 0.17966115 2567467
0.37516192 -0.044113312 0.17526239 6382434
0.38065383 -0.049162515 0.17419408 12828344
0.36873189 -0.034345597 0.17843491 2172709
0.37078241 -0.035205245 0.1738462 2370345
0.36899999 -0.028633863 0.17892072 2698284
0.37388256 -0.024697961 0.17484827 7566707
0.37862897 -0.017074777 0.17621329 13684682
0.38057745 -0.013163878 0.17392723 13816269
0.38387764 -0.0051695546 0.17501388 13685197
0.38803333 0.001429326 0.17756897 13487818
0.39247623 0.0036591135 0.1758448 13027267
0.403 0.0064986935 0.17804372 12764095
0.41474196 0.0075231995 0.1776192 12106166
0.42199999 0.0082398932 0.1764202 11908787
0.41325006 0.011501258 0.17883307 12237752
0.42300001 0.010698911 0.17789125 11908533
0.3781043 -0.05195415 0.18562223 12631480
0.38058338 -0.052369174 0.18106836 12565687
0.36806452 -0.041685697 0.18556966 2830637
0.37428424 -0.04618296 0.18443541 9341831
0.36707911 -0.03493236 0.18335715 1909538
0.36778957 -0.027596872 0.1843715 2567213
0.37319779 -0.022555865 0.18461452 10329497
0.37777004 -0.014961504 0.18505378 13290437
0.38000003 -0.010996746 0.18056898 13421768
0.37854412 -0.0063273008 0.18687378 13422281
0.38116667 -0.0039795577 0.18306397 13684940
0.37900001 0.00078819966 0.18963169 13619919
0.38505131 0.0034014708 0.18565519 13619405
0.39242864 0.0079604965 0.18372816 13027524
0.40300003 0.0090907849 0.18064284 12829888
0.41125003 0.0092795696 0.18049499 12500923
0.39582932 0.012202788 0.18663684 13093574
0.40313637 0.013081735 0.18317762 12632766
0.41211113 0.013646366 0.18264741 12303544
0.46900001 0.023208605 0.18882406 12434877
0.47185007 0.026833659 0.18748531 12369083
0.47349998 0.033399198 0.18876284 11645616
0.37775001 -0.051389985 0.19088507 12894654
0.36000001 -0.04174079 0.19915758 2633256
0.37566671 -0.048834462 0.19052863 12499896
0.36000001 -0.039493412 0.19929802 2699562
0.37400001 -0.02045406 0.190851 11842736
0.37664711 -0.014499582 0.19124155 12106423
0.37800017 -0.0043541365 0.1913566 13224904
1.424 -0.0095395679 0.19995227 15395556
0.37856004 0.0021088361 0.1923262 12896198
0.38266671 0.0059599807 0.19127603 12961990
0.39066669 0.0092721218 0.19112414 13093316
0.39583048 0.0142911 0.19300288 13093575
0.40190479 0.018813739 0.19248989 13093830
0.40666667 0.020758826 0.19323619 13093830
0.4164339 0.024346188 0.19452812 12764610
0.42061111 0.027870808 0.19494151 12698818
0.45900002 0.026474595 0.19070786 12829635
0.46600002 0.029332321 0.19279516 12763842
0.47128576 0.028995335 0.19053122 12369084
0.42228574 0.031773303 0.19797787 12896196
0.45620003 0.036466792 0.19926043 12829890
0.46492308 0.034336843 0.19477828 12632769
0.47038904 0.035785843 0.19179812 12105655
0.46247372 0.042775799 0.19821911 11777460
0.47000003 0.041412685 0.19472806 10921632
0.35900003 -0.04112459 0.20138575 1778204
0.36000001 -0.042864479 0.20056216 1448469
0.35861656 -0.034724779 0.20146923 1515033
0.35875764 -0.026834797 0.20147243 2236183
0.36000001 -0.024323616 0.20056216 2823948
1.4380001 -0.016366124 0.20865087 15593189
1.4280001 -0.0095663648 0.20385692 15527142
1.432 -0.0095931608 0.20778027 15658212
1.4256001 0.0044639828 0.20618446 15197407
0.42066669 0.029352168 0.20120633 13093577
0.42498067 0.034335691 0.2055212 13093834
0.43050003 0.039108422 0.20742048 13027786
0.45574999 0.038185537 0.20274189 12566975
0.46000001 0.039993126 0.20027673 12501440
0.43400002 0.040780652 0.20876877 13093579
0.45761356 0.045091998 0.20716955 12632767
0.4624888 0.045387067 0.20330431 12435131
0.45775002 0.051183343 0.20867231 12172472
1.4260001 -0.012891258 0.21859136 15658212
1.4366668 -0.015231162 0.21406102 15527141
1.4175 -0.0045201899 0.21894991 15460578
1.4251666 -0.0062090917 0.2162383 15592420
1.4310001 -0.0073546916 0.21210106 15460578
1.3890001 0.0069532716 0.21779944 15065821
1.3950001 0.0037175869 0.21874025 15197407
1.403 0.0037389065 0.21780427 15131615
1.4146668 0.0037707777 0.21630315 15000543
1.4240001 0.0026817161 0.21272801 14934748
1.378 0.016575973 0.21930052 14277334
1.3826001 0.012745219 0.2180886 14342869
1.3980001 0.010271069 0.21593793 14802651
0.42700005 0.03664536 0.21341616 12238012
0.42999998 0.039398156 0.21238114 12961734
0.43453124 0.042363863 0.21387546 12830406
0.44421211 0.047071021 0.21485509 13159371
0.45423532 0.047622293 0.21170996 12500923
0.44875002 0.051096447 0.21901533 13159372
0.45461774 0.05411271 0.21554521 12829890
0.79143339 0.17533858 0.21488515 11579817
0.79032016 0.18527256 0.21458198 11645354
1.381 -0.012484451 0.22947681 15592935
1.4060001 -0.014358533 0.22704804 15592420
1.419 -0.01448893 0.22416449 15724005
1.4220001 -0.016184025 0.22297393 15724005
1.3766667 -0.006002015 0.22875677 15461351
1.3838 -0.0053832368 0.22540331 15461093
1.3965001 -0.0060825991 0.22387755 15460579
1.4060001 -0.0061275125 0.22265784 15460578
1.4120001 -0.0078087612 0.22140589 15460834
1.3753334 0.0036640062 0.22692378 15000799
1.3828 0.0043311962 0.22200465 15000028
1.3900001 0.00045024732 0.22121026 15197407
1.3748752 0.012916244 0.2252375 14343126
0.44800001 0.051011927 0.22127153 13225165
0.45321062 0.055599857 0.22205712 13027786
0.79131442 0.18470979 0.22517313 11645353
0.79196656 0.19492789 0.22522561 11579817
1.3708572 0.0045702578 0.23420914 15132385
1.368 0.011651915 0.23372166 14540506
1.3706669 0.011139316 0.23310821 14343127
0.7918787 0.17507358 0.23483348 11579816
0.7913847 0.18530767 0.23510766 11579817
0.79241657 0.19488521 0.23540296 11645353
0.7918334 0.078728966 0.26287892 10658714
0.79231018 0.14480384 0.2848371 11250852
0.79219985 0.15511231 0.28556651 11250596
0.79216665 0.12499807 0.29507154 11184804
0.79224133 0.13494362 0.2949819 11184804
0.79177421 0.12545931 0.30472481 11119268
0.79131043 0.13561487 0.30485275 11119268
0.79100001 0.12839606 0.31179819 11119268
0.78888893 0.13753466 0.31474128 11119268
0.79000002 0.13415274 0.31195879 11119268
0.78900003 0.14100179 0.31470394 11185061
0.79060006 0.14545339 0.3144176 11119269
0.792189 0.1848567 0.32525632 11185318
0.7918666 0.18470639 0.33549789 11054246
0.79147995 0.1948076 0.33533496 10988710
0.79226935 0.20441976 0.33545461 11185320
0.7924667 0.17470655 0.36468765 11053475
0.78900003 0.16833833 0.37122408 11250854
0.78900003 0.17295599 0.37584174 11053477
0.79031825 0.17627311 0.3741143 11053476
0.79210347 0.18511619 0.37472856 11053476
0.78900003 0.17572658 0.3804594 11119270
0.79007149 0.17794706 0.3849397 10987683
0.79167855 0.18579023 0.38486257 10987683
0.79112494 0.16578144 0.39884683 10922146
0.7904616 0.17569654 0.39468762 10987682
0.79226917 0.18551634 0.39516214 10987680
