# .PCD v0.7 - Point Cloud Data file format
VERSION 0.7
FIELDS x y z rgb
SIZE 4 4 4 4
TYPE F F F U
COUNT 1 1 1 1
WIDTH 465
HEIGHT 1
VIEWPOINT 0 0 0 1 0 0 0
POINTS 465
DATA ascii
1.7135 -0.12178656 -0.01211137 12894650
1.7190001 -0.11614527 -0.012150246 12960186
1.7240001 -0.11244718 -0.012185587 12697014
1.7246667 -0.10710633 -0.013535604 13881288
1.7060001 -0.13124204 -7.702841e-05 11842734
1.7145 -0.12453344 -0.0040918677 12434355
1.723 -0.12044911 -0.0020934124 12697527
1.724 -0.11446436 -0.0041121957 12631477
1.7266666 -0.10453471 -0.0041190786 13749702
1.728 -0.094908856 -0.003314245 14868183
1.728 -0.088436402 -7.8021738e-05 15262941
0.45999998 -0.064463094 -0.0054051103 15197659
0.46100003 -0.054885667 -0.0054168608 15724260
0.46300003 -0.049709026 -0.0054403618 15264224
1.7240001 -0.13262677 0.0079939887 12105906
1.7190001 -0.12821791 0.0039465944 12237746
1.7248001 -0.12380461 0.0063833324 12369077
1.7265 -0.11463054 0.0059852824 12434613
1.728 -0.10461751 0.0059898966 13552837
1.728 -0.094504327 0.0039672572 14802390
1.7310001 -0.094668396 0.0080264471 14802903
1.7310001 -0.087239176 0.0053249127 15000026
0.45666668 -0.072314911 0.0090066064 12565686
0.45222229 -0.064437784 0.0089779366 14868953
0.45355001 -0.054524988 0.0090041449 15592678
0.45842859 -0.047837023 0.0091778291 15131614
0.46157146 -0.044458587 0.0090863882 14342098
1.7273334 -0.12479497 0.014075804 12171699
1.728 -0.11540493 0.013406242 12369078
1.7310001 -0.11290375 0.016131051 12500664
1.728 -0.10562883 0.014080455 13092287
1.7310001 -0.102773 0.0141049 13552581
1.728 -0.094504327 0.014080456 14539731
1.7310001 -0.094668396 0.0141049 14737110
1.7310001 -0.088589944 0.016131051 14933976
0.44900003 -0.070279412 0.018899834 12499894
0.454 -0.071593836 0.013261266 12499892
0.44845098 -0.063937075 0.01704233 14539732
0.45141029 -0.066461854 0.012713434 14210509
0.44830149 -0.055492349 0.01701824 15592932
0.45122227 -0.054220609 0.012213398 15527397
0.44900003 -0.048906695 0.01960058 15132638
0.45595953 -0.045479696 0.015319915 14605783
0.46100003 -0.041937497 0.012524994 13684938
0.45900002 -0.039608829 0.017171711 13355973
0.46450001 -0.038996041 0.012483574 13027008
1.728 -0.11675335 0.020148374 12434871
1.7318001 -0.11457779 0.02505919 12237235
1.728 -0.1032691 0.022845225 13354946
1.7310001 -0.10547454 0.024911039 12894908
1.728 -0.093830109 0.021496801 14342352
1.7310001 -0.096694551 0.026261806 13881801
0.44700003 -0.071012795 0.026663911 12434100
0.44503438 -0.064779595 0.025193475 13947595
0.44475484 -0.055168714 0.02329213 15461603
0.44800004 -0.047886252 0.023575243 15263969
0.45312822 -0.04314867 0.022552414 14343124
0.456 -0.039349947 0.022395438 13224387
0.44300002 -0.066114858 0.031893924 13289151
0.43451864 -0.062701456 0.047335621 13421250
0.43216655 -0.055002384 0.047021139 14934490
0.43306255 -0.045471244 0.04835692 15263970
0.43811119 -0.038488004 0.048867181 14277077
0.42899996 -0.061123136 0.058229838 13354942
0.43136367 -0.061598875 0.053311788 13486786
0.42771441 -0.054375529 0.056519955 14802903
0.43018192 -0.055860717 0.051767655 14671061
0.42814013 -0.047086954 0.05706808 15395555
0.43096679 -0.043507513 0.053802755 15198177
0.43449244 -0.036580537 0.055778515 13816526
0.42692858 -0.061399214 0.063299738 12697014
0.42420554 -0.054905951 0.065177582 14276303
0.42432144 -0.044954389 0.065056585 15329762
0.43000001 -0.040126223 0.060378846 14737628
0.42693335 -0.038205706 0.067140006 14606042
0.43187761 -0.035342477 0.063237242 13750733
0.52514279 -0.083661757 0.076840706 12171952
0.52500004 -0.079717189 0.076995783 12105389
0.42200002 -0.060125787 0.073744863 12368562
0.41764864 -0.05247872 0.076795071 14342097
0.42074555 -0.056170341 0.074353315 13421250
1.348 -0.050054435 0.078831442 15527396
0.41700006 -0.045695331 0.07659509 15460578
0.42095134 -0.043316476 0.07237383 15395043
1.3463335 -0.043692086 0.078733981 15593189
0.41816667 -0.039347377 0.078622155 15328995
0.42348891 -0.035247795 0.075431019 14211283
1.3476667 -0.034266714 0.078811951 15527396
0.42500001 -0.029710311 0.075844422 12236980
0.41496554 -0.053726289 0.085068591 13552069
0.42000002 -0.058857605 0.080605693 12368308
1.337 -0.054862544 0.086533107 15263968
1.3457501 -0.053118967 0.083425209 15395553
1.3510001 -0.050165832 0.0821696 15724005
0.41280895 -0.0448015 0.085015491 15329507
1.3440001 -0.049905907 0.088036507 15395810
1.3527143 -0.042989053 0.084990785 15592932
0.41602296 -0.036294822 0.085869186 14737372
0.42151439 -0.032200146 0.082950458 13816272
1.3559999 -0.036594894 0.083533406 15527396
1.3626667 -0.034649685 0.086069994 15461604
1.3700001 -0.033231776 0.088136002 15527396
0.41900003 -0.029290874 0.089241758 13816530
0.42109096 -0.029078869 0.086367317 12763326
1.2920001 -0.08275786 0.099753305 12894393
1.2938334 -0.075303465 0.098378263 13815752
1.2935001 -0.06528987 0.097443365 14539731
1.3050001 -0.062200688 0.09464696 14473681
1.312 -0.064074747 0.092083231 14407632
0.40746152 -0.050790384 0.096977718 13683655
0.41284856 -0.053703159 0.092466839 12959932
1.2930001 -0.057092965 0.099830516 15197661
1.3040001 -0.056047648 0.097627118 15066332
1.3150001 -0.054981261 0.096913785 14934746
1.3245001 -0.053828742 0.09606123 15131868
1.3330001 -0.053655878 0.091476738 15066075
0.40722319 -0.04497917 0.095646426 15065822
0.4102273 -0.045091335 0.090908863 15065822
1.3280001 -0.049311787 0.099423937 15066845
1.3360001 -0.048827533 0.095326796 15395554
1.3440001 -0.046759579 0.091182835 15593189
1.3536668 -0.042868018 0.092894465 15592932
1.3610001 -0.040978778 0.097115375 15592677
0.40786958 -0.037456643 0.097018264 15066335
0.41309646 -0.033727661 0.093764871 14408408
1.3670001 -0.037959263 0.092743255 15527396
1.373625 -0.034521673 0.095603384 15461604
0.41559374 -0.028564654 0.095493235 13158342
0.42000002 -0.026411097 0.090437971 11776690
1.3825001 -0.027060315 0.097031295 15264224
1.3900001 -0.022327857 0.097557694 15198431
1.399 -0.019197343 0.098189361 15198431
1.416 -0.016115738 0.099382505 15066845
1.2660002 -0.085535705 0.1096008 12368562
1.2880001 -0.08099404 0.10245971 13157565
1.2670001 -0.079673477 0.10968738 12829113
1.279 -0.077433921 0.10773209 13486530
1.2850001 -0.074790306 0.10522491 13618373
1.2900001 -0.072060063 0.1026188 14013387
1.276 -0.062316597 0.10747939 14672087
1.2845 -0.066115662 0.10480791 14145230
0.40462503 -0.05175972 0.10532898 12697016
1.2780001 -0.057925373 0.10764786 14737880
1.2836251 -0.055177826 0.10511286 14935259
1.2933334 -0.053070981 0.10187187 15066589
1.304 -0.051473293 0.1006798 15197661
0.40272427 -0.04494876 0.10511131 14736600
1.286 -0.047752224 0.1083217 15198431
1.3010001 -0.045263551 0.10653951 15264224
1.3180001 -0.048940465 0.10176072 15264224
1.3290001 -0.043126497 0.10883245 15395810
0.40431786 -0.035122428 0.1052057 14868957
0.41085717 -0.03105697 0.10124653 14079697
1.375 -0.036569033 0.10535747 15395811
1.381 -0.032689776 0.10500897 15330018
0.40766668 -0.028116079 0.10781964 13356233
0.41193944 -0.027743617 0.10298909 13027010
1.3872501 -0.02796592 0.10304984 15329762
1.3947999 -0.023709375 0.1050787 15330019
1.4035001 -0.018435054 0.10590047 15198432
1.4115001 -0.016064525 0.10402144 15132384
1.2550001 -0.090670794 0.11158649 11908011
0.49400002 -0.08079239 0.11793691 12434355
1.2541429 -0.085156627 0.11528232 12171953
1.2600001 -0.083657816 0.11203106 12698297
0.48900002 -0.073678479 0.11731559 12039343
0.49107695 -0.07686691 0.11776865 12105390
1.255 -0.075140812 0.1162013 13289664
1.2624002 -0.074060738 0.11283439 13355457
1.2720001 -0.074030787 0.11012024 13684422
1.256 -0.067220487 0.11755604 14342352
1.2641667 -0.064698905 0.11387715 14144973
1.2736667 -0.065187439 0.11026452 14605780
0.40123078 -0.050953027 0.11514953 12236466
1.258 -0.058492523 0.11479823 15197661
1.2647501 -0.055843815 0.11393292 14869209
1.2722501 -0.053197786 0.11088574 14935259
0.39757621 -0.043838039 0.11647715 14538965
0.40035701 -0.04623276 0.11275097 14078413
1.3430001 -0.040436812 0.11626689 15593189
0.39783341 -0.036828268 0.11665449 15197151
0.40072718 -0.033623919 0.1131203 14934749
1.3755001 -0.036583502 0.11586393 15461348
1.3820001 -0.032712862 0.11478852 15461604
0.40300012 -0.027311314 0.11481358 13684686
1.3872501 -0.02796592 0.11684722 15461349
1.3955001 -0.024590621 0.11318803 15330018
1.3976668 -0.018087352 0.11663586 15066591
1.4048001 -0.015329039 0.11438052 15066846
1.4100001 -0.012746616 0.11216474 14869466
0.49175003 -0.081000298 0.12286662 12236976
1.2490001 -0.081465505 0.12567265 12565941
1.251 -0.083060257 0.1214798 12435125
0.486 -0.075454481 0.12312717 12039598
0.49075001 -0.078825228 0.12146848 12039597
1.2475002 -0.07625781 0.12479074 12960699
1.2512001 -0.075165585 0.12120637 13026492
1.2470001 -0.069658063 0.12547143 13750215
1.251 -0.068417192 0.1214798 13749958
0.40066668 -0.050834179 0.12879564 11380901
0.39286673 -0.043560244 0.12791844 14012876
0.40000001 -0.049500015 0.12826972 11315109
0.39219123 -0.034687445 0.12741512 14934235
1.3773333 -0.032872003 0.12568794 15395556
1.3800001 -0.03185904 0.12270068 15527142
0.39533335 -0.02621438 0.12797673 14078927
0.40042859 -0.026115779 0.12090787 13684428
1.378 -0.028586945 0.12897469 15658728
1.3833334 -0.025098139 0.12515002 15461349
1.3900001 -0.022327857 0.1203358 15395556
1.3855715 -0.016231943 0.1273634 15263970
1.3944 -0.015213951 0.12202066 15198177
1.3966666 -0.0082655437 0.12636049 15000798
1.404 -0.0077621909 0.12319121 14540501
0.38866043 -0.042535495 0.13536029 14407635
0.39047831 -0.045740064 0.13574876 12828603
0.38774803 -0.035563547 0.13543195 14868442
0.39052626 -0.032062255 0.1312934 14934235
0.38847926 -0.027004706 0.13776042 14605784
0.39201462 -0.02547201 0.13344845 14144977
1.3779999 -0.027511636 0.13435124 15592935
1.3802001 -0.023462679 0.13564229 15658728
1.3821112 -0.01572796 0.13582978 15526885
1.388 -0.0084854802 0.13397172 15066078
1.3915 -0.00606432 0.13186523 14869212
0.39300001 -0.050473802 0.14074531 12038830
0.38663891 -0.044007499 0.14540441 13355202
0.39050001 -0.047998488 0.14180692 12104880
0.38386282 -0.034825254 0.14509961 12829118
0.38524076 -0.025976116 0.14539732 13881550
1.3806667 -0.024332451 0.14323059 15461349
0.3876667 -0.019840188 0.14881741 13157829
1.3856668 -0.016851671 0.1448324 15395556
1.3900001 -0.015819829 0.14962193 15527142
0.38688239 -0.053200036 0.15772721 11711146
0.39125001 -0.052722573 0.15591837 11908011
0.37883332 -0.041264143 0.15799049 2699823
0.38305205 -0.045106806 0.15468642 7829619
0.37845451 -0.034903191 0.15640444 2502701
0.3806603 -0.035320945 0.15196118 2830641
0.37869233 -0.028279286 0.15768145 2764849
0.38195822 -0.024340309 0.15432377 10132378
0.3853659 -0.016933855 0.15612324 14276821
0.39440915 -0.012625895 0.15698375 12698046
0.40083337 -0.010816763 0.15856402 12434876
0.40150002 -0.0092691332 0.1592975 12434620
0.38395652 -0.052050706 0.16580123 12039599
0.37715495 -0.042448748 0.16552907 3554619
0.3813 -0.04726278 0.16453753 11579048
0.37490237 -0.034959108 0.16492566 2436651
0.37651113 -0.026033329 0.16534026 6119517
0.38049996 -0.021521488 0.16295983 13421253
0.38274461 -0.014945994 0.16497135 14145234
0.38687181 -0.0073721255 0.16616303 13487562
0.39205262 -0.0048094746 0.16473439 12632253
0.4005 -0.0083078844 0.16101117 12369080
0.39300001 0.00012730014 0.16926594 13224393
0.38169762 -0.052078068 0.17497146 12434100
0.37507847 -0.043973919 0.17519486 6185055
0.38073331 -0.049047269 0.1744681 12828601
0.36871117 -0.034579501 0.1783112 2107431
0.37087479 -0.035183243 0.17370224 2435883
0.368875 -0.028485123 0.17884444 2566695
0.37408093 -0.024681201 0.17482004 7632499
0.37872338 -0.01694783 0.17720734 13618632
0.38069314 -0.014043327 0.17380697 13750731
0.38357142 -0.0053093568 0.17508315 13685196
0.38776007 0.0012164237 0.17771624 13422025
0.39299998 0.0038660793 0.17629845 13027266
0.40414289 0.0086428504 0.17959133 12501181
0.41495833 0.0078631854 0.17790537 12040374
0.42250001 0.0082160989 0.17636454 11842993
0.41500005 0.011551572 0.17849268 12105911
0.42460003 0.010673521 0.177901 11908786
0.37818617 -0.051824525 0.18596373 12763065
0.38050005 -0.052176923 0.1811873 12762808
0.36809677 -0.041577395 0.18583491 2633517
0.3743712 -0.046070788 0.18453135 9276553
0.38000003 -0.049693774 0.18056898 12894906
0.3674053 -0.034877263 0.18352291 1909794
0.3679637 -0.027522357 0.18447968 2698796
0.37313196 -0.022552099 0.1845817 10328982
0.37784156 -0.014937025 0.18501104 13290181
0.37848613 -0.0063006352 0.18667766 13422024
0.38101381 -0.003849973 0.18297994 13685196
0.37900001 0.00056638819 0.18985349 13750737
0.38486955 0.0033082478 0.185606 13619404
0.39240915 0.0080429949 0.18394761 13093061
0.40300003 0.0095648421 0.18017699 12567486
0.41100001 0.0097547155 0.18038498 12171705
0.39584786 0.012240142 0.18645783 13158854
0.40127784 0.013437238 0.1833144 12698560
0.41150001 0.011693239 0.18060499 12237498
0.46810526 0.023223469 0.18661678 12435130
0.47095844 0.027579432 0.18657835 12106164
0.46900001 0.03418798 0.189922 12434361
0.47155559 0.032840118 0.18813202 11776685
0.37762502 -0.05137305 0.19082157 13091775
0.35900003 -0.042745415 0.19916463 2698285
0.36000001 -0.042864479 0.19845526 1646622
0.37566671 -0.048834462 0.19052863 12631737
0.37350002 -0.020426132 0.19059587 11842740
0.37663636 -0.014379966 0.19126041 12105911
0.37800017 -0.0044741482 0.19141732 13224390
0.37866673 0.001453136 0.19244373 13092806
0.38200003 0.0056012506 0.19170053 12698818
0.39050001 0.0092681665 0.19058572 13093060
0.38900003 0.01014322 0.1930415 13093060
0.39542624 0.014662663 0.19278023 13159110
0.40207142 0.018755043 0.1917226 13159113
0.41100001 0.019376298 0.19145097 12961474
0.40766668 0.020810263 0.1935553 13093320
0.41564292 0.023598073 0.19559011 12895939
0.42246303 0.027006138 0.19515222 12698048
0.43538463 0.026489904 0.19378529 12369340
0.44257149 0.027746469 0.1931272 11974580
0.45375001 0.027503528 0.19250776 12698302
0.46516669 0.028917106 0.19189818 12764351
0.47000003 0.028759481 0.19032697 12500923
0.42485005 0.032067347 0.19685656 12632253
0.44478574 0.031609531 0.19677258 12303290
0.45715788 0.035071388 0.19767918 12632509
0.46503133 0.034868952 0.19373834 12566459
0.47000003 0.035727914 0.19032697 11513256
0.46368974 0.043084715 0.19791013 11776942
0.47000003 0.041412685 0.19417793 11053218
0.35846156 -0.041262276 0.20118907 1580826
0.35799989 -0.034664541 0.20168278 1383447
0.35839993 -0.026773307 0.20172527 2170135
0.42125002 0.02898306 0.20090938 13093831
0.42573997 0.034150034 0.20533407 13159112
0.43045461 0.038799215 0.20665203 13224648
0.44700003 0.033630714 0.20194177 11711154
0.45630008 0.038392663 0.20304024 12632510
0.46000001 0.039993126 0.20081517 12698302
0.43500003 0.041387301 0.20890725 13158856
0.45724323 0.045768984 0.20751809 12633279
0.46240428 0.045249842 0.20332243 12435386
0.45728573 0.051226795 0.20888175 12500923
0.4646 0.050616752 0.20467155 10856610
0.42673689 0.036211587 0.21213575 12764353
0.43000001 0.039398156 0.21288446 12961990
0.43563336 0.042775337 0.21359257 13093578
0.444381 0.047360055 0.21427663 13158858
0.45463637 0.048136219 0.21148087 12566717
0.44900003 0.050599057 0.21756096 13290444
0.45401511 0.054417219 0.21568321 12632254
0.45277274 0.055123452 0.22184537 13027786
0.79176652 0.10498379 0.24463251 11316388
0.79280007 0.085929357 0.26439914 10921631
0.79166675 0.087362587 0.27147356 10921631
0.7929166 0.095080368 0.27453172 11053473
0.79296654 0.10514033 0.27470365 11185059
0.79140002 0.14476527 0.27508584 11316645
0.79199988 0.15420932 0.27523354 11316644
0.79275012 0.14501235 0.28483948 11316134
0.79295826 0.15518348 0.28437075 11316390
0.79248571 0.11501414 0.29499084 11184802
0.79149997 0.10772491 0.30106249 11119011
0.79009998 0.11659844 0.30367535 11053475
0.79173917 0.12468309 0.30466062 11053476
0.7913335 0.16513 0.30470374 11185061
0.79093969 0.17481184 0.30480298 11250854
0.7922259 0.18494131 0.30501479 11250854
0.79283333 0.16520923 0.31510642 11185061
0.79070008 0.17517743 0.31464326 11250854
0.78900003 0.18680896 0.31488866 11316390
0.79004014 0.18527989 0.3147487 11250854
0.79069245 0.19447309 0.31485081 11250597
0.79174995 0.18474464 0.32492414 11250598
0.79199988 0.1949368 0.32480121 11250855
0.79214692 0.20489708 0.33490482 11184292
0.79193747 0.212532 0.33413401 4471865
0.79097247 0.20486611 0.3453027 10921121
0.79099995 0.21188425 0.3435953 3747885
0.79219353 0.1948026 0.35495704 11119011
0.79196286 0.20488355 0.35552058 10855327
0.79200006 0.2116224 0.35347667 4076596
0.79300004 0.16919176 0.36475217 11053476
0.78900003 0.17634225 0.3684535 11119268
0.79146892 0.17505851 0.36421633 10987683
0.78900003 0.18249913 0.36814567 10987682
0.79018539 0.18517029 0.36458716 11053475
0.79160005 0.19483909 0.36503613 11053475
0.78899997 0.17625432 0.37333503 11053475
0.79000002 0.17903163 0.3772428 11119268
0.78900003 0.18311483 0.37122408 11119268
0.79078257 0.18538201 0.37536338 11053475
0.78885704 0.1771462 0.38593 10987683
0.79000002 0.1796481 0.38279101 11053475
0.78900003 0.18188345 0.389079 10987683
0.79084629 0.18575294 0.38448155 11119011
0.78860009 0.15680586 0.39835882 10856609
0.78833342 0.16496725 0.3972092 10921889
0.78876179 0.17505786 0.39502957 10987682
0.79000002 0.17826104 0.39897329 11053218
0.78900003 0.18188345 0.39215744 11053218
0.79040027 0.1858831 0.39564168 11053218
0.79215997 0.19497694 0.39496434 10987425
0.78900003 -0.032991566 0.40816534 10921634
0.78800005 -0.022086389 0.40805796 2830383
0.78840005 -0.015246844 0.40674788 2567725
0.78900003 -0.0089797443 0.40816534 791569
0.79000002 -0.0062170187 0.40868264 923155
0.79086673 0.14516003 0.40715688 10725282
0.78900003 0.1561785 0.40231633 10791074
0.79000002 0.15355092 0.40642226 10725282
0.78899992 0.16415164 0.4027473 10790817
0.7902 0.1656353 0.40767622 10791075
0.78900003 0.17018539 0.4007771 10921889
0.79087502 0.174679 0.4050487 10856610
0.79195458 0.18514846 0.40522844 10921891
0.79215997 0.19497557 0.40423656 10921890
0.78900003 -0.032991566 0.41185945 9343120
0.79011768 -0.035432477 0.41657758 9343376
0.78893083 -0.025091942 0.41475335 3751229
0.79000002 -0.02316989 0.41977909 3159346
0.78899997 -0.015576399 0.41212335 2764333
0.79007143 -0.013879816 0.41704279 2633002
0.79152173 -0.0055407863 0.41470757 922898
0.79300004 0.068944678 0.41951677 10067350
0.79203987 0.14488146 0.41530168 10724767
0.79123336 0.15492244 0.41487968 10790561
0.79143995 0.16515411 0.41498774 10856355
0.79255551 0.17487021 0.41515765 10790818
0.79294419 0.18495868 0.41484627 10856098
0.79299992 0.19518174 0.41487578 10856098
0.79270953 0.20486704 0.41511244 10526877
0.79300004 0.21003315 0.41301927 9998221
0.79127783 -0.034734108 0.42406058 9343376
0.79104167 -0.024743011 0.42496398 3685690
0.79209101 -0.014323286 0.42510718 2436134
0.79280001 0.068927288 0.42497787 10001558
0.79276657 0.07480152 0.42427832 10198936
0.79256004 0.14497705 0.42485142 10790304
0.79253316 0.1551775 0.42483747 10790561
0.79199988 0.16541213 0.4247638 10790305
0.79102868 0.17511959 0.42508581 10856098
0.79112917 0.18528177 0.42485669 10790305
0.79140002 0.19478814 0.42515072 10856098
0.79130554 0.20495163 0.42510143 9933972
0.79062498 0.21218024 0.42612439 3681577
0.79200006 -0.031880949 0.43073025 9343376
0.79199994 0.077479243 0.43372768 10264474
0.79283321 0.085634977 0.43520457 10396060
0.79297125 0.13471054 0.435148 10790304
0.79269993 0.16491897 0.4350709 10856096
0.7906335 0.17516348 0.43492386 10856098
0.79008019 0.18521482 0.43461868 10790305
0.79000026 0.19536802 0.43457428 10790305
0.7907601 0.20573741 0.43499374 9933971
0.79049999 0.21237773 0.43323174 3879211
0.80500007 -0.0054968488 0.44492257 2304550
0.80550003 0.00073204655 0.44451714 2435364
0.79200006 0.078498982 0.4423492 10067352
0.79247618 0.085331187 0.44424024 10330524
0.79288 0.094920397 0.44543898 10527903
0.79125011 0.17556486 0.44425887 10790305
0.79076022 0.18537427 0.44424805 10790304
0.79055572 0.19499104 0.44406545 10790305
0.79195654 0.20459929 0.44467902 10658208
0.79300004 0.21142547 0.44365034 5458503
0.81000006 -0.011114974 0.45505735 1581085
0.80866671 -0.0035234836 0.45052204 1975842
0.81266665 -0.007345851 0.45655549 1383706
