# .PCD v0.7 - Point Cloud Data file format
VERSION 0.7
FIELDS x y z rgb
SIZE 4 4 4 4
TYPE F F F U
COUNT 1 1 1 1
WIDTH 879
HEIGHT 1
VIEWPOINT 0 0 0 1 0 0 0
POINTS 879
DATA ascii
0.407875 -0.14237647 -0.061010569 14737119
0.41100004 -0.14185463 -0.065034315 14803684
0.40796626 -0.13464551 -0.062633172 15658735
0.41037503 -0.13856769 -0.066067137 14869476
0.4083685 -0.1272651 -0.062410209 15987956
0.41058829 -0.12233295 -0.063231409 15593198
0.41188538 -0.11484381 -0.062978193 15724527
0.41466004 -0.10514147 -0.062298976 15856115
0.41800001 -0.098818846 -0.061544921 16119285
0.42172098 -0.093646869 -0.063020684 15329510
0.42592502 -0.085351273 -0.062286198 15724268
0.42812496 -0.07634984 -0.061282601 15789549
0.43000001 -0.077875137 -0.063437589 15855338
0.42626321 -0.067296311 -0.061938435 14539737
0.43090001 -0.062400013 -0.061048627 15000802
0.43200001 -0.058718871 -0.061103214 15461096
0.39900002 -0.14091474 -0.050457589 15789295
0.40284303 -0.14288028 -0.055024605 14539484
0.39900002 -0.13671145 -0.050457589 15921394
0.40279591 -0.1348016 -0.054788779 16316663
0.40506861 -0.12498406 -0.05491868 16514041
0.41000003 -0.1212841 -0.059527189 16580089
0.40730324 -0.11611506 -0.052956559 16514297
0.41107684 -0.11390059 -0.057649653 16448249
0.40900001 -0.10882833 -0.050956208 16711675
0.41269791 -0.10474826 -0.05521398 16514298
0.4161495 -0.095734298 -0.054234646 16579834
0.42060003 -0.092811659 -0.058211081 16514043
0.41800004 -0.086999401 -0.051881671 16645628
0.42267087 -0.084439576 -0.056152109 16513787
0.42399994 -0.074937284 -0.054822415 16382457
0.42638472 -0.065941811 -0.054668255 16382457
0.43038088 -0.062086627 -0.057785392 15790321
0.42783874 -0.055558316 -0.051714655 16382456
0.43122387 -0.05441631 -0.056616306 16316150
0.42900002 -0.049071576 -0.050234206 16711165
0.43310085 -0.044999357 -0.054834247 16119028
0.43708202 -0.035848264 -0.054663096 15461098
0.44021434 -0.031951092 -0.057436354 14078674
0.43881825 -0.028341236 -0.051290873 15855856
0.44236931 -0.024978571 -0.054656398 14539995
0.44436985 -0.014727808 -0.05433102 13948115
0.44697967 -0.0054039061 -0.052746978 14408667
0.44870377 0.0025585869 -0.052308459 13882579
0.45207146 0.008162749 -0.052482963 12895682
0.45671797 0.015179017 -0.052355826 12632510
0.45831257 0.023820098 -0.051118828 12040374
0.45900002 0.030235443 -0.050523505 11448235
0.39865395 -0.14256983 -0.044689305 14473434
0.40000001 -0.14548175 -0.040751774 13288901
0.39774501 -0.13527833 -0.044999678 16052978
0.40000004 -0.13138361 -0.049127411 16382710
0.39822921 -0.12673385 -0.042806569 16580089
0.40039718 -0.12364832 -0.046488777 16645882
0.40384549 -0.11505495 -0.044897165 16645882
0.40799102 -0.10535481 -0.044536728 16645882
0.41045457 -0.10189373 -0.048586991 16711675
0.40899995 -0.098748706 -0.04171221 16645882
0.41206044 -0.094764814 -0.045215379 16645882
0.41544962 -0.085246451 -0.04512997 16645883
0.41749203 -0.075475849 -0.043242849 16645883
0.42061126 -0.074011922 -0.047803078 16645885
0.41829169 -0.066245727 -0.041106384 16645629
0.4217163 -0.064676471 -0.046071943 16645629
0.42321002 -0.055180196 -0.044811454 16579579
0.42643416 -0.045750815 -0.044331413 16579579
0.43047625 -0.042136889 -0.04796081 16447995
0.42831245 -0.037836518 -0.041318256 16514043
0.43204758 -0.034328658 -0.045493197 16250873
0.43587354 -0.02497288 -0.044782825 15724528
0.44000003 -0.021488482 -0.049462166 15724529
0.43859175 -0.015634673 -0.042955887 15527149
0.44143477 -0.013601585 -0.047335163 15198184
0.43900001 -0.0083363811 -0.040357314 15461098
0.44308579 -0.0048173601 -0.04479463 15000805
0.44608423 0.0045036692 -0.044669282 14474460
0.45128569 0.0090514123 -0.048619244 14277081
0.44825 0.013264613 -0.041995745 14474460
0.4532223 0.015456111 -0.046278588 14277338
0.45488629 0.024860319 -0.044877771 14342874
0.45789996 0.033246867 -0.043465469 14540510
0.46186113 0.03616292 -0.046666685 13948116
0.45900002 0.040980715 -0.040852759 14606048
0.46402013 0.044691309 -0.04371544 14671839
0.46705884 0.054152727 -0.042150389 14935268
0.47000003 0.059017144 -0.043482222 14738402
0.46900001 0.060538478 -0.040644862 15791090
0.47164002 0.064329907 -0.042242955 14738146
0.47600007 0.071657069 -0.042182446 13355718
0.39670375 -0.14271896 -0.035233196 14210005
0.39524987 -0.13484938 -0.035118546 15987443
0.39671633 -0.12513112 -0.034953974 16579834
0.40000001 -0.12066696 -0.038878955 16580089
0.39881819 -0.11886732 -0.032611154 16580089
0.4015137 -0.11450144 -0.035409275 16645882
0.40515819 -0.10515734 -0.034850355 16645882
0.40767443 -0.095655337 -0.034112312 16645882
0.41076192 -0.092499472 -0.038300321 16645882
0.40858075 -0.086845614 -0.032046214 16645882
0.41193336 -0.084326908 -0.036296513 16645882
0.40900001 -0.076944359 -0.030657709 16645882
0.41303161 -0.075005651 -0.035346758 16580089
0.41571882 -0.065176263 -0.035102498 16645627
0.41707402 -0.055468842 -0.033861265 16514041
0.42039138 -0.052963406 -0.038400985 16579836
0.41796872 -0.047074098 -0.032034714 16514042
0.42201352 -0.044074535 -0.036124419 16448250
0.42589024 -0.035674334 -0.034629803 16316921
0.42999998 -0.031531084 -0.038271643 16316664
0.42837498 -0.028628986 -0.031922881 16185078
0.43196627 -0.024180047 -0.035317678 15921649
0.43507376 -0.0147563 -0.034924958 15461355
0.4370434 -0.0052251681 -0.034399394 15132134
0.44020003 -0.0025362379 -0.03856146 15197926
0.43800014 0.0039032237 -0.032614615 14474203
0.44164595 0.0055528083 -0.037179466 14474460
0.43900001 0.011190049 -0.031107955 14408667
0.44405961 0.015284541 -0.035313182 14277081
0.44667137 0.024482748 -0.034056731 14672096
0.4511818 0.028473103 -0.038046163 15000804
0.4489091 0.031768311 -0.031643167 15264489
0.45331892 0.035650179 -0.035602208 15000805
0.45684856 0.044651616 -0.034427777 15132391
0.46044451 0.046860255 -0.038705591 15133160
0.45894742 0.052568488 -0.031574447 15132391
0.46272412 0.055863865 -0.03547892 15264747
0.4662787 0.064396441 -0.034549311 15461869
0.47025004 0.067488976 -0.038918812 15461355
0.46856245 0.072069019 -0.032449517 15527148
0.47050011 0.073813319 -0.035083644 15066854
0.39394102 -0.14319831 -0.024635766 14670556
0.39253366 -0.13483922 -0.024740336 16185078
0.39445528 -0.12489744 -0.025018919 16580089
0.39763853 -0.11621518 -0.023932243 16580090
0.40006801 -0.11296046 -0.027114915 16645882
0.39900002 -0.10822243 -0.020567471 16711421
0.40154967 -0.10484277 -0.02515245 16580089
0.40409097 -0.095028244 -0.025095785 16645882
0.40591797 -0.085007794 -0.025209626 16514040
0.40734681 -0.075208806 -0.024988536 16514039
0.41042861 -0.071241356 -0.029392287 16645882
0.40830019 -0.065643929 -0.022402698 16448502
0.41145757 -0.064401127 -0.027449472 16580089
0.40885711 -0.056816835 -0.020665571 16580087
0.4121398 -0.054755043 -0.025319651 16448247
0.41469702 -0.044897839 -0.024703842 16382456
0.42000002 -0.040176284 -0.02951579 16185078
0.41744119 -0.037225917 -0.022958688 16250869
0.42180306 -0.033746023 -0.026310878 16250869
0.4256236 -0.025550172 -0.024737507 15987696
0.43000004 -0.022174515 -0.028876364 15724270
0.42711323 -0.015821341 -0.023247531 15329768
0.43078393 -0.014821465 -0.027795125 15395305
0.42793944 -0.0055674366 -0.021848468 14803424
0.43149188 -0.0051079495 -0.026702292 14737632
0.42833328 0.0021457782 -0.020408563 14342874
0.43281603 0.0050117755 -0.02543107 14540253
0.43611482 0.014523532 -0.024484403 14277595
0.44045457 0.017766068 -0.02889145 14408667
0.43860003 0.022047132 -0.021925179 14278367
0.44250777 0.025584834 -0.025524329 14803426
0.44708565 0.034183588 -0.024694016 15001063
0.45063639 0.038220499 -0.028217269 15066599
0.44900003 0.04008789 -0.021568175 15330541
0.45350602 0.044883098 -0.025106313 15132648
0.45801279 0.054684956 -0.024534384 15132648
0.46000001 0.059017804 -0.028737256 15921908
0.45900008 0.061468367 -0.022227621 15462127
0.46199998 0.065770485 -0.025474213 15593199
0.46688372 0.073334835 -0.024732653 15527662
0.47107694 0.078071564 -0.025725016 15922162
0.47558546 0.083931834 -0.023914818 15658992
0.39162338 -0.14315979 -0.014597242 15065828
0.38899997 -0.13369372 -0.011412438 16448249
0.39052567 -0.13542697 -0.016077597 16119028
0.38899997 -0.12811092 -0.010945437 16448249
0.39159471 -0.12464144 -0.015022308 16579833
0.39485395 -0.11502399 -0.014878101 16579833
0.3970809 -0.10540491 -0.014588863 16514040
0.40000007 -0.10178275 -0.019058339 16185078
0.39758211 -0.095749833 -0.012607875 16514040
0.40046412 -0.094203517 -0.017547749 16382711
0.39840007 -0.086840235 -0.01121098 16448246
0.40130937 -0.084739752 -0.016073788 16514295
0.40253636 -0.074905075 -0.015131049 16382452
0.40446723 -0.064967491 -0.014639707 16448245
0.40608317 -0.055002257 -0.014764098 16316916
0.40759441 -0.045747306 -0.01329839 16251124
0.41119507 -0.043603875 -0.01751145 16382710
0.40880004 -0.038721453 -0.010737043 16119795
0.41425732 -0.034795213 -0.015188014 16185074
0.42000002 -0.030344009 -0.019683514 16316660
0.41755813 -0.026140552 -0.012751707 15724523
0.42150012 -0.024103418 -0.017052764 15658730
0.41884628 -0.016607828 -0.011181965 15001058
0.42245969 -0.014960438 -0.015967106 15198179
0.4231979 -0.0054326146 -0.015200459 15000801
0.42592409 0.0042728847 -0.015032153 14343131
0.43000001 0.008595041 -0.018541548 14277596
0.42818746 0.011729809 -0.011861227 14343389
0.4321585 0.015496005 -0.015335282 14474462
0.43697464 0.024299344 -0.014279672 14737891
0.44046158 0.028142508 -0.017867448 15000806
0.44459575 0.034924347 -0.015073398 15066598
0.44872093 0.042848617 -0.014239657 15066597
0.45134991 0.04730057 -0.015607581 15263976
0.45497403 0.054944579 -0.014964656 15395562
0.4585081 0.063831493 -0.014469502 15527405
0.46026316 0.067861058 -0.017148037 15462126
0.46436366 0.074412644 -0.015079707 15856628
0.47000003 0.079152241 -0.018505899 14343646
0.46875 0.080533028 -0.01181814 14868962
0.47437295 0.085203327 -0.015420995 15790834
0.479 0.090984315 -0.013477799 13027014
0.387806 -0.14331527 -0.0039133136 15262949
0.39016664 -0.14566106 -0.0081367875 14538970
0.38733625 -0.13494228 -0.004536422 16382199
0.38823649 -0.12551026 -0.0039217961 16514041
0.39034995 -0.12186681 -0.0078317104 16514296
0.38881084 -0.11576497 -0.0011495959 16382455
0.39150563 -0.11467166 -0.0060363286 16579832
0.389 -0.10596542 -1.7563922e-05 16514039
0.3922106 -0.10496151 -0.004948447 16316660
0.3930952 -0.09494359 -0.0046228468 16382453
0.3949244 -0.085086547 -0.0046609947 16382452
0.39619237 -0.075255111 -0.0040518222 16251122
0.40000007 -0.07328476 -0.0090075685 16251124
0.39676663 -0.065279804 -0.0033889813 16316659
0.40043336 -0.064143866 -0.0084244413 16514038
0.39821061 -0.055214275 -0.0017615457 16119538
0.40110663 -0.054681078 -0.0064959894 16185330
0.39900002 -0.049064908 -0.00032937081 16185074
0.40312931 -0.045037311 -0.0048127687 16185331
0.40653011 -0.035742547 -0.0041200523 16053488
0.41133341 -0.032283954 -0.0080448082 15856623
0.40844443 -0.026461923 -0.001117073 15592937
0.41336963 -0.024559593 -0.0060144197 15461351
0.40900001 -0.01997452 -1.8466952e-05 15330022
0.41474542 -0.014910912 -0.0048904284 15001058
0.41621339 -0.0057092309 -0.004014648 14803425
0.42052388 -0.0031908168 -0.0087387227 14737632
0.41711113 0.00056897884 -0.0017582095 14408923
0.42285243 0.0051382892 -0.0057840352 14540509
0.426238 0.013817136 -0.0040866802 14409438
0.43041179 0.018158508 -0.0071923123 14277596
0.42880002 0.020617187 -0.00082279835 14475232
0.43383163 0.025254106 -0.0047948714 14738147
0.4385218 0.031877805 -0.0034589593 15066855
0.44240913 0.036524203 -0.0051241391 15067111
0.44716451 0.044807695 -0.0044772513 15198184
0.45022222 0.049097564 -0.0079842117 15198184
0.44900003 0.051299807 -0.00072101777 15395307
0.45261893 0.055503238 -0.00508272 15395562
0.45558903 0.065213159 -0.0048275921 15527148
0.45834374 0.072610065 -0.0033090939 15855857
0.46257445 0.076787718 -0.0058528092 15855858
0.46742108 0.08152926 -0.0047489749 16316665
0.47237501 0.086221285 -0.0043897848 15395560
0.47633335 0.090477787 -0.0067129168 11908528
0.38476035 -0.14408694 0.0055159889 15131621
0.38409063 -0.13491245 0.0053704786 16316151
0.38517806 -0.12504111 0.0053452468 16447733
0.38603261 -0.11500651 0.0053588152 16250868
0.38654384 -0.10499889 0.005371775 16185074
0.38737842 -0.095222034 0.0060688998 16250867
0.39024997 -0.093000598 0.0014096691 16382451
0.3879582 -0.085270658 0.0074584889 16053746
0.39105886 -0.084491357 0.0026365062 16316659
0.38856098 -0.075616017 0.0087004639 16119536
0.39171255 -0.074847929 0.0037946601 16119279
0.38894734 -0.06677378 0.0094710765 15987691
0.39229116 -0.06489671 0.0047531449 16185330
0.3941772 -0.05508573 0.004961567 16185331
0.39632276 -0.045493264 0.0056180819 16053745
0.40026671 -0.042160835 0.0017306675 16053745
0.39807698 -0.036607124 0.0080811372 15790573
0.40163741 -0.034300514 0.0040305387 15790573
0.40444762 -0.025199987 0.0052890056 15330022
0.40631393 -0.01535516 0.0053608799 14935265
0.41016671 -0.012029119 0.0011016575 14935267
0.40785429 -0.0065885601 0.0070200991 15000804
0.41163465 -0.0037932715 0.0036096307 14737888
0.41505051 0.0045626797 0.0056670718 14343388
0.42054549 0.0090865735 0.002217748 14474974
0.41812503 0.011515127 0.0086674681 14540510
0.42297593 0.015379689 0.0051538185 14474973
0.42688471 0.022588508 0.0062805386 14803683
0.43138644 0.027180724 0.0041539189 15000805
0.43638015 0.034451541 0.0055136057 15198184
0.4402 0.038271919 0.0020406884 15000804
0.4387778 0.041001476 0.0080829719 15395564
0.44331896 0.045169249 0.0046374216 15132390
0.44728789 0.054027464 0.0059387595 15395305
0.45081249 0.057729952 0.0024846806 15329769
0.44891667 0.061712041 0.0082993181 15658734
0.45248529 0.065280914 0.0046638795 15658478
0.45614293 0.073935635 0.0056510963 15790578
0.46033335 0.078457721 0.0032106005 15658734
0.46400002 0.081617728 0.0064964439 16184821
0.47100002 0.086156882 0.003286592 16578809
0.38145667 -0.14404616 0.015528549 15197413
0.38125411 -0.13501559 0.015188003 16250358
0.38190556 -0.12495508 0.01513933 16316404
0.38195813 -0.11498425 0.015214786 16118768
0.38196024 -0.10501838 0.015141752 15921645
0.38300771 -0.094914265 0.015215126 15987695
0.38385701 -0.084698617 0.01510649 16053488
0.38492605 -0.075011767 0.015283645 16053489
0.38622579 -0.06510061 0.01542992 15987694
0.39000002 -0.060587972 0.010025358 15987693
0.38736174 -0.055556007 0.016432691 15987695
0.39090484 -0.054102443 0.011441521 15987951
0.38809621 -0.046260264 0.017993279 15921902
0.39213085 -0.044293616 0.013254889 15856366
0.38900003 -0.039942861 0.019106213 15724780
0.39424777 -0.034937989 0.014735569 15593194
0.39637765 -0.025366126 0.016026294 15132642
0.40048379 -0.023881871 0.01144309 15132386
0.39750993 -0.015487986 0.01767863 14737886
0.40135714 -0.014364339 0.012943161 14869472
0.39900002 -0.0089000622 0.01928602 15329769
0.40384912 -0.0049525304 0.015007014 14671839
0.40771434 0.0021567123 0.016588606 14540510
0.41205642 0.0065243538 0.014094074 14474461
0.41610909 0.013851617 0.016486622 14474717
0.42118937 0.017939622 0.013675937 14540768
0.42405316 0.025153328 0.015473337 14869476
0.42999998 0.028996235 0.010382508 15000806
0.42727584 0.032424595 0.017292216 14869476
0.43238568 0.035949238 0.013754391 15001061
0.43649271 0.044424843 0.015519732 15066597
0.44095001 0.047887541 0.011849639 15132390
0.43860006 0.053022154 0.01846136 15132904
0.44277477 0.055593699 0.014044117 15395562
0.44628569 0.064532667 0.015614082 15592942
0.45063639 0.06833493 0.011775192 15527405
0.44855559 0.072368056 0.018529974 15790320
0.45246342 0.074036971 0.013280381 15856110
0.38249999 -0.15096135 0.025953876 13420745
0.37900001 -0.14006206 0.029261999 16645372
0.38147286 -0.14507854 0.024906861 14802656
0.37899983 -0.1337373 0.026334085 16118513
0.38024005 -0.13667631 0.022698989 15986929
0.3785263 -0.12501889 0.025902294 15921646
0.38000008 -0.12481445 0.021135243 16250099
0.37843189 -0.11504683 0.026115172 15790317
0.38025719 -0.11529577 0.021321343 15987439
0.37834635 -0.10508476 0.025622495 15395814
0.38000008 -0.10504155 0.020946151 15790061
0.37832233 -0.095292062 0.026265375 15527143
0.38045943 -0.094454318 0.02164679 15921389
0.37832272 -0.085314251 0.027293842 15724523
0.38072729 -0.084764123 0.022519933 15856110
0.37893105 -0.075890601 0.028461216 15724523
0.38099995 -0.074770011 0.023903148 15724525
0.37900001 -0.06930422 0.029040188 15790315
0.38160342 -0.064932518 0.024848625 15856108
0.38265073 -0.055041403 0.025020091 15724779
0.38420469 -0.04493802 0.025068861 15724779
0.38654301 -0.035466786 0.025456818 15461607
0.39064997 -0.03265743 0.02087817 15527401
0.38797024 -0.025871543 0.027524389 14935264
0.3918677 -0.024152895 0.022629078 15001059
0.38875002 -0.01898527 0.029104125 14935262
0.39358604 -0.014687584 0.024640694 14803681
0.39642343 -0.0059139254 0.026079522 14606302
0.40039283 -0.0026811154 0.022476764 14474973
0.39875004 0.00036267919 0.029152837 14671839
0.4047738 0.004681746 0.025032038 14408923
0.41088891 0.0091116792 0.021463148 14540509
0.40850002 0.012995983 0.028622275 14211289
0.41340744 0.015328881 0.023881102 14606046
0.41615805 0.024045466 0.026288183 14606047
0.42114818 0.027051363 0.022253688 15066597
0.41800007 0.031841211 0.028651576 14737633
0.42417443 0.035417192 0.024850493 14869732
0.42999998 0.039062612 0.020448886 15000806
0.42692503 0.043116223 0.027286416 14935525
0.43178949 0.045969483 0.023119619 14935269
0.43495598 0.054976437 0.024875555 15198698
0.44000003 0.059885304 0.020581093 15461357
0.43791109 0.063362867 0.026972212 15527919
0.44168887 0.066667415 0.023412917 15527149
0.43900001 0.070026264 0.029783679 15066340
0.44331577 0.073373303 0.025693806 15592941
0.38300002 -0.15061846 0.033269349 12566206
0.37865517 -0.14143279 0.035714105 15065828
0.38115996 -0.14624132 0.034436818 14078932
0.3780534 -0.13521932 0.035009045 15724270
0.37799942 -0.1250916 0.034936696 15592682
0.37799954 -0.11491521 0.034936648 15263974
0.3779541 -0.10516881 0.034932844 14869214
0.3771351 -0.095190719 0.034819148 14935008
0.37670559 -0.085068695 0.034806091 15395558
0.37708783 -0.075087011 0.034982275 15395558
0.3776567 -0.065121941 0.035010897 15592937
0.38000003 -0.062592782 0.030228795 15527142
0.37788787 -0.055294931 0.036091801 15395815
0.38044834 -0.053712353 0.031308308 15527144
0.37812775 -0.045812521 0.037761837 15395557
0.3809053 -0.044581287 0.032937355 15461350
0.37841186 -0.035537422 0.038247813 14935007
0.38165122 -0.034480024 0.033439875 15198435
0.37871429 -0.028373538 0.039625365 15001057
0.38335285 -0.024930794 0.034895178 14869470
0.38587493 -0.015677948 0.034946255 14803425
0.39028573 -0.011750901 0.030655066 14935011
0.38800007 -0.0064323996 0.037612084 14671839
0.39247942 -0.0045476574 0.033140939 14540253
0.39616439 0.0042489651 0.036320731 14277081
0.40155554 0.0067773149 0.032482021 14277081
0.39753848 0.012802051 0.038601737 14079702
0.40366319 0.015559412 0.034271251 14145753
0.40600008 0.024610519 0.036445163 14343389
0.41185713 0.026307127 0.031933289 14606048
0.40792307 0.031572722 0.038471341 14474975
0.41443044 0.034967341 0.034173742 14606304
0.42085716 0.038561124 0.031085771 14935013
0.41627029 0.043385275 0.03763907 14803169
0.42292067 0.045825247 0.033430267 14869476
0.4252134 0.054174017 0.035963524 15198440
0.43084621 0.057011895 0.031982891 15395819
0.42825001 0.061294593 0.03870286 15461355
0.43325001 0.065152563 0.034681365 15592941
0.43578559 0.07284528 0.035325233 15790318
0.44000003 0.075851053 0.030881573 15855856
0.37843665 -0.1433617 0.045788102 14737119
0.38036004 -0.14672744 0.041761007 13749967
0.37741303 -0.13505907 0.045041617 15592684
0.37783036 -0.12506145 0.045050662 15658477
0.3784298 -0.11504304 0.045165323 15395305
0.3784214 -0.10530135 0.045164328 14869216
0.37716502 -0.095242091 0.045012716 14408408
0.37488005 -0.08497344 0.044983201 14606043
0.37423727 -0.075106859 0.045010742 15000544
0.37425551 -0.065047219 0.045182806 15198437
0.37456322 -0.055002823 0.045045208 15198436
0.37466681 -0.044945072 0.04522894 15132642
0.37533081 -0.035098847 0.045226116 14869471
0.3764129 -0.025154777 0.045423247 14671836
0.38027278 -0.022536175 0.04036646 14737887
0.37793261 -0.015740953 0.046727795 14606303
0.38115522 -0.013980808 0.042379476 14803425
0.37874997 -0.0086327232 0.049081359 14540253
0.38386169 -0.0050622704 0.044936445 14408667
0.38697106 0.0040013595 0.046396405 14079703
0.39169568 0.0063895583 0.042478405 14145495
0.3885625 0.012009016 0.048988007 14079701
0.3933011 0.014969701 0.044680286 14145495
0.40000001 0.019325916 0.040247448 13948118
0.39592937 0.024321344 0.046416186 14475232
0.40136844 0.024765654 0.041272748 14474461
0.39862502 0.031157559 0.048390444 14606818
0.40408149 0.034937646 0.045076564 14803683
0.41080004 0.038794041 0.040756833 14737632
0.40796879 0.04266493 0.047673605 14869219
0.41273683 0.0458453 0.043935906 15000805
0.41633335 0.053907294 0.046284344 15395562
0.42165726 0.056997839 0.042621069 15263977
0.41900003 0.060950689 0.049025409 15724270
0.42474988 0.064914726 0.045252867 15593197
0.43000004 0.068143256 0.040805336 15658734
0.42677084 0.073945858 0.047369331 15527401
0.43055892 0.07425376 0.042371582 15790063
0.42700002 0.080107488 0.049961455 11645355
0.37849998 -0.14404988 0.055055343 14144724
0.37740281 -0.13497514 0.055088349 15526892
0.37740812 -0.12495479 0.055133954 15724270
0.37803298 -0.11490296 0.054873586 15658476
0.37792215 -0.10510541 0.055163663 15131875
0.37677246 -0.095142618 0.055107664 14606042
0.37446839 -0.085020229 0.0550014 14605786
0.37287119 -0.074867971 0.055098519 14671579
0.37186602 -0.065092482 0.055192597 14935007
0.37157035 -0.055047862 0.055275619 14935006
0.37147376 -0.045061134 0.05516395 14869215
0.37144807 -0.035062894 0.055227917 14606043
0.37220278 -0.024923937 0.055119991 14540508
0.37370643 -0.015032819 0.055312712 14474974
0.37608621 -0.0055595469 0.055491839 14145752
0.38081253 -0.0021597254 0.051409408 14013909
0.37790006 0.002734517 0.058014601 13882837
0.38196138 0.0055679632 0.053995505 14013909
0.38489217 0.014852958 0.055067603 14145753
0.39000002 0.018994935 0.050501559 14737632
0.38779634 0.02309343 0.056987341 14671840
0.39208001 0.026224392 0.05338354 14737889
0.39519572 0.034184001 0.05568083 14803683
0.40121743 0.038111147 0.052046023 14803427
0.39811113 0.04093004 0.058592532 14738661
0.40446165 0.045233466 0.054848567 14935268
0.41050002 0.049143352 0.050432742 15329769
0.40755332 0.053483322 0.057385243 15329513
0.41269842 0.055989817 0.053296279 15329770
0.40900001 0.060453493 0.059345067 16119287
0.41536948 0.064546712 0.055721007 15461355
0.42068425 0.067053407 0.051346507 15526891
0.41720593 0.074049689 0.058235954 15526892
0.42244619 0.075103909 0.053544495 15132388
0.42500001 0.080727212 0.053707175 11579564
0.37776092 -0.14346917 0.064844459 14013396
0.37695143 -0.1349809 0.065154016 15461098
0.37692726 -0.12505566 0.065157868 15592685
0.3773025 -0.11507667 0.064962871 15592426
0.37703213 -0.10496911 0.065169714 15066081
0.3757354 -0.09488076 0.065073147 14474201
0.37368315 -0.08481577 0.064872198 14408664
0.37161204 -0.074971631 0.065013327 14474457
0.36899999 -0.062529124 0.069007918 14934750
0.37059802 -0.065256633 0.064554259 14869215
0.36881033 -0.054899704 0.068041489 14803167
0.37046278 -0.055168621 0.063172199 14869214
0.36849463 -0.044757292 0.066795878 14671581
0.37006968 -0.045615342 0.062017031 14606043
0.36877343 -0.03474468 0.066497497 14145750
0.37002623 -0.035236467 0.06164572 14408667
0.36899987 -0.025566572 0.066946201 13816530
0.37020415 -0.023933372 0.062452361 14211545
0.3690002 -0.01518539 0.068714596 14079445
0.37062019 -0.014888874 0.063751347 14277081
0.36899999 -0.0083748577 0.06966608 13487308
0.37181523 -0.0050369687 0.064748652 13882324
0.37467596 0.0049693706 0.065041669 13817301
0.38000003 0.0099085448 0.060474746 14343644
0.37719542 0.014537849 0.066517927 13948631
0.38108325 0.016612062 0.062187444 14212060
0.37833336 0.021600612 0.068991832 14474974
0.3838166 0.025337148 0.064857252 14541023
0.39000002 0.029342232 0.06024019 15066597
0.38785186 0.033437368 0.067134432 14672353
0.39189187 0.036222208 0.063328445 14672353
0.38900003 0.040194869 0.069192298 14803425
0.39470446 0.044361174 0.065940745 14804196
0.40084612 0.047519524 0.062057421 15066598
0.39785716 0.051689293 0.068637237 15133160
0.40320018 0.055348173 0.064449772 15263977
0.40596992 0.064443201 0.065833591 15395819
0.41145 0.067415781 0.061576884 15461357
0.40826088 0.072687112 0.068212166 15395819
0.41310236 0.075546756 0.064061731 15527148
0.41360003 0.080497146 0.066101037 13421000
0.37763035 -0.14298327 0.075444236 14079702
0.3768428 -0.13485681 0.074969955 15197926
0.37622285 -0.12494205 0.074847534 15460842
0.37694681 -0.1150359 0.074990757 15526377
0.37687588 -0.10486958 0.074975334 14868702
0.37501544 -0.09463878 0.074968122 14539994
0.37256792 -0.08492332 0.074987151 14342873
0.37087458 -0.074984118 0.075083196 14408408
0.36843267 -0.063816898 0.075410314 14605529
0.36999992 -0.068458751 0.073118709 14342358
0.36759117 -0.054955687 0.075277053 14737118
0.36765692 -0.045264192 0.075150639 14474461
0.36857557 -0.034823012 0.075050361 9540758
0.36847925 -0.024898237 0.075028554 9606293
0.36780998 -0.014889061 0.075255841 13224395
0.36832029 -0.0055969595 0.075624608 13355979
0.3702608 -0.0027814012 0.071850687 13750993
0.36895236 0.002176262 0.078458726 13421773
0.37102377 0.0054875184 0.07436911 13487823
0.37262961 0.014955008 0.074991137 13948630
0.37590823 0.024483198 0.075528473 14540511
0.38082355 0.028023744 0.071512885 14475230
0.37815392 0.032095484 0.077987082 14540253
0.38343814 0.035803646 0.074266769 14737889
0.38680461 0.043822542 0.076283954 15000804
0.39151171 0.047044311 0.07276985 15132390
0.38859999 0.051070414 0.079036295 15198184
0.39447409 0.055180185 0.0750442 15329769
0.40000001 0.058030739 0.070524611 15527148
0.39633331 0.064395331 0.077137679 15132647
0.40118524 0.065632328 0.072469346 15527149
0.39774087 0.073377036 0.078814521 15198181
0.40384007 0.07538449 0.074404612 15263976
0.41050005 0.079174511 0.070373535 15855600
0.40452385 0.081613839 0.076401584 11314602
0.41200003 0.081151403 0.070389859 13618124
0.37800002 -0.14388873 0.084990904 13881810
0.37708855 -0.13485883 0.08485651 15197926
0.37678668 -0.12516548 0.084705487 15460584
0.37699983 -0.11505246 0.084709086 15329254
0.37657458 -0.10468337 0.084862091 14802911
0.37490249 -0.094734445 0.085030362 14408152
0.37240878 -0.084945209 0.085109264 14210773
0.36899999 -0.070793539 0.086288378 14276567
0.37067845 -0.075726733 0.084954582 14079445
0.36790147 -0.064971633 0.084883407 14210774
0.36670506 -0.054809552 0.085012063 14539740
0.36747119 -0.044928897 0.084923588 13553359
0.36719751 -0.034981921 0.084904693 2830896
0.36681607 -0.025206177 0.084986784 2896176
0.36703765 -0.014982387 0.084970891 12171961
0.36718205 -0.0050051436 0.084727995 12961477
0.3679021 0.0048250272 0.084793575 13356236
0.36839172 0.014335993 0.086044334 13750993
0.37041664 0.016982468 0.082482368 13948887
0.36888236 0.022928163 0.089082226 13948116
0.37183946 0.025236201 0.084471449 14343388
0.37444296 0.035071868 0.085101575 14606045
0.38033333 0.039002825 0.08041241 14935008
0.37656829 0.044313285 0.086957067 14671839
0.38223332 0.04606298 0.082359441 14935009
0.37833339 0.053944506 0.08860942 15000545
0.38417706 0.055231553 0.084185027 14868961
0.39020002 0.057675637 0.080367319 15132133
0.37900004 0.061342727 0.089594714 15066593
0.3850188 0.064680763 0.086076342 15000804
0.39168423 0.06583593 0.081369907 14934497
0.38649997 0.073775031 0.087740675 15197927
0.39332101 0.075517975 0.08320415 15066596
0.38850003 0.080615312 0.088656709 15592684
0.39463642 0.081005961 0.084210522 14868705
0.40000001 0.083469801 0.080512956 3681075
0.37832952 -0.14348385 0.094812684 14276567
0.38005272 -0.14808404 0.096212119 12829380
0.37660137 -0.1348877 0.094831966 15263974
0.37633318 -0.12498614 0.094760023 15526634
0.37663299 -0.11511461 0.094651915 15591913
0.37601587 -0.10516674 0.094885625 15197154
0.37441367 -0.095091715 0.095071636 14737117
0.37172005 -0.084956042 0.095182508 14408153
0.36871442 -0.071597993 0.095867574 14145238
0.37057739 -0.076582506 0.094695851 14210774
0.36742279 -0.064891689 0.094979934 14013909
0.36638379 -0.05486495 0.094845504 14474204
0.36691761 -0.044944659 0.094935954 12039862
0.36465156 -0.034962177 0.095036209 2699310
0.3644796 -0.024990929 0.095040075 2699055
0.36674687 -0.014963677 0.094928652 11382702
0.36614099 -0.0050942069 0.094895221 12566976
0.36640295 0.0049364371 0.094948351 12830405
0.36656108 0.015050287 0.094952248 13290699
0.36741236 0.025030766 0.095058605 14013908
0.37 0.028920224 0.090282209 14013909
0.3680307 0.034548517 0.096730955 14079702
0.37054726 0.035670508 0.092046916 14408410
0.36860722 0.042526361 0.098354794 14276824
0.37147471 0.045541804 0.094145514 14803169
0.37380379 0.054974869 0.094896562 15066339
0.37588564 0.064748928 0.095400192 15132134
0.38081253 0.067654707 0.090802446 15000548
0.37758467 0.073885947 0.097184561 15198184
0.38170004 0.075810373 0.093086466 14869219
0.37866667 0.081086762 0.099561997 15527662
0.38177779 0.081255928 0.09640304 15461613
0.37787792 -0.14398453 0.10503428 13882066
0.38025007 -0.14886975 0.10157336 11908534
0.37528455 -0.13486446 0.10501326 14934497
0.37444726 -0.12497158 0.10464535 15526889
0.37459719 -0.11502153 0.10488341 15460842
0.37409648 -0.10491616 0.10483582 15000289
0.37234113 -0.094894446 0.10501113 14671836
0.37091023 -0.085007869 0.10524005 14671579
0.36860749 -0.073416203 0.1057395 14276823
0.37017658 -0.077822946 0.10404135 14408664
0.36759141 -0.064744651 0.10515815 14211288
0.36698514 -0.054864585 0.10522544 14342874
0.36686692 -0.044995863 0.1049596 11250347
0.36212841 -0.034574322 0.10499091 2436395
0.36201954 -0.024964267 0.10498438 2567469
0.36616462 -0.014755554 0.10500874 10856359
0.36558622 -0.0049502319 0.10497195 11975097
0.36525944 0.004711831 0.10489764 12369598
0.36563602 0.015192614 0.10497275 13027270
0.36618197 0.024979286 0.10499322 13487564
0.36683369 0.03490084 0.10518063 13816531
0.36785725 0.044863127 0.10519674 14277082
0.37 0.049058832 0.10045978 14671582
0.36885092 0.054189686 0.10646722 14803168
0.37034038 0.056381874 0.10234022 14671583
0.36899999 0.061163913 0.10911458 15000547
0.37136006 0.065115005 0.10487518 15198183
0.37387797 0.074931346 0.10493188 15066856
0.37665465 0.082431734 0.10515891 15330285
0.38100001 0.087532341 0.10924396 14738405
0.384 0.090019472 0.10920519 15001579
0.37755373 -0.14312755 0.11485349 13026502
0.3746309 -0.13495779 0.11507328 14539995
0.37351161 -0.12495877 0.11499864 15329254
0.37283373 -0.11492725 0.11485122 15197924
0.37163037 -0.10516386 0.11499978 14737372
0.37097034 -0.095219404 0.11499245 14605787
0.36900005 -0.082466133 0.1151714 14277080
0.37005582 -0.087064564 0.11488887 14474203
0.3685545 -0.07494574 0.11466388 14277080
0.37 -0.07523752 0.11951567 15132643
0.36768666 -0.064870864 0.11489655 14013651
0.36738861 -0.054924116 0.1152347 13816015
0.36761424 -0.045178957 0.1147618 10329501
0.35878265 -0.032458134 0.11895911 1449757
0.36125663 -0.03482537 0.11442839 2238759
0.35865384 -0.026266919 0.1190469 2041382
0.36086783 -0.024734637 0.11453143 2107174
0.3666513 -0.01479887 0.11497615 10527394
0.36651263 -0.0050317533 0.11495951 11579568
0.36583358 0.0048284875 0.11474842 12040633
0.36625785 0.015125289 0.1148795 12566978
0.36671913 0.025014719 0.11502438 13027015
0.36690187 0.034906089 0.1150801 13421772
0.36713213 0.045091983 0.11513025 14013909
0.36773393 0.0549559 0.11479871 14605532
0.36838454 0.064592823 0.11585119 15000546
0.37009519 0.067616902 0.11162465 14803684
0.36849061 0.073915578 0.11793595 15197926
0.37076932 0.075445831 0.11337074 15001063
0.37514538 0.084394783 0.11545975 15329769
0.38025004 0.089140087 0.113701 15132390
0.37885714 0.091474928 0.11920893 15593709
0.38103029 0.092539489 0.11639835 13618894
0.37579036 -0.14242393 0.12467045 12829123
0.37391317 -0.13528557 0.12508596 14539996
0.37243742 -0.1249686 0.12477802 15066341
0.37188751 -0.11496747 0.12491461 14803426
0.37149137 -0.10480005 0.12503465 14408667
0.37145466 -0.094944194 0.12488264 14145239
0.37100795 -0.084997706 0.12505652 13553359
0.36900002 -0.070714995 0.1200565 13882319
0.37079144 -0.075188957 0.12488308 13224649
0.36880568 -0.063819915 0.12174422 13421771
0.37064585 -0.065549679 0.12643707 13290186
0.36864814 -0.055448771 0.12254839 13355979
0.37055585 -0.0545309 0.12732495 12960963
0.36802447 -0.04410005 0.12286229 9474450
0.37065235 -0.0463841 0.12583993 10461088
0.35770094 -0.033630755 0.12505011 2107686
0.36104548 -0.038264897 0.12438094 2567978
0.35797504 -0.025698116 0.12499639 2238760
0.36054552 -0.020753603 0.12497782 1976102
0.36693802 -0.014785917 0.12481652 9803671
0.36734733 -0.0050424328 0.1246806 11185580
0.36738655 0.0048495275 0.12469459 12106426
0.36735627 0.015169276 0.12468441 12764099
0.36747947 0.02506664 0.12472653 13093065
0.36718214 0.034931596 0.12462425 13355981
0.36719254 0.045175638 0.12456835 14145752
0.36703107 0.055122174 0.12490852 14671581
0.36713919 0.065010041 0.12503597 14737374
0.3666988 0.074953929 0.12492143 14408666
0.36745355 0.082951948 0.12501262 14737374
0.3721351 0.087827332 0.12421844 15263974
0.37682357 0.094479345 0.1253574 10986403
0.38000003 0.095842637 0.12078874 6181972
0.37512502 -0.14152069 0.13412525 12829124
0.37379301 -0.13512248 0.13458407 14408412
0.37281778 -0.12510565 0.13479197 15066342
0.37347168 -0.11490815 0.13500503 14803684
0.37351683 -0.1050427 0.13470323 14408926
0.37340853 -0.094964311 0.1348609 14277853
0.37342396 -0.085090928 0.1344993 14014680
0.37405515 -0.075268552 0.135194 13684944
0.37271565 -0.065274075 0.13475172 13421517
0.37182656 -0.054871015 0.1345848 12369085
0.36774999 -0.041543979 0.13530317 8290175
0.37111375 -0.046410467 0.13506033 10724258
0.36435798 -0.034851585 0.13544041 1449756
0.35900003 -0.02509648 0.13024974 2304810
0.36449343 -0.025074843 0.13532621 1383963
0.36765745 -0.015989294 0.13390711 9343634
0.37044907 -0.012675535 0.13684757 9804185
0.36851898 -0.0044568749 0.13308287 11119532
0.37007135 -0.0062132492 0.13793848 10462372
0.36835968 0.0050017731 0.13478374 12040633
0.37 0.00055293832 0.13943774 11185582
0.3684583 0.015213747 0.1349784 12961479
0.36851504 0.025136907 0.13499889 13224651
0.36800003 0.035009742 0.13480726 13356237
0.36800003 0.044916924 0.13480727 14079703
0.36756951 0.054646987 0.1348906 14408667
0.36695558 0.065040626 0.13493049 14474460
0.36600024 0.074989401 0.13501358 14343130
0.36745885 0.083494358 0.13492471 14605790
0.37051514 0.088620007 0.13453123 14211033
0.37262192 0.093547381 0.13465406 11644850
0.37300003 -0.13129574 0.14056832 14803427
0.37300006 -0.12492138 0.14083026 14672355
0.37399983 -0.11443645 0.14119869 13750997
0.37400004 -0.10560039 0.14055119 14080731
0.37400004 -0.095451035 0.14043827 14212317
0.37500003 -0.081082597 0.14044414 14343644
0.37500003 -0.076912664 0.14055389 13685457
0.37400004 -0.063196369 0.14090537 13290701
0.37354907 -0.054837789 0.14197479 11711155
0.36604005 -0.041254237 0.1436066 6447970
0.37194121 -0.047261048 0.14219344 10460830
0.36532027 -0.034938 0.14534947 857359
0.36603951 -0.025061285 0.14610176 922384
0.37 -0.025672965 0.14434606 791310
0.36700001 -0.018112971 0.14339782 6446943
0.37087491 -0.01261286 0.14175728 9935257
0.3702819 -0.0048883208 0.14280364 10461859
0.36899999 0.0073181563 0.14184436 11777462
0.37000039 0.0047593717 0.14483391 10987944
0.36900017 0.015465311 0.14221135 12764357
0.37000027 0.014932719 0.1455763 11580341
0.36897486 0.02564387 0.14376989 12436163
0.36999995 0.021500733 0.14591123 11449012
0.36800003 0.034122907 0.1431182 12961994
0.36798635 0.04495047 0.14290342 14079960
0.36713764 0.054726206 0.14254883 14277852
0.36631909 0.064770974 0.14282985 14079960
0.3660723 0.074551418 0.14266518 13816533
0.36600003 0.081713475 0.14155529 13355982
0.359 -0.040504277 0.15476215 1843738
0.36055562 -0.040961053 0.15435381 1646874
0.35861537 -0.033482675 0.15734516 1054482
0.36053008 -0.035423137 0.15356497 1055508
0.35872734 -0.026469361 0.1577104 988944
0.36032382 -0.024355482 0.15373448 1186323
0.36000007 -0.018845636 0.15318666 2104601
0.34627783 -0.04127495 0.16836898 2107423
0.3567 -0.04096745 0.16631123 659470
0.36071429 -0.041019525 0.16199318 988176
0.34727699 -0.034993026 0.16823009 1449494
0.35547984 -0.034636497 0.16464469 1251861
0.36014292 -0.038365331 0.16137736 1251603
0.34798443 -0.025100231 0.16850904 1449238
0.35553277 -0.025571205 0.16450387 1252116
0.36000001 -0.021795318 0.16010937 726027
0.34875 -0.0192771 0.16918893 1514262
0.35320002 -0.019729933 0.16715568 791059
0.33773682 -0.041088082 0.17821012 2040862
0.34225005 -0.041674063 0.17346618 2106911
0.33820844 -0.035630289 0.17725104 1909532
0.34257305 -0.034982607 0.17298639 1909789
0.33882767 -0.024945274 0.17711452 1777691
0.34220934 -0.025254762 0.17300011 1975069
0.33800003 -0.019672118 0.1772279 2040606
0.34176472 -0.019373039 0.17387772 1975072
0.33435136 -0.04131208 0.18402635 1778460
0.33371502 -0.035391856 0.1849958 1778203
0.33389226 -0.026180821 0.18559447 1843741
0.77300006 -0.15357158 0.29728374 13158854
0.76499999 -0.14489999 0.29562348 13422025
0.76381242 -0.1360939 0.29656795 13290439
0.76300007 -0.12478943 0.29826039 13290439
0.76130772 -0.11436623 0.29828459 13553612
0.76150006 -0.10604464 0.29856595 13817300
0.78642863 -0.16254769 0.30610442 8815749
0.79166675 -0.16746931 0.30761343 8815747
0.77542865 -0.15392242 0.30467471 12763840
0.78125 -0.15840591 0.30631033 8816005
0.76714283 -0.14393881 0.30244592 13290182
0.77241677 -0.14561181 0.30676648 13816783
0.76661545 -0.13490207 0.30257401 12697788
0.77200007 -0.13569675 0.30820596 13685197
0.76600003 -0.1249425 0.30324706 12961217
0.77059996 -0.12603194 0.30844721 13685197
0.76441181 -0.11491436 0.30407846 13027011
0.76435012 -0.10487583 0.30505583 12961732
0.76449996 -0.098364227 0.30475572 13159110
0.78844452 -0.16176204 0.31435978 9013640
0.79146671 -0.16625477 0.3159335 9079686
0.778 -0.15182871 0.31140924 13619666
0.78492302 -0.1555133 0.31573728 9342606
0.77671432 -0.14599347 0.31219417 13553358
0.78216672 -0.14409654 0.31704542 9144971
0.77590001 -0.13434526 0.31311288 13750991
0.78250003 -0.13591576 0.31840166 10000279
0.7755 -0.12475599 0.31391391 13487564
0.78000003 -0.12939292 0.31768772 11053224
0.77394134 -0.11506661 0.31351882 13685198
0.78100002 -0.11218962 0.31992337 8816005
0.77200001 -0.10683395 0.31262508 13882575
0.77120006 -0.096879505 0.31302205 13948368
0.78857148 -0.15402301 0.32170656 9539983
0.79221439 -0.15552627 0.32677153 9803408
0.78755558 -0.14560148 0.3217907 9211019
0.79190916 -0.14485255 0.32709023 9540237
0.78754544 -0.13483717 0.32344377 9211020
0.79100001 -0.13492401 0.32772321 9474444
0.78671426 -0.12471892 0.32397822 9079433
0.79133338 -0.12478876 0.32940558 9277578
0.78659999 -0.11538573 0.32443133 9210504
0.79079998 -0.11452349 0.32949162 9277834
0.78690004 -0.10474795 0.32510561 9079430
0.7902 -0.1051877 0.32924163 9277834
0.7865001 -0.098250598 0.3249405 9211016
0.79102802 0.15488257 0.43421081 10132888
0.79083341 0.16502629 0.43410423 10132887
