# .PCD v0.7 - Point Cloud Data file format
VERSION 0.7
FIELDS x y z rgb
SIZE 4 4 4 4
TYPE F F F U
COUNT 1 1 1 1
WIDTH 904
HEIGHT 1
VIEWPOINT 0 0 0 1 0 0 0
POINTS 904
DATA ascii
0.407913 -0.14281492 -0.061301891 14539741
0.4106667 -0.14175002 -0.065233074 14737632
0.40791386 -0.134746 -0.062831752 15527150
0.41033337 -0.13851386 -0.066140197 15132134
0.40834102 -0.12717856 -0.062719271 15987442
0.4106001 -0.12213338 -0.063107416 15724270
0.41196495 -0.11468071 -0.0628075 15724529
0.41494349 -0.10496692 -0.062406108 15987699
0.41822222 -0.098966844 -0.061809011 16053235
0.42189199 -0.093550622 -0.062805295 15592426
0.42529792 -0.085371554 -0.06248948 15592684
0.42834783 -0.074940741 -0.061318994 15592171
0.43000001 -0.076667175 -0.062934265 15131617
0.42659995 -0.067168988 -0.061973929 14473686
0.43111113 -0.062206343 -0.061022494 15394791
0.43233335 -0.059235975 -0.061082631 15723755
0.43742862 -0.044757694 -0.060437411 13158341
0.43900004 -0.037369099 -0.060654525 12566458
0.44000003 -0.033849057 -0.060792696 12434871
0.39900002 -0.14278288 -0.050457586 14277081
0.40293607 -0.14294483 -0.055243507 14539485
0.39900002 -0.13764551 -0.050457593 15987186
0.40272474 -0.13465403 -0.05501011 16382201
0.40505713 -0.12498115 -0.054847453 16514042
0.41000003 -0.1212841 -0.059527189 16513786
0.40758234 -0.11602689 -0.053056318 16514042
0.41099995 -0.11396847 -0.0577107 16382457
0.40900001 -0.10886025 -0.051083874 16711675
0.41277555 -0.10476277 -0.055241406 16579834
0.41628739 -0.09576641 -0.054253228 16580090
0.42055005 -0.092800908 -0.058204047 16513788
0.41796002 -0.086590253 -0.051759299 16645627
0.42228946 -0.08445961 -0.056245301 16513787
0.42414284 -0.075065106 -0.054693889 16382457
0.42657337 -0.066086292 -0.054562766 16447994
0.43033341 -0.062319454 -0.05765295 15921650
0.42800003 -0.055819154 -0.051416636 16448250
0.43154791 -0.054494295 -0.056364328 16316407
0.42900002 -0.048569426 -0.050234206 16448252
0.43421599 -0.044992361 -0.055013169 16119029
0.437657 -0.0360079 -0.05456223 15592428
0.44033337 -0.032270063 -0.057345688 14079189
0.43885723 -0.028623939 -0.050948326 16118770
0.44229695 -0.025059143 -0.054238666 14869217
0.44421065 -0.014916713 -0.054342058 13948115
0.44717029 -0.0055316244 -0.052629936 14474717
0.44846153 0.002812315 -0.052028742 14079701
0.45200005 0.0081613874 -0.052701171 12698303
0.45664713 0.015061992 -0.05211845 12830145
0.45900005 0.023310712 -0.051478643 12303032
0.3985095 -0.14253737 -0.044939525 14473434
0.40000001 -0.14548175 -0.040283572 13617354
0.39782682 -0.13524421 -0.045084126 16053234
0.40000004 -0.13096745 -0.049112551 16382710
0.3982223 -0.12671645 -0.042612806 16514553
0.40064934 -0.12379515 -0.046282973 16645882
0.40428546 -0.11508445 -0.045001656 16645882
0.40788826 -0.10534447 -0.044534907 16645882
0.41049999 -0.10192231 -0.048644755 16711675
0.40899998 -0.098870561 -0.041764434 16711675
0.41207826 -0.094728738 -0.045212653 16645882
0.41540751 -0.085218772 -0.045139566 16645882
0.41752779 -0.075532608 -0.043586463 16645882
0.42058632 -0.073469087 -0.047959574 16645882
0.41840917 -0.066558369 -0.041114286 16645882
0.42180738 -0.064662516 -0.045971621 16645882
0.42363253 -0.055241521 -0.044758681 16580091
0.42654172 -0.045928027 -0.044238199 16579836
0.43051997 -0.04230985 -0.047752708 16382458
0.42819995 -0.037149616 -0.041219849 16514044
0.43227845 -0.034353741 -0.045682121 16250616
0.43600002 -0.025099572 -0.04466987 15724528
0.44016668 -0.021667905 -0.049137551 15658479
0.43872499 -0.015596728 -0.042207222 15592942
0.4415715 -0.014122337 -0.046948034 15395307
0.43900001 -0.0083363811 -0.040357314 15855857
0.4432987 -0.0048663979 -0.044856064 15000805
0.4462806 0.0044578286 -0.044659261 14605789
0.450625 0.0089815529 -0.048415627 14079959
0.44852939 0.012808819 -0.042021558 14342874
0.45332769 0.015448262 -0.046155322 14408667
0.45548192 0.024804665 -0.044729207 14408667
0.45788881 0.033350848 -0.043079611 14737631
0.46160007 0.035966769 -0.046365976 14277080
0.46405566 0.04465447 -0.043922924 14672095
0.46645722 0.053789504 -0.042392217 15066341
0.47000003 0.059200525 -0.043665599 14803427
0.47308338 0.06435068 -0.042523619 15066598
0.48050004 0.068772636 -0.045578487 12763838
0.47700006 0.072736837 -0.0417867 13289926
0.48050004 0.073833331 -0.043329358 12566458
0.39672348 -0.14240268 -0.034865264 14341591
0.40000001 -0.14613724 -0.038972598 12696252
0.39540705 -0.13486299 -0.035108354 15987442
0.3966983 -0.12508114 -0.034971528 16514553
0.40000001 -0.12066696 -0.038878955 16711675
0.39890909 -0.11889452 -0.032618392 16580089
0.40085453 -0.11463392 -0.035517663 16645882
0.40430152 -0.10525386 -0.034797356 16645882
0.40732282 -0.095536321 -0.034208607 16645883
0.41049999 -0.092227325 -0.038405251 16645882
0.40863338 -0.086823054 -0.031970143 16645628
0.41157693 -0.084516957 -0.036290854 16645883
0.40900001 -0.077423103 -0.030657709 16580089
0.41303062 -0.074954532 -0.035301797 16580090
0.41577545 -0.065023325 -0.035027556 16645627
0.41702628 -0.055510033 -0.033513512 16514042
0.42048284 -0.053628828 -0.038307708 16579836
0.41793749 -0.047070745 -0.032032438 16448250
0.42202735 -0.044100814 -0.0360935 16513786
0.42552215 -0.035317272 -0.03490331 16382200
0.42999998 -0.03039539 -0.038942739 16382457
0.42812499 -0.028340688 -0.032468867 16119283
0.43193963 -0.023950882 -0.035489734 15921648
0.43481711 -0.014730027 -0.034801289 15526890
0.43672958 -0.0052031749 -0.034430716 15132390
0.4401429 -0.0025064587 -0.038880102 15263719
0.43775609 0.0036938642 -0.032641392 14408667
0.44195923 0.005701357 -0.037080523 14540253
0.43900001 0.010933123 -0.030851027 14342874
0.44503504 0.015171531 -0.035200477 14211545
0.44736761 0.024327492 -0.033956394 14672096
0.45127785 0.027674859 -0.037878018 14869219
0.44890004 0.031672128 -0.031546995 15329769
0.4535715 0.035647862 -0.035583459 14935269
0.45687687 0.044598188 -0.034400195 15198441
0.4605 0.047134962 -0.038471039 15001831
0.45888245 0.052471489 -0.031426996 15132135
0.46259019 0.055718593 -0.035356905 15395564
0.4658924 0.0648067 -0.034326926 15527405
0.47044447 0.067334145 -0.039301969 15527662
0.46849999 0.072413132 -0.033305023 15592939
0.47050008 0.074362092 -0.035268925 15132389
0.39399984 -0.14327493 -0.024726231 14539226
0.3926014 -0.13486233 -0.024743469 16119285
0.39463174 -0.12499855 -0.025002578 16580089
0.39770594 -0.1163227 -0.024107035 16580090
0.40002203 -0.11272403 -0.027092252 16645882
0.39900002 -0.10868947 -0.020567471 16711675
0.4016197 -0.10484093 -0.025118595 16580089
0.40384242 -0.094973005 -0.025060872 16645882
0.40585595 -0.085039854 -0.025218511 16514296
0.40755808 -0.075128153 -0.024940796 16514296
0.41050002 -0.071139328 -0.02948883 16645882
0.40840024 -0.065612443 -0.022392051 16448503
0.41142365 -0.064444117 -0.027463444 16645627
0.40881816 -0.057551101 -0.02072583 16579832
0.41247949 -0.054597788 -0.025112804 16513785
0.4146764 -0.044999875 -0.024775533 16382456
0.42000002 -0.040176284 -0.02951579 16250871
0.41702443 -0.037459329 -0.023190629 16251128
0.42189232 -0.033635441 -0.026249075 16185335
0.42547116 -0.025478352 -0.024813252 15921904
0.43000001 -0.021755084 -0.02896025 15723752
0.42696154 -0.015872054 -0.02320512 15329767
0.43063158 -0.014768052 -0.027717691 15395047
0.42793551 -0.005515622 -0.021931479 14869218
0.43145779 -0.0053389794 -0.026645871 14868961
0.42827272 0.0016891179 -0.020801194 14408668
0.43287486 0.0050959918 -0.025364161 14474461
0.436369 0.014523197 -0.024361778 14408669
0.44054547 0.017676288 -0.028616063 14474460
0.43880004 0.02205703 -0.021934709 14540512
0.44260615 0.025644541 -0.025521226 14803427
0.44695583 0.034097221 -0.024627686 15066598
0.45054549 0.038500324 -0.027732462 15066598
0.45335227 0.044729736 -0.024966257 15198183
0.45764938 0.054627139 -0.024583023 15132391
0.46000001 0.058838323 -0.029096212 16250616
0.45900008 0.060908314 -0.022488115 15198697
0.46199995 0.065637 -0.025255626 15658735
0.46658698 0.073482156 -0.024696721 15724527
0.47096157 0.0783493 -0.026185922 15658732
0.47582927 0.084328517 -0.023520797 15658990
0.38900003 -0.14011502 -0.01003478 15855086
0.39180008 -0.14332545 -0.014789479 15065826
0.38899997 -0.13470984 -0.010974815 16316662
0.39068595 -0.13495933 -0.015898816 16184821
0.38900003 -0.12873182 -0.01003478 16053745
0.39164305 -0.12490697 -0.014726588 16579835
0.39493906 -0.11500198 -0.01491659 16579834
0.39692855 -0.10521925 -0.014594287 16514040
0.40000004 -0.10235499 -0.019474521 16514040
0.39777431 -0.095781095 -0.012983313 16514039
0.40051845 -0.094168767 -0.017609105 16448246
0.39868426 -0.086816385 -0.011021772 16448502
0.40150982 -0.084723242 -0.0158334 16514295
0.40250897 -0.074998781 -0.014842071 16382453
0.40447223 -0.064917423 -0.01467232 16513782
0.40612394 -0.05504442 -0.014652394 16382453
0.41000003 -0.051217422 -0.019214859 16580089
0.4075835 -0.045650031 -0.013421346 16316660
0.41113517 -0.043668851 -0.017760448 16382454
0.40862501 -0.038848221 -0.011139164 16316917
0.41405097 -0.034780301 -0.015259801 16250612
0.42033339 -0.030695835 -0.019371392 16119285
0.41709307 -0.026222041 -0.012624125 15724523
0.42141387 -0.024149459 -0.017099902 15658476
0.41870004 -0.017114636 -0.011095198 15132386
0.4225556 -0.014963941 -0.015823973 15198180
0.42347968 -0.0053948443 -0.015306215 15000545
0.42564195 0.0042788447 -0.014824567 14408668
0.43000004 0.0085279327 -0.018474439 14540255
0.42811763 0.011635828 -0.01204748 14409182
0.43222216 0.015562139 -0.015340062 14408925
0.43705058 0.024303637 -0.014282669 14672611
0.44038466 0.028137444 -0.017864203 14804198
0.44435492 0.034855016 -0.015059393 15001318
0.44883347 0.042466696 -0.014030806 15001061
0.45129177 0.047008589 -0.015517429 15066854
0.45480016 0.055106442 -0.014874321 15395562
0.45846421 0.063799486 -0.014262704 15592941
0.46052173 0.067460768 -0.01727145 15592943
0.46452239 0.074482083 -0.015152442 15856628
0.47000003 0.079372294 -0.018175816 14343644
0.46900001 0.080301352 -0.012098487 15000549
0.47448337 0.085102968 -0.015462624 15856113
0.47900003 0.090984315 -0.014038473 12961223
0.3878904 -0.14337146 -0.0040920079 15196898
0.39007142 -0.1459801 -0.0082362583 14407639
0.3875002 -0.13491037 -0.0045747091 16382200
0.3882843 -0.12574136 -0.003456021 16513786
0.39060009 -0.12260971 -0.0075167869 16514040
0.38882351 -0.11558066 -0.00095492712 16447993
0.3916178 -0.11477774 -0.0059048426 16579577
0.389 -0.10651182 -0.00019969509 16514040
0.39223015 -0.10492972 -0.0050328504 16316661
0.39316562 -0.094913699 -0.0046529141 16382709
0.39535254 -0.084977441 -0.0046280245 16382709
0.39628434 -0.075469486 -0.0040857331 16251123
0.40000007 -0.07317774 -0.009047701 16251124
0.39683533 -0.065193512 -0.0031834419 16316659
0.40035281 -0.06417919 -0.0082334653 16448503
0.39815006 -0.055514801 -0.0016514224 16250866
0.40130135 -0.054613806 -0.0064200037 16185330
0.39900002 -0.048909232 -1.8015437e-05 16053486
0.40297481 -0.045072336 -0.0048247166 16250867
0.40664223 -0.035765678 -0.0045164907 16053745
0.41105562 -0.031888727 -0.0079326304 15790573
0.40840912 -0.026984461 -0.001062215 15592938
0.41325524 -0.024439264 -0.0057726088 15461352
0.41492444 -0.015081313 -0.0050193281 15066594
0.41661635 -0.0053987559 -0.0043491232 14869214
0.42038894 -0.0031430742 -0.0089312382 14737630
0.41749999 0.0014194308 -0.0017315979 14606299
0.42216301 0.0052682846 -0.0058848094 14540509
0.42601129 0.013983306 -0.0041494817 14540254
0.43028569 0.018127592 -0.0076469663 14408669
0.42874998 0.020840796 -0.0011488998 14540512
0.43363729 0.025364392 -0.0049237302 14869476
0.43860874 0.031928625 -0.003414891 15132647
0.44231829 0.036516804 -0.0051239235 15132391
0.44739714 0.044928622 -0.0046153944 15132391
0.45027274 0.048922028 -0.0078789154 15198183
0.44890004 0.051638909 -0.0010713855 15066599
0.45228758 0.055606633 -0.0052534752 15395562
0.45549992 0.065164968 -0.0048996205 15592941
0.45840621 0.072619826 -0.0033097551 15790576
0.46210259 0.076573849 -0.0054601897 15856369
0.46700001 0.0816283 -0.0038832724 16513786
0.47222728 0.085483499 -0.0068569873 15526635
0.3845495 -0.14388488 0.005399778 15262950
0.38416362 -0.13498035 0.0053924979 16316407
0.38533318 -0.12509091 0.0053461874 16447734
0.38623598 -0.1150262 0.0053698109 16316404
0.38667491 -0.10503127 0.0053515425 16185075
0.38724321 -0.09533529 0.0060829325 16250868
0.39035296 -0.092544824 0.0016482158 16382709
0.38801393 -0.085169047 0.0074849883 16119537
0.39111766 -0.084665105 0.0026010673 16316660
0.38845453 -0.075619943 0.0085581969 16119280
0.39163637 -0.074765816 0.0036806378 16185074
0.38895452 -0.066426501 0.0094189746 15987693
0.39225495 -0.064807899 0.0046371752 16185074
0.39415184 -0.055039402 0.0049969768 16185330
0.39617392 -0.04556432 0.0057602264 16119537
0.40020007 -0.042497378 0.0018553302 16119280
0.39790004 -0.036661543 0.0080224937 15856366
0.40161538 -0.0342893 0.0039417883 15790316
0.40430489 -0.025191067 0.0052854228 15329766
0.40599996 -0.015040956 0.0057653654 14935009
0.41011116 -0.013414108 0.0010482068 14935011
0.40802389 -0.0066423486 0.0073707765 15132390
0.41175863 -0.0040522027 0.0037165431 14803425
0.4154 0.0046404968 0.0055027674 14474716
0.42040005 0.0089943539 0.0019491122 14474717
0.41812503 0.011515128 0.008667469 14540253
0.42290241 0.015321597 0.0050951443 14540511
0.42704254 0.022156604 0.0061448668 14803683
0.43143749 0.027077453 0.0043952893 15001062
0.4364225 0.034454722 0.0055144932 15132391
0.44030005 0.038281083 0.0020411522 15132390
0.43888891 0.041011915 0.0080853077 15198185
0.44305566 0.045167655 0.0047857799 15198183
0.44698614 0.054286715 0.0058011161 15329769
0.45045462 0.057761773 0.0019922981 15461355
0.44885001 0.062245935 0.0076498454 15790321
0.45198336 0.065594271 0.0044024 15527406
0.45587105 0.073892824 0.0054978379 15790832
0.46000001 0.079837255 0.0064404397 16053235
0.46400002 0.081617728 0.0064964439 15855856
0.38146245 -0.14409298 0.015429256 15197414
0.38127363 -0.13494726 0.01525098 16316150
0.38188004 -0.12486017 0.015074898 16381684
0.38236359 -0.11501951 0.015191619 16118769
0.38212904 -0.10498759 0.015182964 15856109
0.38286716 -0.0949146 0.01517468 15987696
0.38377377 -0.084859587 0.01527477 16119025
0.38474807 -0.074960455 0.015306924 16119280
0.38605702 -0.065058917 0.015438586 16053487
0.39000002 -0.060131475 0.010025358 16250867
0.38742858 -0.055633526 0.016244609 15987951
0.39081588 -0.053706042 0.011393276 15987952
0.38813725 -0.046373408 0.01799202 15922158
0.39198834 -0.044241037 0.013310047 15856366
0.38900003 -0.039942861 0.019106213 15593194
0.39414042 -0.034927916 0.0147323 15593194
0.39641827 -0.025370631 0.015692193 15198180
0.40039128 -0.023261249 0.011229191 15132641
0.39734489 -0.015345339 0.017412022 14671839
0.40136513 -0.014348964 0.012639911 14935009
0.39880005 -0.0084595485 0.019213926 15066597
0.40390104 -0.004904537 0.014966829 14671839
0.40778381 0.0017336617 0.016721636 14606303
0.41207799 0.0063284831 0.014260419 14540255
0.41654548 0.013867727 0.015890751 14474461
0.42105892 0.018141642 0.013691574 14671839
0.42436841 0.025128717 0.01535157 14869219
0.42999998 0.028996235 0.010382508 15000806
0.4273704 0.032044604 0.017097186 15001061
0.43240005 0.036166526 0.013898064 15066855
0.43618298 0.044456564 0.015487836 15066854
0.44072226 0.048005134 0.011786114 15132390
0.43865225 0.052961245 0.018195551 15198440
0.4425883 0.055684503 0.013928731 15395563
0.44643751 0.064622164 0.015463804 15592943
0.45044449 0.06892319 0.011695417 15330282
0.44857147 0.072453655 0.018330434 15790835
0.45217505 0.074354857 0.013447168 15856368
0.45800003 0.080562331 0.011773369 16119285
0.38226089 -0.15083894 0.025897203 13289416
0.37900001 -0.14006206 0.029261999 16578809
0.38142213 -0.14501503 0.024943426 14802655
0.3789686 -0.1339514 0.026611717 16118258
0.3802726 -0.13626103 0.022674909 15986930
0.37865335 -0.12512437 0.026775118 15921134
0.38024482 -0.1250976 0.021945404 16315892
0.37855425 -0.11492458 0.026310889 15855596
0.380225 -0.11541356 0.02158967 15987183
0.3783268 -0.10507029 0.025621235 15461353
0.38000008 -0.10484815 0.020888137 15724525
0.37818372 -0.09501493 0.026522264 15461351
0.38033336 -0.094774783 0.021523964 15790316
0.3782821 -0.085526913 0.026763238 15724523
0.3807115 -0.084269837 0.022091432 15921646
0.37880644 -0.07602594 0.028331263 15790314
0.38102108 -0.074641883 0.023893863 15724523
0.37900004 -0.069082409 0.029261999 15921900
0.38156298 -0.064916097 0.024881408 15856109
0.38265607 -0.055082463 0.02501224 15724523
0.38411638 -0.044922106 0.02497134 15658987
0.38632479 -0.035459001 0.025393581 15461609
0.39078948 -0.032420836 0.02092658 15461608
0.38782814 -0.025931478 0.02761301 15001058
0.39191541 -0.024176341 0.022759516 15066850
0.38878569 -0.018336842 0.028911743 15001058
0.3932637 -0.01458968 0.024417054 14869216
0.39617851 -0.0059801964 0.025942769 14606303
0.40053847 -0.0024296208 0.022592457 14474719
0.39866671 0.00044049104 0.029535791 14671839
0.40517211 0.0047050882 0.024920819 14408925
0.41100004 0.0087934565 0.02159192 14540510
0.4082917 0.013117298 0.028415961 14211289
0.4135001 0.015640371 0.024045408 14671839
0.41620004 0.024081182 0.026369438 14671840
0.42150003 0.026335614 0.021643257 15066340
0.41800007 0.0324292 0.0286595 14672354
0.42411113 0.035611916 0.024701647 15000547
0.43000001 0.038643181 0.020365 15066597
0.42612505 0.043491438 0.027053267 15000804
0.43177089 0.045989096 0.02265746 15066597
0.42800003 0.050236423 0.029537197 15395564
0.43511099 0.055039808 0.024832757 15263976
0.44000003 0.059885304 0.020581093 15527150
0.43802634 0.063127354 0.027231827 15658735
0.44169241 0.066482484 0.023737427 15592943
0.44391668 0.073497795 0.025618674 15592942
0.38241664 -0.15042661 0.034821372 12105399
0.37876666 -0.14151318 0.035686385 15000292
0.38105401 -0.14623684 0.034422744 14013140
0.3780461 -0.1352164 0.035039753 15724271
0.37795779 -0.12507764 0.034932572 15592427
0.37799954 -0.11491521 0.034936644 15329510
0.37799197 -0.10517922 0.034935977 14868958
0.3771438 -0.095324792 0.035128757 14935008
0.37676272 -0.085066319 0.034847423 15329765
0.37695572 -0.075079285 0.034946222 15461094
0.37747809 -0.065031514 0.03484926 15592936
0.38000003 -0.060813613 0.030228795 15724521
0.37795374 -0.055290677 0.036067214 15526887
0.38028574 -0.0536725 0.031236678 15592937
0.3780646 -0.04569998 0.037366502 15395558
0.38076916 -0.044471782 0.032605547 15461351
0.37841514 -0.035412531 0.038174588 14935265
0.38130951 -0.034613512 0.033282768 15198182
0.37866667 -0.028242936 0.039578363 15066340
0.38306722 -0.024911987 0.034869369 14869474
0.38583767 -0.015455016 0.034884479 14869218
0.39000002 -0.011514383 0.030339541 14869218
0.38811481 -0.0065290295 0.037320603 14671839
0.3923623 -0.0043389914 0.033083741 14606046
0.39637142 0.0044000819 0.036387376 14342874
0.40149996 0.0066726892 0.032445785 14277081
0.39773917 0.012842903 0.038844265 14013910
0.40331298 0.01537251 0.034347046 14211289
0.40568241 0.024548503 0.036170792 14408925
0.41213334 0.026668703 0.031816352 14606303
0.40737501 0.031603284 0.038184386 14409696
0.41449374 0.035314899 0.034324281 14540768
0.42020002 0.038697358 0.030868888 14738404
0.41635901 0.042798482 0.037162874 14803427
0.4219667 0.046041589 0.033561684 14869476
0.4250921 0.054261256 0.035887606 15133162
0.43090907 0.057549324 0.031892344 15527405
0.42814288 0.060992446 0.03863924 15264235
0.43354112 0.065302975 0.034843907 15592941
0.43548936 0.07269498 0.035712294 15724271
0.44022223 0.074344285 0.031240519 15987699
0.37853333 -0.14306659 0.046165731 14802912
0.38034999 -0.14668338 0.042810164 13618382
0.37766087 -0.1351479 0.045070708 15526893
0.37787083 -0.12504783 0.045096602 15658476
0.37807405 -0.11493752 0.045121942 15461098
0.37799963 -0.10518125 0.045113087 15000289
0.37732208 -0.095280595 0.045032408 14408663
0.37529752 -0.085133463 0.044947803 14671577
0.37433356 -0.075125806 0.045022935 15000800
0.37431937 -0.06505882 0.045191448 15263971
0.37470162 -0.055061489 0.045084193 15329508
0.37464103 -0.044976979 0.045204993 15197924
0.37540314 -0.035150401 0.045209307 14869471
0.37640128 -0.025049647 0.045282774 14671837
0.38000003 -0.022561377 0.040014252 14737375
0.37792116 -0.015776671 0.046614069 14671838
0.38108927 -0.013861298 0.042357016 14869218
0.37875 -0.0086327223 0.049081363 14474460
0.3836199 -0.0050336388 0.044983424 14408667
0.38678059 0.0041258857 0.046394907 14145495
0.39169767 0.006272377 0.042245418 14079702
0.38842103 0.012139428 0.048892248 14145239
0.39332384 0.015117478 0.044550538 14211032
0.40000001 0.01979412 0.040247448 14079704
0.39601219 0.024114944 0.046213999 14606047
0.4011935 0.026220072 0.041940477 14540768
0.39866671 0.03139421 0.048823435 14803684
0.40400964 0.034943964 0.045004264 14738147
0.41033337 0.039197486 0.040646516 14737890
0.40800002 0.042609852 0.047315173 14738404
0.4130134 0.046086844 0.043946732 14935526
0.41657141 0.053976521 0.046536792 15330026
0.42155012 0.056637783 0.042659361 15263977
0.41900003 0.060950689 0.049025409 15724270
0.42450538 0.064987585 0.045135334 15658478
0.43000004 0.068015419 0.040533703 15527150
0.4268645 0.074037105 0.046703521 15527147
0.43031996 0.074564755 0.041725699 15724013
0.42700002 0.080107488 0.049961455 11513769
0.37854341 -0.14405692 0.054945406 14078932
0.38000003 -0.14843792 0.055730283 12171449
0.3775824 -0.13501719 0.05503707 15526891
0.37739533 -0.12499949 0.055025727 15855086
0.37799963 -0.11491519 0.054847036 15658220
0.37792763 -0.10506282 0.055005673 15132131
0.37684071 -0.095159121 0.055116352 14605786
0.37457043 -0.085035309 0.054936092 14540249
0.37330353 -0.075004041 0.05507971 14671835
0.37197754 -0.065152019 0.055237699 14935007
0.37160817 -0.055087011 0.055253144 14935006
0.37148902 -0.045063268 0.055166103 14869471
0.3713499 -0.035053927 0.055213381 14671835
0.37210932 -0.024941193 0.055088654 14606045
0.37360686 -0.015051478 0.05515103 14540509
0.3760086 -0.0054960963 0.055418964 14211544
0.38086668 -0.0019560782 0.051457416 13948629
0.37792858 0.0031166922 0.058078341 13948374
0.38194117 0.0055166436 0.053815987 14014166
0.3848294 0.014930216 0.055074193 14211289
0.39000002 0.018842768 0.050197229 14474462
0.38787499 0.022545619 0.05616194 14671840
0.39194366 0.026521605 0.053606611 14737890
0.39549997 0.034086827 0.055691395 14803683
0.4012 0.038189102 0.052348781 14803683
0.39833334 0.04084909 0.059040044 14869219
0.40424997 0.045144949 0.054882504 15000805
0.41100001 0.04920321 0.050013676 15527148
0.40722457 0.053404827 0.057254437 15263977
0.41292307 0.056353517 0.05334419 15395563
0.40900001 0.060453493 0.059345067 15658736
0.41543433 0.064785518 0.055627313 15526892
0.42046672 0.067004882 0.050968226 15526634
0.4172439 0.074181102 0.05777473 15461098
0.42237502 0.075202391 0.053193916 15198182
0.41700003 0.080183841 0.059529647 11447208
0.42500001 0.080727205 0.053198002 11513516
0.37787786 -0.14346169 0.065028109 14013396
0.37720615 -0.13509071 0.065116592 15395050
0.37713933 -0.12498692 0.065027982 15723758
0.37727112 -0.11499655 0.064996295 15592171
0.37707013 -0.10501941 0.065014295 15000547
0.37575191 -0.094884366 0.065075867 14474458
0.37375629 -0.084788814 0.064857103 14408409
0.37171641 -0.074876226 0.064925842 14474200
0.36893347 -0.062929496 0.068703212 14868958
0.37062004 -0.065395236 0.064332992 15000031
0.36872721 -0.054995012 0.067729935 14803167
0.37046495 -0.055140868 0.062839948 14869215
0.3685326 -0.04491166 0.066956118 14671326
0.37008509 -0.045374662 0.062103983 14671581
0.36894572 -0.034521561 0.066309497 14145494
0.36999992 -0.036102079 0.061613075 14671582
0.36898899 -0.025409965 0.066656254 13947859
0.37017491 -0.023905197 0.062052052 14342874
0.36880958 -0.015311933 0.068039455 14079702
0.37050021 -0.01475088 0.063181266 14277081
0.36899999 -0.0088067753 0.069378138 13355979
0.37171322 -0.005001198 0.064700462 13947860
0.3746846 0.0049928362 0.064995877 13817301
0.37731829 0.014769306 0.066435188 14014424
0.38099998 0.016458517 0.061959893 14146010
0.37842864 0.021510955 0.068702996 14606047
0.38365147 0.025390474 0.064947993 14606304
0.39000002 0.029342232 0.06024019 14803425
0.38788101 0.032556988 0.06704317 14737634
0.39212939 0.036214396 0.063921101 14738145
0.39491948 0.044308107 0.066140786 14935010
0.40092853 0.047395609 0.062126808 15066597
0.39781252 0.051816784 0.068604738 15329512
0.40299991 0.055396162 0.06442111 15329769
0.40569997 0.064565971 0.065843344 15395819
0.41116673 0.066979378 0.061423142 15396334
0.40815625 0.073349304 0.0680594 15396075
0.41282287 0.075553499 0.063730352 15461097
0.41371432 0.080381095 0.064585395 13420742
0.37780285 -0.14318018 0.075302199 14079446
0.37733039 -0.13503149 0.075066283 15132134
0.37690067 -0.12516807 0.074980304 15460585
0.37702256 -0.11505911 0.075005516 15460841
0.37707427 -0.10492456 0.075016074 14933984
0.37508458 -0.094656698 0.074982226 14605274
0.37278831 -0.084987648 0.074942656 14473690
0.37083066 -0.074976563 0.075092487 14342614
0.36836433 -0.064377107 0.075145893 14539737
0.37 -0.06902992 0.071731597 14342870
0.36767435 -0.054968394 0.075294457 14802654
0.36764508 -0.045175683 0.07508377 14539997
0.3685832 -0.03482414 0.075050987 9606294
0.36829838 -0.024927769 0.075116947 9474450
0.36766446 -0.014845647 0.07515768 13290187
0.36834016 -0.0057374565 0.075800836 13355980
0.37036362 -0.0028742654 0.071945727 13750995
0.36894736 0.0020745054 0.078490123 13225164
0.37085682 0.0053588809 0.074457154 13553617
0.3726784 0.014957274 0.075002156 14013911
0.37616527 0.02447339 0.075450227 14540768
0.38086668 0.028358854 0.071608283 14606305
0.37817246 0.03248376 0.078102618 14474462
0.38359457 0.03560552 0.074105173 14803426
0.38684151 0.043863948 0.076473542 15000805
0.39164594 0.046775699 0.072697088 15132133
0.38866672 0.050775778 0.079292625 15132393
0.39446649 0.055138513 0.075110473 15329769
0.40000001 0.058420915 0.070446581 15527149
0.39652693 0.064496502 0.077021189 15263976
0.40105993 0.065498583 0.072348922 15592685
0.39793748 0.073987 0.078785799 15197926
0.40346333 0.07517606 0.074045129 15395306
0.41000003 0.079797648 0.070048161 15987444
0.4038572 0.08156848 0.076129571 9603733
0.41100001 0.080954432 0.07021901 13750482
0.37799999 -0.143968 0.08503627 13881554
0.3769998 -0.13480745 0.084917434 15197928
0.37689501 -0.12525149 0.084813215 15460329
0.37699983 -0.11505245 0.084709078 15328999
0.37665853 -0.10470553 0.084840849 14868191
0.37477243 -0.094701059 0.08500082 14473690
0.37257406 -0.084944047 0.085064866 14144982
0.36899999 -0.070715003 0.085503064 14342359
0.37069356 -0.075771958 0.084989019 14079445
0.36789525 -0.064943194 0.084847294 14145238
0.36688456 -0.054849338 0.08501251 14539996
0.36750737 -0.044933252 0.08493226 13619152
0.3671411 -0.034976602 0.08489155 2896176
0.3668862 -0.025185 0.085107461 2961714
0.36721355 -0.015027574 0.084935553 12171963
0.36713171 -0.0049493341 0.084916942 13026758
0.36767164 0.0046378756 0.084776334 13421772
0.37 0.0087816166 0.080537722 13619407
0.36828077 0.014728222 0.086506225 13750994
0.37034085 0.015924223 0.082187667 13948631
0.36871427 0.022973677 0.088806808 14014166
0.37192202 0.025354305 0.084293813 14343389
0.37422702 0.035045229 0.085013062 14540510
0.38033333 0.039002825 0.08041241 15132390
0.37644708 0.044293579 0.087053664 14671839
0.38245305 0.046029378 0.082472391 14868962
0.3785218 0.053985473 0.088826373 15131620
0.38416803 0.055209361 0.084424205 14934753
0.39033332 0.057239085 0.080394782 15000802
0.37900004 0.061342727 0.089594714 14671582
0.38479614 0.064650029 0.086215757 15066597
0.39185721 0.065982491 0.081622586 14868960
0.38661826 0.073965758 0.08786685 15132391
0.39355424 0.075487219 0.083389223 15066599
0.38900003 0.080719061 0.088316068 15527150
0.39545459 0.081090078 0.083797604 14868194
0.37826145 -0.14359462 0.09471295 14211031
0.38000008 -0.14799312 0.096651286 12697793
0.37634662 -0.13489302 0.094791785 15329255
0.37585592 -0.12486088 0.094766155 15657707
0.3763983 -0.11507836 0.094588235 15526120
0.37599969 -0.10515635 0.094836898 15197155
0.3744106 -0.094982319 0.095080502 14802396
0.37210599 -0.084983133 0.095207565 14408153
0.36872739 -0.07160496 0.096215442 14145238
0.3707 -0.076466583 0.094600812 14145239
0.3673645 -0.064949974 0.094915397 14079446
0.36673558 -0.054977518 0.09495081 14474203
0.36700726 -0.044987828 0.094920546 12105656
0.36481491 -0.034978196 0.095079012 2699310
0.36452761 -0.024994601 0.095052481 2764592
0.36663732 -0.014958133 0.094899595 11447982
0.36605412 -0.0051226448 0.095062383 12632254
0.36640021 0.004828006 0.094799891 12961220
0.36662278 0.015080109 0.095076248 13356236
0.36756167 0.025014291 0.095133901 13948117
0.37 0.028876912 0.090412132 14211289
0.3680515 0.034629397 0.096809812 14145495
0.37038192 0.035575885 0.09200187 14277081
0.36862868 0.043022238 0.098212533 14276826
0.37139109 0.045593467 0.093858019 14868962
0.37386447 0.054981232 0.094909906 15131877
0.37586546 0.064723745 0.09535864 15132133
0.38064289 0.067846283 0.090682544 14935268
0.37759024 0.073216781 0.096922256 15132649
0.38163015 0.076101273 0.093343288 14869477
0.38264516 0.081929907 0.09709736 15133162
0.37785077 -0.14406294 0.10480618 13816018
0.38000003 -0.14888272 0.10139574 11973813
0.37532794 -0.13495484 0.10502568 14934754
0.37425205 -0.12495077 0.10458411 15526889
0.37453264 -0.11500199 0.10486603 15526121
0.3741346 -0.1049384 0.1048066 15065825
0.37243205 -0.094917871 0.10503726 14868445
0.3709271 -0.085111462 0.10531421 14737116
0.36851183 -0.073478617 0.10553946 14276823
0.37021735 -0.078127325 0.10413506 14474202
0.36735997 -0.064705521 0.1051631 14211288
0.36695486 -0.05485975 0.10521688 14342876
0.36691999 -0.04491441 0.1049661 11184810
0.36227128 -0.034588113 0.10503145 2436396
0.36230689 -0.024972955 0.10505037 2502190
0.36594349 -0.014781558 0.10497894 10856361
0.36534408 -0.0049747792 0.10490251 11974839
0.36527315 0.0048303623 0.1047648 12369598
0.36548212 0.015160182 0.10503544 12961479
0.36618191 0.024979247 0.10499316 13421773
0.36688921 0.034905411 0.10519695 13816530
0.36784214 0.044874787 0.10511477 14342617
0.37 0.04949192 0.10045978 14671584
0.36880398 0.05421092 0.10634682 14868705
0.37024996 0.056460071 0.10231938 14737376
0.36899999 0.061547834 0.1090186 15000806
0.37125179 0.065227091 0.10478752 15198184
0.37427741 0.075006954 0.1049333 15132392
0.37688464 0.082312852 0.10591899 15527150
0.38129631 0.085686252 0.10402448 14803428
0.37765643 -0.142952 0.11491624 13026245
0.37461799 -0.1347038 0.11512314 14605533
0.37352654 -0.12496337 0.11500304 15329254
0.37264359 -0.11485049 0.11492559 15263205
0.37184876 -0.10513772 0.11502107 14868445
0.37078592 -0.095330611 0.11503194 14605786
0.36900002 -0.08273904 0.11505465 14277077
0.37000027 -0.087178394 0.11502393 14540249
0.36845443 -0.074925661 0.11470439 14342615
0.36770907 -0.064899981 0.11504484 14013651
0.36742166 -0.054928713 0.11524487 13816016
0.36748075 -0.045347914 0.11479417 10394780
0.35862797 -0.03301698 0.11818384 1843486
0.36124521 -0.035235044 0.11399958 2304551
0.35858542 -0.026213905 0.11840704 2106660
0.3609075 -0.024482684 0.11404976 2172966
0.36660919 -0.014915443 0.11509856 10592931
0.36642176 -0.0050303699 0.1149312 11514290
0.36587158 0.0048295273 0.11476066 12040377
0.36640155 0.015131611 0.11492465 12698306
0.36684328 0.025022475 0.11506205 13027015
0.36685631 0.034902114 0.11506605 13355981
0.36709121 0.045171324 0.11507243 14079445
0.36752573 0.054995943 0.11473163 14539996
0.3683846 0.064578488 0.11583654 15000802
0.37014279 0.067708328 0.11172141 14935011
0.36844447 0.074025407 0.11794144 15263972
0.37094516 0.075443946 0.11330932 15132133
0.37478787 0.084033288 0.11527531 15329768
0.3806667 0.089138955 0.11325322 15066598
0.37885714 0.091474928 0.11920893 15724528
0.3812972 0.092570364 0.11618882 13815761
0.37592071 -0.14250094 0.12478661 12763588
0.3737933 -0.13520794 0.12509061 14539998
0.37209144 -0.12491253 0.12494747 15066342
0.37162483 -0.11477616 0.12498748 14803427
0.37147439 -0.10485715 0.12498064 14408667
0.37132525 -0.094998449 0.12488652 14079703
0.37116206 -0.085091405 0.12495302 13553359
0.36899999 -0.071902774 0.12048841 13421772
0.37095803 -0.075634308 0.12462039 13224394
0.36876604 -0.064444833 0.12201969 13421772
0.37063253 -0.065426633 0.12693112 13355723
0.36859623 -0.055304702 0.12241557 13355722
0.37056935 -0.054679818 0.12729512 12961222
0.36777779 -0.0441976 0.12293673 9145229
0.37063473 -0.046683744 0.12646376 10658466
0.35765669 -0.033511441 0.12509264 2173220
0.36136669 -0.038461525 0.12427709 2567723
0.35779241 -0.02549882 0.12528072 2239015
0.36068755 -0.020728176 0.1244773 2107176
0.36696884 -0.014789227 0.12483517 9869207
0.36728948 -0.0050415606 0.12466073 11251117
0.36750019 0.0048514083 0.12473316 12106426
0.36743957 0.015172353 0.124713 12764099
0.36760345 0.025075834 0.12476844 13093065
0.36729571 0.034942038 0.12466354 13356237
0.36716178 0.045171522 0.1245578 14211290
0.36703849 0.055103417 0.12494786 14671581
0.36707672 0.064999059 0.12501538 14868958
0.36672965 0.074847296 0.12490457 14408665
0.36752886 0.082857132 0.12508473 14737376
0.371925 0.087689877 0.12406256 15132390
0.37670895 0.094782725 0.125191 10328217
0.38011116 0.096819662 0.12090291 5195077
0.37508333 -0.14157788 0.13473567 12829380
0.37354478 -0.1351309 0.13455901 14342620
0.37257722 -0.12495174 0.13503641 15066342
0.37340668 -0.11505905 0.13503845 14934756
0.37358218 -0.10508479 0.13467585 14474462
0.37358209 -0.094832331 0.13498397 14408926
0.37388769 -0.085182264 0.13428755 14079961
0.37437636 -0.075469725 0.13477032 13619153
0.3730545 -0.065270029 0.1348305 13355981
0.37200016 -0.054819975 0.13461031 12303292
0.36782357 -0.041695364 0.13517709 8290688
0.37112951 -0.046531808 0.13503976 10724004
0.35900003 -0.03434116 0.13024974 2437164
0.36506581 -0.03484273 0.13578188 1318427
0.35900003 -0.021734776 0.13024974 2435883
0.36456904 -0.024865421 0.13546446 1449244
0.36808702 -0.015497654 0.13260977 9869464
0.37050804 -0.013166046 0.13675392 10001307
0.36852804 -0.0042919195 0.13360226 11053995
0.37009367 -0.0072178938 0.13784888 10396066
0.3683309 0.0049227653 0.13486464 11975097
0.36838192 0.015210814 0.13495019 12895944
0.36867407 0.025148701 0.1350573 13224650
0.36836103 0.035042103 0.13494091 13355981
0.36799252 0.044954762 0.13484 14079704
0.3675113 0.05468791 0.13487245 14408667
0.36682642 0.065064482 0.13502958 14474459
0.36581722 0.074985608 0.13492323 14408667
0.3674944 0.083621643 0.13495234 14474463
0.37056664 0.088750504 0.13441591 14539999
0.3725625 0.093966253 0.13470089 10723491
0.37350002 -0.1333997 0.14110532 13816533
0.37300009 -0.12600803 0.14144149 13750996
0.37397283 -0.11430573 0.14119531 13751253
0.37400004 -0.10590683 0.14059499 14343131
0.37400004 -0.095312797 0.14048658 14146525
0.37500003 -0.080643654 0.14044414 14277081
0.37500003 -0.077571072 0.14044414 13817301
0.37400001 -0.063298464 0.14098325 13224395
0.37360382 -0.05481777 0.1419833 11645618
0.36636364 -0.041323625 0.14314705 6514018
0.37188235 -0.047355596 0.14229867 10329245
0.36584929 -0.035080604 0.14562912 791567
0.37000003 -0.030196335 0.14290245 660496
0.36476478 -0.024705447 0.14761008 922894
0.37000018 -0.026284093 0.14310455 660240
0.36000001 -0.019056326 0.1493641 3808537
0.3708649 -0.014121674 0.14196932 9672855
0.37040284 -0.0048378715 0.14309205 10199457
0.36900002 0.0078940466 0.14078856 11843512
0.37000027 0.0048101046 0.14433996 10922409
0.36900011 0.015697362 0.1414796 13093579
0.3700003 0.014764007 0.14581282 11383473
0.36899996 0.025738426 0.14325663 12764614
0.36999992 0.02264045 0.14701675 10857387
0.3681266 0.034644075 0.14338967 12961994
0.36760533 0.045170922 0.14266847 14080217
0.36686489 0.055071857 0.14245707 14343389
0.36619988 0.064669564 0.14291948 14014168
0.36591408 0.074497007 0.14264645 13816533
0.36618754 0.08198636 0.14164448 12763334
0.35900003 -0.040644348 0.1554625 2105627
0.36033341 -0.041006092 0.15414064 1579796
0.3585605 -0.033792369 0.15689884 1120788
0.3605288 -0.035485771 0.15322123 1186068
0.35856944 -0.025287788 0.15676235 1054481
0.3601819 -0.024541982 0.15246001 1185810
0.36000007 -0.018761359 0.15303013 2235932
0.34644449 -0.0413398 0.1685842 2107167
0.35654542 -0.040934786 0.16652828 659469
0.36083338 -0.04099296 0.16160487 1448213
0.34724602 -0.034919705 0.16833287 1646616
0.35550025 -0.034675851 0.164753 1251862
0.36009094 -0.038507391 0.16145249 988431
0.34750789 -0.024744403 0.16835423 1449239
0.35529271 -0.02602624 0.16434337 1383191
0.34728572 -0.019167798 0.16780789 1579289
0.35100001 -0.019607041 0.16678871 921874
0.33768418 -0.041081693 0.17818205 2041374
0.34230617 -0.041623168 0.17352115 2107167
0.33815995 -0.035587575 0.17730746 1778202
0.34262666 -0.034987699 0.17301308 1909788
0.33876932 -0.024690293 0.17714286 1843740
0.34213471 -0.025298377 0.17308168 1844253
0.33800003 -0.019672118 0.1772279 1252373
0.3416 -0.019454952 0.17388678 1778462
0.77328575 -0.15336744 0.297369 13355462
0.78000003 -0.15860882 0.29942781 13420745
0.76542866 -0.14464369 0.29536971 13553356
0.77000004 -0.14936504 0.29919416 13025987
0.76385719 -0.13629313 0.29668102 13290183
0.76300001 -0.1247885 0.29826039 13158600
0.76190007 -0.11408385 0.29854393 13619151
0.76200002 -0.10767645 0.29876143 14014162
0.78714287 -0.16269527 0.30638233 8881796
0.79100007 -0.16732793 0.307354 8815747
0.77514297 -0.15347588 0.30469432 12829117
0.78180009 -0.15860918 0.30560988 9539211
0.76737505 -0.14436722 0.30221653 13157826
0.77238464 -0.14565322 0.30693924 14079441
0.76642859 -0.13470106 0.3026782 12763325
0.77200007 -0.13597259 0.30833137 14013392
0.76605552 -0.12468848 0.30364314 13026754
0.77033335 -0.12779011 0.30834046 13750733
0.76435012 -0.11507635 0.30389136 12961476
0.76503581 -0.10426601 0.30468968 13224390
0.78845459 -0.16200674 0.31458724 8882308
0.79115391 -0.16657731 0.31567702 9211016
0.77750003 -0.15173173 0.31120908 13882064
0.78469235 -0.15546836 0.31564406 9408397
0.7768572 -0.14497842 0.31277177 13158341
0.78285724 -0.14426582 0.31780601 9079433
0.77592307 -0.13416721 0.31365436 13158597
0.7816667 -0.13699132 0.31836656 8947591
0.77521056 -0.12439431 0.31469193 12303547
0.78000003 -0.12756693 0.31951374 8817034
0.77400005 -0.11516874 0.31452525 12369083
0.77375007 -0.10888293 0.31469327 12698047
0.77160007 -0.097654253 0.31318402 13948368
0.79313052 -0.16523676 0.32521915 9868946
0.78850007 -0.15410839 0.32184237 9540239
0.79307687 -0.15569542 0.32730153 9672081
0.78811121 -0.14508682 0.32283762 9276812
0.79177785 -0.145558 0.32722294 9606544
0.78666669 -0.13430549 0.32421249 9277068
0.79060006 -0.13633482 0.32903838 9475213
0.78550005 -0.12513326 0.32521957 9145738
0.78599995 -0.11501493 0.32576451 9211274
0.78545457 -0.10505414 0.32442555 9013637
0.7902 -0.10518583 0.32924163 9540238
0.78625005 -0.098219074 0.3248381 9145223
0.79219055 -0.13494889 0.33492979 9474700
0.78900003 -0.12349766 0.3305887 9475213
0.79148149 -0.12518966 0.33568057 9474956
0.79150009 -0.11531743 0.33465043 9474700
0.78850007 0.077782899 0.35898995 9409421
0.79293936 0.085141301 0.35518456 9803409
0.78586668 0.077524073 0.36373472 9541008
0.78820002 0.084619239 0.36508906 9738130
0.7902 0.087940194 0.36179906 9934994
0.78900003 0.090761669 0.36752996 9804178
0.79100019 0.094829582 0.36462349 10001043
0.79154062 0.10507598 0.36425266 10132373
0.78900003 0.11579964 0.36814561 10329752
0.79119241 0.1147362 0.36334687 10263959
0.78899992 0.1240088 0.36729911 10329752
0.79030001 0.12587796 0.36332422 10329752
0.78855562 0.085788943 0.37245134 9738386
0.79016668 0.088429607 0.37701455 9804179
0.79158336 0.094844557 0.37483427 10001301
0.79220694 0.10487922 0.37471816 10001301
0.7915501 0.11514466 0.37520641 10132630
0.7918573 0.12472263 0.37522039 10198679
0.79035294 0.086454913 0.38568363 9738386
0.79168963 0.09490712 0.38469467 9935764
0.79236078 0.10506059 0.38485971 9935765
0.79256654 0.11529247 0.38496077 10263960
0.79094744 0.086503118 0.39397016 9672593
0.79086685 0.094678648 0.39524487 9869972
0.79013926 0.1047656 0.39488074 9935765
0.79050016 0.11479429 0.39473125 10001558
0.79164004 0.12442505 0.39470589 10133145
0.79118526 0.10459727 0.40518111 9935764
