# .PCD v0.7 - Point Cloud Data file format
VERSION 0.7
FIELDS x y z rgb
SIZE 4 4 4 4
TYPE F F F U
COUNT 1 1 1 1
WIDTH 727
HEIGHT 1
VIEWPOINT 0 0 0 1 0 0 0
POINTS 727
DATA ascii
0.77649999 -0.03156057 0.079948157 12630447
0.78716666 -0.03414667 0.078895777 12433583
0.77520007 -0.025151754 0.079449579 13552319
0.78540009 -0.025301084 0.077919036 12039081
0.78575003 -0.015374116 0.078138135 11710629
0.78833342 -0.0071258736 0.079321019 11513249
0.77600002 -0.051219821 0.08837273 12762033
0.78611118 -0.053728979 0.087068327 11972517
0.74800003 -0.04003258 0.089271381 12630188
0.75533336 -0.0421937 0.088669024 12696495
0.76437503 -0.044040948 0.087196499 12696240
0.77388889 -0.045242064 0.085513137 12696240
0.78610009 -0.045202084 0.082590736 12433325
0.79100007 -0.047890712 0.081441075 12499633
0.74681818 -0.033931211 0.087857455 13551289
0.75537503 -0.035783879 0.085947983 12959153
0.76388896 -0.034723472 0.083614506 12827825
0.77499998 -0.036038548 0.081832163 12827827
0.78300005 -0.037324391 0.080617398 12499633
0.74547625 -0.024688585 0.086723134 15196116
0.7552222 -0.026274942 0.083647668 15130580
0.76375002 -0.024111778 0.08153712 15065556
0.77000004 -0.027690634 0.08108151 14143943
0.74666667 -0.015155464 0.086779371 15395291
0.75500005 -0.01350398 0.083818577 15855841
0.76366669 -0.015842972 0.081603065 16118757
0.7713334 -0.012387746 0.081221908 16118758
0.74799997 -0.0079286424 0.088687688 14934485
0.75430775 -0.0050499672 0.087303199 14868946
0.76287508 -0.0053332923 0.084346972 15855841
0.77375007 -0.0056402469 0.082376502 14078919
0.78380001 -0.0037815594 0.081064962 11381663
0.75800002 0.0011339468 0.088690355 14408395
0.76427287 0.0043168901 0.087957546 15790048
0.77375007 0.0052332939 0.085699387 14737107
0.78615379 0.0050679636 0.082353935 11447457
0.79000002 0.0095029166 0.081338115 11513251
0.76900005 0.011050551 0.089977421 15790564
0.77587509 0.014104588 0.088283382 15132121
0.7860834 0.014823173 0.085530668 11249823
0.78585714 0.0223347 0.088528909 12171437
0.77750003 -0.061632965 0.09916085 12499632
0.78670597 -0.064207993 0.096271902 12433325
0.7925455 -0.066033669 0.092561483 11643554
0.75900006 -0.051282294 0.099468365 12039080
0.76355565 -0.052784007 0.09668573 12235946
0.77370596 -0.055902824 0.094789378 12762547
0.78560007 -0.057862245 0.091548435 11906724
0.74730772 -0.042957462 0.09618444 12630447
0.75535721 -0.046997901 0.094946511 12367276
0.7617501 -0.049239449 0.092247367 12827826
0.74419457 -0.035477478 0.094911002 13814721
0.74216658 -0.024951102 0.09465196 15130839
0.74488908 -0.014577427 0.095003448 15066330
0.74800003 -0.0072997482 0.094524987 14672087
0.75314289 -0.0029017024 0.095174372 14606038
0.75770849 0.0029086366 0.094864704 14474195
0.76025009 0.0082552722 0.095181502 14211022
0.76296771 0.014886812 0.095892765 14276815
0.77200007 0.016216198 0.090930074 15395807
0.76783341 0.023018235 0.097629093 14013644
0.77413648 0.025047032 0.094692111 14474451
0.78511119 0.027620813 0.091449976 13553091
0.7761429 0.032698918 0.098598734 13356229
0.78588241 0.03521106 0.095626771 14408401
0.79222226 0.036527827 0.091868691 11447459
0.78723085 0.044484396 0.098204382 14671571
0.78840005 0.054702073 0.098706439 15657954
0.78900003 0.064902782 0.099705793 14474450
0.78652936 -0.073833488 0.10664523 13420476
0.79238456 -0.077225991 0.1029836 11841188
0.77631581 -0.064125173 0.10575395 12893876
0.78320003 -0.068136804 0.10336812 13617598
0.75900006 -0.051282294 0.10213362 11841702
0.76378578 -0.053781625 0.10545965 11907239
0.77200001 -0.058487486 0.10478774 12038825
0.74635714 -0.043067243 0.10479926 12960183
0.75476933 -0.047874603 0.10529984 12038567
0.73900002 -0.031246847 0.10688139 14736594
0.74222577 -0.036028899 0.10472447 14407629
0.73866671 -0.026203016 0.10508858 15328731
0.74058342 -0.022152923 0.10384553 15197659
0.74474281 -0.014694726 0.10532061 15066074
0.74900001 -0.008524497 0.10166468 14672087
0.75432146 -0.0047932812 0.10528885 14671833
0.75848156 0.0036013192 0.1051222 14671833
0.76000005 0.0091420468 0.10493694 14671833
0.76222569 0.015564257 0.10507157 14277074
0.7678889 0.023619898 0.10512867 14211282
0.77119994 0.028233867 0.10467751 13816526
0.77403855 0.034752198 0.10485102 13553353
0.78000003 0.038598534 0.10039446 14408661
0.7758888 0.044450607 0.10571454 13684936
0.78200001 0.046020206 0.1012608 14210765
0.77733338 0.054360989 0.10720772 13684936
0.78346676 0.055766813 0.10279229 14145486
0.77900004 0.060432881 0.10847218 13618629
0.78436673 0.065134533 0.10553772 14211022
0.78749996 0.074460186 0.10550515 14473938
0.79049999 0.078288816 0.10205337 14145743
0.78900003 0.081526354 0.10801758 14013387
0.79310358 0.085731991 0.10444441 13684422
0.78900003 -0.090250522 0.11817642 14605007
0.78825009 -0.083707497 0.11649467 14407116
0.79099995 -0.086571351 0.11250821 14077893
0.78432143 -0.075229049 0.11504745 13024950
0.77731824 -0.064847134 0.11419509 12959412
0.78066665 -0.068585537 0.11814713 12696242
0.76427275 -0.05245471 0.11496247 12761778
0.77329415 -0.057788037 0.11518724 12959413
0.74609095 -0.042630885 0.11476579 13881029
0.75526679 -0.047263816 0.11453392 12366763
0.76000005 -0.049570683 0.11828074 12169641
0.73794448 -0.032777514 0.11561426 14999765
0.74205559 -0.037787393 0.11471631 14802129
0.7377879 -0.025194615 0.11505878 15394781
0.74000001 -0.020548539 0.11256954 15329245
0.74370599 -0.014653415 0.11517837 15066075
0.74783331 -0.0073434417 0.11580155 14934233
0.75300002 -0.0034745361 0.11464141 14934235
0.75803572 0.0037346627 0.11505733 14934491
0.76000011 0.0088878796 0.11434113 14934748
0.76186109 0.015412546 0.11500271 14803162
0.76773334 0.023615321 0.11499031 14540247
0.77116662 0.028232761 0.11460269 14474454
0.77330011 0.034648165 0.11492046 14211282
0.77508575 0.044578906 0.11505632 14079439
0.77750015 0.054445136 0.11422115 13948110
0.78033334 0.058100879 0.11809643 13947597
0.77900004 0.060888793 0.1125754 13750731
0.78216004 0.065734625 0.11554152 14013390
0.78603226 0.075525895 0.11512093 14013132
0.78860003 0.083085813 0.11503948 14276303
0.79045451 0.087901406 0.11435559 14473682
0.78900003 -0.11056822 0.12925881 14275274
0.79275852 -0.11493575 0.12506941 12828341
0.78863639 -0.10414011 0.12785612 14801618
0.79210532 -0.10592904 0.12322436 13617600
0.78841376 -0.094129451 0.1254063 14472653
0.79085714 -0.097869277 0.12136312 14209479
0.78815395 -0.084760934 0.12521781 13551551
0.78580004 -0.075172499 0.12505737 13156793
0.77846158 -0.062831432 0.12444849 12827828
0.7816875 -0.067456201 0.12531641 12762035
0.76450008 -0.052552268 0.12523726 12827828
0.77387506 -0.05761198 0.12530667 12893621
0.74618757 -0.043213446 0.12530105 14341581
0.75521427 -0.04787349 0.12510936 12499121
0.76000005 -0.049570683 0.12094949 12104105
0.73651856 -0.033865724 0.12525648 15197400
0.74155557 -0.039109711 0.12495608 14868179
0.73644453 -0.024756048 0.12495708 15329502
0.73900002 -0.018790759 0.12712254 15198431
0.74274194 -0.01394447 0.12465149 15066589
0.74699998 -0.005989416 0.12511434 14934748
0.75100005 -0.0017656648 0.12529215 14934748
0.75703448 0.0039177099 0.12505876 14868955
0.76000005 0.0091420477 0.12539743 14868955
0.76282758 0.015279981 0.12484957 14737369
0.76791674 0.022570936 0.12430909 14606040
0.77143753 0.027002744 0.1253656 14474454
0.77392006 0.034676015 0.12497738 14277075
0.77649999 0.044791415 0.1250914 14211282
0.78000003 0.049554493 0.12961036 14211282
0.77880007 0.05203091 0.12175395 14276305
0.78130442 0.055523705 0.12553449 14145233
0.78432 0.064521186 0.12482286 14144975
0.78769994 0.074940726 0.12535991 14078926
0.78892857 0.083102167 0.12436623 14210256
0.79046673 0.087600201 0.12542884 14473684
0.79303706 0.094735764 0.1247635 12434871
0.79314816 -0.12490726 0.13460951 12630965
0.78849995 -0.11372934 0.13563694 14866898
0.79012501 -0.1176623 0.13337338 14143174
0.78770381 -0.10505962 0.13498811 14867411
0.78810006 -0.094758525 0.1346467 14538446
0.78887987 -0.084696636 0.13477986 13485756
0.78650004 -0.075041652 0.1349649 13288377
0.77785718 -0.062182318 0.13393465 13025461
0.78194737 -0.066997997 0.13542624 13156791
0.75657147 -0.05137204 0.13582984 12564657
0.76324999 -0.054251082 0.13620576 12762035
0.77345461 -0.058516465 0.13461234 13025205
0.73599994 -0.04232014 0.13711226 14801619
0.7444762 -0.045574911 0.13449377 14077897
0.75400001 -0.049179334 0.1323474 12762037
0.73302782 -0.034943763 0.13467035 15328476
0.73361105 -0.024661766 0.13477856 15460576
0.73726666 -0.017364236 0.13596863 15197662
0.74268192 -0.012559161 0.13439347 15066333
0.7467407 -0.0053870506 0.13554384 15000797
0.75000006 -0.0015128243 0.13252628 15001052
0.75587887 0.0043292809 0.13519876 14935260
0.76000005 0.0091420468 0.13162455 14869466
0.76334482 0.014427938 0.13472907 14869468
0.7688334 0.020347459 0.13435493 14671833
0.77214819 0.025895448 0.13506696 14540247
0.7752142 0.03454075 0.13484408 14408661
0.77809089 0.04198239 0.13343459 14277075
0.78215796 0.046802156 0.13623571 14211282
0.78448159 0.055554334 0.13546079 14211282
0.78676003 0.064721324 0.13441944 14211282
0.7887665 0.075040422 0.13476072 14211282
0.78900003 0.081526354 0.13110587 14473684
0.79083341 0.085575439 0.13526814 14671063
0.78900003 -0.1216506 0.14403531 14604754
0.79150003 -0.12633501 0.14499663 11710378
0.78827775 -0.1150816 0.14482673 14801361
0.78821433 -0.10472412 0.14514484 15195861
0.78886092 -0.094850928 0.144934 14274759
0.78869987 -0.084678307 0.14490353 13485757
0.78711104 -0.075500906 0.1451236 13222327
0.77644449 -0.062156659 0.14537701 13156790
0.78411114 -0.067055225 0.14467382 13156790
0.74622226 -0.05100213 0.1451492 13222331
0.75599998 -0.05383341 0.14488918 12498608
0.76400006 -0.056989636 0.14543115 12761778
0.77200001 -0.059029199 0.14309967 13025205
0.73364305 -0.044178329 0.14533615 14736340
0.74225008 -0.047979273 0.14201593 14143690
0.73100036 -0.034844544 0.14457045 15394784
0.73188913 -0.024604378 0.14474632 15394785
0.73604548 -0.016282786 0.14517489 15263200
0.74223083 -0.011252715 0.14471938 15197664
0.74653578 -0.0050578294 0.14520614 14934748
0.75593555 0.00447931 0.14473341 14934749
0.76000005 0.0091420468 0.14852668 14868699
0.76296425 0.014479608 0.14483126 14803420
0.76854551 0.020858202 0.14520781 14606041
0.77195656 0.026103543 0.14485188 14540247
0.77555549 0.034953427 0.14480697 14474454
0.77900004 0.040372699 0.14768073 14540247
0.78351724 0.045420911 0.14486888 14408661
0.78751999 0.055564456 0.14560974 14342869
0.78865504 0.064747855 0.14473747 14408662
0.79000002 0.068683848 0.14976607 14540247
0.78899997 0.072291039 0.14304072 14408662
0.79004353 0.076729134 0.14623633 14605527
0.79150009 0.085351199 0.14470619 14736856
0.79299992 -0.12444949 0.1553407 10196883
0.78900003 -0.11318489 0.15311669 14933461
0.79039997 -0.11606917 0.15662743 14012875
0.7889998 -0.10544682 0.15469791 15196631
0.79000002 -0.1020778 0.15839662 14933202
0.78899986 -0.094868183 0.15465593 14011843
0.79000002 -0.094988421 0.15623896 14077637
0.78887987 -0.084697016 0.15509437 13485498
0.78760004 -0.075341694 0.15484303 13287862
0.76900005 -0.060959164 0.15748653 13353659
0.77457142 -0.063217774 0.15500195 13222326
0.78380013 -0.068007074 0.15446243 13222325
0.73900002 -0.051660988 0.15912777 14406860
0.7452727 -0.052577917 0.15476786 13288124
0.75599998 -0.055949494 0.15438117 12564401
0.76300001 -0.058697343 0.15446414 12827572
0.72900003 -0.040722314 0.15868108 15262171
0.73242438 -0.045076918 0.15521665 14868182
0.74000001 -0.049998544 0.15327984 13748932
0.72900003 -0.03816241 0.15868108 15327964
0.73082387 -0.034634598 0.15454836 15526370
0.7319169 -0.024604954 0.15503174 15395040
0.73620838 -0.016129633 0.15507688 15263200
0.74175006 -0.011045586 0.15537752 15131614
0.74565518 -0.0049305027 0.15496004 14934235
0.7486667 0.0002425073 0.15770322 14934236
0.75535494 0.0045895278 0.15505999 15000027
0.76000005 0.0091420468 0.15297462 14934491
0.76378572 0.014750599 0.15494885 14934235
0.76862508 0.020492045 0.1553852 14802649
0.77208006 0.026063938 0.15497199 14606040
0.77513796 0.03460665 0.15495799 14606040
0.77857155 0.040871531 0.15463056 14474454
0.78315395 0.046375155 0.15488313 14474454
0.78776008 0.055582043 0.15487304 14408662
0.78899986 0.063979253 0.15511769 14408662
0.79000002 0.068683848 0.15531428 14408663
0.79065537 0.075062059 0.15531586 14408405
0.79072016 -0.11451377 0.164711 11644072
0.78900003 -0.10740183 0.16620006 14868183
0.79000002 -0.1046053 0.16446881 14604753
0.78899992 -0.092097588 0.16583064 13814464
0.79000002 -0.097001016 0.16390856 13946051
0.78896642 -0.084705919 0.16526978 13485242
0.7882334 -0.075401619 0.16511749 13353656
0.73400003 -0.061621301 0.16836096 12169898
0.74100006 -0.06047428 0.16736455 12037799
0.75900006 -0.06016646 0.16521117 12695729
0.76557153 -0.061454896 0.1640728 13090743
0.7748 -0.06486702 0.16502248 13353657
0.7832222 -0.068608381 0.16457695 13222070
0.73319238 -0.054425184 0.16645208 13551552
0.74362504 -0.05633568 0.1638175 12958902
0.75460005 -0.058051605 0.16283664 12695987
0.76100004 -0.058543485 0.16030197 12629938
0.72872019 -0.043845974 0.16557945 15262686
0.7310909 -0.047686376 0.16286948 15196634
0.7282728 -0.035049692 0.16482314 15526114
0.73000002 -0.031094162 0.16117734 15723492
0.72883338 -0.027631784 0.16774435 15329506
0.73100013 -0.023947487 0.16447739 15394785
0.73496681 -0.015240586 0.16496557 15131614
0.74050003 -0.010161281 0.16551635 14934235
0.74423343 -0.0049811932 0.1649565 14868442
0.74800009 0.0011188075 0.16544245 15000028
0.75473928 0.0063195182 0.16497298 14934235
0.75900006 0.010906851 0.16565539 14934235
0.76346433 0.016276669 0.16496758 14802906
0.76840007 0.021834958 0.16545609 14540247
0.77183336 0.026151719 0.16491668 14408661
0.77507699 0.034869045 0.16487074 14539991
0.77833343 0.04064209 0.16516699 14737369
0.78346151 0.046254333 0.16482112 14671063
0.78776664 0.0555817 0.16501865 14473941
0.78896642 0.064900197 0.16526945 14539734
0.78900003 0.07081338 0.16767773 14474454
0.7906819 0.074803181 0.16445112 14408662
0.79075873 -0.1143918 0.17474194 10196625
0.78900003 -0.10687409 0.17358832 12631734
0.79000014 -0.10471629 0.17521386 12433842
0.78900003 -0.090250522 0.17174126 13353657
0.79000032 -0.095352717 0.17509729 13617343
0.78900003 -0.083917737 0.17253284 13419450
0.79000002 -0.085124932 0.17678793 13419706
0.78820831 -0.075016215 0.17525613 13353911
0.79000002 -0.079268485 0.17750713 13551290
0.73620003 -0.061806001 0.17541529 12170412
0.7446 -0.063906915 0.17636816 12630449
0.75300002 -0.066741973 0.1788865 12827570
0.76350003 -0.069460005 0.179593 12893105
0.77600002 -0.066059142 0.17072818 13156278
0.78625005 -0.06968908 0.17390272 13222069
0.72870004 -0.051794253 0.17601494 14933207
0.73161542 -0.056747358 0.17505994 13486017
0.72660971 -0.044739649 0.1750419 15328735
0.72559536 -0.03458672 0.17492163 15460322
0.72720832 -0.02650365 0.17524135 15263200
0.7305001 -0.021505583 0.17476498 15197664
0.73466671 -0.014762208 0.17507753 14934492
0.74066669 -0.010163568 0.176825 14934235
0.74410355 -0.0048604524 0.17518313 15000028
0.74738467 0.0014547394 0.17573708 15000541
0.75419056 0.0066407379 0.17458704 14934235
0.75877774 0.011495936 0.1758199 14868698
0.76203835 0.016650623 0.17478967 14802906
0.76760006 0.023251483 0.17570759 14540247
0.77157146 0.027732473 0.17439744 14474454
0.77430004 0.034693975 0.17488545 14605783
0.77742869 0.041723125 0.17546116 14868442
0.78271431 0.047374107 0.17455989 14802649
0.78732002 0.055551466 0.17506148 14605270
0.78879982 0.064887278 0.1753909 14342098
0.78900003 0.07136751 0.17543539 14342098
0.79079175 0.07708545 0.17490791 14342612
0.79144013 -0.10535368 0.18524489 10197138
0.79063356 -0.095064305 0.18505421 13157306
0.79100013 -0.08492472 0.18513983 13353912
0.76300001 -0.071200714 0.1893024 12958901
0.7766 -0.073560275 0.18358316 13287862
0.78646666 -0.077320658 0.18517539 13353911
0.79000002 -0.079268485 0.18120594 13353911
0.73618186 -0.062590845 0.18484077 12761781
0.74599999 -0.06587372 0.18383656 12498608
0.75740004 -0.068905056 0.18613665 13024950
0.76000005 -0.069141597 0.1814414 12629934
0.72718185 -0.053159248 0.18497963 14801620
0.73092854 -0.058431152 0.1851335 13683140
0.72370267 -0.044778671 0.18531933 15526113
0.72328562 -0.034596514 0.18525469 15460320
0.72696435 -0.025105292 0.18492039 15263199
0.73000002 -0.020270856 0.18538737 15197663
0.73405898 -0.014409907 0.18500015 14934749
0.74320692 -0.005094199 0.18511087 14935005
0.74695456 0.002868043 0.18484402 14803420
0.75271434 0.0079236943 0.18435428 14803420
0.75746655 0.012305191 0.18544433 14803420
0.7618947 0.017804306 0.18461499 14737626
0.76709098 0.022942094 0.18460315 14540247
0.771375 0.027564423 0.18551221 14474455
0.77411544 0.034546398 0.18502082 14605785
0.77750009 0.042117149 0.1847091 14802908
0.78268754 0.047667045 0.18536918 14802651
0.78735715 0.055356674 0.18487945 14736857
0.78895813 0.064745627 0.18450721 14408149
0.79000002 0.068683848 0.18860355 14539479
0.78900003 0.070443973 0.1819001 14145489
0.79080778 0.075236365 0.18509425 14408148
0.79214287 -0.094916895 0.19448161 11578533
0.78900003 -0.081015207 0.1994472 13025207
0.79092878 -0.084917732 0.19497545 13090743
0.76466674 -0.071356244 0.19628246 12959414
0.77600008 -0.075141519 0.19706775 12959414
0.78514296 -0.078258745 0.19453323 13090743
0.73399997 -0.062052347 0.19585446 14012103
0.7433334 -0.064921454 0.19525076 12367279
0.75766677 -0.068929315 0.1950748 13091000
0.72614288 -0.053559873 0.19533384 14933719
0.73039997 -0.058754724 0.19489281 13946311
0.72311091 -0.04462605 0.19548735 15526113
0.72429419 -0.034620527 0.19525899 15394527
0.72811544 -0.02585417 0.19513687 15197406
0.73039997 -0.020965541 0.19574822 15000028
0.73372233 -0.014115701 0.19487029 14934748
0.73900002 -0.0084106857 0.19805303 14737626
0.74300009 -0.0047243759 0.19502318 14803419
0.74648005 0.0030410949 0.19498974 14737626
0.75154549 0.0082422718 0.19477621 14671833
0.75670582 0.01264934 0.19482434 14737883
0.76141179 0.017968968 0.19488512 14671834
0.76727277 0.022620581 0.19444565 14540247
0.77213341 0.027366122 0.1951848 14540247
0.77529627 0.034671638 0.19490825 14671320
0.77857155 0.040871531 0.19420846 14737113
0.78363645 0.046288673 0.19517198 14868442
0.78846139 0.055347208 0.19512273 14934235
0.79000002 0.059436832 0.19877528 14868442
0.78900003 0.061947484 0.19168954 14736858
0.79012513 0.065612376 0.19595544 14802649
0.79259992 0.074480489 0.19479281 14473683
0.78900003 -0.081015207 0.20221779 12893621
0.79147822 -0.085300915 0.20547132 12696242
0.73200005 -0.070021525 0.20388836 13616831
0.764 -0.071294032 0.2020687 12959157
0.77425003 -0.07406307 0.20387416 13288379
0.78470004 -0.07782159 0.20478913 13025207
0.72784215 -0.064066462 0.20712307 13551810
0.7315625 -0.066017941 0.20397718 13222587
0.74250007 -0.065811306 0.20072749 12301229
0.72380018 -0.055009771 0.20524016 15196891
0.7218889 -0.044550363 0.20529394 15591908
0.72334218 -0.034385778 0.20512705 15263200
0.72773528 -0.02471347 0.20545542 15131871
0.73000002 -0.020270856 0.2024768 15066591
0.73163909 -0.01431783 0.20464262 14935004
0.73621744 -0.0061273635 0.20580828 14737881
0.74190909 -0.0026006135 0.20348735 14803673
0.74537504 0.0037918142 0.20526557 14737881
0.75060004 0.009028974 0.20379527 14606040
0.7563889 0.012643951 0.20507076 14606296
0.76235306 0.018097892 0.20520191 14606040
0.76780003 0.02181791 0.20487371 14540247
0.77221757 0.026348518 0.20495069 14474454
0.77611113 0.034977715 0.20486838 14671574
0.77900004 0.040372699 0.20877311 14868696
0.78350008 0.044740576 0.20519567 14868696
0.78852171 0.053548388 0.20526546 15000027
0.79000002 0.058644228 0.2039272 14934235
0.78900003 0.061208658 0.20868251 15000028
0.79008347 0.065146402 0.20511542 14868442
0.79306901 0.074396774 0.20495591 14868442
0.72500002 -0.071534753 0.21696761 13287867
0.78900003 -0.079168148 0.21052958 12761522
0.72328579 -0.064958997 0.21500041 13748932
0.71900004 -0.05093614 0.21743593 15657699
0.72032267 -0.055142846 0.21450557 15459806
0.71900004 -0.048018605 0.21822143 15723492
0.72033334 -0.044120807 0.21463963 15526113
0.72282863 -0.034521483 0.21530604 15131612
0.72770005 -0.025143418 0.21501264 15066076
0.73000002 -0.020270856 0.21643317 15131870
0.73119462 -0.014310234 0.21479043 14869212
0.73569238 -0.0051202858 0.21485108 14737626
0.74100006 -0.0014946704 0.21853803 14671833
0.7451936 0.0043579484 0.21482059 14737625
0.75000006 0.0090217572 0.2185587 14474454
0.75604349 0.013717456 0.21512386 14737367
0.76154554 0.019048033 0.21438393 14671318
0.76646149 0.022885917 0.21596608 14539732
0.77188897 0.027156778 0.21449409 14605783
0.77476668 0.034714572 0.21489209 14737369
0.77771431 0.0417381 0.21557951 14737626
0.78266668 0.047371075 0.21485719 14868955
0.78753346 0.055566486 0.21474499 14868699
0.78899992 0.062947072 0.21487561 14868955
0.7902 0.067776538 0.21455021 14868442
0.7925384 0.07461717 0.21497105 14013390
0.72341675 -0.072024323 0.22506677 13683398
0.71899998 -0.06108338 0.22671752 15064792
0.72093111 -0.065589681 0.22478233 14077641
0.71899992 -0.054325733 0.22528313 15526113
0.71999997 -0.055148575 0.22245784 15591648
0.71900004 -0.048243027 0.22315879 15592419
0.72032267 -0.043826453 0.22533195 15394783
0.72286111 -0.034451414 0.22531335 14934489
0.72731429 -0.024666891 0.22510438 14868441
0.73000002 -0.020270856 0.22127518 15131614
0.7313056 -0.01431163 0.22509456 14934492
0.73584211 -0.0064670611 0.2250835 14803162
0.74150008 -0.0021888544 0.22545502 14737626
0.74621433 0.0038038229 0.22512843 14671833
0.75100005 0.0090337861 0.22500488 14606040
0.75679314 0.014669525 0.22490561 14671319
0.76059997 0.019832734 0.22431712 14539733
0.76475996 0.024388017 0.22532497 14539476
0.77099997 0.029128538 0.22467639 14539476
0.77357155 0.034467403 0.22510333 14736854
0.77733338 0.042888645 0.2252668 14737111
0.78200001 0.048310306 0.22468098 14671317
0.78681487 0.055312663 0.22509111 14671318
0.78900003 0.062132187 0.22530608 14539733
0.79061115 0.066887185 0.2248413 14605527
0.72328001 -0.073118709 0.23545521 12959672
0.71866673 -0.06271816 0.2353635 15131100
0.7206924 -0.06777259 0.23448075 13814725
0.71844995 -0.054596085 0.23517938 15855076
0.71899992 -0.046160083 0.23656119 15657698
0.7201001 -0.043006402 0.23369873 15394525
0.72128952 -0.034201194 0.23520623 15131609
0.72492695 -0.024386754 0.23514917 14539987
0.72823536 -0.017011905 0.2360307 14737625
0.73076195 -0.012389071 0.23441717 14803419
0.73418766 -0.0050195237 0.23521258 14737626
0.74150002 -0.0014956789 0.23170389 14737626
0.73800009 0.00023905217 0.23838377 14671833
0.745 0.0046334029 0.23501134 14606039
0.75050008 0.0090277717 0.23100236 14474454
0.74900001 0.01076315 0.23843162 14540247
0.75583339 0.015343615 0.23470449 14474453
0.75900006 0.021567848 0.23983815 14672087
0.76337045 0.025341162 0.23512599 14473940
0.77000004 0.02909076 0.23069596 14736856
0.77275008 0.034691531 0.2349416 14736856
0.77644002 0.04322464 0.23531467 14671063
0.78120005 0.048900105 0.23423438 14671062
0.78635722 0.055683672 0.23500276 14605525
0.78879994 0.062916912 0.23608147 14671317
0.79025006 0.067010097 0.23383319 14605524
0.79228574 0.074649088 0.23491874 12697530
0.72500002 -0.081232585 0.24946125 11380384
0.71900004 -0.070881963 0.24781755 13485760
0.72153336 -0.074991845 0.24505694 12893621
0.7173512 -0.064357087 0.24501076 14933463
0.72000003 -0.068873629 0.2409987 13485760
0.71607882 -0.054335024 0.24524024 15855077
0.71792316 -0.0446258 0.24495384 15855076
0.71896291 -0.03486279 0.24595013 15394525
0.72011119 -0.032545675 0.24197231 15197146
0.71900004 -0.027820302 0.24851888 15065560
0.72119445 -0.0237286 0.24481842 14802645
0.72591668 -0.014722016 0.24519089 14868697
0.73000002 -0.010017199 0.24263696 14868955
0.72850001 -0.0091433134 0.24896014 14868442
0.73163342 -0.0047273729 0.24506114 14737112
0.73611116 0.0018686993 0.24542941 14540247
0.74366671 0.006793621 0.24468851 14474454
0.74763644 0.011380736 0.24531387 14408661
0.75466681 0.0166099 0.24474666 14474454
0.75900006 0.021567848 0.24516866 14342868
0.76241666 0.026132574 0.2449304 14408917
0.76812506 0.031268179 0.24586643 14606039
0.77227283 0.035753503 0.24460651 14737113
0.77593547 0.044731352 0.24495332 14671576
0.78000003 0.049554493 0.241909 14605270
0.77850008 0.051281683 0.24873313 14342868
0.7844643 0.055353556 0.24479902 14605526
0.78854537 0.064111374 0.24497852 14540247
0.79000002 0.068683855 0.24501038 14671833
0.79184622 0.074266963 0.24487165 11842735
0.72350001 -0.081064515 0.25148514 11446947
0.71869999 -0.073124751 0.25629437 13354431
0.72070605 -0.076882303 0.25354022 12762807
0.71470582 -0.065025955 0.2551159 14867156
0.71223807 -0.055625327 0.25507081 15789027
0.71473467 -0.04510951 0.25510627 15789284
0.71815002 -0.034691151 0.25521287 15459805
0.71899992 -0.025819983 0.25559315 14933718
0.72012508 -0.022103561 0.2530517 14868181
0.71900004 -0.019965405 0.25917909 14998997
0.72200006 -0.015583285 0.25513905 14933975
0.72713643 -0.0078858826 0.25506878 14737112
0.73066658 -0.0028414496 0.25448889 14671320
0.73495841 0.0028249894 0.25503489 14473941
0.74253845 0.0079972157 0.25509134 14408661
0.74661106 0.012576795 0.25534213 14408661
0.75368422 0.017706648 0.25477815 14408661
0.75850004 0.022590125 0.25551265 14277075
0.76141185 0.02688136 0.25433418 14408661
0.76692867 0.032054834 0.25529251 14474454
0.77146667 0.036492284 0.25473303 14540247
0.77441669 0.044671331 0.2546798 14671833
0.77764291 0.052657254 0.25561023 14606040
0.78262502 0.057167314 0.25405714 14605784
0.7876364 0.063704163 0.25491938 14605783
0.79000002 0.068683848 0.25518212 14868698
0.71860003 -0.080852136 0.2664358 11710374
0.71713513 -0.074637629 0.26467437 13485503
0.70880008 -0.061828919 0.26744896 15328476
0.71168745 -0.065946683 0.26492259 14670033
0.70845836 -0.055330977 0.26615837 15657699
0.71025008 -0.055470955 0.26184413 15723491
0.70845455 -0.045680109 0.26638362 15657699
0.71073335 -0.044803161 0.26218766 15657699
0.71388644 -0.035425868 0.26462027 15328734
0.71780556 -0.025764233 0.26514006 14802646
0.71888888 -0.017811574 0.26624447 14737110
0.72090006 -0.013603424 0.26408127 14868440
0.72574085 -0.0072477669 0.26512873 14737367
0.73054546 -0.002250375 0.26458442 14605783
0.73441941 0.0037954093 0.26534435 14408404
0.74157149 0.0086728903 0.26433799 14342868
0.74588901 0.013633532 0.2653124 14342868
0.75218183 0.018814515 0.26473537 14277075
0.75776476 0.023204228 0.2649073 14342868
0.76125002 0.027869815 0.26460621 14474454
0.76661116 0.032555666 0.26527134 14540247
0.77145445 0.037355449 0.26495224 14540247
0.77448499 0.044428073 0.26516932 14606040
0.7779091 0.052402627 0.26452121 14606040
0.78242868 0.057168279 0.26516607 14606040
0.7876364 0.06403935 0.26497909 14606040
0.79000002 0.068683855 0.26535383 12369079
0.71833348 -0.082261667 0.27482051 11907240
0.71487874 -0.074983001 0.27513421 13551551
0.70796561 -0.063894868 0.27491686 14670289
0.71055555 -0.069079578 0.27443171 14406860
0.70683336 -0.055203274 0.27464756 15657440
0.70806676 -0.046347063 0.27413389 15657698
0.71028572 -0.041814614 0.2767047 15657699
0.71297061 -0.035550144 0.27507102 15394527
0.71628934 -0.025756853 0.27496916 14933976
0.71841186 -0.015989583 0.27514178 14737111
0.72000003 -0.011565508 0.27218106 14868696
0.72410822 -0.0058933478 0.27503395 14671575
0.73049998 -0.0014734908 0.27101946 14672088
0.72900003 0.0002361369 0.27984983 14408661
0.73305571 0.0045367302 0.27482355 14539733
0.73900002 0.010619449 0.27849862 14606040
0.74492604 0.014264598 0.27478611 14539733
0.75166672 0.019599797 0.27535096 14539989
0.7569524 0.023791816 0.27513614 14539733
0.76055562 0.028140889 0.27415869 14540247
0.7651 0.032851309 0.27561399 14671576
0.77079999 0.037422236 0.27442285 14539990
0.7748127 0.044808954 0.27504537 14540247
0.77880007 0.05130145 0.27526668 14540504
0.78295457 0.056162015 0.27490136 14606040
0.78819996 0.063916609 0.27489802 14540248
0.79000002 0.068683848 0.27552557 10263703
0.79246438 0.074268565 0.2751247 10592924
0.71782619 -0.082622826 0.28520268 12104622
0.70833331 -0.071627058 0.28628573 13815239
0.71323991 -0.075979583 0.28468069 13552068
0.70680004 -0.065296791 0.2848103 14407375
0.7060554 -0.055142742 0.28509116 15591647
0.70748389 -0.046303246 0.28526548 15591648
0.7105 -0.041975483 0.28376719 15591906
0.71360523 -0.035768777 0.28536767 15328734
0.71633309 -0.025759123 0.285328 14933978
0.71836114 -0.015740857 0.28501523 14736856
0.71900004 -0.0098662544 0.28611016 14736856
0.72291178 -0.0050833207 0.28492472 14540247
0.72900003 0.00023613688 0.28496963 14408661
0.73251617 0.0054429444 0.2849586 14474198
0.73833328 0.01060987 0.28429541 14408661
0.74473327 0.015648408 0.28501421 14408405
0.75000006 0.019556338 0.28176618 14473683
0.74900001 0.021283684 0.28928089 14408663
0.75574082 0.024496272 0.28519526 14539732
0.76000005 0.028712958 0.28374392 14605524
0.76446158 0.03370833 0.28554183 14671062
0.77040005 0.038484462 0.28492141 14671063
0.7743237 0.044721618 0.28487799 14605527
0.77862501 0.051745836 0.28613907 14474454
0.78379995 0.056314368 0.28482962 14474454
0.78837025 0.064442962 0.2854158 13158596
0.79000002 0.068683848 0.28292316 10066325
0.79157144 0.074780367 0.28507242 10658717
0.71650004 -0.082379222 0.29161343 12236211
0.70820004 -0.07305149 0.29109654 13683909
0.71171433 -0.077603631 0.29249209 13552326
0.70586371 -0.064067096 0.29342541 13882061
0.70517129 -0.05519164 0.29452053 14736857
0.70653123 -0.045046721 0.2940689 14802649
0.70845467 -0.038367946 0.29593524 14144719
0.71142852 -0.034147404 0.2943356 14539476
0.71456093 -0.02571233 0.29535362 14605270
0.71813893 -0.015735723 0.29501328 14737370
0.71899992 -0.0088843917 0.29606906 14408405
0.72203851 -0.0039870637 0.29498667 14211283
0.72758341 0.000946177 0.29534236 13948112
0.73184621 0.0059073647 0.29484457 14276309
0.73652953 0.012006048 0.295313 14013137
0.7438637 0.016947096 0.29418147 14145235
0.74777782 0.021832908 0.2952261 14013905
0.75438094 0.026235677 0.29438251 14277077
0.75866669 0.030734776 0.2950854 14408406
0.76414824 0.035902359 0.29486233 14539735
0.77050006 0.039932176 0.29127097 14736856
0.77371424 0.045602653 0.2950078 14605527
0.77709997 0.052099884 0.29467472 14408661
0.78352946 0.057011515 0.29506069 14342869
0.78864986 0.065336928 0.29517847 11579564
0.79000002 0.068683848 0.29956782 10526874
0.7907145 0.075095408 0.29507843 10592925
0.71466666 -0.023188829 0.30111632 13420998
0.71775001 -0.015726617 0.30157557 13157825
0.71900004 -0.0090246582 0.30210048 13749963
0.72133332 -0.0037031583 0.30110976 12763838
0.72733337 0.0019406384 0.30077627 13487563
0.73225003 0.0075241933 0.30123898 12961221
0.73800009 0.011756861 0.30230916 12237242
0.74366665 0.016494578 0.30201629 12960965
0.75050008 0.016057849 0.30654937 12237241
0.75662506 0.024604255 0.30329594 13750220
0.76125002 0.026087912 0.30648682 13618634
0.75900006 0.030452011 0.30025047 14079698
0.76416665 0.032749053 0.30318859 14079441
0.77157152 0.037149388 0.30548409 13750733
0.77535003 0.044361077 0.30445221 14211541
0.78100002 0.048702687 0.30804038 13750733
0.778 0.05170466 0.30184793 14342870
0.78461111 0.056383178 0.30558762 14474456
0.78835297 0.06343957 0.30415463 11974065
0.79025 0.068012059 0.30590698 10461081
0.79103464 0.075098179 0.30513299 10592924
0.76100004 0.018061649 0.31173071 12434879
0.76600003 0.025353199 0.31019244 12960194
0.77666664 0.02631803 0.31754041 9539728
0.7766667 0.033585336 0.31330159 12500153
0.78416675 0.036359917 0.31724432 10855842
0.78593761 0.045218661 0.31470528 11645359
0.79000002 0.043716893 0.31991127 9079687
0.78809094 0.054095503 0.31326884 12500923
0.79090905 0.056309093 0.31725034 10132375
0.78900003 0.062132187 0.31027099 11513771
0.79230005 0.065176465 0.31509578 10329753
0.78671443 0.02682873 0.32358107 8882310
0.78820002 0.034208033 0.3217659 9013895
