# .PCD v0.7 - Point Cloud Data file format
VERSION 0.7
FIELDS x y z rgb
SIZE 4 4 4 4
TYPE F F F U
COUNT 1 1 1 1
WIDTH 725
HEIGHT 1
VIEWPOINT 0 0 0 1 0 0 0
POINTS 725
DATA ascii
0.77550006 -0.031519927 0.079845205 12433838
0.78666669 -0.034125764 0.078845464 12368303
0.77557147 -0.023872968 0.078812473 13091770
0.78566676 -0.026105762 0.07751777 12171181
0.77700001 -0.016419094 0.07848227 11710888
0.78612506 -0.01469949 0.077256136 11711143
0.77649999 -0.0079279933 0.079948157 11316385
0.78685719 -0.0060571758 0.078645088 11579814
0.78900003 0.00025557203 0.079388089 11514021
0.77600002 -0.0512206 0.088373505 12697010
0.78633338 -0.053743992 0.087093025 11973544
0.75550002 -0.041615803 0.088688523 12959155
0.76425004 -0.044035431 0.087183341 12762033
0.77458334 -0.045384318 0.085186273 12631218
0.78644443 -0.045568865 0.082607105 12368560
0.79300004 -0.049866669 0.081646994 12236974
0.74663645 -0.033924028 0.087836616 13617085
0.75522226 -0.035310749 0.085611261 13024693
0.76325011 -0.035041276 0.083495401 12893620
0.77362502 -0.035296008 0.081686795 12696498
0.78200006 -0.037276726 0.080514431 12434097
0.74521726 -0.02486491 0.086433381 15065044
0.75514287 -0.026019275 0.083303474 15197145
0.76340014 -0.024774222 0.081276342 14736851
0.74675 -0.015227444 0.086934753 15329244
0.7549001 -0.013541494 0.083905458 16118760
0.76360005 -0.015662918 0.081476733 15987173
0.77050006 -0.011474239 0.081134155 15856357
0.74875003 -0.0076449406 0.088484176 14737366
0.7546429 -0.0046768785 0.087282717 14803415
0.76366675 -0.0051151258 0.083986744 15790053
0.77400005 -0.0051827901 0.081757888 12961467
0.78300005 -0.0024947268 0.080617398 11579814
0.75825006 0.0015776508 0.08827541 14868180
0.76380008 0.0047180513 0.087578103 15921124
0.77345461 0.0050230213 0.085391164 14802131
0.78574997 0.0054664053 0.082276471 11513506
0.79000002 0.0095029166 0.081338115 11514021
0.76700002 0.011021811 0.089743406 15789794
0.77537501 0.014095647 0.088226348 15328730
0.78584629 0.014689626 0.085575543 11315872
0.78625005 0.022345405 0.088309839 12105131
0.77900004 -0.061751872 0.098442093 13223354
0.78658819 -0.064199217 0.096257992 12368045
0.79227275 -0.066010348 0.092529565 11578273
0.76400006 -0.052696515 0.097079828 12169898
0.77341187 -0.055880755 0.094753176 12696753
0.78460002 -0.057788588 0.091430955 11841958
0.74777782 -0.04216012 0.096243985 12893620
0.75547367 -0.04620922 0.094722532 12564656
0.76200008 -0.049255755 0.092277199 12893619
0.74420005 -0.035354249 0.095036 13880515
0.73883337 -0.026570017 0.097978435 15263196
0.74169993 -0.024589058 0.093840577 15131096
0.74447244 -0.014568912 0.094948769 15000538
0.74747622 -0.0062549836 0.095208116 14671832
0.75128573 -0.0020170645 0.094939508 14540247
0.75678122 0.0041825091 0.095135823 14277074
0.76025003 0.0087002609 0.092067763 14276815
0.75900006 0.010906851 0.099468365 14671833
0.76267737 0.015168769 0.095856152 14145487
0.77200001 0.016216198 0.090930074 15526622
0.76783341 0.023018239 0.097629093 14013900
0.77409095 0.025045849 0.094686791 14474193
0.78500009 0.027617136 0.091437235 13684164
0.77600002 0.032692853 0.098580681 13684422
0.78572232 0.034998599 0.095300019 14145741
0.79162502 0.037090879 0.091928221 11316386
0.7871334 0.044602744 0.09787003 14606035
0.78833342 0.054390881 0.098800883 15592672
0.78900003 0.064902782 0.099705793 14672086
0.78900003 0.070443973 0.099705793 11842986
0.78808337 -0.073850431 0.10666061 13486526
0.79276478 -0.077146634 0.1033419 12170924
0.77719998 -0.062338173 0.10531165 12697013
0.7834 -0.067239434 0.10504462 13157305
0.76430768 -0.053159688 0.10470443 11841703
0.77275008 -0.058093131 0.10533997 11973547
0.74583334 -0.042536616 0.10559813 13288379
0.75452948 -0.047350146 0.10480458 12169898
0.73823535 -0.032801308 0.10558967 14736339
0.74247378 -0.037543651 0.10416235 14275530
0.73716676 -0.024782214 0.10436916 15197659
0.73866671 -0.018782282 0.10717825 15197917
0.74339408 -0.014149223 0.105017 14935259
0.74763644 -0.0073942272 0.10466126 14803673
0.75206256 -0.0030548871 0.10516232 14737880
0.75749999 0.0042952565 0.10498045 14737881
0.76000005 0.0091420468 0.10849528 14737880
0.75900006 0.010906851 0.10124519 14737626
0.76124132 0.015551754 0.10523121 14277075
0.76668191 0.024237394 0.10528886 14211282
0.77037501 0.028654281 0.10456453 14013390
0.77366662 0.03486811 0.10460588 13750218
0.77553338 0.044734377 0.10526241 13816266
0.7815001 0.045079738 0.10058752 14276558
0.77725005 0.054271929 0.1069762 13618888
0.78364289 0.055946659 0.10269401 14277071
0.77900004 0.061344706 0.10938401 13947340
0.78443342 0.065078214 0.10548479 14342351
0.78706664 0.074757852 0.10535202 14408400
0.79000002 0.079780273 0.10168156 14540501
0.78880006 0.082244515 0.10743584 14276557
0.79204005 0.086145133 0.10409188 13619399
0.78875005 -0.090683691 0.11813839 14276042
0.79381496 -0.09520907 0.11414021 12697270
0.78783339 -0.083970346 0.11607824 14407371
0.79083329 -0.087375544 0.11227893 13881284
0.78546661 -0.075139694 0.11488589 13091255
0.77837503 -0.062386192 0.11453603 12959926
0.78164709 -0.067022704 0.11535225 12762289
0.76499999 -0.05250534 0.11506713 12762035
0.77416664 -0.05774653 0.11504936 13025463
0.74581259 -0.043302234 0.11552467 13420221
0.75653851 -0.04825886 0.11481167 12433070
0.73651618 -0.034416124 0.11476281 14868438
0.74160004 -0.039690055 0.11454576 14737107
0.73530561 -0.02471935 0.11443738 15395039
0.73849994 -0.017913038 0.11493463 15066589
0.74278277 -0.012910729 0.1154103 14869211
0.74686676 -0.0070998212 0.1150117 14671832
0.75253332 -0.0029241061 0.11482652 14869211
0.75827271 0.0032333964 0.11486442 14869211
0.76036376 0.0083377054 0.11518249 14934491
0.76211417 0.015288643 0.11491552 14803162
0.76711118 0.024195407 0.11459903 14474454
0.77028573 0.028586531 0.11614693 14408661
0.77266687 0.034620408 0.11482675 14211282
0.77491415 0.044568352 0.11503161 14079696
0.7764402 0.054782797 0.11447797 14013646
0.77844459 0.062820926 0.11477278 14144718
0.78075004 0.068337694 0.11511356 14078925
0.78457159 0.075760737 0.1150859 14079182
0.78837502 0.083192818 0.1147372 14210512
0.79049999 0.088158943 0.11469994 14605270
0.7931999 0.094960749 0.1150902 12895166
0.79329044 0.10502959 0.11492115 11777198
0.78885716 -0.10316162 0.12817994 14998997
0.79247832 -0.10605777 0.1240971 13946564
0.7882666 -0.094411612 0.12532412 14341580
0.7906 -0.0982076 0.12100663 14144457
0.7871601 -0.08451356 0.12527306 13551807
0.78503996 -0.075098298 0.12493579 13025207
0.77900004 -0.061751872 0.12488506 12893620
0.78181821 -0.066386931 0.12492109 12696241
0.76436371 -0.052624296 0.12473238 12893108
0.77420008 -0.057749193 0.12502129 12959157
0.74438888 -0.043328475 0.12514101 14276045
0.75483328 -0.048353661 0.12542108 12564657
0.735111 -0.035046484 0.12473098 15000538
0.73444438 -0.024690174 0.12461779 15198177
0.73794127 -0.017136278 0.12546603 15132384
0.74247068 -0.012025746 0.12460089 15000798
0.74668008 -0.0056976741 0.12512237 14934748
0.75120008 -0.0015152448 0.12482099 14935005
0.75693339 0.0039131697 0.12536198 14803419
0.76033348 0.0085529983 0.12307864 14803162
0.76325005 0.015443511 0.12503941 14671833
0.76825005 0.022880644 0.12421193 14606040
0.77118754 0.027106253 0.12543876 14474454
0.77384013 0.034673087 0.12496457 14277075
0.776963 0.04451425 0.12479588 14145489
0.78100002 0.048247945 0.12931946 14276562
0.77850008 0.054472104 0.12161624 14145232
0.78169239 0.055575248 0.12651457 14145232
0.77900004 0.060432881 0.12032592 14276559
0.78330773 0.065001518 0.12459303 14210512
0.78710711 0.075214028 0.12546353 14144719
0.78881818 0.082850881 0.1236893 14079696
0.79061115 0.087040879 0.12571871 14342611
0.79249978 0.09487541 0.12519354 12500665
0.7916944 0.10496992 0.12506652 11777198
0.78900003 -0.11241528 0.13664706 14801362
0.79127783 -0.11624029 0.13374411 14538189
0.78820002 -0.1049212 0.13466266 14932946
0.78810006 -0.094759606 0.13464668 14669774
0.78803998 -0.084606454 0.13463615 13551550
0.78617239 -0.075079538 0.13507903 13354171
0.77880007 -0.061736017 0.13487959 13025207
0.78236365 -0.066765986 0.13499801 13156536
0.75700003 -0.051147163 0.1373028 12367535
0.76314294 -0.053352755 0.13523325 12696243
0.77388245 -0.057833426 0.1346671 12959415
0.73561543 -0.042417768 0.13627093 14736597
0.74456251 -0.046062689 0.13461515 13947081
0.75475001 -0.049228255 0.13336064 12893879
0.73200011 -0.034894872 0.13448247 15263454
0.73202801 -0.024609538 0.1344884 15395042
0.73586363 -0.016357647 0.13550693 15198177
0.74220008 -0.011572521 0.13410136 15000798
0.74624133 -0.0051157381 0.13520393 15000798
0.74900001 0.00024261526 0.13673313 14869212
0.75479418 0.0046726651 0.13493094 15000541
0.75900006 0.010906851 0.13589343 14934748
0.76346666 0.016043162 0.13466685 14868955
0.76900005 0.021852009 0.13498349 14737113
0.7717728 0.026614964 0.13497709 14605783
0.77528572 0.03454487 0.13485655 14408404
0.77825004 0.040789742 0.13250864 14277076
0.7828846 0.045795217 0.1359424 14407892
0.78523338 0.055403117 0.13507953 14342098
0.78711122 0.064544946 0.13488764 14276305
0.78874987 0.074038528 0.13437307 14210769
0.79000002 0.079163812 0.13651201 14342868
0.79143995 0.085487396 0.13521773 14605783
0.79233325 0.10505514 0.13536981 11777198
0.79167998 -0.12510714 0.14496925 12564917
0.78899986 -0.11398529 0.14320415 14801617
0.79000002 -0.11662646 0.14717692 14736082
0.78892291 -0.10523018 0.1443058 15130582
0.79000002 -0.10377309 0.14930372 15327448
0.78899974 -0.094472393 0.14383742 14209223
0.79000002 -0.096375473 0.14907254 14275017
0.78873318 -0.084681816 0.14490983 13551551
0.78669238 -0.07539814 0.14524293 13222586
0.77625 -0.061533876 0.14261429 13090744
0.78305262 -0.066804446 0.14459126 13156793
0.74529999 -0.051055908 0.146346 13157312
0.75550002 -0.053523313 0.14445774 12367538
0.76485723 -0.057053681 0.14500321 12893623
0.77266669 -0.058839355 0.14316285 13024951
0.73275006 -0.044122849 0.14515953 14736597
0.74150002 -0.047930941 0.141872 14078413
0.72900003 -0.032416854 0.14491448 15460832
0.73023796 -0.036477763 0.14389014 15394526
0.72900003 -0.027800897 0.14454065 15526625
0.73072416 -0.023769233 0.14442745 15395040
0.73449999 -0.015693519 0.14519566 15263456
0.74111122 -0.010747118 0.14396723 15132128
0.74565512 -0.0050499756 0.14520912 14934748
0.75484383 0.0047289482 0.14486827 14934748
0.75900006 0.010906852 0.1447776 14803419
0.7627241 0.016263178 0.14496125 14803419
0.76825005 0.02228076 0.1456413 14606040
0.77176195 0.026579086 0.14484596 14539991
0.77592605 0.03497063 0.14487556 14539990
0.77875006 0.040815655 0.14808866 14474454
0.7837587 0.045497354 0.14491163 14474197
0.78688002 0.055519212 0.14549066 14473941
0.78789294 0.065009862 0.14508496 14605270
0.78879291 0.07399226 0.14508007 14671063
0.79000002 0.079516076 0.14448205 14605527
0.79149997 0.085295536 0.14508596 14671577
0.79363996 -0.12422769 0.15491709 10460055
0.79072016 -0.1145134 0.15545668 14538961
0.79000014 -0.10516015 0.15531424 15130328
0.78899992 -0.093136564 0.15650298 13946050
0.79000002 -0.096969925 0.15372908 14077895
0.78832 -0.084637366 0.15498334 13551548
0.78653842 -0.07509926 0.1548458 13222839
0.76800007 -0.06087989 0.15817912 13025978
0.77415383 -0.063043706 0.15498744 13091513
0.78299999 -0.067799464 0.15439458 13157048
0.74524999 -0.052682783 0.15538166 13223103
0.75555551 -0.056358218 0.15561445 12433844
0.76216674 -0.058633234 0.15429564 12828600
0.72900003 -0.040722314 0.15868108 15262941
0.73229432 -0.045200299 0.15506041 14868183
0.74000001 -0.049998544 0.15414603 13091518
0.72900003 -0.035431851 0.15799843 15592163
0.72999978 -0.034533959 0.15324607 15526626
0.73125023 -0.024582153 0.15489127 15460833
0.73529172 -0.015965374 0.15488416 15328992
0.74072737 -0.010951834 0.15555871 15065821
0.74507153 -0.0049239462 0.15501407 15000028
0.74860001 0.00024248571 0.15593605 15000028
0.75532264 0.0053876541 0.15493828 14934748
0.75900006 0.010906852 0.15543859 14869212
0.76259261 0.016519351 0.15488398 14803419
0.76800007 0.022273652 0.15458487 14737369
0.77194744 0.026884304 0.15537891 14737112
0.77470005 0.034711115 0.1550262 14671576
0.77740008 0.042567242 0.15547475 14605783
0.78213334 0.04822658 0.15413135 14474454
0.78574073 0.055236883 0.15488365 14474197
0.78812003 0.064830959 0.15494494 14605270
0.78899992 0.073051602 0.15457444 14539477
0.79000002 0.078393221 0.15577662 14473684
0.79244006 0.085596055 0.15505233 13815498
0.7913202 -0.11460181 0.16483597 11644328
0.78900003 -0.10244115 0.1667542 14275275
0.79000002 -0.10635681 0.16379976 14802134
0.78891402 -0.094726451 0.16539057 13946051
0.79000002 -0.099611931 0.16086249 14209481
0.78796673 -0.084598862 0.16506039 13419706
0.78606898 -0.075323932 0.16482119 13353913
0.74700004 -0.060963947 0.16959409 12235693
0.75450003 -0.06068879 0.16686881 12038313
0.76428574 -0.061865326 0.16508184 12959415
0.77500004 -0.065672189 0.16457964 13156536
0.78120005 -0.069241479 0.16455422 13222328
0.73400003 -0.053577997 0.16616605 13617348
0.74471432 -0.056793999 0.16434062 12630708
0.75475001 -0.058503956 0.16339765 12499121
0.72860008 -0.042918198 0.16533008 15197149
0.7308749 -0.047671746 0.16411334 15065306
0.72716665 -0.034661114 0.16508684 15526113
0.72850007 -0.027618825 0.16567685 15460322
0.73095828 -0.023005344 0.16452543 15460321
0.73533338 -0.015247022 0.1650473 15131614
0.74100012 -0.010168143 0.16562986 14803164
0.74493104 -0.0048654322 0.16491425 14803164
0.74800009 0.00082676543 0.16573448 14934750
0.75455999 0.0059754159 0.16480927 14803421
0.75900006 0.010906851 0.16521117 14869213
0.76253569 0.01612897 0.16476898 14737626
0.76840001 0.021834958 0.16545983 14540248
0.77186376 0.026289487 0.16488954 14539990
0.77464002 0.034708556 0.16498904 14671320
0.7776472 0.042982079 0.16445182 14737113
0.78169239 0.048115134 0.16550547 14605527
0.78592855 0.055651255 0.16496229 14408147
0.78829998 0.064846374 0.16513009 14605270
0.78899992 0.072616987 0.16598275 14671063
0.79035717 0.078099035 0.16437148 14605270
0.79121441 -0.11438829 0.17467083 10131091
0.78900003 -0.1041035 0.17728245 12302257
0.79000002 -0.10620042 0.17323039 12630965
0.78899992 -0.093836002 0.17445751 13748415
0.79000002 -0.096339896 0.17693809 13683135
0.7888332 -0.084538102 0.17524494 13419452
0.79000002 -0.088515505 0.17935653 13419452
0.77560002 -0.071288869 0.17753586 13353659
0.78643483 -0.075555161 0.17462592 13353659
0.73766667 -0.061641965 0.17610879 12498864
0.74433339 -0.063070424 0.17460009 12301485
0.75400001 -0.066830613 0.1782376 12958901
0.76100004 -0.069232568 0.17989862 13156280
0.77375007 -0.067677513 0.17113796 13353659
0.72880006 -0.051630586 0.17774586 14867927
0.73183334 -0.055847034 0.17488734 13814470
0.72605002 -0.044598598 0.17502961 15394527
0.73000002 -0.049322888 0.17086135 15131355
0.72427785 -0.034522232 0.17545305 15460578
0.72741669 -0.026368683 0.17472424 15328993
0.73084611 -0.021346908 0.17540199 15197664
0.7348966 -0.015178204 0.17509088 14935006
0.74160004 -0.010176376 0.17531392 14737628
0.74496675 -0.0049864184 0.17523661 14868957
0.74792314 0.0015903327 0.17505544 14935007
0.75413644 0.006670055 0.1748216 14803421
0.7587778 0.011495936 0.1758199 14803421
0.76300001 0.016726879 0.17481193 14671834
0.76866674 0.021842537 0.1754121 14540248
0.77172732 0.026613353 0.17471418 14474455
0.77490008 0.034720618 0.17502165 14605785
0.77807701 0.041867588 0.17440763 14802650
0.78194731 0.047560822 0.17540784 14802651
0.78659993 0.055501424 0.17490174 14605271
0.78855997 0.064867996 0.17533773 14407892
0.78900003 0.071264893 0.17502493 14342099
0.79041678 0.076970913 0.17521118 14473684
0.78900003 -0.1041035 0.18097657 10986399
0.79078269 -0.10534674 0.18541172 10065299
0.79000026 -0.094988436 0.18490474 13091513
0.78890914 -0.082349189 0.18414503 13419450
0.79000002 -0.086296223 0.18564454 13353914
0.76000005 -0.070920765 0.1876685 13156535
0.77650005 -0.07488618 0.18477465 13222072
0.78650004 -0.077692173 0.18377674 13419451
0.73633337 -0.062393084 0.18441062 12893623
0.74475002 -0.065576769 0.18520442 12564657
0.75500005 -0.068686709 0.1846578 12959157
0.72677273 -0.052897509 0.18518268 14801877
0.73153335 -0.058333125 0.18457717 13617604
0.72251362 -0.044705857 0.18501475 15526370
0.72291422 -0.034576975 0.18515947 15460578
0.72683334 -0.025850916 0.18493736 15197663
0.7304545 -0.021060271 0.18511386 15263200
0.73417151 -0.014682231 0.18538681 14934749
0.74133343 -0.010172716 0.18219058 14869214
0.73900002 -0.0084106857 0.18853797 14869214
0.74362081 -0.0048584295 0.18521181 14935006
0.74668002 0.0028319664 0.18497148 14869213
0.75241667 0.0080254609 0.18417722 14869213
0.75700003 0.012430938 0.18559594 14803420
0.76247364 0.01781903 0.18475382 14671835
0.76800007 0.02249839 0.18582283 14606042
0.77161914 0.026832093 0.1847318 14540249
0.7746923 0.034571793 0.18515761 14606041
0.77762502 0.041896112 0.18519329 14671834
0.78200012 0.047423027 0.18454131 14737371
0.78659999 0.055501424 0.18502966 14737370
0.78861529 0.06473051 0.18479332 14473685
0.78900003 0.070443973 0.18097657 14407893
0.79088473 0.074887566 0.1850411 14407892
0.79106259 -0.094887204 0.19476201 11578021
0.78845459 -0.081966691 0.19511379 13156792
0.79000002 -0.0866661 0.19507647 13090999
0.7626667 -0.071469642 0.19427864 12893365
0.7732501 -0.075326666 0.19546351 13025206
0.78116673 -0.078382149 0.19472067 13025206
0.73550004 -0.062178861 0.19625296 14143692
0.74509102 -0.065250531 0.19484676 12235438
0.75633335 -0.068808012 0.1956176 12827573
0.72596008 -0.053745452 0.19500098 14933976
0.73099995 -0.058974583 0.19419682 13815240
0.72259998 -0.044474028 0.19523053 15592162
0.72405714 -0.034582287 0.19533157 15394785
0.72744113 -0.02470337 0.1951558 15131869
0.73000002 -0.020270856 0.19222313 15065821
0.72900003 -0.018536486 0.19963953 15000282
0.73185724 -0.01419946 0.19483891 15000284
0.73673677 -0.0067483094 0.19521862 14868955
0.74153847 -0.0026965188 0.19439222 14803420
0.74596667 0.0037398159 0.19502828 14737627
0.75083333 0.0090317801 0.19419102 14803420
0.75633341 0.013234518 0.19540431 14737628
0.76135719 0.018580634 0.1946236 14671834
0.76666665 0.023224181 0.19523688 14606041
0.77161545 0.027625445 0.19463629 14540248
0.77444834 0.034825999 0.19501823 14540247
0.77725011 0.041990217 0.19499804 14737626
0.78183329 0.047842633 0.19488995 14737626
0.78595996 0.055455789 0.19499812 14803419
0.78840739 0.065060742 0.19519541 14671577
0.79181486 0.074201256 0.19500971 14342356
0.79330426 -0.094701551 0.20457497 9999248
0.78837508 -0.081643678 0.20413452 13025207
0.79076475 -0.086315937 0.20577461 12433072
0.76300001 -0.071200714 0.20180577 13222074
0.77537507 -0.075081043 0.20417376 13024950
0.78425008 -0.078691535 0.20467725 12959414
0.72813332 -0.063403316 0.20735589 13683909
0.73149997 -0.065976143 0.20441055 13156795
0.74400008 -0.065944269 0.20113359 12432818
0.75600004 -0.068777688 0.20172417 12827317
0.72553849 -0.054686412 0.20535015 15131355
0.73049998 -0.059617355 0.20090477 13618116
0.72362167 -0.044775024 0.20562638 15657699
0.72239476 -0.03425511 0.20512481 15328735
0.72504997 -0.024542067 0.20508635 15197406
0.72821432 -0.017176108 0.20624141 15066076
0.73095655 -0.012558417 0.20404328 15000283
0.73500001 -0.0052861371 0.20508908 14868697
0.74033338 -0.0014933258 0.20274241 14869209
0.74514711 0.0043539852 0.20523861 14737626
0.75000006 0.0090217572 0.20100106 14671835
0.75557703 0.013859027 0.20534834 14671834
0.76055562 0.01904083 0.20432483 14408918
0.7652632 0.023825264 0.2050432 14408918
0.77109993 0.028411051 0.20412818 14540247
0.77407426 0.034483012 0.20513646 14605783
0.77763164 0.042603862 0.20538759 14868698
0.78153336 0.047945928 0.20499872 14934748
0.78536671 0.055414937 0.20496278 14868956
0.78791684 0.064431302 0.2049372 14737627
0.78900003 0.070443973 0.20683545 14802649
0.79192001 0.075084068 0.20485565 14737370
0.79308349 -0.084996544 0.21518235 10590869
0.72742856 -0.071773089 0.21696447 13223101
0.78800005 -0.079067811 0.21118511 13025207
0.79300004 -0.079569504 0.21902262 12037799
0.72490007 -0.064936429 0.21522442 13815239
0.73000002 -0.069830209 0.21016705 13091772
0.71899998 -0.052426964 0.21806112 15657699
0.72119367 -0.055319354 0.21405466 15394271
0.71899992 -0.044371691 0.21794087 15591906
0.72054172 -0.044467658 0.21334632 15591906
0.71899992 -0.032869879 0.21723954 15065564
0.72000009 -0.035022508 0.21353853 15328734
0.72160518 -0.024077917 0.21503797 15065821
0.72705889 -0.016882565 0.21502589 14934748
0.73077768 -0.011737594 0.21466841 14803419
0.7348572 -0.0050385366 0.21488182 14737626
0.74478787 0.0046355547 0.21484523 14737370
0.75486219 0.014514229 0.21512777 14671577
0.76020002 0.019822305 0.21352176 14671834
0.76463997 0.024599887 0.2149086 14408662
0.77040005 0.029105872 0.21458273 14474455
0.77364296 0.034859128 0.21490452 14605784
0.77703857 0.043562695 0.21517317 14868699
0.78057146 0.04932994 0.21428227 14934491
0.7843703 0.055142101 0.21520929 14934492
0.78820693 0.064966947 0.21508998 14868956
0.78900003 0.070443973 0.21145311 14473941
0.79134786 0.074684627 0.21510261 13948110
0.72407693 -0.072002433 0.22488818 13748933
0.71899998 -0.061414007 0.22698805 14933720
0.7215001 -0.065867737 0.22443907 13946056
0.71899992 -0.054350615 0.22479393 15591906
0.72000003 -0.058760431 0.22077231 15262941
0.71899992 -0.044371694 0.22467369 15460320
0.71899992 -0.035114136 0.22585197 15000026
0.72000009 -0.032404825 0.22230463 14802905
0.71900004 -0.027259238 0.22775953 14737110
0.72063345 -0.023607424 0.22456495 14802905
0.72600007 -0.01618932 0.2254401 14869211
0.73100001 -0.011398856 0.22448713 14803419
0.7355454 -0.0058609466 0.22514485 14803419
0.74150008 -0.0014956789 0.22476161 14737626
0.74571437 0.0046377815 0.22501461 14671833
0.75536674 0.014696795 0.22477335 14540247
0.76000005 0.01981709 0.22681034 14540247
0.76483995 0.025180528 0.22456355 14408661
0.77000004 0.02909076 0.22889338 14540247
0.77325934 0.034447547 0.22483374 14606041
0.77724141 0.044300839 0.22514816 14606041
0.78000003 0.049554493 0.22456205 14803420
0.78446436 0.0555497 0.22525539 14474455
0.78823817 0.064139262 0.22491285 14474455
0.79000002 0.068683848 0.22651635 14408921
0.79182142 0.074209251 0.22485362 13224390
0.72296298 -0.073422998 0.23553117 13024952
0.71876001 -0.063102104 0.23513131 15196378
0.72045463 -0.067997515 0.23425016 13748933
0.71780497 -0.054277927 0.23509805 15854821
0.71877778 -0.044356938 0.2346997 15526113
0.71899992 -0.034272537 0.23477279 15065562
0.71899992 -0.025389025 0.23505335 14539732
0.72025001 -0.021264264 0.23222983 14802648
0.72412503 -0.015221429 0.23538172 14868698
0.73033333 -0.010021772 0.23248863 14737370
0.73400009 -0.0051323874 0.23525712 14737626
0.74133343 -0.0014953427 0.23251934 14671833
0.74513888 0.0046096388 0.23516345 14606040
0.74879998 0.010760276 0.23661406 14606040
0.75529635 0.015249542 0.23499662 14408661
0.7604 0.019827519 0.23493879 14408661
0.76489472 0.023814548 0.23462813 14408661
0.77111113 0.02833133 0.23584276 14474454
0.77389288 0.034869324 0.23490344 14606040
0.77620012 0.044644076 0.23514755 14605782
0.77866673 0.051900547 0.23663397 14540245
0.78256524 0.055854492 0.23453782 14540246
0.78792 0.064152554 0.23510404 14539991
0.79000002 0.068683848 0.23298927 14539992
0.79170382 0.074601889 0.23493163 12566201
0.72600001 -0.081344627 0.24980533 11183775
0.71900004 -0.070461169 0.24823835 13287868
0.72180003 -0.074682511 0.24503523 12959415
0.71800005 -0.064187691 0.24496061 14998742
0.72000003 -0.068873629 0.2409987 12958903
0.71662128 -0.054403756 0.24557866 15855077
0.718027 -0.044422712 0.24469772 15855078
0.71899992 -0.034272537 0.24487202 15394527
0.71899992 -0.02501498 0.24487202 14868441
0.72375 -0.015255554 0.24521282 14868699
0.72850001 -0.0091433134 0.2481074 14737626
0.73155189 -0.0046025664 0.24492179 14671576
0.7362501 0.001533361 0.2453558 14605783
0.74375004 0.0063387793 0.24444635 14605527
0.74750006 0.011442496 0.24582677 14606040
0.75437039 0.016669283 0.24504131 14474454
0.75875008 0.022004951 0.24730776 14408660
0.76359993 0.025422936 0.24486113 14408661
0.77100003 0.02912854 0.24272583 14540247
0.76850003 0.030833162 0.24913624 14606040
0.77292866 0.03463215 0.2448186 14671833
0.77551615 0.044880673 0.24488084 14606041
0.7784546 0.052107628 0.24466103 14605784
0.78206247 0.057125289 0.2449525 14606040
0.78732145 0.064835608 0.24490272 14606041
0.79148167 0.074169859 0.24495567 11776685
0.72500002 -0.081232585 0.25115851 11710632
0.71869224 -0.071725771 0.25596127 13354176
0.72103852 -0.076635659 0.25445816 12894137
0.71484208 -0.064861871 0.25489798 14801878
0.71204877 -0.055508312 0.25512299 15789285
0.71518749 -0.045071181 0.25483361 15855078
0.71840549 -0.034400824 0.2549178 15328990
0.71899992 -0.025014978 0.25497109 14868441
0.71900004 -0.019965405 0.25917909 14802903
0.72175002 -0.015670959 0.25509846 14803162
0.72755557 -0.0084674554 0.25516373 14671833
0.73105556 -0.0033746073 0.25477663 14606040
0.7357083 0.0028277682 0.25486574 14474454
0.74291664 0.0080682291 0.25475639 14408661
0.7467618 0.012981822 0.25519922 14408661
0.75312501 0.018208047 0.25494692 14342867
0.75821429 0.022814352 0.25518355 14342866
0.7614001 0.027223116 0.25426072 14474452
0.76654547 0.031571545 0.25527021 14540246
0.77168429 0.036192846 0.25477833 14671575
0.77560014 0.044611234 0.25494 14737369
0.77900004 0.051314622 0.25254077 14671834
0.78245836 0.055439841 0.25526363 14540248
0.78777272 0.06430202 0.25462934 14540249
0.79000002 0.068683848 0.2570315 14737372
0.71900004 -0.080981113 0.26801586 12170412
0.72000003 -0.08348158 0.26796722 11644069
0.71773529 -0.074245214 0.26514551 13617090
0.72000003 -0.078424983 0.26178694 11840933
0.70900005 -0.061735529 0.26829937 15327962
0.71156251 -0.065623157 0.26518846 14735827
0.70900005 -0.05753075 0.26735884 15657184
0.71019232 -0.05463405 0.26412499 15789284
0.7125001 -0.045633942 0.26517326 15723491
0.71688628 -0.035235859 0.26482227 15394783
0.71845156 -0.025157733 0.26500183 14737110
0.71899992 -0.018394427 0.26613629 14736854
0.72104549 -0.013881927 0.26436457 14868697
0.72652006 -0.0074477945 0.265084 14671576
0.7310769 -0.0023959351 0.26484758 14540247
0.73478585 0.0032539114 0.26541772 14342868
0.74218196 0.0081390021 0.26453149 14342868
0.7463668 0.014050258 0.2653721 14342868
0.75185722 0.019353939 0.26448369 14342868
0.7570526 0.023474528 0.26505876 14408404
0.7610001 0.027941598 0.26411441 14605526
0.76592863 0.032013707 0.26507682 14605525
0.77157152 0.03676429 0.26509768 14671318
0.77520597 0.044612143 0.26523972 14737368
0.77887499 0.051762305 0.26617488 14802906
0.78290486 0.056287985 0.26458374 14671576
0.78769571 0.063996382 0.26477939 14606040
0.79000002 0.068683855 0.26535383 12369079
0.71857893 -0.082461737 0.27496263 12104105
0.72000003 -0.085728958 0.27133831 10789017
0.71522862 -0.07512074 0.27522662 13617346
0.70820689 -0.064259581 0.27518252 14670290
0.71062499 -0.068601303 0.27300319 14406606
0.70784628 -0.055557955 0.27491409 15657698
0.71000004 -0.051295828 0.27089396 15722720
0.70887506 -0.048932638 0.27606505 15723491
0.71126664 -0.044390976 0.27476135 15723491
0.71516204 -0.035690758 0.27494282 15460062
0.7174722 -0.025799971 0.27458453 14868440
0.71883327 -0.016482182 0.27555424 14802905
0.72028571 -0.012051679 0.27289039 14802906
0.72490919 -0.0064404234 0.27539408 14605783
0.73049998 -0.0017583147 0.27329922 14540247
0.73333347 0.0045377305 0.27492857 14408661
0.74000001 0.0089014657 0.27021369 14342868
0.73900002 0.010619449 0.27763361 14408661
0.74503225 0.014934462 0.27508655 14474197
0.75000006 0.019556338 0.27210948 14474454
0.75603449 0.02460351 0.27527103 14474454
0.76033336 0.028725551 0.27229786 14540247
0.76441938 0.034025483 0.27554312 14671577
0.77083331 0.038145307 0.27365243 14736856
0.77396977 0.044947971 0.27492833 14671063
0.77741671 0.052273337 0.27553335 14736856
0.78250009 0.057157766 0.27439576 14736856
0.78738093 0.063719489 0.27487463 14671320
0.79000002 0.068683848 0.27552557 10263703
0.79211122 0.074365325 0.27516234 10658717
0.71642858 -0.082030736 0.28500354 12170414
0.7083751 -0.071700081 0.28581947 13946825
0.71232003 -0.075879313 0.28478247 14012362
0.7070002 -0.065249763 0.28476354 14473168
0.70660526 -0.05501087 0.28500625 15526113
0.70789289 -0.046762455 0.28541708 15460320
0.71072727 -0.042574659 0.28372484 15657699
0.71392685 -0.035756983 0.28535023 15328734
0.71747357 -0.025976583 0.28497151 14934233
0.71866667 -0.015748885 0.28513545 14737110
0.71900004 -0.0098662544 0.28695175 14868696
0.72370589 -0.00523633 0.28473806 14605783
0.73285723 0.0045102122 0.28490719 14474197
0.73900002 0.010619449 0.28455362 14408661
0.74486214 0.016061712 0.28485397 14539990
0.74849999 0.021269478 0.28645822 14342611
0.75437045 0.025433449 0.28487432 14474197
0.75877786 0.031035371 0.28595126 14540247
0.76249999 0.03646354 0.28473595 14606040
0.76780003 0.042669356 0.28647506 14540249
0.77218193 0.046513319 0.28418139 14605527
0.77619052 0.053469561 0.28524366 14605270
0.78190005 0.058096081 0.28386533 14539477
0.78759265 0.0646547 0.28527048 13092544
0.79000002 0.068683848 0.28199846 10526876
0.79185182 0.074615546 0.28502685 10724510
0.7155 -0.082681827 0.29141563 12236209
0.70816666 -0.07271634 0.29091713 13552069
0.7118572 -0.078333981 0.29207572 13157312
0.70590913 -0.064071767 0.29344395 13947082
0.70537132 -0.055207424 0.29460344 14802394
0.70645458 -0.045023322 0.29389569 14868697
0.7081818 -0.036769971 0.29521796 14144976
0.71121424 -0.033305209 0.29264262 14999770
0.7146191 -0.025812013 0.29499382 14605269
0.71836114 -0.015741244 0.29510486 14803161
0.71899992 -0.0088843917 0.29606906 14474198
0.72281486 -0.0040215771 0.2947062 14211026
0.72840011 0.00023594254 0.29666913 14013905
0.73316133 0.0049517662 0.29473189 14276563
0.73883337 0.010617055 0.29486701 14342355
0.74403459 0.01586278 0.29468825 14276819
0.7477693 0.022461357 0.29459542 14145491
0.75313342 0.026928442 0.2940478 14277076
0.75792855 0.031804603 0.29488334 14277076
0.76270586 0.037326857 0.29478568 14408662
0.76777786 0.04238832 0.29433641 14606040
0.7718125 0.047003936 0.29538155 14540247
0.77577776 0.053325292 0.29467815 14539477
0.78216672 0.058238428 0.29598722 14407891
0.78793341 0.064079337 0.29472715 12303030
0.79028571 0.068180293 0.29676959 10395290
0.79216003 0.074438304 0.29482538 10658717
0.70500004 -0.058361467 0.3003442 9671567
0.71500003 -0.022781191 0.3008377 13092803
0.71816665 -0.015736235 0.30175054 13026496
0.71900004 -0.0090246582 0.30210048 13750221
0.72175002 -0.0039864816 0.30114287 13289926
0.72700006 0.00023548906 0.30120704 12828861
0.73399997 0.0063545764 0.30143195 13684172
0.7451818 0.013728836 0.30302733 12960448
0.75449997 0.017908549 0.30642039 12763067
0.75674999 0.024606343 0.30334714 13684426
0.7610001 0.025780765 0.30638695 13421511
0.76433343 0.033851855 0.30295694 14145491
0.77033335 0.03691845 0.30533466 13948369
0.77447075 0.045046106 0.30424047 14145490
0.78100002 0.04870503 0.30895337 13948369
0.77749997 0.052430805 0.30301905 14539991
0.78478569 0.057211012 0.30559802 14539992
0.78844452 0.06198648 0.30410582 13684172
0.79160005 0.066601485 0.30573449 10329497
0.75750005 0.013545862 0.31118307 12039347
0.76700002 0.025386296 0.31059739 13157826
0.77600002 0.025684178 0.31696689 10263447
0.78050005 0.027661458 0.31880438 10000532
0.77700001 0.036631107 0.31191844 12960962
0.78400004 0.03591568 0.31722069 10789794
0.7852667 0.04486667 0.31468976 11645104
0.79000002 0.044641595 0.31991127 9211020
0.78783339 0.053742576 0.31350222 12303288
0.79079998 0.056906689 0.3170889 10329753
0.78900003 0.061208658 0.31027099 13487561
0.78733343 0.015610159 0.3277421 9013124
0.77900004 0.02213617 0.32092774 9078660
0.78675002 0.025353191 0.32435054 9013637
0.79116672 0.026187731 0.32810128 9342858
0.78833342 0.033474401 0.3216975 9145225
