# .PCD v0.7 - Point Cloud Data file format
VERSION 0.7
FIELDS x y z rgb
SIZE 4 4 4 4
TYPE F F F U
COUNT 1 1 1 1
WIDTH 628
HEIGHT 1
VIEWPOINT 0 0 0 1 0 0 0
POINTS 628
DATA ascii
0.78900003 -0.1512036 0.12925881 11840933
0.78833336 -0.14430952 0.12745683 13683910
0.79177785 -0.14545423 0.12311973 12170670
0.78765213 -0.13507086 0.12638986 11185321
0.79159999 -0.135024 0.12134486 12105390
0.78823525 -0.12554877 0.12685254 12105906
0.79175007 -0.12439074 0.12206165 11908781
0.78850007 -0.11588152 0.12809962 11842730
0.79285723 -0.11464245 0.12360986 11645352
0.78900003 -0.10687409 0.12925881 10987678
0.78900003 -0.082862265 0.12925881 11382183
0.78900003 -0.077321082 0.12925881 11513769
0.78695464 -0.15383004 0.13553582 14341066
0.79020005 -0.15772343 0.13241491 12696242
0.77900004 -0.14244851 0.13696675 14868951
0.78340906 -0.14554729 0.13367112 15066074
0.77875012 -0.13586919 0.13730241 10856358
0.78244996 -0.13456145 0.13257727 10790821
0.77900004 -0.12649155 0.13673881 14408411
0.78227293 -0.12494013 0.13453102 13158340
0.77900004 -0.11646146 0.13856246 13092033
0.78338712 -0.11486715 0.13436337 12500149
0.78441179 -0.10506131 0.13514061 12433842
0.78603131 -0.09508466 0.13497366 12500147
0.78549993 -0.084982224 0.13532957 12565940
0.78620011 -0.075205401 0.13523374 12434613
0.78688222 -0.065356195 0.13562407 12040370
0.79000002 -0.061699148 0.13127203 11777198
0.7868461 -0.054864489 0.13605618 12303544
0.79000002 -0.056150928 0.13127203 13290695
0.78636116 -0.044847663 0.13526201 12566459
0.78626674 -0.034717627 0.1352458 12499635
0.78621203 -0.025010167 0.13498466 11842734
0.78560603 -0.014958881 0.13538121 11514026
0.78600007 -0.00526552 0.13519886 11185061
0.78594464 0.0048543573 0.13518919 11447979
0.78633344 0.014981738 0.13525669 11579049
0.78619993 0.025101526 0.13615513 11381156
0.79000002 0.025222853 0.13127203 11118235
0.78603995 0.035216589 0.13612683 11316128
0.79000002 0.035394575 0.13127203 11117205
0.78582352 0.045052953 0.13538396 11578786
0.78616673 0.054914698 0.13528901 11644579
0.79000002 0.058512129 0.13127203 10724763
0.78623074 0.064886577 0.13630192 11580072
0.79000002 0.064985044 0.13127203 10527645
0.7864483 0.074977219 0.13607144 11514283
0.79000002 0.075156771 0.13127203 10724254
0.78665221 0.084727399 0.13655476 11776939
0.79100001 0.086596176 0.1316682 10789788
0.78784621 0.093042359 0.137722 12369332
0.79305005 0.09549921 0.13288651 11645353
0.78663641 -0.15552665 0.14494309 13946053
0.77900016 -0.1432952 0.14533603 14539218
0.78109097 -0.14869151 0.14491907 14406860
0.77878273 -0.13592768 0.14320095 11382188
0.78010011 -0.13360953 0.14825471 10921383
0.7790001 -0.12723759 0.14287291 13750480
0.78004003 -0.12370244 0.14605197 12829377
0.77899998 -0.11359571 0.14168872 12434873
0.78039134 -0.11516 0.14619799 12303033
0.78062868 -0.10495616 0.14511858 12105647
0.78183991 -0.094921768 0.1445585 11973803
0.78199977 -0.084873132 0.14458813 11644836
0.78211981 -0.07481543 0.14460981 11842474
0.78276688 -0.064797722 0.14472875 11645612
0.78308022 -0.054742947 0.14478701 11382960
0.78246677 -0.044625502 0.14467317 11710898
0.78227997 -0.034541626 0.14463875 11644847
0.78288019 -0.025404723 0.14475055 11118761
0.78276688 -0.015323034 0.14473023 10658722
0.78203988 -0.0052391794 0.14459568 10921377
0.78246671 0.004834516 0.144674 10658207
0.78268015 0.014910543 0.14471346 10394778
0.78209984 0.024969803 0.14460565 10460054
0.78157675 0.035158105 0.14471975 10591892
0.78144449 0.045072563 0.14539838 10789012
0.78195983 0.055170957 0.14458063 11248279
0.78206438 0.065395325 0.14477654 11314585
0.78126663 0.075239316 0.14536527 10986651
0.77900004 0.081708841 0.1488965 10658458
0.7810384 0.084502816 0.1446898 11448229
0.7863031 0.095312819 0.14487991 11908526
0.78900003 0.10184405 0.14772943 11119265
0.79178947 0.10523181 0.14454305 11184802
0.78662497 -0.15466771 0.15533872 13617602
0.77900016 -0.14222054 0.15474738 14210512
0.78100008 -0.14769116 0.1547626 14341838
0.77900004 -0.1383453 0.15223986 10395290
0.78108704 -0.13473976 0.1556299 10132378
0.78100014 -0.12498836 0.15537405 12500407
0.78112006 -0.11494903 0.15539776 11579564
0.78196752 -0.10485841 0.15538873 11448236
0.78230011 -0.094978265 0.15471752 11776686
0.78258365 -0.084936358 0.15477285 11775914
0.78253353 -0.074855439 0.15476342 11907498
0.78272253 -0.064794384 0.15480047 11644580
0.78240007 -0.054695483 0.15473726 11711141
0.78211093 -0.044604145 0.15467925 11448234
0.78246677 -0.034549762 0.15475075 11710635
0.78300023 -0.025408383 0.15485528 11315360
0.78297263 -0.015326634 0.15484926 10920856
0.78256679 -0.0052430653 0.15477043 11314587
0.78238893 0.0048333723 0.1547346 10920085
0.78286684 0.014914757 0.15482868 10722450
0.78241658 0.024980115 0.15474075 10853266
0.78206885 0.034912825 0.15482868 10723220
0.78186643 0.045096867 0.15554623 10657427
0.78199977 0.055173587 0.1546568 10789783
0.78191406 0.065103889 0.15477073 11248793
0.78139997 0.075253241 0.15545417 11445658
0.78126657 0.085240766 0.15487845 11184543
0.78635722 0.0954616 0.15512231 11579047
0.79214299 0.10507958 0.15502903 11119265
0.78657699 -0.15435719 0.1648387 13749701
0.79000002 -0.15879287 0.16826011 12236463
0.77900004 -0.14199261 0.16044629 14342098
0.7810455 -0.14444448 0.16502407 14670804
0.78199989 -0.13521591 0.16472673 10527136
0.78206658 -0.12515922 0.16474052 12763323
0.78227991 -0.11511984 0.16478615 11973803
0.782767 -0.1051131 0.16488788 11841960
0.78300017 -0.095063254 0.16493618 11644842
0.78300029 -0.084981672 0.16493616 11644586
0.78300017 -0.074900068 0.1649362 11776431
0.78310031 -0.064826176 0.16495748 11447206
0.78312021 -0.054746214 0.1649625 11446943
0.78296697 -0.044653196 0.16492933 11446425
0.7837202 -0.034604266 0.16508758 11906206
0.78412008 -0.025445331 0.16517192 11380119
0.78363359 -0.01534039 0.16507047 10985363
0.78356016 -0.0052491738 0.16505593 10984851
0.78343356 0.0048379502 0.16502911 11050644
0.78304023 0.014918339 0.1649448 10787213
0.78336704 0.025011335 0.16501412 10457222
0.78328025 0.035093222 0.16499633 10457222
0.78260005 0.045138851 0.16485356 10852495
0.78252 0.055210561 0.16483639 10722196
0.78226656 0.06526354 0.16478214 10921627
0.78207976 0.075318642 0.16474269 11182746
0.78203982 0.084468916 0.16473415 11446689
0.78658819 0.095312811 0.16504149 11710118
0.79285711 0.10526386 0.16489002 11119008
0.78704995 -0.15359768 0.17500201 13814980
0.79016668 -0.15882637 0.17477088 12630964
0.78256661 -0.14447568 0.17492227 14670290
0.78306478 -0.13522281 0.17518076 10789535
0.78300041 -0.12517712 0.1748869 12762554
0.78303367 -0.11523119 0.17502545 11710379
0.78351545 -0.10546297 0.17471758 11973290
0.78452003 -0.095247716 0.1744414 12104872
0.78479999 -0.085177712 0.1745031 11908005
0.78442317 -0.074895658 0.17463054 11842472
0.78374314 -0.064749792 0.17505313 11710633
0.78333366 -0.054761127 0.17509134 11644841
0.78300041 -0.044655282 0.17501776 11775139
0.78356689 -0.034597538 0.17514423 12102815
0.78416687 -0.025446082 0.17527771 11642782
0.78372252 -0.015342063 0.17517835 10986137
0.78380024 -0.0052507045 0.17519517 11052444
0.78431267 0.0047287634 0.17473689 10789273
0.78404015 0.01493655 0.17433418 10591892
0.78403252 0.025122749 0.17450939 10591632
0.78487992 0.03516518 0.17451984 10327433
0.78433341 0.045238204 0.17439872 11116180
0.78326696 0.055262014 0.17507799 11049877
0.78275031 0.065303676 0.17496148 10920346
0.78196651 0.075307347 0.1747863 10723477
0.78199983 0.084465042 0.1747943 11643040
0.78619361 0.094899915 0.1749889 11645354
0.79209101 0.1048608 0.17477305 11053471
0.78731829 -0.15339747 0.18486305 13748929
0.79083329 -0.15865213 0.18571626 13024950
0.7832002 -0.14459257 0.18514669 14670290
0.78420007 -0.13467696 0.18538389 10723483
0.78408015 -0.12456308 0.18535694 13223102
0.78435725 -0.11483455 0.18561859 11711148
0.7850666 -0.10468543 0.18485408 11645614
0.7858665 -0.095410906 0.18485789 11907756
0.785972 -0.085304409 0.18488182 11644069
0.78499991 -0.075218767 0.18481173 11973030
0.78396797 -0.065048747 0.18515076 11643808
0.78308022 -0.054742757 0.18511869 11512738
0.78300029 -0.044655297 0.18509939 11512740
0.78364009 -0.034600083 0.18525028 11709606
0.78468001 -0.025463222 0.1854966 11446946
0.78380018 -0.015344081 0.18528934 10920600
0.78408003 -0.0052524703 0.18535596 11380124
0.78491169 0.0049565951 0.18490289 10919830
0.78499991 0.014955874 0.1846533 11116438
0.78488564 0.024980541 0.18475795 10787983
0.78499991 0.035170559 0.1846533 10262668
0.78474998 0.045262281 0.18459408 10657942
0.78336012 0.055268321 0.18518475 10920600
0.78236675 0.065271296 0.18494982 11313818
0.78211993 0.075322397 0.18489183 11051932
0.7826401 0.084534653 0.1850154 11511968
0.78673524 0.095112152 0.1850612 11446692
0.79209095 0.10519728 0.18488669 11053215
0.78753346 -0.15276834 0.19538982 13485757
0.79049999 -0.15796866 0.19519991 14077637
0.78352022 -0.14465278 0.19439384 14999513
0.78479999 -0.13477954 0.19471197 10920353
0.78556001 -0.12479842 0.19490103 13223361
0.78559989 -0.11468887 0.19491078 12105642
0.78600001 -0.10462768 0.1950088 12368305
0.78575999 -0.095399201 0.19494869 12038831
0.78509992 -0.085209936 0.19478506 11578539
0.78499991 -0.075091384 0.19476068 11906987
0.78456676 -0.064947888 0.19465409 11840931
0.78416014 -0.054819196 0.19455346 11708830
0.78288609 -0.044518117 0.19502205 11841446
0.78313363 -0.0345788 0.19521348 11775653
0.7844286 -0.025519848 0.19520698 11708831
0.7846334 -0.015358717 0.19466932 11248023
0.78523993 -0.0052596796 0.19482094 11445146
0.78573316 0.0048528197 0.19494373 11247509
0.78536004 0.014961887 0.1948508 11247508
0.78526658 0.025072042 0.19482788 11312785
0.78531998 0.035184618 0.19484127 10720649
0.78493327 0.04527374 0.1947445 10853519
0.78432006 0.055336241 0.19459377 10920597
0.78309125 0.065582253 0.19478762 10656914
0.78293353 0.075400837 0.19516471 10985110
0.78300029 0.08457242 0.19518095 11381151
0.78631258 0.09506236 0.19508444 11710119
0.78900003 0.10184405 0.19482954 11119010
0.79152185 0.10668416 0.19524899 11053216
0.78789479 -0.15332429 0.20528379 13485755
0.79071426 -0.15840803 0.20464118 13814208
0.78453338 -0.14483921 0.20474648 14802389
0.78474998 -0.1347717 0.20480227 10789539
0.78566658 -0.12481518 0.20504038 12960447
0.78580546 -0.11471922 0.20507723 11776423
0.78599989 -0.10462769 0.20512898 11842726
0.78573322 -0.095396057 0.20505954 12302509
0.78499991 -0.08519873 0.20486794 11579566
0.78499991 -0.075091377 0.20486793 11710385
0.784639 -0.064954638 0.20477301 11512744
0.78450006 -0.054841671 0.20473672 11775651
0.78367776 -0.044844203 0.20526387 11906463
0.78296018 -0.034571838 0.2052523 12169377
0.78337061 -0.025351532 0.20495211 11839643
0.78447229 -0.015354897 0.2047299 11511450
0.78556663 -0.0052612899 0.2050156 11446173
0.785972 0.0048545618 0.20512158 11051929
0.78543323 0.014962802 0.20498055 11183516
0.785972 0.025094418 0.2051219 10919829
0.78599989 0.035215359 0.20512898 10656142
0.78594422 0.045332119 0.20511481 11575701
0.78549987 0.055420138 0.20499998 11312787
0.78396982 0.06515377 0.20501685 10855063
0.78308022 0.075414941 0.20528392 11578014
0.78312021 0.084585659 0.20529459 11708830
0.78628129 0.094942003 0.2049139 11381667
0.78900003 0.10184405 0.20406486 10987679
0.79142112 0.10635303 0.20503151 10987680
0.78791314 -0.15388492 0.21505041 13617600
0.79020005 -0.15883307 0.21454859 13748930
0.78420013 -0.14477779 0.2147561 14539474
0.78489995 -0.13479808 0.21494885 11513261
0.78495997 -0.12470309 0.21496439 13092290
0.78472406 -0.11472005 0.21489885 11711152
0.78488457 -0.10469044 0.2149432 11908012
0.78516001 -0.095326073 0.21501862 12170924
0.78476673 -0.085174218 0.21491092 11908011
0.78453851 -0.074906416 0.21505919 11908017
0.78360033 -0.064738594 0.2153766 11513519
0.78426933 -0.054965083 0.21498683 11579306
0.78470004 -0.044753686 0.214894 11775394
0.78356016 -0.034598984 0.2145828 12038050
0.78400016 -0.025439749 0.21470302 11248536
0.78476661 -0.015361403 0.21491247 10986908
0.78527993 -0.005259573 0.21505173 11315874
0.78559995 0.0048526987 0.21513917 10658456
0.78547996 0.014963798 0.21510714 10855579
0.78599989 0.025095141 0.21524917 10526615
0.78600001 0.035215355 0.21524918 10460309
0.78599989 0.045335587 0.2152492 11116695
0.78600001 0.055455808 0.21524918 11313047
0.78503853 0.064787783 0.21484552 10919059
0.78420013 0.074909307 0.21506236 11183772
0.78346688 0.084623441 0.2154711 11511968
0.78699994 0.094959252 0.21478555 11578792
0.79245454 0.10465672 0.21499243 11052959
0.78766668 -0.15358508 0.22518821 13617856
0.79000002 -0.15879287 0.22466695 14735568
0.78499997 -0.14492489 0.22508375 14408146
0.78538865 -0.13488232 0.2251932 10921122
0.78496659 -0.12470412 0.2250732 13355203
0.78450012 -0.11452854 0.22493985 11908016
0.78486657 -0.10447635 0.2250451 11711411
0.78499991 -0.095306084 0.2250827 12237235
0.78474998 -0.085172527 0.22501165 12104876
0.78396571 -0.075119339 0.22494502 12236720
0.78364545 -0.065019183 0.22543527 12039859
0.78455174 -0.054717418 0.22511245 11645104
0.78499991 -0.04476935 0.22508274 11644071
0.78489995 -0.034657981 0.22505459 11840679
0.78489989 -0.025469799 0.22505443 11578020
0.78499991 -0.015366167 0.22508271 11184033
0.78523326 -0.0052593695 0.22514966 11381411
0.78577757 0.0048535885 0.22530572 11315101
0.78576654 0.014969696 0.22530265 11577501
0.78599977 0.025095142 0.22536942 11051414
0.78599989 0.035215359 0.22536941 10658198
0.78566658 0.045316484 0.22527234 11250080
0.78563315 0.055429775 0.2252627 11117978
0.78509986 0.064581506 0.22511108 10722193
0.78408593 0.074460439 0.22495104 11052184
0.78288019 0.084559545 0.22539073 11446429
0.78681487 0.09399461 0.22509031 11775913
0.78764284 -0.15463471 0.23505807 14077894
0.78464007 -0.14485872 0.23508126 14868696
0.78450006 -0.13473025 0.23503892 10921376
0.78440005 -0.12461469 0.23500921 13157567
0.78400016 -0.11516166 0.234749 11974062
0.78486204 -0.10523568 0.23527528 11711666
0.78499991 -0.095306084 0.23518999 11579822
0.78499991 -0.085198723 0.23518997 11644839
0.78436005 -0.075031117 0.23499912 11776423
0.7839669 -0.064898379 0.2348804 12039597
0.78348023 -0.054769501 0.23473299 11579307
0.7846334 -0.044747073 0.23507892 11644848
0.78499991 -0.034662005 0.23519003 11250087
0.78499991 -0.025473511 0.23519 11184549
0.78499991 -0.015366167 0.23518994 10855065
0.78563994 -0.0052622659 0.23538247 11248537
0.78539985 0.0048499028 0.23530971 10919571
0.7854799 0.014964924 0.2353325 11511193
0.78549981 0.025078595 0.23533867 10984335
0.78531992 0.035184525 0.23528476 10525072
0.78489989 0.045272171 0.23515968 11314846
0.78495997 0.055382241 0.23517784 10921115
0.78433347 0.065435961 0.23498908 10985623
0.7834003 0.075444721 0.23471026 11051929
0.78288019 0.084559649 0.23455539 11118235
0.78688467 0.094207771 0.23483253 11776424
0.78900003 -0.16043893 0.24562378 13288376
0.78646427 -0.15433943 0.24502863 13946564
0.7833336 -0.14461611 0.24477586 14605010
0.78413904 -0.13466781 0.24502921 10986655
0.78456676 -0.12464025 0.24516368 12829372
0.78456247 -0.11459539 0.24510503 12367536
0.7849285 -0.10500928 0.24435683 12236979
0.78525919 -0.095133975 0.244868 11581360
0.78499991 -0.08519873 0.24529743 11646127
0.78473336 -0.075066894 0.24521437 11973807
0.78336149 -0.064849384 0.2447843 11842219
0.78303361 -0.054739058 0.244683 11710888
0.78438902 -0.044732288 0.24510749 11645355
0.78486663 -0.034656119 0.24525544 11447978
0.78513783 -0.025604242 0.24518241 11184802
0.7857877 -0.015131351 0.24512522 10986906
0.7852999 -0.0052612987 0.24538954 11117461
0.78461111 0.0048452769 0.24517362 11248793
0.78413349 0.014938813 0.24502386 11380122
0.78436124 0.025042651 0.24509567 10985873
0.78413349 0.035132352 0.24502411 10919825
0.7840836 0.045224223 0.24500972 11446686
0.78356683 0.055283885 0.24484734 10855579
0.78316712 0.065339118 0.24472369 10789528
0.78300029 0.075407341 0.24467236 11117723
0.78343362 0.08462093 0.24480851 10855067
0.78738093 0.09347561 0.24485643 11842731
0.79000002 0.09827432 0.24501038 10790300
0.78900003 -0.16043893 0.25485912 14603980
0.78544456 -0.15427357 0.25479805 14538444
0.78256673 -0.14447457 0.25552747 14473423
0.78374207 -0.13474585 0.2551716 11314335
0.7850799 -0.1247216 0.25543058 12501177
0.7855311 -0.11491001 0.25523165 12432556
0.78527576 -0.10440471 0.25473246 12301740
0.78510708 -0.09551625 0.25484812 11515051
0.78460002 -0.085154675 0.2552734 11449004
0.78495997 -0.075087368 0.25539151 11842993
0.78316694 -0.064833261 0.25480828 11841963
0.7835201 -0.054771267 0.25492349 11973288
0.78499991 -0.04476935 0.25540477 12104876
0.78495997 -0.034660239 0.2553919 11841701
0.78499991 -0.025332062 0.25519192 11315613
0.78478771 -0.01561428 0.2548317 10920858
0.78372008 -0.0052517443 0.25498667 11118493
0.7826668 0.0050826147 0.25514412 11381151
0.78251725 0.01484544 0.25535369 11184028
0.78279436 0.024885409 0.25533277 10920596
0.78303874 0.034942135 0.25497741 11051667
0.78363365 0.045198731 0.25495964 11709082
0.78275007 0.055422228 0.25526077 10855061
0.78244448 0.065279908 0.25548759 11053215
0.78253341 0.075361997 0.25551656 11710117
0.7834233 0.084480077 0.25510263 11315101
0.78740907 0.093178988 0.25484738 11578788
0.79000002 0.09827432 0.25518209 10987678
0.78875005 -0.16084987 0.26585636 13946822
0.78487509 -0.15478221 0.26462504 13880771
0.77900004 -0.14077683 0.26925758 13419449
0.78158617 -0.14536767 0.26514485 14670030
0.77900004 -0.1383453 0.26986548 10523274
0.7819311 -0.13507734 0.26462933 11511196
0.78297228 -0.12530291 0.26482272 12829626
0.78286654 -0.11520737 0.26478699 12236974
0.78377789 -0.10524638 0.26509616 12563369
0.78471428 -0.095075481 0.26508647 12038567
0.78338921 -0.085024647 0.26496607 11777197
0.78350031 -0.074947208 0.26500294 11777969
0.78291702 -0.064812079 0.2648063 11908011
0.78280014 -0.054722439 0.26476577 12039081
0.78369457 -0.044694405 0.26506627 12433326
0.78403354 -0.034619395 0.26518175 12039082
0.78300017 -0.025410019 0.26483271 11249308
0.77900004 -0.012513238 0.26986548 10394259
0.78213912 -0.015310649 0.26454094 11315359
0.78263348 -0.0052428106 0.26470986 11184030
0.78233325 0.0045812456 0.26502553 11512739
0.78203833 0.014969947 0.26521429 11446689
0.78215623 0.025087094 0.26512158 11117721
0.78217244 0.035170291 0.26471195 11117205
0.78244454 0.045130759 0.26464561 11708313
0.78188884 0.054961562 0.26496637 11248277
0.78183311 0.065229073 0.26535556 11183514
0.78203988 0.075314701 0.26542652 11053216
0.78300011 0.084701248 0.26499206 11644578
0.78754544 0.093530513 0.26494756 12170153
0.79000002 0.09827432 0.26535383 10986909
0.7881875 -0.16327372 0.27535462 11380640
0.7913 -0.16757596 0.27393806 9473159
0.78350002 -0.15530406 0.27509016 14538185
0.77900016 -0.14256248 0.27545044 14274501
0.78082365 -0.14780958 0.27436715 15327444
0.77872241 -0.13586456 0.27635166 10853782
0.78025007 -0.1332397 0.27258101 11971747
0.77900004 -0.12785929 0.27852783 14341837
0.78078139 -0.12455356 0.2745361 12960699
0.77900004 -0.11828512 0.27807191 12763318
0.78021443 -0.11455547 0.27459037 12434097
0.78141671 -0.10492987 0.27527291 12367019
0.77900004 -0.090930313 0.27898374 12039082
0.78229028 -0.095273435 0.27501804 12169126
0.77899998 -0.084156752 0.27820215 11776680
0.78185189 -0.085297167 0.27417266 11906982
0.77866673 -0.075397775 0.27795249 12368819
0.78149992 -0.074757412 0.27347401 12105647
0.77885729 -0.065256588 0.2772392 12630707
0.78100002 -0.064797863 0.27257773 11908012
0.77847624 -0.055028409 0.27645189 12433070
0.7807501 -0.054884315 0.271842 12170924
0.77855563 -0.045717597 0.27629197 12959412
0.78092313 -0.044465534 0.27193666 12367534
0.77899998 -0.035960205 0.27872321 13025720
0.78114283 -0.035078622 0.27426252 12039084
0.7786364 -0.024439568 0.27752742 11841188
0.78084213 -0.025820468 0.2731958 11446688
0.77749991 -0.015006292 0.2759797 11511710
0.7801429 -0.016706634 0.2707831 12038055
0.77718532 -0.0054084901 0.27610579 11578274
0.78050005 -0.0045433422 0.27106985 11710632
0.77759254 0.0044991774 0.27706045 11841702
0.78106678 0.0053728083 0.27204302 11775912
0.77741665 0.014735113 0.27674451 11118491
0.78063643 0.015038308 0.27159476 11381407
0.77703351 0.024808664 0.27645579 11381149
0.78050011 0.024919542 0.27129814 11644320
0.77726936 0.034965016 0.27632946 11906466
0.78055561 0.034565657 0.27121592 11709086
0.7773751 0.044838402 0.27623662 11906210
0.78030008 0.045007162 0.27104625 12366242
0.77783364 0.054501135 0.27621052 11775397
0.7802223 0.055454716 0.27110043 11971231
0.77884632 0.063506953 0.27738559 11513252
0.780913 0.065987207 0.27338824 11380381
0.78129989 0.075243384 0.27523223 11184803
0.78155184 0.084290959 0.27516311 11710888
0.78628004 0.093473271 0.2751095 12301998
0.79000002 0.09827432 0.27367616 10789273
0.78810519 -0.16423991 0.28438053 10986141
0.79000002 -0.16850224 0.28523493 9342088
0.77900004 -0.15111086 0.2844547 15065560
0.78246152 -0.1555213 0.28459102 14801615
0.7790001 -0.14468843 0.28469256 14078410
0.78000003 -0.14856586 0.28481984 14867924
0.77853119 -0.13518557 0.28479707 11445920
0.77900016 -0.1267651 0.28454587 13880772
0.78036368 -0.12148121 0.28528571 13092026
0.78096002 -0.11492587 0.28517255 12960182
0.7790001 -0.10154066 0.28511783 13288122
0.78014994 -0.1062237 0.28478393 13222586
0.77870363 -0.094340056 0.28576413 12498863
0.78000003 -0.096525021 0.28116786 13090487
0.77700019 -0.085241437 0.28463143 12433583
0.77638936 -0.075176693 0.28440806 12499120
0.77636683 -0.06517864 0.28439891 12959157
0.77574998 -0.055138368 0.28417337 12696242
0.77562505 -0.045198888 0.2845239 12631219
0.77600008 -0.035172924 0.28426439 12236717
0.77559364 -0.024998775 0.28451207 11776424
0.77438891 -0.015159239 0.28548855 11775911
0.77426666 -0.0051866835 0.28544387 11775653
0.77463889 0.0047846921 0.28557983 11972775
0.77429998 0.014751857 0.28545609 12038568
0.7736668 0.024700653 0.28522304 11644066
0.77390003 0.034674186 0.28530869 11973287
0.77465624 0.044456076 0.28502044 11973546
0.77570373 0.054932147 0.28466189 11908011
0.77672249 0.064803198 0.28452939 11645352
0.77796429 0.074857727 0.2853092 11447461
0.78000003 0.076031409 0.28116786 11053989
0.77840918 0.08324901 0.28597641 11907499
0.78120005 0.088037319 0.28379446 12039086
0.7860716 0.095688067 0.28532392 11776171
0.78880006 0.10255706 0.28840214 10724253
0.78846157 -0.161892 0.29486787 10657691
0.79083341 -0.16682988 0.29510173 9144195
0.78500003 -0.15448293 0.29510123 13617859
0.78303689 -0.14496852 0.29489675 12170413
0.78313047 -0.13485372 0.29601243 11314333
0.78260869 -0.1249641 0.29422036 11776168
0.78414291 -0.11513232 0.29472786 11776423
0.7828846 -0.10484786 0.29483011 11709860
0.77900004 -0.092298053 0.29220521 12104876
0.782125 -0.095529854 0.29624143 11249310
0.77760011 -0.084821805 0.29316816 11513510
0.78085715 -0.085402906 0.29819006 10461335
0.77679175 -0.075216264 0.29365227 10987425
0.78039998 -0.07465183 0.29958135 11119011
0.77626079 -0.064932764 0.29404381 11381411
0.78000003 -0.06822212 0.29942781 11973549
0.77522576 -0.054955307 0.29414219 11578275
0.77514803 -0.045181837 0.29501235 11973289
0.77530009 -0.035140846 0.29399478 11841703
0.77534777 -0.025396945 0.29432854 11381152
0.77500004 -0.015170421 0.29478872 10986653
0.77490002 -0.005191043 0.29475078 11052704
0.77499992 0.0047871494 0.2947886 11052961
0.77600014 0.014482278 0.29486689 10987168
0.78050005 0.017611466 0.29961973 9211016
0.7765556 0.024793081 0.29447308 11447205
0.77626669 0.034780215 0.29436329 11974061
0.77656251 0.044677481 0.29299775 12039855
0.78150004 0.046601787 0.2978698 12040113
0.77650005 0.054785538 0.29172251 11777195
0.78170007 0.055151485 0.2973372 12105906
0.77691668 0.064819276 0.29187915 11710632
0.78175002 0.065221742 0.29735592 11776426
0.77749997 0.075332977 0.29255375 11710632
0.78162509 0.074589282 0.29753709 11776168
0.77766675 0.083238445 0.2927683 12170670
0.78200012 0.086794153 0.29620326 12170670
0.78631997 0.095760383 0.29515427 11907500
0.78871435 0.10259877 0.29406914 10723997
0.79036844 0.1067929 0.29522878 10658460
0.78900003 -0.16043893 0.30103567 9605002
0.79220843 -0.16495948 0.30535117 9802893
0.78835297 -0.1542287 0.30361262 11709607
0.79000002 -0.15694346 0.307758 9737360
0.78822219 -0.14551857 0.30494362 11315363
0.79000002 -0.14307293 0.30881482 9539979
0.7884286 -0.13566865 0.30398241 10525331
0.79087496 -0.13420546 0.30846334 9999757
0.78808337 -0.12535304 0.30237833 11249053
0.79142863 -0.12453864 0.30805156 10131344
0.7884286 -0.11457556 0.30213681 11512996
0.79142863 -0.11540665 0.30765513 9605514
0.78808337 -0.1049054 0.30345443 10855580
0.79100001 -0.10570553 0.30838352 9013891
0.78740001 -0.094769321 0.30494419 9869198
0.79000002 -0.098687232 0.30881482 8816512
0.78547823 -0.084810115 0.30497426 9540233
0.78574997 -0.075163126 0.30623874 9868686
0.78469568 -0.065161698 0.30594823 10262673
0.77812505 -0.055080544 0.3012132 11314588
0.78233337 -0.054997344 0.30627793 10461079
0.77800006 -0.044673685 0.30199948 11907752
0.78216672 -0.044605423 0.30666965 10329748
0.77766669 -0.03616029 0.30096045 12301741
0.78315389 -0.034158029 0.30642462 10526357
0.77720004 -0.025219461 0.30017239 12104617
0.78456247 -0.025111968 0.30680883 10329236
0.77833337 -0.015234888 0.3006101 11052960
0.78529423 -0.015100367 0.30687141 10527129
0.77740002 -0.0052093118 0.30024964 10263702
0.78479999 -0.0052584182 0.30678746 10197650
0.77749997 0.0048043467 0.30028823 10329497
0.7842778 0.0048458194 0.30658346 10000016
0.77900004 0.011194251 0.30086759 9671565
0.7853334 0.014963625 0.30552408 10197909
0.78621739 0.025062334 0.30446151 9408395
0.79000002 0.026147554 0.30881482 9934994
0.78599989 0.035215367 0.30449826 9605517
0.78682363 0.044571716 0.30400115 9671053
0.79075003 0.045611609 0.30910802 8289655
0.78781831 0.055080984 0.30343592 9868689
0.79141665 0.054912101 0.30844387 9145223
0.78761542 0.065214589 0.30391324 9605517
0.79099995 0.064273693 0.30867735 8421758
0.7871111 0.074880764 0.30400303 10131345
0.79016668 0.075171649 0.30887997 8223867
0.78727764 0.084727526 0.30468243 10789274
0.79000002 0.088102594 0.30881482 9342858
0.78850007 0.093842991 0.30232209 12302515
0.79125005 0.095035143 0.30714348 10592667
0.79208696 -0.15502021 0.31479368 10461080
0.79269564 -0.14521091 0.31439042 10263958
0.78900003 -0.091174051 0.31027099 9079682
0.79215008 -0.095156282 0.31438729 9934736
0.78900003 -0.084709339 0.31137925 9408392
0.79180008 -0.085008703 0.31619447 9934992
0.78900003 -0.075474024 0.31211805 9737358
0.79183334 -0.074819691 0.31694856 9868944
0.78854555 -0.063852288 0.31311342 9605773
0.79054546 -0.065191977 0.31727248 9737615
0.78754997 -0.055055898 0.31431299 9474443
0.79000002 -0.055226229 0.31991127 9803408
0.78736365 -0.045238387 0.31398755 9211527
0.79000002 -0.045239449 0.31917149 9737615
0.78825003 -0.035266105 0.31320629 8816768
0.79075003 -0.034220912 0.31767029 9343113
0.78875005 -0.025594324 0.31248093 8224376
0.79146159 -0.024829078 0.3166568 8751234
0.78900003 -0.014520934 0.31211805 8224120
0.79200006 -0.014576146 0.31608713 8750978
0.78900003 -0.0052856179 0.31211805 8355704
0.7919001 -0.0053055128 0.31604734 8816513
0.78900003 0.0048732301 0.31211805 8289911
0.79166675 0.0048904805 0.31595448 9013892
0.78900003 0.014108546 0.31073275 9408650
0.79160005 0.015575725 0.31487846 8816513
0.79220015 -0.05537967 0.32544085 9869201
