# .PCD v0.7 - Point Cloud Data file format
VERSION 0.7
FIELDS x y z rgb
SIZE 4 4 4 4
TYPE F F F U
COUNT 1 1 1 1
WIDTH 842
HEIGHT 1
VIEWPOINT 0 0 0 1 0 0 0
POINTS 842
DATA ascii
0.44508702 -0.095494449 -0.042106509 12433072
0.43433332 -0.081202663 -0.043570742 12893621
0.42747825 -0.072917573 -0.042487402 12630447
0.43076009 -0.076261558 -0.044268336 12565169
0.41833338 -0.061725896 -0.040498212 13683656
0.42335489 -0.065250866 -0.044464704 13289149
0.41742307 -0.054703951 -0.043504521 14144719
0.42050004 -0.058620859 -0.045732483 14144459
0.41607711 -0.044969972 -0.043940764 14275532
0.41782928 -0.036887407 -0.042126812 14473425
0.42065221 -0.032658964 -0.043477345 14407888
0.4233104 -0.026266819 -0.041946739 13290698
0.42866668 -0.019596709 -0.040494774 13684680
0.43099996 -0.016825749 -0.041020259 13158337
0.4438287 -0.12329088 -0.032527421 12500669
0.43709999 -0.11262361 -0.031742867 13158084
0.44266668 -0.1179955 -0.03361652 12894910
0.42900002 -0.10029071 -0.031152567 13355724
0.43157148 -0.10490686 -0.031662859 12828863
0.42714283 -0.095054679 -0.031541534 12502725
0.43349999 -0.096611045 -0.034836836 12697531
0.4427647 -0.095399864 -0.038556173 12762296
0.41833338 -0.082128644 -0.031846981 13289414
0.42071432 -0.086537242 -0.032004211 12697536
0.44000003 -0.088956624 -0.038131639 12633024
0.4161129 -0.075097725 -0.03307936 13157054
0.42256254 -0.073250815 -0.038478643 12498349
0.40847057 -0.062305387 -0.03146217 13617601
0.41401568 -0.0653015 -0.03543596 13157823
0.42050004 -0.068279468 -0.039149102 12236465
0.408225 -0.054818533 -0.032034062 14012876
0.41338998 -0.054715153 -0.037127811 14209996
0.40807903 -0.045220289 -0.031922866 14275531
0.41315639 -0.044838946 -0.037051816 14539217
0.40854546 -0.037688084 -0.030971598 14277589
0.41433343 -0.034699254 -0.035411339 14539734
0.42000002 -0.030344009 -0.039348066 14935257
0.41619307 -0.025755944 -0.033065092 14079695
0.42242864 -0.023849459 -0.037601113 14079955
0.41775 -0.01787472 -0.031151475 14671833
0.42425811 -0.017192375 -0.035142507 14080209
0.43112504 -0.013104953 -0.037362065 13225671
0.43000001 -0.0099270912 -0.030218545 13093060
0.44579992 -0.1324248 -0.024462875 12828349
0.44321632 -0.12501577 -0.024950426 12894399
0.4369016 -0.11403212 -0.024664618 12368825
0.44023082 -0.11916792 -0.025390027 12763582
0.42899996 -0.10029071 -0.025628936 12501700
0.4321585 -0.10548003 -0.024706546 12238527
0.42560488 -0.095040448 -0.025109844 11975869
0.41789189 -0.082413107 -0.024688393 12763586
0.42100003 -0.08741419 -0.025346134 12107197
0.41412631 -0.074914105 -0.024898103 12894139
0.40813455 -0.063955233 -0.024686124 13420225
0.41042113 -0.068539597 -0.026214892 13092287
0.40591672 -0.054899082 -0.025133161 14144718
0.40526992 -0.044933576 -0.02516398 14276305
0.40709031 -0.035097271 -0.02505778 14868700
0.41050002 -0.031098554 -0.029809158 14540508
0.40861773 -0.027888939 -0.022949131 14078928
0.41190246 -0.023792066 -0.025610296 14145234
0.41600004 -0.015577579 -0.024483731 13817299
0.42025 -0.010685815 -0.02363224 13619400
0.42205006 -0.0073591121 -0.022146709 13619401
0.43000001 -0.0089204544 -0.029211909 15001055
0.44817182 -0.13389032 -0.015428379 12169640
0.44405076 -0.12512062 -0.015095973 12368051
0.43761012 -0.11395952 -0.015055642 12301483
0.44036359 -0.11873927 -0.014262956 12565685
0.43243802 -0.10510907 -0.014748582 12236720
0.42568746 -0.095041022 -0.015090605 11841706
0.4178611 -0.082390279 -0.014720525 11973803
0.42098153 -0.087340258 -0.015604554 12105392
0.41332605 -0.075245388 -0.015091968 12039081
0.40765136 -0.064600326 -0.014623335 12565940
0.41 -0.069533937 -0.015695529 12368560
0.40459976 -0.055282477 -0.015175595 13224386
0.40361127 -0.045222901 -0.015139019 13684420
0.40451723 -0.035085075 -0.014982506 14012872
0.4077566 -0.026089635 -0.014339652 13816522
0.4108437 -0.021415697 -0.016100174 14145230
0.41484216 -0.015053414 -0.014947252 13751246
0.42000002 -0.010679457 -0.018208673 13619916
0.41825002 -0.0090433601 -0.01189165 14605526
0.42358628 -0.0050225588 -0.015657071 13618890
0.42877775 0.00025047778 -0.015855307 12895171
0.43327907 0.003527256 -0.013108577 13093317
0.44144446 0.0089860577 -0.012765995 12765891
0.4460834 0.012158015 -0.01202976 12961731
0.45334792 0.016625272 -0.013353381 12699071
0.45725003 0.02169133 -0.011393605 13028290
0.50800002 0.039409377 -0.010726071 12237749
0.44855005 -0.13268837 -0.0047431393 12235692
0.44532102 -0.12542817 -0.0046524042 12236462
0.43770584 -0.11354107 -0.0047212155 12038569
0.44096553 -0.11853851 -0.0048258589 11972518
0.42900002 -0.10029071 -0.0010236666 12696242
0.4326627 -0.10530333 -0.0046477551 12433325
0.42509407 -0.094822459 -0.0048221634 11710632
0.41719356 -0.083231278 -0.0045883525 12104104
0.42070284 -0.088263586 -0.0054771113 11972514
0.40892854 -0.071187161 -0.002617328 12368560
0.41238827 -0.07573235 -0.0052104187 11974318
0.40640929 -0.065050036 -0.0047785109 12631218
0.40275231 -0.055061702 -0.0047646738 12959924
0.40091458 -0.044634406 -0.0043604891 13749955
0.40201715 -0.034805767 -0.0048275944 13947593
0.40526539 -0.025139589 -0.0046688225 13816267
0.41000003 -0.020023359 -0.009616686 14802903
0.40820694 -0.018319679 -0.0025247731 13815752
0.41249412 -0.014138828 -0.0055894218 13684167
0.41704446 -0.007846118 -0.0046650223 13420996
0.42324334 -0.0031743685 -0.0057509979 13026494
0.42709094 0.00086618663 -0.0015666968 13290695
0.43503991 0.0045779427 -0.0059853042 13092802
0.44035718 0.0090527218 -0.0059123924 12961986
0.44428006 0.012214481 -0.0061362027 13158598
0.45526674 0.017952161 -0.0045702467 12830912
0.45857686 0.021743264 -0.0057163131 12896448
0.46280649 0.025813203 -0.0019757219 13158850
0.47200003 0.031091785 -2.1311494e-05 13027262
0.50633335 0.042442013 -0.0031840161 13290186
0.44900009 -0.13141236 0.0054875808 11775913
0.44585514 -0.12499487 0.0049422495 11907754
0.43779996 -0.11362556 0.0051047211 11645097
0.44082609 -0.11835699 0.005589887 11841962
0.42853329 -0.10058332 0.0053303456 12367017
0.43246034 -0.10589708 0.0051235803 11644323
0.4240123 -0.094723493 0.0054944726 11513252
0.41627151 -0.083734952 0.0053524026 11973546
0.42036846 -0.088950306 0.0051593515 11710373
0.40820014 -0.072346658 0.0057562874 11907494
0.41158143 -0.07710851 0.0049107289 11776168
0.40479386 -0.064923212 0.005087676 12302251
0.39875007 -0.05144595 0.0078574726 12631988
0.4004828 -0.055457022 0.004743333 12696496
0.39791104 -0.044761606 0.005545801 13158590
0.40000007 -0.046114542 0.0012785033 13092796
0.39817581 -0.036007773 0.0063783182 13487558
0.4000605 -0.033415496 0.0025643627 13487044
0.39900002 -0.029760875 0.009322647 13027262
0.40211022 -0.025232749 0.0051160855 13356486
0.40685019 -0.016194176 0.0058487477 13420996
0.4110769 -0.0115614 0.0038659982 13224389
0.41519678 -0.0070433393 0.0055859573 13618887
0.42212513 -0.0021143008 0.0051351311 12894654
0.42582926 0.0018187278 0.0053538661 12763838
0.4336842 0.0070957667 0.0068749627 12567998
0.43900001 0.010419269 0.0082018338 12830656
0.44560462 0.014275704 0.0066976757 12632509
0.45200005 0.01807056 0.0044747852 12171960
0.45739996 0.022123484 0.0056716744 12501694
0.46258327 0.026056712 0.0052610356 13224645
0.47000003 0.029859759 0.0036463735 13092544
0.47558823 0.03244523 0.006394431 13881294
0.48236665 0.036975078 0.0058146128 12236211
0.48778951 0.04325331 0.0073706643 15328991
0.48999995 0.045834113 0.0062347786 13421252
0.44876319 -0.13239175 0.015432493 12170670
0.44545463 -0.12538195 0.015240254 12105646
0.43709257 -0.11367096 0.015041423 12039084
0.44080767 -0.11869007 0.014465597 12500405
0.42811111 -0.10147556 0.015401606 12170153
0.43205178 -0.10633025 0.014627113 11776425
0.41900003 -0.09035106 0.018127482 11710629
0.42305881 -0.095173351 0.015138333 11710117
0.41570729 -0.084838666 0.015087675 12301480
0.42000002 -0.089337662 0.011288153 13025975
0.40744793 -0.07293389 0.015225199 11710373
0.41123524 -0.078329243 0.01490315 12170150
0.40321219 -0.065008774 0.015079778 12105389
0.39781255 -0.053644717 0.015299113 12631476
0.40011418 -0.058399595 0.01363007 11908012
0.39594772 -0.04505128 0.014930495 13223612
0.39596692 -0.035093982 0.014808485 13618627
0.39760873 -0.026821038 0.015923532 13553608
0.40061539 -0.022755483 0.013578089 13816266
0.40491673 -0.01505953 0.015181807 13486788
0.41000003 -0.010425185 0.01053948 9934994
0.4086 -0.009433046 0.017197866 14276306
0.41435942 -0.0054737274 0.01488688 13289409
0.42083335 -0.0012589308 0.013443219 12960960
0.42505178 0.0025649955 0.015484039 13027526
0.43225586 0.0075344206 0.01426227 12370108
0.43677786 0.011695619 0.016338704 12764350
0.44478786 0.016026678 0.014363345 12500923
0.45075002 0.019139856 0.012112559 12500412
0.45575684 0.022416845 0.014743083 13093060
0.46413514 0.027673373 0.014924292 13224390
0.46900001 0.030894168 0.019741697 14079702
0.47483337 0.033849582 0.015076695 13290439
0.48151726 0.038251117 0.013967456 11514284
0.48640826 0.044131629 0.013753354 14869212
0.49266669 0.047449321 0.019008281 15725291
0.49650002 0.050140388 0.019156372 15527399
0.44786489 -0.1326142 0.024686256 12104622
0.44400004 -0.1250297 0.025062948 11842477
0.43665704 -0.11435627 0.025024898 11841705
0.44 -0.11934303 0.025216307 12236464
0.42718184 -0.10201982 0.025403028 11907495
0.43139589 -0.10697711 0.02440734 11645095
0.41878581 -0.091320403 0.025819913 10986651
0.42242426 -0.095974252 0.02501737 11316133
0.41490424 -0.085248269 0.02497253 11775138
0.4063921 -0.074250549 0.02525497 11380894
0.41095003 -0.079091854 0.023501888 11051414
0.39833337 -0.061505966 0.027511163 12038309
0.40143541 -0.065848984 0.02454653 11776681
0.39599988 -0.055000383 0.0250489 12498862
0.40000001 -0.059800487 0.020582898 11314841
0.39308286 -0.044966593 0.024822213 13288120
0.39285147 -0.034818348 0.024808243 13288892
0.39535835 -0.024891408 0.025003048 12895421
0.40000001 -0.02047139 0.020582898 15065562
0.39786214 -0.017790729 0.027568674 13618114
0.40208888 -0.014032526 0.024492146 13486787
0.40722016 -0.0075099259 0.025640536 13093317
0.41296494 -0.0032689644 0.024244729 12895939
0.41750002 0.00013523616 0.024411429 13422541
0.42441866 0.0038709114 0.023504801 12764866
0.43082356 0.0083278818 0.024006411 12764351
0.43632442 0.012349299 0.025734097 12435131
0.44275555 0.017010244 0.024923086 12829888
0.44850004 0.020444635 0.025877649 12698303
0.45614812 0.024162872 0.025448985 13027268
0.46235719 0.027947679 0.024098294 13224647
0.46729413 0.031555571 0.025649952 13750477
0.47413337 0.035804112 0.024787664 12236982
0.4802857 0.039347559 0.022624988 11974322
0.47900003 0.040523671 0.029133411 15263200
0.48412779 0.04388231 0.025848381 15132641
0.49281824 0.047778066 0.023361539 14935262
0.48400003 0.050011095 0.029437518 11908781
0.49750003 0.05082351 0.022686193 13290438
0.44633999 -0.13260078 0.035148207 12433327
0.43900001 -0.12009951 0.038005333 12236207
0.44293344 -0.12504037 0.034693532 12104878
0.43531427 -0.11457379 0.034942884 11775654
0.44000003 -0.11934303 0.031396598 12762553
0.42700005 -0.10297775 0.035663042 11774882
0.43054292 -0.10785162 0.034333255 11578275
0.41756663 -0.091754317 0.03546349 11184287
0.42211768 -0.096613735 0.034702327 11381668
0.40881816 -0.080520958 0.036522493 11840672
0.413131 -0.085572019 0.034748416 11840674
0.40522456 -0.074783824 0.035027821 11446429
0.39734483 -0.062518373 0.035247196 12104616
0.40079173 -0.06770052 0.034499146 11710886
0.39333043 -0.054757912 0.035041481 12236460
0.38899997 -0.043130159 0.03833117 12960186
0.39111096 -0.045173064 0.033956409 12435897
0.38892302 -0.035289183 0.03812867 13223873
0.39105347 -0.034526173 0.032874763 12895677
0.38899997 -0.028483773 0.038381767 13619400
0.39202645 -0.02435996 0.034539714 13026749
0.39616483 -0.015731839 0.035392303 13355715
0.4004091 -0.011075369 0.032958355 13290435
0.40497816 -0.0057621393 0.035418678 13092801
0.41120005 -0.0015986897 0.03296591 13157306
0.40900001 0.00013248283 0.039238062 13949137
0.41503999 0.0014611408 0.034641344 13224131
0.42466676 0.0066568474 0.034681398 12566974
0.42999998 0.0091990242 0.031186355 11712173
0.43503213 0.013904515 0.035345428 12500923
0.44195834 0.018769274 0.034249131 12895938
0.44660878 0.022696603 0.037024517 12830146
0.45522857 0.026767639 0.034927364 13092802
0.46120006 0.029085308 0.031504266 12763578
0.45900002 0.030235445 0.038662259 11973551
0.46525002 0.032886911 0.035346687 13750219
0.47218755 0.037463725 0.034274157 11579308
0.47688377 0.042790506 0.0360884 14803420
0.48069996 0.047166511 0.033510391 14408662
0.48044449 0.051143259 0.035593253 12106160
0.44493875 -0.13292861 0.045040388 12367793
0.43844002 -0.12171237 0.045836255 12303026
0.44219652 -0.12656157 0.04456488 12038571
0.43360761 -0.1150365 0.04520889 12170411
0.42633328 -0.10398312 0.045001663 11644069
0.42999995 -0.1091074 0.044802453 11644839
0.41689101 -0.092725717 0.045423396 11250080
0.42132449 -0.097805396 0.044578571 11315876
0.40822232 -0.081594892 0.04461126 11315101
0.4125098 -0.086556576 0.044385489 11775139
0.40309626 -0.074702665 0.045145459 11248537
0.39663294 -0.064088009 0.045498841 11184289
0.40004766 -0.068370156 0.043061454 11183514
0.389 -0.051417124 0.047700815 12499632
0.39182681 -0.055525716 0.044503327 11841960
0.38794464 -0.045086496 0.045119993 12368303
0.39000002 -0.049175512 0.04061076 9012857
0.38672107 -0.035181735 0.044901941 12697787
0.38769588 -0.025622766 0.045498393 12895679
0.39056247 -0.021815412 0.041125905 13223614
0.38876921 -0.019266345 0.048077583 13224135
0.39287028 -0.014600696 0.044818975 13027012
0.3975938 -0.0081595127 0.045905288 13224388
0.40375385 -0.0035929841 0.044791665 12830146
0.40818185 0.00078429771 0.045931816 13356747
0.41438639 0.0045338515 0.045026425 12764350
0.42069232 0.008470295 0.04581454 11909041
0.42558625 0.012820847 0.047698006 12830400
0.43378052 0.015705824 0.043270007 12830144
0.44000003 0.019713435 0.041182052 12961991
0.44509226 0.024120778 0.045390315 12895681
0.45179999 0.028916679 0.045032956 13224647
0.45685005 0.032074556 0.04612295 13422281
0.4649348 0.03614879 0.044270817 12895425
0.47050002 0.039437804 0.042016417 11447724
0.46866667 0.041112602 0.04898493 11250856
0.47485146 0.04528996 0.044735059 15329764
0.47730774 0.051124692 0.046733622 14671834
0.48000002 0.051620416 0.041554809 12369078
0.44228095 -0.1332951 0.055449724 12564912
0.43739647 -0.12349755 0.055413052 12235949
0.44059995 -0.12825304 0.054231986 12169644
0.42883334 -0.11062557 0.058039445 10789016
0.43223369 -0.11514163 0.054999389 11776425
0.42442307 -0.10455776 0.05539814 11973289
0.43000004 -0.10924868 0.05148688 11315359
0.41667536 -0.09432523 0.055401776 11512480
0.42053849 -0.098842926 0.052763406 10921115
0.40721279 -0.082564875 0.055351689 11184544
0.41197821 -0.087654874 0.054847028 11118240
0.39836362 -0.071086012 0.057376541 10920087
0.40238637 -0.075613305 0.054679025 11380894
0.39468744 -0.064999208 0.05504173 11644579
0.38847697 -0.052972604 0.055650927 12302768
0.39096004 -0.057535864 0.053997587 11776681
0.38550809 -0.044969689 0.05507296 12630961
0.38352239 -0.034892153 0.055190455 12763064
0.38450769 -0.025181424 0.05509815 12895167
0.38759577 -0.016346274 0.055751853 13355462
0.39114293 -0.012428515 0.05285323 13092803
0.38900003 -0.009891212 0.059175078 12631734
0.39485705 -0.0064124404 0.055783436 12961474
0.40180001 -0.0022364315 0.052841574 12566200
0.40673229 0.0027560706 0.055099864 12633536
0.41344002 0.0075936695 0.054659702 12502210
0.42050004 0.0099801887 0.050676927 11318191
0.41790003 0.011484387 0.057406772 12107452
0.42389482 0.014317839 0.054870512 12633024
0.43060002 0.018587638 0.056431163 12961220
0.43725806 0.02246777 0.05630802 13158600
0.44296363 0.026358251 0.054066747 12961474
0.44786665 0.031530477 0.057431947 13224645
0.45535001 0.034882519 0.054901361 13882574
0.46162501 0.03824462 0.053062178 12106161
0.46575868 0.043865915 0.056125399 13422022
0.47184622 0.047229186 0.05282528 15987948
0.47586837 0.053426769 0.055733122 13882318
0.48000002 0.056339916 0.054664508 12106163
0.43851215 -0.13331294 0.066554524 12499120
0.44028574 -0.13424419 0.062214959 12893108
0.43512046 -0.12498551 0.06492991 12630707
0.42720938 -0.11262045 0.066122852 12169899
0.43071738 -0.11719945 0.064334467 12104620
0.41870004 -0.10111763 0.067220755 12302769
0.42238668 -0.10556862 0.0648285 12038312
0.41474739 -0.095029138 0.065027244 11775911
0.40634891 -0.084009618 0.065327056 11315879
0.41057143 -0.088774361 0.063141964 11776686
0.39751226 -0.071936741 0.065619066 10789532
0.40155935 -0.076831013 0.064618997 11250856
0.38900003 -0.060887951 0.068281643 11710632
0.39283317 -0.065078251 0.064775519 11381668
0.38716254 -0.054938864 0.06523516 11776167
0.39000002 -0.058990233 0.06092494 10986656
0.38289306 -0.044735517 0.065000661 12170155
0.37899998 -0.032261707 0.068966247 11775909
0.38089395 -0.03481105 0.064772181 12301997
0.37899998 -0.027762102 0.06893456 11184547
0.38143334 -0.024585392 0.064647719 12828087
0.38450369 -0.015187532 0.065027863 12895423
0.38804653 -0.008471176 0.06595432 13093061
0.39326826 -0.0038145741 0.064478435 12895683
0.39733329 0.0010215095 0.066407666 12764869
0.40416923 0.0056181205 0.065122478 12568004
0.4119091 0.0093385205 0.062392306 12633541
0.4086 0.010845788 0.068660468 13093581
0.41529834 0.013292356 0.065301113 12567748
0.42197236 0.017592097 0.065094933 12567489
0.42684001 0.021563163 0.066605255 12829888
0.43427774 0.025891412 0.064783804 13092547
0.44125003 0.028808696 0.0609238 12699073
0.43857145 0.031530432 0.068768665 12960961
0.44492859 0.034042735 0.06548401 13684685
0.45318526 0.03795059 0.062999308 13619146
0.44900003 0.04008789 0.069353454 11842734
0.45638594 0.043790601 0.06638065 12632252
0.46215633 0.047045924 0.063028812 15132641
0.45900002 0.050651461 0.069823548 15264229
0.46510011 0.053813715 0.066083021 14540249
0.47178575 0.057191897 0.062612638 12368822
0.46799999 0.060409397 0.068999097 12040367
0.47166669 0.060878795 0.065847151 12171953
0.43700001 -0.14001285 0.079776205 12630451
0.43617579 -0.13445526 0.075359873 12368306
0.42860001 -0.12046526 0.078041427 11578536
0.43223172 -0.12536339 0.075039327 12367280
0.42512047 -0.11468162 0.075260408 12170159
0.43000001 -0.11924795 0.071250536 11710378
0.41740677 -0.10321468 0.075881876 11972778
0.4209168 -0.10762638 0.073662005 11578535
0.4085333 -0.09142597 0.07719285 12235431
0.41284218 -0.095695063 0.074548282 11644069
0.40488899 -0.085187025 0.075170107 11841190
0.39640847 -0.073633663 0.07514596 11512741
0.40046868 -0.078445747 0.0738381 11249567
0.38881817 -0.061438993 0.075902618 11973807
0.39199987 -0.066310436 0.074892819 11644068
0.38532785 -0.055059697 0.074915089 11579301
0.37853581 -0.041970726 0.077362239 11777970
0.38120225 -0.045886029 0.07443992 11974833
0.37741786 -0.034858823 0.075166076 9474185
0.38000005 -0.038764566 0.070895627 12368049
0.37724814 -0.025237788 0.075294688 9342860
0.38000005 -0.021226997 0.070768543 13091775
0.37841463 -0.017226366 0.0772686 13026239
0.38135558 -0.013948096 0.073928662 13026238
0.38489774 -0.0059150555 0.07595852 12632253
0.39172226 -0.002112428 0.071814112 12434618
0.38859999 0.00067203434 0.078490362 12105907
0.39554411 0.0038662136 0.075054049 12830149
0.40148568 0.0079206889 0.073260538 12896455
0.40577367 0.013097895 0.076702796 12764097
0.41371158 0.01708667 0.074115254 12567490
0.42050004 0.019578362 0.071595684 13290695
0.4157778 0.021550702 0.077841014 13356488
0.42451522 0.025020434 0.075126298 13027011
0.43134999 0.028214265 0.072177052 13354947
0.42750004 0.030495623 0.078873791 12895942
0.43487492 0.033792492 0.075815581 13355719
0.44299999 0.03778721 0.073299713 14079183
0.44651017 0.043519389 0.07672485 12302773
0.45286053 0.046673935 0.073443249 13026753
0.44900003 0.050599061 0.079864629 14211536
0.45635602 0.053984966 0.076420508 15527398
0.46218523 0.056376286 0.072469011 14277334
0.45850003 0.060971677 0.078691356 12237493
0.46466669 0.062010664 0.074224398 11974576
0.43450004 -0.14043155 0.086536705 12433072
0.43361527 -0.13490687 0.084974289 12697271
0.42700002 -0.12346657 0.085696839 12631220
0.43045166 -0.12774108 0.08364892 12631477
0.41845462 -0.11145186 0.088323243 12367535
0.42217502 -0.11561412 0.084772959 12564659
0.41555181 -0.1048052 0.085312888 11973806
0.41999999 -0.10998544 0.081588916 12565941
0.40713447 -0.0935902 0.085713968 12039084
0.41150004 -0.0978726 0.08350414 12039344
0.39877778 -0.080985539 0.087319404 10723225
0.40243742 -0.085483499 0.08483699 11578790
0.39493391 -0.0748595 0.08527071 11644326
0.40000001 -0.079465047 0.080981158 12170925
0.38795453 -0.062970631 0.085611962 11579046
0.39108005 -0.067734092 0.084207542 11512740
0.38314781 -0.055076294 0.084960885 11250341
0.37771916 -0.043658499 0.085445143 10066582
0.38047498 -0.048398167 0.083661802 11842990
0.37294772 -0.034854844 0.084936433 2896429
0.37263212 -0.024734197 0.084956259 3356983
0.37708241 -0.015154315 0.08509519 12237233
0.38037503 -0.01111865 0.081125736 12959674
0.37861121 -0.0084938677 0.087926365 12565941
0.38253972 -0.0047095022 0.084480993 12895167
0.38689408 0.0032114442 0.086020075 13027267
0.39273912 0.0072887959 0.083641194 12698304
0.39638004 0.012640058 0.0866419 12764094
0.40315583 0.016513702 0.084066011 12698812
0.40724328 0.022293828 0.086938649 12698559
0.41403037 0.025651135 0.08471185 13289669
0.42188892 0.028560387 0.081842318 13026753
0.41737503 0.031830821 0.088465936 12763840
0.42452776 0.03470527 0.085369982 13093315
0.43213642 0.03734301 0.082056582 13487817
0.42740002 0.040561266 0.089228742 13488330
0.43526661 0.044386663 0.086563095 13093060
0.44277501 0.046531931 0.082507685 11645358
0.43766668 0.05034646 0.089116842 9866894
0.44442663 0.054603748 0.085818306 15526885
0.45252007 0.056806996 0.081504963 15461346
0.4436667 0.061423499 0.08894854 15263457
0.45482862 0.063607581 0.084634826 13026493
0.43135005 -0.14118004 0.095042825 12367537
0.42778784 -0.13254082 0.097057357 12434099
0.43078458 -0.13653325 0.094027743 12630964
0.42432612 -0.12488272 0.095095903 12302257
0.43000001 -0.12971698 0.090577982 11578792
0.4169063 -0.11343423 0.095530577 12038312
0.42064294 -0.11796175 0.09380994 12170157
0.40850008 -0.10161948 0.096217282 11775397
0.4127425 -0.10646502 0.094460055 11972519
0.40516827 -0.094967201 0.094877616 11907243
0.39735001 -0.083097301 0.095945463 11710118
0.40097874 -0.087470509 0.093927406 11512741
0.38900003 -0.071208715 0.098181508 11776166
0.39304954 -0.075316459 0.094650134 11578532
0.38661739 -0.064972818 0.095050305 11578788
0.39000002 -0.068957113 0.090673424 11906468
0.37875 -0.050638776 0.098179534 10657430
0.38145691 -0.055271517 0.094830446 11447721
0.376811 -0.044724241 0.095122106 10132117
0.38000003 -0.049515858 0.09178821 11710628
0.36853132 -0.032449521 0.098469123 2699304
0.3711926 -0.035193086 0.094291419 2765100
0.36852291 -0.026310826 0.098076798 2830637
0.37097985 -0.024378259 0.093766175 2961969
0.37545386 -0.015175792 0.094983585 11117983
0.37804618 -0.0059307436 0.095652722 12170928
0.38064289 -0.0020083666 0.092495084 12829117
0.37900001 0.00012276527 0.099354416 12370107
0.38350737 0.0046401192 0.094936378 12697273
0.38790911 0.011953911 0.096753456 12632254
0.39344177 0.016179997 0.094271868 13158596
0.40024999 0.019572388 0.090869606 13223874
0.39703575 0.022107171 0.097672582 12961473
0.40380436 0.025652731 0.094615519 12961219
0.41057149 0.028555961 0.091290198 13224387
0.40746158 0.032382838 0.098043874 12960961
0.41425005 0.035303995 0.094751358 13224389
0.42166668 0.038701739 0.091911651 13224907
0.417 0.041918032 0.098135486 13553613
0.42398682 0.045040045 0.095332682 14145490
0.431375 0.047394257 0.091705799 12829117
0.42721739 0.052537695 0.098250844 11183267
0.43393326 0.055596601 0.094390668 13947084
0.44000003 0.059885304 0.090624347 16644853
0.43430299 0.063384302 0.096112169 15724264
0.44083336 0.062924214 0.090450682 15460323
0.42866665 -0.14146908 0.10590625 12500661
0.43000004 -0.14246772 0.10248986 12171183
0.42607948 -0.13480844 0.10502581 12762292
0.43000001 -0.13978335 0.10064436 13683905
0.41842863 -0.12125863 0.10647018 11908012
0.42180005 -0.12585297 0.10465931 12367277
0.41468379 -0.11498311 0.10496432 12104620
0.40765774 -0.10369817 0.10564738 12105134
0.4108929 -0.10828823 0.10358997 12236722
0.39900002 -0.090475172 0.10880069 11579816
0.40280813 -0.095206618 0.10489299 12104107
0.39640409 -0.084730059 0.10510229 11710632
0.40000004 -0.089557432 0.1024665 11051419
0.38843131 -0.072425418 0.1057113 11841705
0.39166668 -0.077158019 0.1044186 11446946
0.38484019 -0.065221213 0.10506549 11710118
0.37837505 -0.052171342 0.10565885 11711146
0.38101369 -0.057257507 0.1044744 11709864
0.37553099 -0.045097921 0.1049145 10132118
0.36687505 -0.034033354 0.10526982 2567723
0.37083873 -0.039003119 0.10418657 2435366
0.36646742 -0.025364049 0.10509735 2633002
0.37033334 -0.020975737 0.10156122 2894887
0.37448037 -0.01471119 0.10463744 10854811
0.37684229 -0.0052348827 0.10512577 11776686
0.37849998 0.0016641639 0.10617513 12238263
0.38131583 0.0065549319 0.10453372 12500923
0.38535768 0.014582894 0.10527828 12763580
0.39083335 0.018731253 0.10153962 13093058
0.3882353 0.021137495 0.10813544 12895936
0.39418179 0.025010059 0.10493347 13158593
0.40040001 0.028250709 0.10121433 13093057
0.39776197 0.032720607 0.10821611 13092545
0.40327382 0.035396229 0.10440224 13224644
0.41080004 0.039177969 0.10076555 12895678
0.40716335 0.043865405 0.10770448 13092548
0.41380274 0.045693025 0.10359663 13487561
0.42060003 0.048580799 0.10080725 14344154
0.41551521 0.054362044 0.10741389 13224131
0.42334849 0.055701185 0.10272577 12303287
0.41784614 0.062892094 0.10893536 13552583
0.42473328 0.064922549 0.1053934 15131613
0.42999995 0.066695794 0.1012957 15592418
0.42510009 0.072780952 0.10757252 15657958
0.43000004 0.071610563 0.10353843 15394530
0.42689285 -0.14205827 0.11554431 12237492
0.43000001 -0.14481655 0.11071073 11052702
0.42392853 -0.13494633 0.11469445 12039088
0.41724074 -0.12310404 0.11574347 12235691
0.420643 -0.12780963 0.11409185 11973547
0.40900001 -0.11093477 0.11966608 10590614
0.41244936 -0.11521998 0.11475848 11906470
0.40657434 -0.10511388 0.11491022 11906984
0.39812911 -0.091090605 0.11516049 11052704
0.4013918 -0.09622924 0.1150376 11249828
0.39420202 -0.084745713 0.11477309 11512483
0.38764468 -0.073325925 0.11502809 11644836
0.39089194 -0.078497872 0.11476128 10395288
0.3837634 -0.065018021 0.11506522 11250339
0.37805969 -0.053267609 0.11517447 10921119
0.38062492 -0.058330633 0.11439381 11447721
0.3753981 -0.045311 0.11475413 9474443
0.36388206 -0.034542397 0.11523221 2435620
0.37050003 -0.039777957 0.11143622 2171426
0.36407667 -0.025249027 0.11508044 2435108
0.36775002 -0.0189988 0.11566841 9210244
0.37430009 -0.013417439 0.11535028 10526617
0.37554318 -0.0050453311 0.1149018 10987427
0.37804195 0.0044773989 0.11527784 11448492
0.38035005 0.0088941772 0.11239558 11777200
0.38221428 0.015379514 0.11503321 12237494
0.3867256 0.024398694 0.11567262 12895424
0.39130771 0.027962539 0.11209137 13421511
0.38885716 0.030686945 0.11884397 12567229
0.39403921 0.035101458 0.11491807 12961730
0.40000001 0.039146535 0.11079013 12106418
0.39728305 0.043353062 0.1170062 13618887
0.40244299 0.04615568 0.11333435 13421253
0.40557456 0.054216102 0.11597053 14144977
0.41157576 0.056923434 0.11180349 12697018
0.40808114 0.063315555 0.11815584 12762550
0.41351074 0.065403685 0.11368003 13551812
0.42033339 0.069016702 0.11051765 15920872
0.41558599 0.074717313 0.11597826 16184558
0.42055002 0.074466944 0.11103364 15987177
0.41671428 0.08145225 0.11787955 15460324
0.42499998 -0.14071636 0.12136259 12368308
0.42242596 -0.13463533 0.12322467 12170412
0.41635296 -0.12379175 0.12319122 11579303
0.42040005 -0.12947848 0.1228037 11906983
0.41215628 -0.11496288 0.12390571 11380899
0.40649322 -0.10479016 0.12402801 11052445
0.398 -0.091291256 0.12242098 10987940
0.40177774 -0.096805774 0.12304053 11184035
0.39346001 -0.084179938 0.12250302 10986654
0.388475 -0.072880164 0.12334762 11052704
0.39068756 -0.077245705 0.12413993 10263445
0.38522664 -0.065525912 0.1238602 10197911
0.37802333 -0.052709326 0.12262201 9802894
0.38070592 -0.058333285 0.12218739 10395289
0.37690151 -0.045614418 0.12391142 9277062
0.36071211 -0.034405399 0.12514669 2567720
0.36132655 -0.024750723 0.12497753 2567979
0.36570373 -0.018713472 0.12579101 10594467
0.37402639 -0.013361573 0.12473178 9869457
0.37651575 -0.0055234903 0.12421187 9869975
0.37824297 0.0039453367 0.1228626 10790818
0.3807199 0.0065061543 0.12736514 9541010
0.38183764 0.015241499 0.12481634 11776942
0.38536447 0.024952643 0.12488379 12106167
0.38837102 0.032359917 0.12475979 11974576
0.39138991 0.03749403 0.12457447 12369080
0.39549556 0.045045979 0.12482817 12566460
0.39829415 0.051659651 0.12591092 13026499
0.40139508 0.056503668 0.12431457 14145233
0.4055894 0.06504377 0.12490126 12040114
0.40847069 0.072075531 0.1265122 14671833
0.41189197 0.076313376 0.12419506 16053231
0.4145371 0.08273121 0.12485552 15000031
0.36800003 -0.040371045 0.13868558 5921884
0.36302781 -0.035859566 0.1327385 1975327
0.37 -0.037125748 0.13943774 1383446
0.36255565 -0.023326037 0.13274802 2434340
0.36275002 -0.01920175 0.13289082 10524046
0.38170585 0.0055152127 0.13133952 7566964
0.3842648 0.015369387 0.13187554 8487811
0.38764867 0.025100743 0.13213353 10001300
0.39000002 0.029342232 0.13419294 10198168
0.389 0.031088307 0.13088924 11316906
0.39173472 0.035674389 0.13284318 9671826
0.39575472 0.045025725 0.13265955 10725540
0.39861542 0.051166553 0.13249227 11843507
0.40067434 0.055780251 0.13291347 11842481
0.4047111 0.064774767 0.1321582 11710893
0.40817243 0.073217101 0.13240542 13355974
0.41058341 0.077989779 0.13182253 14474200
0.41233337 0.080574065 0.13093793 12171448
0.36399999 -0.040943205 0.1463663 6117972
0.36530316 -0.035655107 0.14635336 988431
0.37067935 -0.033671986 0.14246041 988687
0.36521184 -0.02413395 0.14653467 1381391
0.37076095 -0.027315617 0.14351641 791053
0.36200005 -0.018866992 0.14708784 5578783
0.36128134 -0.041246135 0.15515326 2040603
0.35900003 -0.031625934 0.1589535 988688
0.36152011 -0.035182942 0.15459655 1317653
0.359 -0.028381778 0.15874781 988177
0.36095691 -0.024729172 0.15468322 1448727
0.36100003 -0.019003622 0.15358201 3877927
0.3452 -0.041047338 0.16898499 2633511
0.35492003 -0.041125435 0.1673387 726031
0.36121055 -0.041139372 0.16344775 1778205
0.34655276 -0.035207115 0.16842678 2173217
0.35583955 -0.034286931 0.16515033 1383960
0.36054549 -0.037738468 0.16229531 1909788
0.34717187 -0.025274938 0.16834252 2172705
0.35568881 -0.026640806 0.16532046 1383447
0.36047167 -0.023223324 0.16417323 1580571
0.35600001 -0.019886343 0.16916461 986895
0.33809516 -0.041274335 0.17829238 2436134
0.34204555 -0.041581299 0.17357101 2369826
0.33834484 -0.036841352 0.17784263 2107424
0.34199983 -0.034810301 0.17349097 2238754
0.33900008 -0.024442352 0.17676023 2107167
0.34253153 -0.025389234 0.17296085 2238498
0.33900002 -0.01973032 0.17695864 2370339
0.34450001 -0.019243948 0.17136042 1974561
0.33472216 -0.041203842 0.18351014 2238500
0.33376908 -0.035349097 0.18506131 2041376
0.33413994 -0.025754932 0.18568438 2106913
0.78900003 -0.17275268 0.25547481 9539721
0.79070002 -0.17726021 0.2567049 9342855
0.78756261 -0.16556607 0.25681305 9999503
0.77850008 -0.15192571 0.25875738 14672086
0.78340006 -0.15746953 0.25855023 12237232
0.77639997 -0.14515451 0.25860411 14014668
0.77649999 -0.1397191 0.2590009 13948102
0.78900003 -0.17152131 0.2645562 9408136
0.79094738 -0.17535795 0.26503873 9474187
0.78643346 -0.16544737 0.26488718 10197652
0.77742869 -0.15349476 0.26585284 12236716
0.78181833 -0.15764864 0.26301935 12105389
0.77576917 -0.14517599 0.26490286 12303540
0.77633351 -0.13514413 0.26530552 11973544
0.77664018 -0.12519994 0.26541033 11646126
0.77616704 -0.11512925 0.26524907 11514537
0.77634794 -0.10539673 0.265627 12104616
0.77671427 -0.097936727 0.26803422 10592155
0.78866673 -0.1717567 0.27567503 9539720
0.79168755 -0.17604621 0.27518585 9605514
0.77900004 -0.16114096 0.27533644 11118494
0.7844547 -0.16586508 0.27417228 10329236
0.77562493 -0.15448783 0.27499315 11447202
0.77429998 -0.14476161 0.27458015 12302769
0.77491659 -0.13489753 0.27479857 12829114
0.77543324 -0.12500475 0.2749818 12631478
0.77527761 -0.11499778 0.27492693 12433838
0.7753666 -0.10502715 0.27495831 12566195
0.77569443 -0.095083565 0.27507448 13289918
0.77575004 -0.08873491 0.2769109 12960184
0.77000004 0.06874761 0.27936572 8883595
0.77341384 0.075485118 0.27579367 11316901
0.77460712 0.085221075 0.2749474 11711663
0.77722228 0.091833949 0.27592018 11777970
0.7849167 0.097189941 0.27604762 10198937
0.78900003 0.10184405 0.27887091 10922143
0.78860009 -0.17180376 0.28279167 9473670
0.79133332 -0.17561218 0.28574798 9473672
0.77850008 -0.1601263 0.28153896 9934734
0.78462505 -0.16552709 0.28528237 10789274
0.77576923 -0.15426014 0.28488234 13881798
0.77404004 -0.14471278 0.28445584 12960951
0.77459997 -0.13484246 0.28466186 12698553
0.77499986 -0.1249349 0.28480837 13421763
0.7749998 -0.11495633 0.28480837 12895674
0.77499986 -0.10497771 0.28480837 12303281
0.77475739 -0.094832748 0.28521323 12368818
0.77450007 -0.088591926 0.28598303 12632245
0.76719999 0.068138495 0.28445429 12828855
0.77000004 0.06874761 0.28116831 10461340
0.76781821 0.0742734 0.28682485 12105131
0.77111113 0.076269917 0.28227425 11118241
0.77233344 0.085230514 0.28472912 12961213
0.7757895 0.093068831 0.28586093 12434613
0.78366673 0.097979017 0.28395179 11974063
0.78840005 0.1026899 0.28640953 10921632
0.79238099 -0.1749101 0.29517207 9473416
0.78654557 -0.16521902 0.29490912 9999758
0.79000002 -0.16988929 0.29864311 9276037
0.77711117 -0.1533742 0.29397491 10590869
0.78100002 -0.15771659 0.29725108 9276291
0.77563995 -0.14501248 0.29412419 11446694
0.77553344 -0.13500634 0.29408348 11579048
0.77553558 -0.12482686 0.29466817 12105132
0.77545452 -0.11527146 0.2945489 12105390
0.77539986 -0.10503189 0.29403293 12039347
0.77505255 -0.095913529 0.29323173 12105397
0.77450001 -0.088591926 0.29278424 12237237
0.76781827 0.076888323 0.29279172 10393998
0.77060002 0.077461533 0.29906678 13356228
0.76900005 0.081260026 0.29250473 12038821
0.77156532 0.085461043 0.29446346 12039594
0.77561116 0.093664214 0.29461515 13158850
0.78183341 0.098784365 0.29555452 11711148
0.78724992 0.10410982 0.29529956 10855839
0.79025 0.10894301 0.29411179 10790303
0.78799999 -0.16381106 0.30422917 10000272
0.79028571 -0.16810067 0.30601999 9737357
0.78419048 -0.15500441 0.30523735 10263187
0.77812505 -0.14411005 0.30121347 11644584
0.78246152 -0.14530042 0.30615199 10525847
0.77800012 -0.1350216 0.30131027 11776682
0.78210008 -0.13523519 0.30664319 12170929
0.7772857 -0.12608394 0.30150542 12105389
0.78141671 -0.12505513 0.30637586 12106161
0.77766675 -0.11444029 0.30156678 11711146
0.78230006 -0.11512156 0.30672187 12107445
0.77788889 -0.10557166 0.30124891 10527648
0.78321439 -0.10478009 0.30668902 12108216
0.778 -0.098096497 0.30139318 10330012
0.78400004 -0.096787974 0.30716085 12370104
0.77360004 0.075227305 0.30521289 9079432
0.77561116 0.084783457 0.30410251 11447722
0.78100002 0.088927224 0.30803919 8355713
0.77766663 0.093100578 0.30095896 11513769
0.78438896 0.096153632 0.30621538 11645613
0.78830779 0.10360121 0.30446276 10855839
0.79045451 0.10825677 0.30562782 10856096
0.78900003 -0.16105463 0.31088671 9672337
0.79223812 -0.16507423 0.31552106 10395545
0.78825015 -0.15398245 0.31336001 9934737
0.79012501 -0.15627505 0.31718746 10461337
0.78761113 -0.14509894 0.31402981 10197395
0.79000002 -0.14584704 0.31806183 10395542
0.78709519 -0.13478111 0.31373698 9868687
0.79000002 -0.13536708 0.31867829 10132370
0.78693336 -0.12501672 0.31314567 9474702
0.79000002 -0.12550358 0.31806183 9868685
0.78766656 -0.11499058 0.31343687 9343114
0.79000002 -0.11533186 0.31806183 9671562
0.78815389 -0.10519766 0.3133457 9212297
0.79071426 -0.10472681 0.31782103 9474441
0.78828579 -0.097814262 0.31341839 9080713
0.79100001 -0.098812148 0.31846446 9869198
0.777125 0.075069785 0.3121976 9606542
0.78214294 0.076634414 0.31725258 10330008
0.78511763 0.08491227 0.31534413 10395547
0.79000002 0.0890273 0.31991127 10658717
0.78806257 0.094806939 0.31370848 10658718
0.79016668 0.095212705 0.31812894 10790303
0.78900003 0.10245974 0.31088671 10790303
0.79083341 0.10570782 0.31531256 10921889
0.78690004 0.077627413 0.32400256 10527131
0.79000002 0.079780273 0.32915828 10527131
0.78850007 0.083321519 0.32299608 10527131
0.7906667 0.086635761 0.32696894 10724511
0.78900003 0.076908693 0.3305887 10329752
0.79000002 0.078239106 0.33532298 10527131
0.7912001 0.085460447 0.33521491 10724510
0.79092866 0.078022309 0.34435964 10527388
0.79152018 0.085493498 0.34461704 10856096
0.78680003 0.079087704 0.36612827 10527644
0.79150003 0.077769823 0.36189732 10461594
0.78830779 0.084153838 0.36777368 10658973
0.78784209 0.086165883 0.37407735 10527901
0.78900003 0.090761669 0.3776888 10659487
0.79138464 0.095029309 0.37483808 10790817
0.78821737 0.085618623 0.38569778 10527901
0.78900003 0.091223441 0.3846153 10593694
0.79026312 0.095970854 0.38457248 10725280
0.78900003 0.090761669 0.39246529 10659487
0.79033363 0.095026903 0.39528835 10659743
