# .PCD v0.7 - Point Cloud Data file format
VERSION 0.7
FIELDS x y z rgb
SIZE 4 4 4 4
TYPE F F F U
COUNT 1 1 1 1
WIDTH 847
HEIGHT 1
VIEWPOINT 0 0 0 1 0 0 0
POINTS 847
DATA ascii
0.79360002 -0.68528646 -0.42399114 9999009
0.78760004 -0.67567825 -0.42263097 10261414
0.78000003 -0.66623515 -0.42001384 9866658
0.78550005 -0.4107312 -0.42113662 16447998
0.78850007 -0.40860924 -0.42182207 16447999
0.79480964 -0.40358397 -0.42355514 12895692
0.79814291 -0.69561398 -0.41510201 10657449
0.79291677 -0.6851601 -0.41582775 9999009
0.78683335 -0.67591292 -0.41447878 9998757
0.7768572 -0.66277313 -0.41494235 11379899
0.78200006 -0.66977417 -0.41193745 9998759
0.76900005 -0.65143883 -0.41319045 14077923
0.77280009 -0.65682942 -0.41288048 13222616
0.76400006 -0.64541465 -0.4113982 14736877
0.76200002 -0.52509862 -0.41032121 14868461
0.76200002 -0.51528746 -0.41032118 14671082
0.76200002 -0.50547624 -0.41032121 15131120
0.76300001 -0.49542245 -0.41085967 15000046
0.7626667 -0.48717245 -0.41068017 15065840
0.76800007 -0.41206849 -0.41115412 14672108
0.77430004 -0.41103655 -0.41295567 14342629
0.78337508 -0.41041943 -0.41472214 16053244
0.78854555 -0.40854886 -0.41488171 15922683
0.79400015 -0.40424505 -0.41523251 13290707
0.79280001 -0.68552244 -0.40556139 10195619
0.78650004 -0.6763922 -0.40418091 10261157
0.77671432 -0.66394967 -0.40421453 12235466
0.78066665 -0.66863221 -0.40758073 9867174
0.76800001 -0.65059167 -0.40995625 15327990
0.77190006 -0.65660781 -0.40481138 13945826
0.76306671 -0.64439207 -0.40517613 14735853
0.7601335 -0.63503075 -0.40486762 14538986
0.76000017 -0.62513345 -0.40479627 14407912
0.75899994 -0.6127615 -0.40477139 14407912
0.76000017 -0.6176123 -0.40617114 14407912
0.75900012 -0.60476565 -0.4051522 14473962
0.759 -0.59499311 -0.40515223 14408169
0.75900012 -0.58522052 -0.40515214 14473706
0.75900012 -0.57455957 -0.40515217 14671086
0.759 -0.56672531 -0.40644437 14671085
0.76000017 -0.56315887 -0.40398085 14868208
0.76119429 -0.55483598 -0.40543199 14802671
0.76154828 -0.54511768 -0.40547559 14737134
0.76143575 -0.53469491 -0.40517038 14802925
0.76308578 -0.52510518 -0.40467709 14737132
0.76306081 -0.51497644 -0.40472078 14802925
0.76256663 -0.50525719 -0.40467435 14802925
0.76293355 -0.49537891 -0.40546605 14934765
0.76243329 -0.48494095 -0.40430716 15132145
0.76214677 -0.47524229 -0.40441722 14935023
0.76199991 -0.46533954 -0.40496957 14737899
0.76113319 -0.4550108 -0.40450853 14737642
0.76063997 -0.44492283 -0.40424636 14868713
0.75899994 -0.43380901 -0.40451756 14671335
0.76000011 -0.43822131 -0.40291831 15000299
0.75812507 -0.42481592 -0.40379724 15395316
0.75871432 -0.4166446 -0.40436506 15592954
0.76319051 -0.4126299 -0.40458006 15330808
0.77430445 -0.41129321 -0.40504414 14869743
0.78375 -0.41027525 -0.40735498 14869488
0.77650005 -0.40966073 -0.40085828 14343145
0.78649998 -0.40883392 -0.40418172 15067375
0.79428577 -0.40495682 -0.4051204 12962512
0.79706264 -0.69492269 -0.39549857 10722727
0.78875005 -0.68109488 -0.39425951 10196131
0.79171425 -0.68550932 -0.39507753 10327459
0.78457147 -0.67486531 -0.39518592 10393256
0.77580005 -0.66355753 -0.39505118 12629451
0.78000003 -0.66988719 -0.39079794 10130597
0.76825005 -0.6526019 -0.39480466 13683423
0.77219999 -0.65776503 -0.39593095 13946339
0.76199996 -0.64372778 -0.39515936 14604779
0.75900006 -0.63112205 -0.39152971 14473705
0.76000017 -0.63532317 -0.39541522 14407657
0.75899994 -0.62473166 -0.39355597 14539240
0.76000005 -0.6275056 -0.39797616 14670055
0.75862879 -0.61499947 -0.39506042 14473703
0.75825816 -0.60489029 -0.39513755 14342120
0.75825709 -0.59517097 -0.39486703 14539499
0.75883365 -0.58509141 -0.39529347 14473706
0.75900024 -0.57455951 -0.39537957 14736879
0.75899994 -0.56546378 -0.39406809 14868721
0.76000011 -0.56219512 -0.39745724 14802415
0.75900006 -0.55886418 -0.39152971 15197426
0.76090318 -0.55424923 -0.39525118 15066096
0.76205534 -0.54475999 -0.39518788 15197682
0.76270592 -0.53472126 -0.3952612 15131889
0.76403338 -0.52471024 -0.39532015 15000048
0.76380002 -0.51471734 -0.3951973 15066097
0.76315403 -0.50521106 -0.3950685 14868718
0.76247221 -0.49508059 -0.39540198 15131887
0.76293939 -0.48447454 -0.39458799 15329266
0.76406056 -0.47483692 -0.39451563 15132401
0.76275009 -0.46512792 -0.39532167 14803436
0.76184827 -0.45503378 -0.39532214 14934763
0.76082748 -0.44515502 -0.39470389 14934249
0.75899994 -0.43349874 -0.39458981 15066094
0.76000011 -0.43822131 -0.39599928 14868713
0.75886136 -0.42522794 -0.39530799 15132143
0.75899994 -0.41730982 -0.39537954 15527414
0.76308006 -0.41261289 -0.39496461 15659256
0.77211118 -0.41106129 -0.39548248 14738414
0.77553844 -0.40894225 -0.39414847 14212584
0.78584999 -0.40768829 -0.39519441 14476009
0.79500008 -0.40477926 -0.39517623 11777723
0.7968235 -0.69563931 -0.38550872 10657704
0.78880006 -0.68261564 -0.38449538 10196130
0.7922858 -0.68759334 -0.38555899 10327970
0.78433341 -0.67626351 -0.38439882 10195878
0.77518195 -0.6642673 -0.38524821 12235976
0.76700002 -0.6528874 -0.38428405 13815520
0.77079999 -0.65765601 -0.3851037 14144228
0.75900006 -0.64119077 -0.38027647 14144743
0.76133341 -0.64411563 -0.38560236 14342120
0.75900006 -0.63428086 -0.38363269 14407913
0.76000005 -0.63669801 -0.38878378 14473704
0.75892872 -0.62533104 -0.38499978 14473705
0.75799996 -0.61461574 -0.38509884 14539497
0.75756013 -0.6045047 -0.38487637 14539497
0.75770009 -0.59486037 -0.38494751 14605033
0.75799996 -0.58444947 -0.3850989 14408168
0.75800002 -0.57468969 -0.38509887 14539754
0.75806659 -0.56497937 -0.38513309 14802924
0.75896305 -0.55580962 -0.38414043 15000046
0.7601251 -0.55227762 -0.38751319 15131631
0.75900006 -0.54701865 -0.38027647 14868463
0.76062959 -0.54482836 -0.38505146 15000304
0.76136655 -0.5349983 -0.38502896 15066097
0.76199996 -0.52509743 -0.38534942 15197683
0.76266664 -0.51520073 -0.38568667 15394804
0.76327616 -0.50542867 -0.38531613 15131889
0.76300031 -0.49542251 -0.38495976 15131633
0.76444203 -0.48467997 -0.3850399 15724023
0.76600015 -0.47514725 -0.38500044 15394801
0.76379323 -0.46452579 -0.38520595 14934506
0.76167989 -0.45444733 -0.3851862 14803177
0.76073074 -0.44483882 -0.38491076 15000556
0.75884008 -0.43456075 -0.38481522 14868970
0.76000005 -0.43920973 -0.38522545 14934763
0.75751847 -0.4249686 -0.38505235 15131885
0.75826091 -0.41659263 -0.38461486 15592694
0.76366669 -0.41105807 -0.38512364 15527159
0.77418178 -0.4083513 -0.3846671 14212581
0.78573686 -0.40799546 -0.38553336 14212064
0.79492319 -0.40649045 -0.38524282 12238017
0.79727268 -0.69524378 -0.37637463 10460327
0.78860009 -0.68281144 -0.37480074 10130597
0.79175001 -0.68739241 -0.37537056 10065571
0.77900004 -0.67085195 -0.37388405 10064037
0.78371429 -0.67622471 -0.37561792 10064293
0.77445453 -0.66446787 -0.37483281 12959955
0.76719999 -0.65458572 -0.37540048 14013155
0.77000004 -0.65769368 -0.37857738 14341865
0.75874996 -0.64164585 -0.37415701 14145000
0.76110011 -0.64652967 -0.3750912 14407915
0.75842321 -0.63517225 -0.37479898 14342378
0.75793546 -0.62483799 -0.37465009 14539754
0.75740016 -0.61501634 -0.37504354 14605547
0.75700003 -0.60494423 -0.37484401 14605547
0.75752771 -0.59472448 -0.37510443 14605291
0.75799984 -0.58444947 -0.37533918 14539753
0.75799996 -0.57468981 -0.37533933 14540009
0.75799984 -0.56493008 -0.37533912 14737132
0.75810713 -0.5549947 -0.37488583 14737133
0.75842857 -0.54540116 -0.37447497 14802925
0.75880945 -0.53613788 -0.37375274 15066095
0.76010013 -0.53393155 -0.3781586 15131889
0.75900006 -0.52717739 -0.37198457 15066097
0.76034796 -0.5249272 -0.37623197 15197682
0.76051426 -0.51504529 -0.37493268 15329267
0.76127255 -0.50523621 -0.37477395 15395318
0.76240003 -0.49503165 -0.37484187 15263218
0.76410347 -0.48543429 -0.37549451 15460851
0.76418191 -0.47480413 -0.37523139 15197678
0.76239127 -0.46526918 -0.37460548 15066349
0.76117122 -0.45490637 -0.37500092 15132142
0.76096648 -0.44511285 -0.37502652 15000813
0.75885719 -0.43245861 -0.37766653 14868971
0.76034617 -0.4359875 -0.37369317 15001069
0.75827277 -0.425033 -0.37539124 15197937
0.76000005 -0.42853466 -0.37010244 14869740
0.75837511 -0.41666898 -0.37581882 15855609
0.7633 -0.41126454 -0.37474066 15658487
0.78600001 -0.41007435 -0.37356362 13949151
0.76800001 -0.4096728 -0.37939194 15197678
0.77421045 -0.40897378 -0.37530372 14409189
0.78508329 -0.40943596 -0.37541828 14080480
0.79527283 -0.40838748 -0.37517169 12040126
0.79691666 -0.69607902 -0.36568913 10460327
0.78783339 -0.68307084 -0.36521253 10262183
0.79079998 -0.68767911 -0.36547565 10262692
0.77900004 -0.67267561 -0.36111847 10130345
0.78275007 -0.67637324 -0.36514461 10130088
0.77463645 -0.66594279 -0.36585352 12564684
0.76583338 -0.65443474 -0.364876 14013154
0.77000004 -0.65949631 -0.365058 14671084
0.75827271 -0.64267498 -0.36522624 14277097
0.76083344 -0.64778632 -0.36575949 14276583
0.75714827 -0.63503104 -0.36510435 14342889
0.75709677 -0.62471789 -0.3650302 14605289
0.75700003 -0.61469102 -0.36509719 14671082
0.75741178 -0.60506332 -0.36466894 14671339
0.75811106 -0.59518355 -0.36474511 14671341
0.75799984 -0.58444947 -0.36469221 14539755
0.75799996 -0.57468975 -0.36469221 14671597
0.75762969 -0.56573898 -0.36500713 14737133
0.75700003 -0.55532402 -0.36509711 14868460
0.75703335 -0.54471487 -0.36511347 14868719
0.75762498 -0.53427601 -0.36506683 15131889
0.7587502 -0.52463436 -0.36505401 15132145
0.75899994 -0.51634485 -0.36428499 15197937
0.76000017 -0.51171106 -0.36520973 15461110
0.7610321 -0.50468904 -0.36508742 15395832
0.76199967 -0.49477276 -0.36483297 15198195
0.76258075 -0.48510104 -0.36548677 15329268
0.76167852 -0.47463313 -0.36538103 15197938
0.76103991 -0.46475345 -0.36526424 15329522
0.76099986 -0.45493042 -0.36524487 15263472
0.76099992 -0.44513226 -0.36524487 15131885
0.76066667 -0.43514445 -0.3650856 15197935
0.75900006 -0.42293647 -0.3690232 15264757
0.76000017 -0.42520839 -0.36445546 15197679
0.75900006 -0.41730985 -0.36872706 15660026
0.76241869 -0.4133628 -0.36463293 15527415
0.78600013 -0.41033623 -0.36488917 14278116
0.7665 -0.4097681 -0.36609024 14803947
0.77411777 -0.4092018 -0.36482173 14080994
0.78581828 -0.40980414 -0.36543968 14278115
0.79531819 -0.40841216 -0.36495402 11185586
0.79640007 -0.6960935 -0.35519904 10328998
0.78771436 -0.68441635 -0.35462022 10130851
0.79000002 -0.68772244 -0.35697067 10196388
0.7766 -0.67060316 -0.35455412 10130347
0.78220004 -0.67727005 -0.35527962 10327466
0.76900005 -0.66044009 -0.35288233 14868209
0.77250004 -0.66457748 -0.35584357 13749217
0.76400006 -0.65396297 -0.35475698 14210279
0.75793755 -0.64373255 -0.3546803 14407656
0.76000005 -0.64855915 -0.35408989 14210021
0.75620025 -0.63528568 -0.35497493 14605290
0.75635737 -0.6247912 -0.35504848 14671082
0.75706249 -0.61440903 -0.35515794 14736875
0.75779998 -0.60552335 -0.35537046 14671083
0.75799996 -0.59509635 -0.35493261 14671340
0.75799996 -0.58444947 -0.35493261 14736877
0.75800002 -0.57468975 -0.35493255 14934255
0.75753582 -0.56528193 -0.35528469 14868462
0.75700003 -0.55532402 -0.35535038 14934511
0.75700003 -0.54469109 -0.35535049 15066099
0.75750005 -0.53461802 -0.35532349 15131892
0.75861776 -0.52433336 -0.35459447 15395317
0.75899994 -0.51645714 -0.35433471 15395316
0.76000017 -0.51193345 -0.35520184 15592440
0.76094276 -0.50490159 -0.35529342 15592696
0.76164263 -0.49485928 -0.35504764 15460854
0.76139265 -0.48483059 -0.35473976 15526902
0.76102757 -0.47454473 -0.35545966 15395058
0.76109982 -0.46478972 -0.35549268 15526901
0.76116645 -0.45503017 -0.35552379 15460850
0.76073325 -0.4449771 -0.35532293 15132142
0.759 -0.43433785 -0.35155097 14672362
0.76004779 -0.43534002 -0.35707775 15066349
0.75899994 -0.42556688 -0.3517426 15197936
0.76000017 -0.42475396 -0.35742593 15263471
0.75900006 -0.41908669 -0.35007033 16317183
0.76202029 -0.4140434 -0.35528162 15592952
0.77345467 -0.41059941 -0.35327625 14212068
0.78575009 -0.41143444 -0.35435733 14146530
0.79000002 -0.41031185 -0.35419655 14475495
0.77466667 -0.40959918 -0.35668805 14343396
0.78900003 -0.40979245 -0.35836589 14672361
0.79552376 -0.4086509 -0.35511753 11580087
0.79490912 -0.69504404 -0.34480822 10328229
0.78736365 -0.68442374 -0.34522185 10196389
0.77900004 -0.67449927 -0.34470558 10525101
0.78000003 -0.67536515 -0.34514809 10393258
0.77350008 -0.66702259 -0.34498721 12894163
0.76410013 -0.65534055 -0.34437177 14407912
0.75790918 -0.64454532 -0.3447282 14341863
0.75670588 -0.63508469 -0.34437394 14605291
0.75715786 -0.62489307 -0.34497476 14736876
0.75791657 -0.61454797 -0.34513441 14802669
0.75799996 -0.60485607 -0.34517288 14736875
0.75730008 -0.59543443 -0.34485465 14605546
0.75717944 -0.5851112 -0.34500447 14737132
0.75754541 -0.57482845 -0.3447257 14934510
0.75713336 -0.56517094 -0.34477872 15000302
0.75700003 -0.55532402 -0.34471747 15066095
0.75700003 -0.54469109 -0.3447175 15131888
0.75724995 -0.53462148 -0.34522015 15329267
0.75781244 -0.52520484 -0.34453475 15461109
0.75860727 -0.5153392 -0.3443723 15526902
0.76000005 -0.51037663 -0.34875235 15526902
0.75885713 -0.50554818 -0.34340644 15395316
0.76000011 -0.504372 -0.34808517 15526902
0.759 -0.49531278 -0.34189689 15329523
0.76025003 -0.4950605 -0.34673205 15658488
0.75900006 -0.48571789 -0.34118617 15724281
0.76046151 -0.48459876 -0.34595263 15527158
0.76075858 -0.4745298 -0.34566239 15461365
0.76120681 -0.46485427 -0.34506711 15790328
0.76133311 -0.4554815 -0.3452605 15921399
0.759 -0.44218549 -0.34393215 15000040
0.76028585 -0.44674891 -0.34596005 15197676
0.75807697 -0.43475455 -0.34418586 14868456
0.75806677 -0.42478141 -0.34431782 15395313
0.75892299 -0.4175407 -0.3442952 15856376
0.76285708 -0.4129158 -0.34553018 15658999
0.77442861 -0.41180119 -0.34475088 14343651
0.78675008 -0.41241848 -0.34479401 14344419
0.79000002 -0.41031185 -0.34494957 14936301
0.79529166 -0.40762165 -0.34477422 11777722
0.79721743 -0.7049616 -0.33475265 10920621
0.79378575 -0.69526827 -0.33518618 10393767
0.78700006 -0.68427527 -0.33484751 10261669
0.79000002 -0.68957186 -0.33200371 10130082
0.77900004 -0.67449927 -0.33285186 10195622
0.78000003 -0.67536515 -0.3387571 10655404
0.773 -0.66650939 -0.33530614 13946081
0.76350009 -0.65482569 -0.33516291 14210533
0.75752383 -0.64450538 -0.33494973 14341863
0.75663352 -0.63476241 -0.33480942 14737133
0.7573334 -0.62471163 -0.33511874 14671339
0.75796664 -0.61458862 -0.3353985 14737132
0.75780773 -0.60483974 -0.33512402 14737131
0.75700003 -0.59519744 -0.33497059 14737130
0.75676674 -0.58527017 -0.33486834 14737388
0.75671434 -0.57491714 -0.33503512 14934509
0.75615394 -0.5649845 -0.33453014 14802923
0.75558639 -0.55480444 -0.33440945 14934509
0.75542325 -0.54498422 -0.33420733 14868460
0.75511116 -0.53531098 -0.33466148 15197425
0.75532156 -0.52453578 -0.33460993 15329267
0.75654846 -0.51479775 -0.33471698 15460852
0.75731033 -0.50465667 -0.33517167 15329522
0.75782758 -0.49472415 -0.33533937 15461621
0.75799996 -0.48476028 -0.33522561 15527159
0.75853848 -0.47524554 -0.33537975 15527157
0.76000005 -0.47301403 -0.33985648 15461877
0.75866669 -0.46567169 -0.3330873 15724278
0.76000011 -0.46465191 -0.33825523 15592692
0.75873679 -0.45512024 -0.33237445 15526643
0.7603001 -0.45540267 -0.33767703 15658228
0.75842321 -0.44519585 -0.33444068 15066092
0.76000005 -0.44929174 -0.33926344 15066090
0.75716662 -0.43491447 -0.33504468 15000299
0.75700003 -0.42433602 -0.33509383 15330034
0.75831586 -0.41711941 -0.33452567 15922171
0.76330441 -0.41337523 -0.33526704 15461876
0.77394128 -0.41283858 -0.33521774 13949150
0.78472728 -0.41215736 -0.33487615 14344164
0.79000002 -0.41031185 -0.33539429 15002093
0.78900003 -0.40979245 -0.33343053 15001836
0.79488903 -0.40725923 -0.33498397 11974586
0.79752946 -0.70471281 -0.32522792 10855341
0.79350001 -0.6961894 -0.32527092 10328486
0.78785717 -0.68664867 -0.32438359 10129827
0.79000002 -0.68957186 -0.32830492 10260900
0.77700001 -0.67276764 -0.32472315 10196134
0.78275001 -0.67957866 -0.32529289 10459305
0.77236366 -0.66612494 -0.32500306 13814752
0.76300007 -0.65439647 -0.32512149 14210021
0.7568236 -0.64446056 -0.32540855 14276326
0.75470376 -0.63507324 -0.32518837 14802668
0.75602728 -0.62504393 -0.32540536 14736875
0.75660616 -0.6148538 -0.32481474 14802668
0.75667751 -0.60517222 -0.32517236 14737131
0.75606906 -0.59519815 -0.32534382 14802924
0.75511551 -0.58467364 -0.32543632 14868718
0.75435996 -0.57510924 -0.32497501 14802668
0.7536552 -0.5650692 -0.3245489 14737130
0.75323081 -0.55500084 -0.32462332 14868716
0.75265402 -0.54535919 -0.32444319 14934510
0.75195467 -0.53481823 -0.32537988 15065841
0.74900001 -0.52403069 -0.32091013 15132144
0.75152391 -0.52562672 -0.32576466 15263730
0.75184005 -0.51524317 -0.32473549 15329523
0.75314283 -0.50476182 -0.3250185 15395316
0.7542069 -0.49522024 -0.32478884 15461366
0.75458628 -0.48511451 -0.32525691 15395829
0.7552582 -0.47507828 -0.32519212 15461106
0.75668967 -0.46502683 -0.32469541 15724020
0.75718504 -0.45530841 -0.32441884 15592691
0.75683331 -0.44505733 -0.32432657 15394799
0.75629646 -0.43549678 -0.32541487 15197421
0.75529993 -0.42499906 -0.32537994 15592693
0.75761914 -0.41756168 -0.32485649 15659256
0.76310003 -0.41384077 -0.32551941 15396341
0.77386373 -0.41345361 -0.32472596 13949408
0.78534782 -0.4126043 -0.32480741 14278884
0.79000002 -0.41031185 -0.32553083 14870763
0.79478264 -0.40825948 -0.32498902 11843773
0.79766673 -0.7031126 -0.31546184 10789547
0.78900003 -0.6905461 -0.31218931 10130849
0.79162502 -0.69400316 -0.31646907 10196642
0.7853334 -0.6846832 -0.31564164 10130597
0.77622229 -0.67330784 -0.3146013 10722992
0.78000003 -0.67719114 -0.31958416 9867425
0.76833338 -0.66166615 -0.31660435 13552860
0.77200001 -0.66699302 -0.31450054 14276072
0.75900006 -0.65007496 -0.31097999 14144995
0.76190007 -0.65381002 -0.31466231 14078947
0.75629413 -0.64421868 -0.31518197 14408168
0.75386655 -0.63508934 -0.31505373 14802412
0.75439972 -0.62516117 -0.31505653 14867948
0.75553572 -0.61470157 -0.31505749 14802667
0.7555927 -0.60509682 -0.3146953 14539750
0.75466657 -0.594836 -0.3153885 14802923
0.75397044 -0.58487308 -0.31509724 14737132
0.75306469 -0.57464457 -0.31457651 14737389
0.7530002 -0.56472915 -0.31469133 14606570
0.75237513 -0.55472165 -0.3154583 14738413
0.74900001 -0.54214936 -0.31097406 14934765
0.75030005 -0.54522818 -0.31514451 15066609
0.74853843 -0.53496414 -0.31491682 15066353
0.75000006 -0.53789854 -0.31958285 15197683
0.74792588 -0.52502948 -0.31519946 15066351
0.74866664 -0.51579243 -0.31515929 15263730
0.75000006 -0.51112318 -0.31431553 15329523
0.75017655 -0.50486398 -0.31500864 15395316
0.75048149 -0.49480873 -0.31471425 15526902
0.74900001 -0.48545539 -0.31038958 15789815
0.7509312 -0.48506823 -0.31482995 15592694
0.75205904 -0.47464409 -0.31486997 15592438
0.75390625 -0.46519333 -0.31479648 15658484
0.75462079 -0.4551661 -0.31454977 15658484
0.75506902 -0.44519693 -0.31467503 15526898
0.7542221 -0.4350214 -0.31484342 15329776
0.75374997 -0.4247424 -0.31482783 15527413
0.75762504 -0.41743818 -0.31485024 15725305
0.76323533 -0.41416916 -0.3150253 15067889
0.7736001 -0.41355902 -0.31514719 14212324
0.78633338 -0.41287103 -0.31498802 14344421
0.7918182 -0.41041234 -0.31481859 14213091
0.79694444 -0.40842125 -0.31501839 11844541
0.78900003 -0.69239312 -0.30110693 10065824
0.79262501 -0.696504 -0.30527174 10197154
0.78550011 -0.686566 -0.30528694 10065314
0.77499998 -0.67365825 -0.30443317 10394283
0.76750004 -0.66319531 -0.30592787 13815775
0.7713334 -0.66786104 -0.30700704 14012899
0.75866669 -0.6509732 -0.30492458 14210788
0.76150006 -0.65555996 -0.3050971 14144739
0.75541174 -0.64450788 -0.30514094 14408166
0.75264013 -0.63476127 -0.30485231 14736876
0.75270993 -0.62496102 -0.30482429 14802668
0.75370002 -0.61500931 -0.30528173 14737130
0.7540741 -0.60525322 -0.3054333 14671594
0.75375861 -0.59514391 -0.30518287 14737130
0.75344002 -0.58534372 -0.30517539 14802924
0.7530002 -0.57530588 -0.30499601 14803181
0.7530002 -0.56521881 -0.30499604 14803437
0.75092608 -0.55487454 -0.30493754 14737644
0.74879992 -0.54405051 -0.30504814 14803438
0.75000006 -0.5493111 -0.30465886 14737644
0.74774182 -0.53495288 -0.30512428 14868973
0.74748546 -0.52517027 -0.30546051 15066352
0.74854153 -0.51713759 -0.30610999 15132144
0.75100005 -0.51240176 -0.30418584 15263731
0.75183874 -0.50506628 -0.30554751 15197937
0.74900001 -0.49115402 -0.3033759 15263730
0.75019234 -0.49548295 -0.30487216 15198450
0.74900001 -0.48482925 -0.30487889 15526644
0.75000006 -0.48171416 -0.30904827 15658229
0.74900001 -0.47844172 -0.30162248 15724281
0.75089198 -0.47480032 -0.305188 15395315
0.75275022 -0.4655433 -0.3047066 15526899
0.75228578 -0.45531937 -0.30489737 15461106
0.75259387 -0.44500208 -0.30466866 15527155
0.75300008 -0.43516502 -0.30499747 15395827
0.754237 -0.42500076 -0.30507812 15527926
0.75790471 -0.41746601 -0.30495447 15462392
0.7630952 -0.41342846 -0.30491358 14607595
0.77381259 -0.41277 -0.30527294 14410471
0.78531581 -0.41270906 -0.30540571 14278884
0.79358822 -0.41096795 -0.30427456 12305092
0.79615009 -0.70491487 -0.29498294 10789289
0.78840005 -0.69186664 -0.29534239 10130848
0.79120004 -0.69617593 -0.29454002 10130848
0.78416675 -0.68601108 -0.29650816 10196387
0.77536374 -0.67531472 -0.29540381 10920369
0.76600003 -0.66324317 -0.29591912 13486808
0.77033335 -0.66879863 -0.29218057 13749725
0.7578572 -0.65213805 -0.2958118 14144738
0.76083332 -0.6569885 -0.29481301 14473960
0.7532143 -0.64461786 -0.29450414 14210787
0.75010347 -0.63440216 -0.29492199 14539753
0.74900001 -0.6228599 -0.29301473 14671340
0.7500667 -0.62533224 -0.29643327 14736876
0.74900001 -0.61552751 -0.29221776 14671339
0.75072229 -0.61466867 -0.29694736 14671337
0.74900001 -0.60907167 -0.29110193 14539753
0.75154853 -0.60498393 -0.29578486 14737130
0.75175023 -0.59513867 -0.29492357 14803181
0.75150019 -0.58509094 -0.29553264 14802924
0.75230569 -0.5749197 -0.29517704 14868715
0.75341672 -0.56504053 -0.29546309 14869228
0.75296551 -0.55513126 -0.29513264 14737386
0.74900001 -0.5435375 -0.29877317 14738156
0.75059104 -0.54551178 -0.29387477 14737899
0.74870598 -0.53495979 -0.2955744 14869486
0.74889988 -0.52507079 -0.29620531 14869230
0.75000006 -0.52443773 -0.29207587 15132659
0.74900001 -0.51847821 -0.29694667 14935023
0.75097227 -0.51402879 -0.29455355 15001072
0.75268775 -0.50513548 -0.29495645 15001327
0.7510646 -0.49484822 -0.29451075 15198450
0.74900001 -0.48370197 -0.29928458 15395830
0.75025004 -0.48545054 -0.29434672 15330035
0.75036675 -0.4749212 -0.29514706 15396084
0.75208843 -0.46524125 -0.29520369 15330034
0.75137943 -0.45545843 -0.29481724 15527157
0.75043333 -0.44509974 -0.2951737 15395571
0.75074083 -0.43522552 -0.29549113 15527157
0.75248772 -0.42493603 -0.29482138 15593207
0.75752175 -0.41749689 -0.29510754 15528185
0.76319999 -0.41353637 -0.29468659 14672874
0.77405262 -0.4130879 -0.29492268 14212578
0.78527784 -0.41336861 -0.29508188 14212577
0.79413646 -0.41160756 -0.29520354 11844284
0.79730773 -0.70485425 -0.28589752 10460068
0.7881667 -0.69166189 -0.28510448 10130848
0.792 -0.69687986 -0.28463373 10065054
0.78316671 -0.68544072 -0.28512922 10261923
0.77466673 -0.67528278 -0.28475407 11840445
0.76628578 -0.66451895 -0.28525183 13749467
0.77000004 -0.66850924 -0.28844818 14078175
0.75766671 -0.65327001 -0.28441769 14079202
0.76150006 -0.65890205 -0.28347781 13618651
0.75268751 -0.6447804 -0.28515619 14079203
0.75019437 -0.63463062 -0.2854189 14539755
0.74900001 -0.62147087 -0.28759509 14606061
0.75000006 -0.62557238 -0.28454393 14671597
0.74899989 -0.61506253 -0.28598779 14540267
0.75000006 -0.61515218 -0.28139496 14473960
0.74899995 -0.60792512 -0.28678581 14540523
0.75090915 -0.6035099 -0.28438279 14606058
0.75236386 -0.59518003 -0.28434604 14672109
0.75118923 -0.58516169 -0.28515071 14737900
0.7518605 -0.5753116 -0.28488302 14737644
0.75366664 -0.56522751 -0.28497607 14606317
0.75399983 -0.55528957 -0.28486151 14868718
0.75243765 -0.54482251 -0.28489336 14802924
0.74900001 -0.5345512 -0.28934851 15066351
0.75103348 -0.53541654 -0.28467986 14868973
0.75051355 -0.52523166 -0.28551522 15066095
0.75132358 -0.51489317 -0.28543401 15066608
0.7530002 -0.50479436 -0.28472412 15001584
0.75276685 -0.49494627 -0.28463471 15001584
0.75139302 -0.48518652 -0.28518233 15198962
0.750139 -0.47477961 -0.28539774 15396084
0.7502144 -0.46516657 -0.28498846 15330291
0.75040001 -0.45532855 -0.2847361 15396084
0.75008339 -0.44489241 -0.28537679 15330035
0.75031251 -0.43503782 -0.28524339 15526900
0.75338775 -0.42497414 -0.28502652 15724535
0.75814289 -0.41861206 -0.28590712 15592948
0.76343471 -0.41585585 -0.28497469 14738409
0.77430427 -0.41499898 -0.28509387 14080737
0.78577268 -0.41454747 -0.28473669 14278370
0.79445463 -0.41160402 -0.28500947 11580341
0.78900003 -0.6905461 -0.27524802 10262435
0.79233336 -0.69470084 -0.27454981 9999775
0.78525007 -0.68611634 -0.27531397 10065058
0.77490908 -0.67442274 -0.27445424 12433865
0.78000003 -0.67901713 -0.27028233 9933986
0.76566672 -0.66355467 -0.27457979 13552603
0.77000004 -0.66850924 -0.27492881 13025747
0.75749999 -0.65304756 -0.27578458 14276582
0.76100004 -0.65802431 -0.27439114 13421272
0.7525 -0.644333 -0.27466756 13816031
0.7502858 -0.63458222 -0.27503985 14342887
0.75019372 -0.62480003 -0.27473906 14671339
0.7511282 -0.61533034 -0.27515388 14605546
0.75344181 -0.60556334 -0.27494097 14737132
0.75491875 -0.59518337 -0.27482024 14737902
0.75514692 -0.58490068 -0.27492547 14737901
0.75464505 -0.57493842 -0.27471539 14803438
0.75406235 -0.56525058 -0.27491984 14869488
0.75387079 -0.55465084 -0.27517655 14803950
0.75396651 -0.54515636 -0.27449858 14803692
0.75325006 -0.53503847 -0.27482453 14935021
0.75241953 -0.52483267 -0.27583706 15066351
0.75256771 -0.5149557 -0.275583 15132400
0.75344443 -0.50509214 -0.27430749 15067120
0.75344831 -0.49551612 -0.27446115 15132912
0.75206465 -0.48522878 -0.27519706 15330291
0.75120002 -0.47502339 -0.27532357 15264241
0.75174302 -0.46510941 -0.27557227 15132912
0.7512812 -0.45494685 -0.27505684 15329777
0.75160533 -0.44500533 -0.27520916 15198447
0.75239414 -0.4352935 -0.27592558 15330034
0.7550869 -0.42510191 -0.27494311 15724791
0.75900006 -0.41908669 -0.27455491 15198190
0.76295656 -0.41691557 -0.27493358 14540773
0.7741738 -0.41579658 -0.27487922 14212836
0.78633338 -0.41488805 -0.27501673 14804457
0.79395247 -0.4115617 -0.27493745 12040893
0.79633331 -0.69510007 -0.26521495 9737118
0.78730005 -0.68426567 -0.26543444 9605021
0.79100007 -0.6879757 -0.26298276 9671069
0.77616668 -0.67265195 -0.26501524 11908033
0.78233337 -0.67799646 -0.26376429 11578812
0.7676 -0.66283113 -0.26562268 12829135
0.77242863 -0.66751754 -0.26429734 12500170
0.75825006 -0.65165156 -0.26585066 13816030
0.7617501 -0.65599734 -0.2639555 13552858
0.75550008 -0.64435661 -0.26471183 14013153
0.75339407 -0.63527864 -0.265066 14408167
0.75262159 -0.6247524 -0.26483718 14539753
0.75375581 -0.61483699 -0.26475126 14671339
0.7547878 -0.60512948 -0.26438031 14539753
0.75519979 -0.59524715 -0.26492032 14671851
0.7553215 -0.58446771 -0.26545915 14803696
0.75540757 -0.57488465 -0.26510283 14737646
0.75423074 -0.56463569 -0.26508737 14935279
0.7530002 -0.55503386 -0.26533338 14935535
0.75389987 -0.54598927 -0.26476827 14869485
0.75393736 -0.53520721 -0.26511171 14935533
0.75367647 -0.52491558 -0.26536265 15001070
0.75391167 -0.51505929 -0.2654973 15066863
0.75492585 -0.50559413 -0.26532409 15132913
0.75403315 -0.49495527 -0.26487339 15198706
0.75303143 -0.48487279 -0.26556423 15264243
0.75347227 -0.47512448 -0.26549807 15461365
0.75349998 -0.46544132 -0.2655082 15395571
0.75333339 -0.45563725 -0.26544961 15526899
0.75368571 -0.4452903 -0.265448 15263727
0.75309104 -0.43473548 -0.26512474 15263728
0.75597674 -0.42477572 -0.26512447 15527413
0.75900006 -0.41908669 -0.26655915 14672618
0.76347822 -0.41782132 -0.26494345 14408932
0.7743479 -0.41699243 -0.26477566 14079965
0.78556532 -0.41567644 -0.26525158 15396593
0.79348016 -0.41188866 -0.26492089 12501700
0.78800005 -0.68044722 -0.2582967 10000033
0.79386669 -0.68538851 -0.25438699 9802652
0.77900004 -0.67085195 -0.25717026 10131365
0.78625005 -0.67555994 -0.25480202 9933983
0.79100001 -0.67933428 -0.25187308 9934238
0.76900005 -0.66044009 -0.25746945 12500170
0.77527273 -0.66450626 -0.2546156 11118516
0.78300005 -0.66879761 -0.25115871 9934495
0.75900006 -0.65007496 -0.25945187 14013663
0.76491672 -0.65394616 -0.25519869 12697549
0.77166671 -0.65731233 -0.25173876 11579065
0.75833333 -0.64358693 -0.25586942 13750493
0.76050001 -0.64690858 -0.25313896 13223892
0.75741178 -0.63473779 -0.25478446 13817056
0.75733334 -0.62523371 -0.25542182 13948899
0.76000005 -0.62157506 -0.25089779 13488605
0.7579999 -0.61467052 -0.25472638 14014180
0.76000005 -0.61890626 -0.25089779 13619421
0.7576775 -0.60505676 -0.25464833 14343144
0.75595999 -0.59523094 -0.25508335 14540521
0.75369996 -0.58525187 -0.25528806 14605802
0.75399989 -0.57518446 -0.25491804 14606059
0.75520575 -0.56518751 -0.25534415 14540777
0.7541936 -0.55488849 -0.25518528 14474984
0.75393927 -0.54529613 -0.25515383 14474469
0.7545945 -0.53543842 -0.25522211 14737898
0.75524998 -0.52516109 -0.25551453 14672106
0.75468951 -0.51521862 -0.25572303 14935278
0.7540856 -0.50539631 -0.25499842 15132143
0.75375754 -0.49511597 -0.25477198 15067120
0.75363636 -0.48541218 -0.25521129 15067120
0.75413495 -0.47537515 -0.25502065 15198449
0.75444096 -0.46513838 -0.25524202 15330034
0.75406444 -0.45536891 -0.25525767 15329776
0.75325012 -0.4450078 -0.25484052 15000555
0.75369436 -0.43468189 -0.25499022 14935277
0.75668418 -0.42511991 -0.25520858 15593206
0.76071441 -0.42054158 -0.25393277 15790840
0.76529413 -0.41918349 -0.25569606 15527153
0.77476192 -0.41776544 -0.25507942 14145498
0.78586352 -0.41651881 -0.25533479 15265007
0.79353577 -0.41207412 -0.25506634 12830922
0.79689997 -0.68543094 -0.2445157 10000286
0.78875005 -0.67186248 -0.24792483 9868701
0.79200006 -0.67567486 -0.24453986 9802906
0.77900004 -0.66355735 -0.24987563 9802911
0.78588241 -0.66465473 -0.24482307 9868957
0.79000002 -0.668612 -0.24107468 9671577
0.77461541 -0.65410125 -0.24665168 11053233
0.78277779 -0.655779 -0.24212496 9539736
0.76492304 -0.64412522 -0.24824728 12632265
0.77352637 -0.64535755 -0.24382423 10987696
0.78000003 -0.64980119 -0.24106643 9408149
0.76387519 -0.63457042 -0.24672709 12238022
0.77191669 -0.63568735 -0.2420292 11053233
0.76329035 -0.62509477 -0.24545832 12567757
0.77100003 -0.62696105 -0.24054047 11383481
0.76221055 -0.61506861 -0.2447627 12501452
0.7588889 -0.60299945 -0.24737246 13817054
0.76131827 -0.60572106 -0.24306555 12698830
0.75778276 -0.59473348 -0.24646066 13817310
0.7604546 -0.59483838 -0.24133693 12896979
0.75682753 -0.58473498 -0.24617942 13882591
0.76054555 -0.58503604 -0.24120389 13028567
0.75710356 -0.57474011 -0.24645334 13751775
0.7604546 -0.57525575 -0.24133693 13160151
0.7578333 -0.56492263 -0.24633583 14014432
0.76033342 -0.56577986 -0.2409212 13027538
0.75778788 -0.55517608 -0.24586293 13883103
0.76014292 -0.55368847 -0.24052212 13028054
0.75728577 -0.54489529 -0.24645253 13817309
0.76063639 -0.54512125 -0.2413948 12830929
0.75788903 -0.53517663 -0.24684642 14080225
0.76069248 -0.53563583 -0.24167389 13357271
0.75780654 -0.52486968 -0.24610762 14080225
0.7601667 -0.52680159 -0.24086852 13620443
0.75712508 -0.51492655 -0.24540359 14146275
0.75642419 -0.50480753 -0.24509753 14212068
0.75651443 -0.49492693 -0.24538915 14409701
0.75651437 -0.48460644 -0.24544182 14409959
0.75715154 -0.47494549 -0.24560252 14475495
0.75785732 -0.46534342 -0.24587828 14869996
0.76000005 -0.46500775 -0.24022277 14014946
0.75753117 -0.45518503 -0.24542317 14738666
0.76000005 -0.45522228 -0.24022277 13553878
0.75691175 -0.44508469 -0.2453907 14541287
0.76000005 -0.4498848 -0.24022277 13357269
0.7570858 -0.43504274 -0.24562727 14343651
0.76000005 -0.43387222 -0.24022277 13554648
0.75803715 -0.42624289 -0.24597527 14804202
0.76044446 -0.42235565 -0.24352819 14606823
0.77200001 -0.42084286 -0.24040122 14805232
0.76505888 -0.418951 -0.24540094 14606310
0.77417392 -0.41792417 -0.24501486 14475238
0.78569221 -0.41690916 -0.24466276 14936557
0.79348153 -0.4121795 -0.24488555 12501957
0.79589289 -0.67468363 -0.23425698 10198433
0.78850007 -0.66149712 -0.23907812 9737884
0.79365391 -0.66502631 -0.23412821 10132385
0.78750008 -0.65497464 -0.23754452 9211541
0.79426932 -0.65502745 -0.23266555 9869470
0.77740002 -0.6425398 -0.23916963 10263972
0.78520012 -0.64554918 -0.23727655 8487561
0.79483336 -0.64540142 -0.23354773 8553867
0.77590919 -0.63433629 -0.23847814 10330537
0.78526664 -0.6351831 -0.23680647 8159625
0.79569578 -0.63500845 -0.23368083 7566974
0.77391666 -0.62435061 -0.23842901 10791345
0.78425008 -0.62510216 -0.23698036 9673118
0.79452646 -0.62439907 -0.23340926 6711666
0.76900005 -0.6127336 -0.23946702 11778240
0.7741428 -0.6152668 -0.23834474 11252151
0.78568745 -0.6149835 -0.23603497 8685709
0.79468751 -0.61481929 -0.23280932 6382700
0.76628572 -0.60377961 -0.2393883 11844033
0.77426684 -0.60514539 -0.23747803 11251638
0.78571445 -0.60502464 -0.23533893 8750990
0.79589468 -0.60497743 -0.23194687 6448236
0.76499999 -0.59521705 -0.23911449 11909828
0.77337503 -0.59494144 -0.23709081 11119797
0.78487504 -0.59517086 -0.23510276 9541021
0.79509526 -0.59500039 -0.23189585 6381929
0.76528579 -0.5846867 -0.23881875 12173002
0.77406263 -0.58527088 -0.2363932 11120312
0.78481823 -0.58482605 -0.23453456 9739427
0.79505002 -0.58508414 -0.23174921 6054506
0.76521438 -0.57490915 -0.23815505 12238791
0.77353853 -0.57560086 -0.23544373 11580860
0.78587502 -0.57454455 -0.23356245 8949655
0.79599994 -0.57479638 -0.23097362 6054251
0.76419997 -0.56507242 -0.23707075 12369608
0.77400011 -0.5650751 -0.23468085 11646396
0.78500003 -0.56452382 -0.23341714 9343899
0.79358333 -0.56512886 -0.23086154 6185579
0.76361895 -0.55553401 -0.23736016 12369864
0.77388239 -0.55464625 -0.23479952 11777983
0.78621423 -0.55439556 -0.23220077 8554383
0.79150003 -0.55839598 -0.230722 6053737
0.76528585 -0.54522884 -0.23787868 12172998
0.77352953 -0.54555464 -0.23405476 11120566
0.78523076 -0.54484534 -0.23150629 7765378
0.7650454 -0.53468239 -0.23668176 11975618
0.77464712 -0.53546053 -0.23257838 10396585
0.78550005 -0.53485215 -0.23081091 6910069
0.75900006 -0.52036613 -0.23990668 13488857
0.76308697 -0.52494925 -0.23590924 12304839
0.77380002 -0.52507472 -0.23190016 10660013
0.78480005 -0.52518749 -0.23060489 6778997
0.75900006 -0.51444334 -0.23961055 13423322
0.76222223 -0.51536614 -0.23543321 12502476
0.77372229 -0.5150584 -0.23187645 10528684
0.78541666 -0.51548654 -0.2307861 7304829
0.759 -0.50597382 -0.23919597 13357529
0.76272011 -0.50477064 -0.23521885 12305352
0.77444446 -0.50466049 -0.23209217 10462890
0.78530002 -0.50530416 -0.23075287 7107191
0.75900006 -0.49460208 -0.23990668 14015199
0.76260716 -0.49522629 -0.23574731 12502217
0.77400011 -0.49440822 -0.23196052 10988977
0.7816667 -0.49442384 -0.23029548 9738653
0.75900006 -0.48482949 -0.2399067 13752028
0.76255184 -0.48493987 -0.23566626 12699340
0.77368766 -0.48469394 -0.23175196 10857389
0.78630769 -0.48541436 -0.23111956 9541527
0.79200006 -0.48118711 -0.23055893 7633530
0.75900006 -0.47505692 -0.23990668 13949408
0.76275867 -0.47478727 -0.23585278 12501962
0.77368754 -0.47496289 -0.23311302 11383479
0.78492314 -0.47537005 -0.23254897 10857645
0.79188895 -0.47576401 -0.2309379 8225669
0.76313633 -0.46505415 -0.23657931 13028305
0.77400011 -0.46519029 -0.23388506 11778237
0.78550005 -0.46466842 -0.23172837 11054769
0.79000002 -0.46949276 -0.2312112 9344150
0.76321745 -0.45504561 -0.23641603 13356499
0.77423531 -0.45521617 -0.23245578 11975359
0.78444451 -0.45455757 -0.23039889 11054512
0.75900006 -0.44396234 -0.2399067 13817820
0.7629655 -0.44479561 -0.23573144 13159890
0.77400005 -0.44457519 -0.23195975 11515064
0.78553861 -0.44533002 -0.23089279 10857132
0.75900006 -0.43463397 -0.23990668 13423062
0.76342309 -0.43478477 -0.23669165 13094354
0.77399999 -0.43533525 -0.2336807 11712700
0.78582346 -0.43497211 -0.23258132 11844796
0.79025006 -0.43356568 -0.23128438 9871006
0.7638948 -0.424793 -0.23815592 13423320
0.77409095 -0.4246949 -0.2366011 13094611
0.78545457 -0.42432591 -0.23581034 12765643
0.79114288 -0.42452908 -0.23180838 10791853
0.77600002 -0.41939017 -0.23983018 15199988
0.78727281 -0.41810387 -0.23794807 13752281
0.79430568 -0.41475812 -0.23484319 10791083
0.79457146 -0.5543167 -0.22962353 5922664
0.79481256 -0.54502428 -0.22865824 6580850
0.78900003 -0.53169864 -0.22907145 6054763
0.79515791 -0.53534573 -0.22800981 6844277
0.78900003 -0.52892804 -0.22907145 5988970
0.79366666 -0.52523959 -0.22887307 6054507
0.79426676 -0.51465911 -0.22885822 6120046
0.78900003 -0.50399262 -0.22907145 5593698
0.7958889 -0.50455451 -0.22681993 6975093
0.78700006 -0.49515852 -0.22922587 5856354
0.79595464 -0.49504414 -0.22659422 7172215
0.79565215 -0.48555595 -0.22816123 6382697
0.79526931 -0.4648844 -0.22658522 7041397
0.78900003 -0.45504549 -0.22907145 9344407
0.79559255 -0.4549453 -0.22538881 7106932
0.78900003 -0.4485808 -0.22907145 9805214
0.79486674 -0.4450261 -0.2260498 7304313
0.79448164 -0.4354341 -0.22720976 7107449
0.79595453 -0.42533991 -0.22786722 8159106
