# .PCD v0.7 - Point Cloud Data file format
VERSION 0.7
FIELDS x y z rgb
SIZE 4 4 4 4
TYPE F F F U
COUNT 1 1 1 1
WIDTH 1113
HEIGHT 1
VIEWPOINT 0 0 0 1 0 0 0
POINTS 1113
DATA ascii
0.74621058 0.014861736 0.10808685 15132640
0.75589478 0.015146783 0.10389856 15330018
0.76285726 0.01759873 0.10099118 14540247
0.74680001 0.025066527 0.10870659 14737881
0.75537497 0.025219683 0.10484394 15066845
0.76350009 0.024819808 0.10161809 14803419
0.77033335 0.027300768 0.10095362 13487816
0.74728578 0.034483459 0.10892861 15132895
0.75380009 0.034300126 0.10548595 15066845
0.76330006 0.035805672 0.10253044 14869468
0.77219999 0.034599423 0.10119824 13487816
0.74833339 0.044915263 0.10858164 15658982
0.75372231 0.045239292 0.10582915 15264224
0.76410007 0.044968206 0.10281601 15066846
0.77536374 0.044972472 0.10078497 13751245
0.74900001 0.053721998 0.10867837 15527396
0.75453848 0.05486504 0.1066229 15461346
0.76333332 0.055645108 0.10420378 15330016
0.77269995 0.055243146 0.1023472 14606550
0.78220004 0.055188637 0.10067762 13619400
0.75641674 0.064144075 0.10871959 15592420
0.76384628 0.065305933 0.10615031 15460834
0.77335703 0.06542445 0.1027694 14737623
0.78233337 0.065268561 0.10069478 13948365
0.75800002 0.071225196 0.10998426 15197407
0.76450008 0.074521817 0.10806035 15263970
0.77373689 0.074992061 0.10463616 14606041
0.78428572 0.076320067 0.10146879 14014161
0.76800001 0.082054473 0.10963733 14211284
0.77550006 0.083217099 0.10707358 14540505
0.7852667 0.085426368 0.10474055 14408406
0.79224998 0.087195024 0.10127325 11381926
0.78766674 0.091838874 0.10752603 13947853
0.71450007 -0.15030771 0.11119886 11512748
0.71205008 -0.14541826 0.11519019 13947088
0.70869231 -0.13415548 0.11827171 15658474
0.71160012 -0.13570276 0.11307625 15460838
0.70861542 -0.12584437 0.11825874 16119281
0.71270001 -0.1248438 0.1133043 15855851
0.71336365 -0.11510835 0.11514845 16119280
0.7157318 -0.10507593 0.11532562 16119280
0.71772718 -0.094928697 0.11544037 15922157
0.72000003 -0.092471093 0.11121266 16646134
0.71837938 -0.084839009 0.11612161 15790570
0.72087502 -0.083931647 0.11134664 16711670
0.71899992 -0.074879542 0.11800139 15526886
0.72284627 -0.074936032 0.1128171 16251119
0.71883327 -0.064555801 0.11860487 15592423
0.72406912 -0.065171011 0.11364268 16316400
0.73000002 -0.061285492 0.11104834 16580084
0.71899992 -0.054470837 0.11863256 15658729
0.72395849 -0.054847118 0.11435854 16316657
0.73000002 -0.055304188 0.11104834 16645877
0.71900004 -0.045213282 0.11947417 15922159
0.72329032 -0.04449917 0.11526129 16185071
0.73000002 -0.045050532 0.11104834 16514291
0.72460616 -0.034769181 0.11654026 16053741
0.7307778 -0.033978824 0.11173657 16185070
0.7276668 -0.025598602 0.11807365 15724777
0.73141676 -0.02401837 0.11397302 15790570
0.73379993 -0.014533545 0.115309 15592935
0.74100006 -0.011035489 0.11098698 15198177
0.73370373 -0.0047243438 0.11637327 15461606
0.74162507 -0.0056184637 0.11173051 15132128
0.73361117 0.004532034 0.11588004 15198177
0.74133343 0.0045803795 0.1110369 14671576
0.73437053 0.014565688 0.11724539 15066848
0.74246681 0.015538427 0.11259552 15000798
0.73495018 0.024582779 0.11807574 15001055
0.74323815 0.025841452 0.1135553 14869212
0.73690909 0.035212658 0.1182143 15132386
0.7438696 0.035297904 0.11345539 14803419
0.73825002 0.043876879 0.11856761 15330020
0.74436361 0.044912845 0.1137007 14934748
0.73824996 0.053814206 0.11878385 15460836
0.74455893 0.055351697 0.11386943 15066334
0.73900002 0.061654814 0.11933748 15198177
0.74462068 0.065158516 0.1159684 15066592
0.75166672 0.065940246 0.1111176 14605270
0.74623537 0.073924154 0.11711222 14803420
0.75468427 0.075283825 0.11302946 14934236
0.76050007 0.077691898 0.110347 15328995
0.74800003 0.080792032 0.11903976 14606042
0.75576919 0.083265416 0.11700399 14605785
0.76253343 0.08521878 0.11408957 15000285
0.77266669 0.087677561 0.11150682 14934749
0.76666671 0.091183625 0.11841933 14539993
0.77591664 0.094405323 0.11606053 12303029
0.78558332 0.096653096 0.11321732 11645356
0.79000002 0.09827432 0.11092858 11579562
0.78766662 0.10397863 0.11782103 11382439
0.79142112 0.10596046 0.11346617 11382695
0.7916401 0.11515865 0.11486374 11579816
0.79315996 0.12466406 0.11508606 11579818
0.70885718 -0.14224608 0.12821934 14276051
0.71050006 -0.14530969 0.12443662 13750477
0.70816678 -0.1348846 0.12513369 15328995
0.7083143 -0.12508005 0.12527832 15724010
0.71000004 -0.12110499 0.12130291 16315890
0.70900005 -0.11865222 0.12631887 15921388
0.71014273 -0.11430085 0.12518607 16118767
0.7118293 -0.10511535 0.12510711 16250353
0.71337205 -0.095191501 0.12517512 16184561
0.7141189 -0.085105523 0.12522447 16053487
0.71554297 -0.075002931 0.12473211 15724522
0.71458334 -0.06500861 0.12458906 15592937
0.71648711 -0.054727212 0.12511685 15790573
0.71855557 -0.044343226 0.12528665 16053745
0.71896422 -0.034811653 0.1263207 15922159
0.72025007 -0.032434724 0.12221075 15724780
0.71899998 -0.025950087 0.12863821 15658986
0.72232258 -0.024036644 0.12362032 15395814
0.71900004 -0.019965405 0.12957332 15264229
0.72378379 -0.015012666 0.12529106 15132642
0.72407317 -0.0055941367 0.12551273 14803421
0.7239756 0.0043680044 0.12549625 14737628
0.73000002 0.0087811761 0.121302 13882576
0.72366691 0.014634856 0.12616697 14803421
0.73066664 0.014777519 0.12141278 14277334
0.72375768 0.024571449 0.12656966 14474456
0.73089999 0.026244994 0.12179265 14343125
0.7263158 0.034156498 0.12748665 14737628
0.73216677 0.035946462 0.1226583 14672091
0.72871435 0.044835113 0.12937422 15066593
0.7325936 0.045416169 0.12440555 14935006
0.72900003 0.055700708 0.12966885 15000800
0.73296988 0.054677233 0.12412847 15000799
0.72900003 0.061673813 0.12966885 15132384
0.73312825 0.064663969 0.12511195 14935008
0.74000001 0.069533832 0.12123132 15330020
0.73487502 0.074502639 0.12626415 14277078
0.74276924 0.075949118 0.12181591 15001055
0.73699999 0.081905149 0.1287906 14014162
0.74519998 0.082700938 0.12463757 14540249
0.75470001 0.087173022 0.12345954 15263972
0.76000005 0.089204863 0.12094949 15657960
0.75900006 0.090864323 0.12789769 15987952
0.76366675 0.0924187 0.12470771 13684942
0.77283341 0.096895158 0.12419397 11119268
0.77700013 0.10110483 0.12587605 11448231
0.78534997 0.10625066 0.12452122 11448231
0.78876919 0.11232562 0.1255274 11448230
0.79041183 0.11682963 0.12415517 11448231
0.79209989 0.12449776 0.12512919 11514024
0.70900005 -0.15081048 0.13772987 13420745
0.71000004 -0.15168802 0.13659443 12828608
0.70827276 -0.14457712 0.13542743 14341845
0.71000004 -0.14825299 0.13182968 13881549
0.70786119 -0.13482505 0.13502258 15328995
0.7080279 -0.12491218 0.13505465 15592166
0.70875859 -0.11585771 0.1357943 15657959
0.71000004 -0.11208204 0.13293777 15789801
0.70900005 -0.10931595 0.13772987 15526374
0.71019995 -0.10522527 0.13539703 15658472
0.71088892 -0.0954611 0.13559823 15724265
0.71200001 -0.085607924 0.13553339 15790315
0.71299988 -0.075715184 0.13433403 15789801
0.71226817 -0.065531105 0.13490669 15592422
0.71459997 -0.055190261 0.13502218 15921643
0.71720588 -0.044507772 0.13492633 15921644
0.71691167 -0.035011254 0.13506687 15856109
0.71717644 -0.025542641 0.13531357 15461351
0.71814281 -0.015858267 0.13541989 15198434
0.72000003 -0.011565508 0.13143906 14935005
0.71860009 -0.0056551248 0.13622883 14935264
0.72000003 -0.0056661437 0.13143907 14803421
0.7184 0.0044371719 0.13619 14869215
0.72000003 0.0044470541 0.13143907 14803421
0.71840626 0.0144233 0.13587597 14474713
0.72000003 0.015403018 0.13143906 14869214
0.71867859 0.024388004 0.13648434 14145747
0.72025007 0.025525954 0.13190608 14408663
0.71881253 0.033993531 0.13805805 14474454
0.72160006 0.035508476 0.13307892 14671834
0.71900004 0.041891899 0.13925168 14671833
0.72271055 0.045380939 0.13481833 15066591
0.72375 0.055174559 0.13524714 15132127
0.72555888 0.06537956 0.13519429 15066334
0.72740006 0.074277706 0.13598782 14341842
0.73092306 0.076052062 0.13145784 14210512
0.73355561 0.084262475 0.13550238 14802649
0.7385 0.090138987 0.13740899 11907502
0.74350005 0.090749279 0.13485706 12829630
0.75850004 0.09346737 0.1340265 11250598
0.76420003 0.094708547 0.13270542 11908530
0.77400005 0.098095909 0.1304253 11316647
0.7766667 0.10116312 0.13269325 11382695
0.78657144 0.10718881 0.13465078 11382695
0.78877783 0.11248468 0.13312095 11448232
0.79050004 0.11626447 0.13598271 11448231
0.7924 0.12454572 0.13538237 11448232
0.70900005 -0.15081048 0.14104944 12960194
0.71069998 -0.15217076 0.14521542 12894401
0.70838463 -0.14379196 0.14430806 14276309
0.71030003 -0.14809425 0.14746121 13289158
0.70800012 -0.13485205 0.14499412 14933981
0.70805573 -0.12491698 0.14500584 15131617
0.70863992 -0.11635991 0.14449564 15000287
0.71000004 -0.11234107 0.14683916 14737117
0.71050006 -0.10538859 0.14550748 14474456
0.71105582 -0.095483296 0.14562111 14408663
0.71230304 -0.085719377 0.14519355 14408406
0.71279472 -0.07550171 0.1447556 14473942
0.71124333 -0.065652505 0.14549857 14342100
0.71148711 -0.055373564 0.1452558 14803164
0.71297628 -0.045668721 0.14517346 15066592
0.71249992 -0.03563204 0.14507806 15000800
0.71271431 -0.02562925 0.14512132 14803422
0.71444434 -0.015655635 0.14463699 14606043
0.71505409 -0.005515201 0.14491773 14474458
0.71383345 0.0044080457 0.14534466 14277336
0.71456403 0.014260881 0.14510968 14145494
0.71572208 0.024526011 0.14489637 13882578
0.71622217 0.034606267 0.14499709 14145236
0.71816659 0.044786688 0.14539199 14539992
0.71860611 0.054727979 0.14586453 14539992
0.72039998 0.057236202 0.14095575 15329506
0.71885711 0.064662687 0.14757776 14408921
0.72080952 0.065562159 0.1421922 15066335
0.71900004 0.072890691 0.14921056 14342873
0.72196668 0.075108819 0.14463671 14474200
0.72675008 0.081261262 0.14563878 15000801
0.73223543 0.085043468 0.14274617 14802908
0.74412507 0.091917053 0.14520609 12829375
0.78860009 0.10548468 0.14396369 11448231
0.79237497 0.10853958 0.14396141 11382695
0.71258831 -0.1531447 0.15510929 13222851
0.70850009 -0.14158235 0.15504815 14078931
0.7107501 -0.1470245 0.15554143 14012881
0.70844448 -0.13493501 0.15503593 14473690
0.70899981 -0.1254611 0.15493129 15000032
0.71000004 -0.12110499 0.15786961 15262948
0.70900005 -0.11872137 0.15156139 15131616
0.71042413 -0.11502713 0.15579753 15263459
0.7116251 -0.10576259 0.15521297 15000544
0.71287495 -0.095361345 0.15532979 14342869
0.7134546 -0.085151426 0.15464091 14540248
0.71263623 -0.075652838 0.15471473 14474455
0.7111668 -0.065532349 0.15563382 14408663
0.71094441 -0.055525281 0.15558547 14277077
0.71105582 -0.045546256 0.15560776 14540249
0.71075022 -0.035543848 0.15553951 14474456
0.71111131 -0.025571769 0.1556183 14277078
0.71185732 -0.015600995 0.15494601 14211288
0.71156102 -0.0057019945 0.15500306 14079445
0.70900005 0.0060388949 0.15930705 13487565
0.71040636 0.0041798502 0.15494417 13882323
0.70900005 0.012180088 0.15897509 13619666
0.71138239 0.014926586 0.15459813 13817300
0.71204758 0.024401264 0.15498683 13751507
0.71271431 0.034436811 0.15513225 14014164
0.71472496 0.044406228 0.15531632 14342870
0.71605533 0.054712705 0.15502217 14408662
0.71674991 0.064833142 0.15517163 14605784
0.71814281 0.074927144 0.15559478 14737117
0.72000003 0.079453275 0.15166546 14473433
0.71900004 0.082148239 0.15874864 15066340
0.72285008 0.08434166 0.15488634 15461098
0.73266673 0.088856958 0.15461691 15263462
0.73300004 0.09118364 0.1578358 14540253
0.74500006 0.092676416 0.15518758 15592937
0.75900006 0.096194826 0.15810385 15592937
0.77250004 0.099714234 0.15820272 11316392
0.77649999 0.10204835 0.15720409 11448488
0.78740007 0.10680181 0.15848789 11316645
0.79212505 0.10873732 0.15387328 11448232
0.79312915 0.11519561 0.15484685 11316902
0.71352953 -0.15334791 0.16484377 12828348
0.70900005 -0.14132603 0.16357505 14803165
0.71093112 -0.14628798 0.16593874 14671321
0.70878255 -0.13604666 0.16373166 14474201
0.71007693 -0.13339332 0.16773285 14408407
0.70900005 -0.12520242 0.16167817 15066084
0.71041399 -0.12530464 0.16627857 14802655
0.71108347 -0.11546082 0.16560264 15394791
0.71397561 -0.10498342 0.16495088 15461097
0.71536106 -0.094386451 0.16492432 14803421
0.71497232 -0.084293857 0.16483381 14605785
0.71425813 -0.074797437 0.16502208 14671578
0.71328574 -0.065429322 0.16510272 14211028
0.7128666 -0.05567557 0.16518384 14408664
0.71190625 -0.045393646 0.16527385 14342615
0.710778 -0.035545532 0.1655314 13882066
0.71016639 -0.025538914 0.16538891 13750480
0.71016651 -0.015564357 0.16538885 13882323
0.70999974 -0.005587447 0.16534919 13882323
0.7089116 0.0046222741 0.16509581 13487822
0.71000004 0.00022998244 0.16534916 13619408
0.70825005 0.014322604 0.16494069 13422286
0.70853323 0.023838829 0.16572538 13487822
0.71000004 0.026546927 0.16174789 13817043
0.70895821 0.034253415 0.16676612 13882578
0.71041662 0.034324121 0.16211949 14013907
0.70899993 0.043487716 0.16770971 14079700
0.71090919 0.045166437 0.16313793 14343127
0.70900005 0.051682893 0.16926573 14276824
0.71158969 0.054563131 0.16449679 14408920
0.71190482 0.064393952 0.16495317 14606299
0.71375614 0.074489608 0.16525789 14672095
0.71794122 0.084913298 0.16576245 15461098
0.72100002 0.088004552 0.16031547 15198183
0.71900004 0.091125272 0.16828673 12960708
0.76400006 0.098617055 0.16272245 11382442
0.77100003 0.099520609 0.16150481 12040115
0.77600002 0.10198264 0.16255334 11316647
0.78840005 0.1078584 0.16367529 11514280
0.79000002 0.10937075 0.16826011 11514280
0.79236007 0.11526676 0.16505505 11448487
0.70900005 -0.15136375 0.17867117 13486791
0.71142858 -0.15299286 0.17388694 13091776
0.70900005 -0.14500125 0.17922443 15131618
0.71033341 -0.1452748 0.17457184 15131360
0.70900005 -0.13836211 0.17922443 15986925
0.71041173 -0.13511448 0.17517871 15328994
0.71166676 -0.1255538 0.17573418 14605786
0.71169448 -0.1155626 0.17573985 14934753
0.71309757 -0.10542507 0.17476058 15395560
0.71494877 -0.094781034 0.17506173 15264229
0.71519452 -0.084320575 0.17493042 14474456
0.71519446 -0.074272983 0.17493038 14276821
0.71566653 -0.06427031 0.17504686 14145492
0.71523339 -0.055024002 0.1749415 14079445
0.71344113 -0.045897499 0.17474847 14211029
0.71177423 -0.035460833 0.17508924 14013908
0.71147227 -0.025586026 0.17568709 13290186
0.71097249 -0.015582436 0.17556259 13290186
0.7104724 -0.0055911303 0.17544022 13421772
0.70900005 0.0079753064 0.17147876 13093320
0.71060598 0.004061148 0.17580135 13158857
0.70879984 0.015295821 0.1739312 12896198
0.71009094 0.012168353 0.17783806 12566977
0.70861107 0.024282904 0.17498016 12764357
0.70825005 0.03421963 0.17488912 13356237
0.70804775 0.044983428 0.17483954 13948116
0.70816684 0.055766981 0.17486829 13948116
0.70819449 0.065716311 0.17487498 14211288
0.70853335 0.072991148 0.17567764 14540510
0.71081257 0.077088654 0.174481 14738146
0.71535128 0.084695213 0.17512445 15330026
0.71799999 0.091418743 0.17645693 12171706
0.78800005 0.10632795 0.1715236 11250856
0.70783329 -0.1505623 0.18472819 13486791
0.70786119 -0.14476785 0.18473464 15066080
0.70837498 -0.13528597 0.18533553 15855339
0.71000004 -0.13232431 0.18155485 15526118
0.70888895 -0.12792212 0.18730927 15657959
0.71048141 -0.12438997 0.18464886 15131615
0.71086138 -0.11542669 0.18551879 15000543
0.71271431 -0.10487905 0.18504864 15395560
0.71475017 -0.094305433 0.18486132 15461351
0.71566653 -0.084373936 0.18509817 15000801
0.71527779 -0.074283548 0.18499853 14606043
0.71519446 -0.064227685 0.18497507 14277078
0.71506679 -0.055010311 0.1849422 14145493
0.71422231 -0.045750733 0.18472481 14145494
0.71359998 -0.03580521 0.18468451 13948372
0.71320021 -0.025649328 0.18529595 13487565
0.71236664 -0.015612713 0.18508033 13355979
0.71230006 -0.0056055873 0.18506281 13158600
0.71172225 0.0043945601 0.18574394 12698819
0.70900005 0.018072313 0.18586355 12435646
0.71035713 0.013295069 0.18514994 12567233
0.70894426 0.024294397 0.18501908 12435646
0.70800012 0.034206867 0.18477263 12763843
0.70788109 0.044971842 0.18474177 13355722
0.70713907 0.055684969 0.18454784 13750480
0.70769453 0.065671153 0.18469228 14013651
0.70863158 0.073397428 0.1851556 14408666
0.71036363 0.077634364 0.18501092 14671839
0.71346337 0.084685281 0.18547979 15132390
0.71727276 0.091670163 0.18512893 12830149
0.70625001 -0.15022554 0.1925818 13552584
0.70611614 -0.14454521 0.19513912 14737117
0.70734227 -0.1348988 0.19484001 15723753
0.7086128 -0.12562948 0.1949127 15724010
0.71000004 -0.12143741 0.19510116 15461094
0.71061134 -0.11538495 0.19543581 15329765
0.71226823 -0.10518188 0.1952187 15263973
0.71344453 -0.094929323 0.19533895 15461351
0.71519446 -0.084318697 0.19502011 15461095
0.71535289 -0.074537575 0.19486679 15263972
0.71450013 -0.065002128 0.1948303 15132386
0.7144708 -0.055553243 0.19502033 14803422
0.71408349 -0.045740955 0.19471949 14671582
0.71338898 -0.035675779 0.194528 14342874
0.71336114 -0.025653437 0.19452126 14079702
0.71349996 -0.015637152 0.19456109 13750737
0.71266651 -0.00541719 0.19478053 13553102
0.7113058 0.0043917592 0.1956263 13092807
0.70900005 0.017657368 0.19250268 12304061
0.71036661 0.013700318 0.19586827 12632513
0.7089473 0.024512777 0.19266324 12172475
0.71029425 0.02409607 0.19794092 12500669
0.70862496 0.034444176 0.19437221 12566720
0.71000004 0.032641377 0.19942267 12500670
0.70807153 0.044983994 0.19473748 13290442
0.70716685 0.055687055 0.19448854 13619151
0.70702571 0.065798879 0.1948936 13948116
0.70719045 0.075556785 0.19531836 14605789
0.70807689 0.08502464 0.19633071 14803423
0.71033335 0.086147532 0.19212519 15132132
0.71200007 0.090238094 0.19164884 13619151
0.70531422 -0.14417525 0.20523012 14934496
0.70637506 -0.1343759 0.20526572 15658217
0.707973 -0.12501317 0.20480886 15921390
0.70857131 -0.11556882 0.20676139 15724267
0.71033341 -0.1146201 0.20262001 15658219
0.70900005 -0.10599638 0.20868555 15724010
0.71057159 -0.1051618 0.20433459 15526376
0.71091914 -0.095352039 0.20534542 15395303
0.71190697 -0.085461862 0.20483674 15395303
0.7121219 -0.075520404 0.20513718 15592426
0.71211904 -0.065618381 0.20501596 15395047
0.71299988 -0.055745531 0.20514853 15000803
0.71283317 -0.045660861 0.20522134 15066595
0.71190482 -0.035601579 0.20495446 14737629
0.71242851 -0.025618693 0.20510599 14408410
0.71336114 -0.015633164 0.20454082 14145494
0.71240532 -0.0059906519 0.20523594 14079700
0.71236652 0.0044001024 0.20509176 13618895
0.71209675 0.01453413 0.20517488 12763839
0.71136123 0.024376137 0.2056341 12764354
0.70900005 0.037574749 0.20578091 12763842
0.71034622 0.033039995 0.20502114 12698049
0.70840478 0.045004111 0.20477846 13027270
0.70738912 0.055703834 0.20448552 13355979
0.70620489 0.065340012 0.20535038 13684944
0.70599985 0.075429194 0.20573661 14277336
0.70730567 0.08550629 0.20473677 14606045
0.70900005 0.091517664 0.20329127 11053222
0.71000004 0.091646738 0.20773329 11119014
0.70503026 -0.14386371 0.21568145 14474201
0.70580542 -0.13443357 0.21559279 15526888
0.70617473 -0.12454383 0.2151268 15592937
0.70669049 -0.1147495 0.21503389 15592937
0.70748729 -0.10513164 0.214894 15724266
0.70842427 -0.09535607 0.21511078 15461351
0.71000004 -0.092848897 0.21105754 15263972
0.70842111 -0.085397951 0.21704641 15395558
0.71000004 -0.08512491 0.2126219 15329765
0.70865375 -0.075125396 0.21614374 15461351
0.71000004 -0.075729027 0.21172237 15526889
0.70890009 -0.067811601 0.21736848 15461351
0.71030772 -0.064491875 0.21434639 15329766
0.71181083 -0.055523936 0.2156032 15000545
0.71133351 -0.045565218 0.21561736 14606046
0.70900005 -0.031306196 0.21490973 14671839
0.71014696 -0.035758235 0.21525705 14606045
0.7106111 -0.02555301 0.21539721 14474460
0.7119047 -0.015601649 0.21495412 14408666
0.71210521 -0.0054272679 0.21554261 14211543
0.71282041 0.004210867 0.21484737 13948371
0.71270263 0.014478927 0.21479133 13224646
0.71144456 0.02437857 0.21565056 12829888
0.70900005 0.037782222 0.21470226 12830148
0.71025008 0.033305045 0.2153479 12961475
0.70821434 0.04499257 0.21467184 12895941
0.70751441 0.055595309 0.21453032 13158599
0.70599985 0.065630712 0.21553501 13290699
0.70611751 0.075247943 0.21544617 13948629
0.70785302 0.085571647 0.21470906 14540251
0.71000004 0.091646738 0.21438178 10921381
0.70600003 -0.15083346 0.2283794 12302262
0.7051025 -0.14464851 0.22509445 14341846
0.7054444 -0.13436466 0.22539343 15329508
0.7057777 -0.12451584 0.22549789 15461351
0.7059443 -0.11462879 0.22555177 15395561
0.70610249 -0.10454558 0.22515666 15198183
0.70661908 -0.094887234 0.22493748 15198183
0.7072106 -0.085207537 0.22460355 15132646
0.70755565 -0.075135976 0.22440918 14869475
0.7086249 -0.066955052 0.22474961 15197923
0.71000004 -0.062099624 0.22518557 15461094
0.71133351 -0.055553705 0.22560793 15329508
0.71094465 -0.045540377 0.22548468 14408920
0.70999974 -0.03550566 0.22518557 14145748
0.70900005 -0.027986631 0.22818798 13553611
0.71002913 -0.025387149 0.22499923 13948370
0.70900005 -0.014945489 0.22854364 13553358
0.71010351 -0.015705371 0.22432941 13948115
0.70900005 -0.0088991411 0.22901788 13684944
0.71061772 -0.0053957659 0.2251346 14145495
0.71171796 0.0045895139 0.22527924 14277079
0.71197498 0.01423155 0.22522712 13487818
0.71150011 0.024381123 0.22566226 13027523
0.70900005 0.03840464 0.22071896 12699072
0.71051437 0.034207955 0.22546795 13093316
0.70859253 0.046245702 0.22366492 12764099
0.71000004 0.04178305 0.22691162 13093317
0.70784223 0.055434484 0.22467653 12830148
0.70674211 0.06544695 0.22482009 13093320
0.70703125 0.075748205 0.22476202 13619921
0.708381 0.084173463 0.2234485 14342871
0.71015388 0.087574497 0.2267054 14802908
0.71112496 0.091375835 0.22637711 12105394
0.70613331 -0.15152338 0.23503488 12303031
0.70588875 -0.14436555 0.23544873 14277078
0.70494288 -0.13438784 0.23501544 15461351
0.70467579 -0.12447721 0.23515448 15263972
0.70455569 -0.11440323 0.23500276 15198182
0.70533335 -0.10462202 0.23526223 15132389
0.70597208 -0.094801039 0.23547681 14869216
0.70655 -0.084787488 0.23509057 15000801
0.70744753 -0.075298123 0.2346179 14671837
0.70866662 -0.067788728 0.23471671 14606299
0.71000004 -0.062930681 0.23515834 14474456
0.71077794 -0.055511292 0.23541506 14869471
0.71008301 -0.045484088 0.23518576 14408920
0.70899993 -0.036285546 0.23380196 13882321
0.71000004 -0.034762073 0.23607686 13947857
0.70900005 -0.026695691 0.23289071 13619407
0.70999992 -0.025132783 0.23580468 13619406
0.70899981 -0.015419708 0.23489824 13224906
0.71000004 -0.01971549 0.23266514 13619921
0.70861107 -0.0055767763 0.23469724 13619151
0.70862502 0.0034787729 0.23601532 13948116
0.71008331 0.0061869249 0.23255377 14342873
0.70900005 0.01018835 0.23897657 14145748
0.71085733 0.014495286 0.2353216 13948110
0.71150011 0.024382098 0.23565343 13422538
0.71094477 0.034348544 0.23547152 13488075
0.70900005 0.048363332 0.23067766 12895428
0.71054292 0.044190593 0.23545821 12961474
0.70833331 0.056004267 0.23417908 12961221
0.71000004 0.05120175 0.23672809 12829633
0.70680988 0.065587081 0.23492762 13355723
0.70714295 0.075552583 0.23503859 14013908
0.70796973 0.085107259 0.23636711 14671834
0.71012503 0.087299213 0.23229028 15000542
0.70850003 0.09145312 0.23797815 11382183
0.71079999 0.091417111 0.23325832 11974063
0.70588887 -0.15106666 0.24417011 12566207
0.70505875 -0.14473014 0.24492864 14079444
0.70369709 -0.13530655 0.24482577 15066593
0.70322204 -0.12571092 0.244436 15263461
0.70323795 -0.11501206 0.24444233 15198180
0.70452791 -0.10450158 0.24489038 15461352
0.7058332 -0.094781697 0.24534437 15329767
0.70624989 -0.08491756 0.24548896 15198180
0.70717514 -0.074929833 0.24523005 15066593
0.7080251 -0.06544809 0.24527583 15066593
0.71000004 -0.061268561 0.24097574 14737885
0.70876926 -0.05784351 0.24642856 15198179
0.71017396 -0.05405451 0.24421543 14803678
0.71100026 -0.045542441 0.24547631 14869471
0.71113896 -0.035562392 0.24552628 14145492
0.71072221 -0.025560452 0.24538223 13684683
0.70899987 -0.014777531 0.24347182 13290185
0.71008331 -0.017086109 0.24779202 13816526
0.70849997 -0.0055772695 0.24461323 13422028
0.70800012 0.0043729362 0.24444056 13750992
0.70851851 0.013560385 0.24557048 13750735
0.71000004 0.016666532 0.2422685 13619150
0.70878571 0.023460012 0.2475559 13553356
0.71031833 0.024870789 0.24342595 13751248
0.70900005 0.031765513 0.24893527 13948369
0.71057582 0.034558568 0.24495035 14079955
0.7088334 0.046968419 0.24860013 14014162
0.71054846 0.043961126 0.24470206 13750990
0.70787823 0.05572151 0.24514434 13290185
0.71000004 0.0505092 0.24222234 13882066
0.70611101 0.065522127 0.24544069 13487563
0.70588875 0.075417593 0.24536355 14079702
0.70613885 0.085362703 0.24545023 14539995
0.70657146 0.091204181 0.24477136 11447722
0.78900003 -0.18075661 0.25855324 9474188
0.79312515 -0.18503374 0.2551021 9408395
0.78850007 -0.17741206 0.25492668 10263447
0.79000002 -0.17913631 0.2533327 9013637
0.70375007 -0.14410642 0.25467959 14145239
0.70238066 -0.13542673 0.25483033 14869217
0.70254737 -0.12558927 0.25489154 15132132
0.70293713 -0.11506616 0.25493047 15197926
0.70323247 -0.10444357 0.2552543 15461097
0.70460528 -0.094789326 0.25511608 15592683
0.70563865 -0.084844545 0.25518715 15395305
0.70583314 -0.074954137 0.25525799 15461097
0.70632434 -0.064972475 0.25527838 15527147
0.70774364 -0.055591848 0.25520414 15527403
0.71000004 -0.051295828 0.25177956 15330022
0.70866668 -0.045889907 0.2574445 15724782
0.71047634 -0.045152169 0.25325418 15527144
0.70900005 -0.037945323 0.25889394 15592937
0.71096975 -0.035327002 0.25507131 15132130
0.7088334 -0.02410879 0.25855646 14145491
0.71070009 -0.025836794 0.25457734 14342357
0.70834476 -0.014638358 0.25613654 13816526
0.71000004 -0.017388519 0.25211197 13750733
0.70759523 -0.0055698324 0.2550647 14079955
0.70707148 0.0043668947 0.25487572 14146005
0.70702392 0.014298315 0.25485837 14079955
0.70700002 0.024490947 0.25503758 13948369
0.7074185 0.034775168 0.25503799 14145748
0.70719552 0.045251228 0.25470376 14211285
0.70628947 0.0554436 0.25511765 13882576
0.70525002 0.065441929 0.25504747 13685197
0.7050277 0.075325489 0.25496727 14079444
0.7057777 0.08531981 0.25523821 14671582
0.70600003 0.091130421 0.25945124 12566206
0.78837502 -0.18222931 0.26526788 9407625
0.79185712 -0.18750452 0.26464993 9473931
0.76800001 -0.1705519 0.26965058 13092031
0.77700001 -0.17255056 0.26491746 12894652
0.78488892 -0.17797737 0.2651577 11841965
0.76450002 -0.16798493 0.26931483 13026238
0.77100003 -0.16941319 0.26709408 12894654
0.704 -0.14325999 0.26500055 14276823
0.71200001 -0.14811499 0.26332301 13487308
0.70205534 -0.13536397 0.26539829 14671580
0.7018888 -0.12547269 0.26533392 14803425
0.70144445 -0.11553963 0.26516521 15000802
0.7015897 -0.10526756 0.26503021 15132644
0.70179063 -0.094486602 0.26492935 15263973
0.70228589 -0.084441289 0.26465586 15198182
0.70295227 -0.074646585 0.26490822 15461097
0.70430946 -0.064897709 0.26542062 15527146
0.70552498 -0.055182181 0.26534221 15526890
0.70657146 -0.045258161 0.26461959 15790060
0.70704764 -0.035357624 0.26479748 15395301
0.70697623 -0.025424818 0.26477101 14474457
0.70620519 -0.015668981 0.26486489 13750733
0.70537823 -0.0054407008 0.26515603 14145491
0.70423794 0.004348475 0.26539236 14408663
0.70328254 0.014721151 0.26524511 14079957
0.70366663 0.025377436 0.26495582 14211542
0.70457125 0.035691187 0.26551872 14343128
0.70435709 0.045572836 0.26543844 14211542
0.70430958 0.055463009 0.26542115 14145749
0.7040953 0.06533514 0.26534125 13948115
0.70328557 0.075138763 0.26503664 14342872
0.70491886 0.085107304 0.26498491 14737630
0.70614284 0.091385305 0.26588064 13684945
0.77900004 -0.18211296 0.27898374 9209731
0.78577781 -0.184315 0.27476442 9341318
0.79075003 -0.18856218 0.27300835 9407625
0.76433343 -0.17197448 0.27536285 12894652
0.77357149 -0.17735328 0.27509353 13223103
0.78000003 -0.17869475 0.27021191 13091518
0.75716668 -0.16312425 0.27735969 12631737
0.76114285 -0.16775727 0.27525884 13092031
0.74600005 -0.15868071 0.27677178 12828348
0.70630771 -0.14209899 0.27457365 14277081
0.71200007 -0.14589415 0.27665666 13684689
0.70322216 -0.134829 0.27495593 14408407
0.7018888 -0.12547366 0.2751953 14474456
0.70147222 -0.11554495 0.27503178 14671836
0.70102793 -0.10562577 0.27485597 14803421
0.69894123 -0.093039081 0.2756258 14869471
0.70004755 -0.097322464 0.2737304 14869214
0.69836658 -0.085604943 0.27626374 14672092
0.69999993 -0.084986322 0.27117532 15132386
0.69894129 -0.076965079 0.2778393 14671837
0.70056671 -0.073792458 0.27407172 15329255
0.69899994 -0.064038366 0.27904418 15066339
0.70106459 -0.064732537 0.27420563 15263719
0.6985715 -0.056544073 0.27891514 15000547
0.70138901 -0.054366387 0.27417183 15329768
0.70290458 -0.045021906 0.27476382 15526891
0.70462501 -0.035400003 0.2751897 15263461
0.70468426 -0.025169754 0.27494064 14342872
0.70345235 -0.015417552 0.27497804 13422026
0.69900006 -0.0014099523 0.27978799 13355979
0.70221955 -0.0056284522 0.27461514 13882576
0.69881815 0.006620958 0.27778152 13816529
0.70071441 0.0036828185 0.2738519 14014162
0.69799995 0.015237581 0.27642494 13619150
0.70011759 0.014398616 0.27165452 13816784
0.69780773 0.025107814 0.27648231 13685201
0.70037502 0.026359061 0.27203739 14145751
0.69866663 0.034301974 0.27856383 14145752
0.70100015 0.035947729 0.27413067 14145495
0.69900006 0.044408455 0.27978799 13421772
0.70116657 0.045366824 0.2749061 14145495
0.70158321 0.055248722 0.27507052 14079702
0.70186102 0.065129198 0.27518049 14079446
0.7017777 0.074978106 0.27514875 14145496
0.70459992 0.085063443 0.27495894 14606303
0.70639998 0.091844097 0.27497736 13224394
0.77640003 -0.182052 0.28586668 10657948
0.78663641 -0.18775129 0.28489998 9407625
0.76441169 -0.17344421 0.28501776 12828860
0.77250004 -0.17878497 0.2847921 13289667
0.76092863 -0.1668186 0.28561747 12828604
0.72600007 -0.15102738 0.28634748 12105657
0.73466665 -0.15512681 0.28889996 12566461
0.70733339 -0.14079693 0.28395265 14474461
0.71490914 -0.14507285 0.28463128 13487567
0.72100002 -0.14829937 0.28690758 12632258
0.70538718 -0.13496859 0.28516969 14013908
0.7039668 -0.12518452 0.2850745 13619664
0.70306444 -0.11498441 0.28470939 14013908
0.70220685 -0.10498127 0.28436181 14277079
0.69900006 -0.091410391 0.28142434 14342874
0.70096773 -0.095532879 0.28491864 14146008
0.69857901 -0.084899411 0.28323543 14342873
0.69999999 -0.086788908 0.28723472 13684941
0.6988973 -0.07478331 0.2851592 14474458
0.69811112 -0.064328939 0.28515211 14474716
0.69819993 -0.054645438 0.2853047 14737888
0.70000005 -0.051119592 0.28073451 15000800
0.69887501 -0.047424164 0.28812256 15000804
0.70062506 -0.044414949 0.28417867 15197925
0.70239443 -0.034950163 0.2849519 15066338
0.70282471 -0.025440494 0.28485352 14342357
0.69900006 -0.011228182 0.28796983 13487820
0.70094132 -0.015604774 0.28447276 13158597
0.69849998 -0.0048978413 0.28590935 13487563
0.70009083 -0.0075211455 0.28171441 13750734
0.69819438 0.0043122112 0.28518522 13421771
0.70000005 0.0018654558 0.28018826 13750737
0.69761914 0.014922659 0.28495145 13158857
0.69730574 0.025528569 0.28482428 13290444
0.69800001 0.03535879 0.28510749 13422029
0.69866669 0.044883355 0.2850568 13422284
0.70000005 0.049388126 0.28428504 13421772
0.69900006 0.05095394 0.28387892 13619151
0.70020604 0.05538154 0.28436905 13816530
0.70091689 0.065041445 0.28465736 13619409
0.70105571 0.074901268 0.28471363 13817046
0.70408344 0.084935337 0.28484324 14080218
0.78900003 -0.19183901 0.29918861 9145223
0.77483338 -0.18204761 0.29562604 12369080
0.78492314 -0.18802357 0.29537493 9079431
0.75900006 -0.17033009 0.29758522 12894653
0.76315004 -0.173857 0.29509971 12697274
0.77100003 -0.17843781 0.29326373 12961217
0.74650002 -0.16053464 0.29443243 13026753
0.75718755 -0.16604838 0.29620484 12368566
0.7604 -0.16815202 0.29154697 12565945
0.72900003 -0.15165146 0.29008943 11776692
0.73269999 -0.153281 0.29584938 12039349
0.74160004 -0.1577448 0.29510659 12171190
0.70900005 -0.1408518 0.29125971 13487565
0.71650004 -0.14444265 0.29489651 13092808
0.7234 -0.1484559 0.29564634 12566464
0.70722228 -0.13424616 0.29310614 13027784
0.71128571 -0.13607438 0.29802698 13290956
0.70669234 -0.12442238 0.29394084 13158600
0.71074998 -0.12705852 0.29946607 13553615
0.70634288 -0.1145756 0.29501417 12961222
0.70594454 -0.10471391 0.29496729 13092808
0.70423335 -0.094570942 0.29507551 12896200
0.7015335 -0.084353596 0.29394457 13093321
0.69900006 -0.071773931 0.2912426 14211542
0.7008695 -0.075033046 0.29444945 13093062
0.69861537 -0.063054666 0.29246658 13948372
0.70106244 -0.065420762 0.29672006 13684685
0.69809681 -0.054074015 0.29439902 13948374
0.70000005 -0.057128202 0.29876032 13817300
0.69840628 -0.045092076 0.29487848 14080217
0.70000005 -0.04183355 0.29493666 14343131
0.69900006 -0.0390465 0.2953335 14803168
0.70052791 -0.034984857 0.2945663 14540253
0.70180541 -0.025237292 0.2948755 13750736
0.70091438 -0.015480321 0.29461929 12764098
0.69846159 -0.0049313786 0.29397494 12698564
0.70000005 -0.0066922656 0.29857826 12436419
0.69828564 0.0038459876 0.29409879 13027272
0.70000011 0.0056110849 0.29891637 12566465
0.69847059 0.014365585 0.29227301 12237498
0.70072216 0.015538797 0.29715568 11776947
0.69840008 0.025079409 0.29099259 12764613
0.70123982 0.025771491 0.29611862 11842999
0.69900006 0.032135665 0.2912426 12961991
0.70142853 0.03576595 0.29577652 11975097
0.69900006 0.044408455 0.2912426 12961221
0.70120692 0.04568002 0.29544866 12172475
0.70147216 0.055241201 0.29473919 12632771
0.70194435 0.065134905 0.2949366 12567234
0.70174992 0.074975818 0.2948541 12764614
0.70356005 0.083966389 0.29379967 13093579
0.78785717 -0.191825 0.30560204 9079433
0.76900005 -0.18157543 0.30960706 12763585
0.77425009 -0.18395147 0.30503199 11315880
0.78320003 -0.18859529 0.30431619 8947848
0.75854546 -0.17103575 0.30491334 12828606
0.76240003 -0.17627341 0.30498093 12368312
0.74683332 -0.16060631 0.30505243 12631484
0.75494123 -0.16578472 0.30519059 12170677
0.73299998 -0.1533439 0.30540478 11052711
0.74316669 -0.15807803 0.30529293 11907506
0.71833342 -0.14270636 0.30238184 12567491
0.72315383 -0.14640406 0.30573219 11843257
0.71707141 -0.13490066 0.30381122 12370370
0.72166675 -0.1357626 0.30857214 11580599
0.71521431 -0.12462703 0.30458063 12369343
0.72000003 -0.12871005 0.30842 11251377
0.70900005 -0.11927463 0.30038849 13224140
0.71482354 -0.11473833 0.30611062 11646133
0.70900005 -0.10101703 0.3020483 10988205
0.71526664 -0.10547808 0.30639884 11448498
0.70725 -0.094146132 0.30171737 11778491
0.71388888 -0.096143529 0.30673319 10988205
0.7068333 -0.084988199 0.30195376 12369602
0.71399999 -0.084727772 0.30752134 11645362
0.70716667 -0.075096697 0.30209655 12895427
0.71450007 -0.072529741 0.30773669 12237498
0.70583326 -0.064490758 0.30304158 12368827
0.71125007 -0.066373326 0.30716914 12369086
0.70357144 -0.055422783 0.30350345 13159114
0.70342857 -0.04470364 0.30509207 13356752
0.70239294 -0.03489168 0.3044056 14014167
0.70206654 -0.025246842 0.30402634 13553873
0.70240003 -0.015392999 0.30417353 12567491
0.70263642 -0.00590321 0.30457669 11975869
0.70347387 0.0045633106 0.30446604 11382961
0.70456004 0.014479777 0.3041878 10988203
0.70560873 0.024573622 0.30448574 11053739
0.71000004 0.026823949 0.3091228 10001308
0.70544451 0.035184585 0.30383983 10922413
0.71200001 0.030233117 0.30999354 10922412
0.70499998 0.045614854 0.30282095 11448497
0.71066666 0.044320539 0.30774936 10856876
0.70566678 0.05556868 0.30393565 11448242
0.7105 0.052625641 0.30850941 10199202
0.70324999 0.064980157 0.30220595 11185582
0.70200002 0.071715057 0.30070952 10922410
0.78592306 -0.19293398 0.31457824 8947848
0.79210007 -0.19760063 0.31463754 8947848
0.76683331 -0.18106383 0.31501684 10987433
0.77423525 -0.18633427 0.31533486 10066073
0.75862503 -0.17091227 0.31364429 11381420
0.76170594 -0.17586958 0.31537664 11184812
0.74700004 -0.16142119 0.31435144 11973554
0.75566667 -0.16678393 0.31426391 11775919
0.73333335 -0.15312918 0.31298673 11382192
0.74200004 -0.15696369 0.31523997 11974070
0.72733337 -0.1453488 0.3112773 11119791
0.73328578 -0.14420864 0.31607389 10461861
0.72775006 -0.13434881 0.31301919 11317170
0.7327143 -0.13600589 0.31680831 11186097
0.72512501 -0.12410975 0.31295174 10922669
0.73225003 -0.1266132 0.31795442 11054767
0.7231667 -0.11573004 0.31288147 10330532
0.73100001 -0.1152749 0.31826589 10922667
0.72399998 -0.10513196 0.31324232 10395811
0.73116666 -0.10503171 0.31833842 10725031
0.71900004 -0.091501065 0.31135803 10001309
0.72260004 -0.096523494 0.31325832 10725030
0.71900004 -0.088134684 0.31135803 10856618
0.72500002 -0.085991874 0.31497887 10527393
0.73066664 -0.081866719 0.31812072 10395550
0.71900004 -0.070461169 0.31135803 12829635
0.7234 -0.074270919 0.31394467 11447980
0.73033333 -0.076701768 0.31797561 10329497
0.71700001 -0.0624368 0.31217048 11447982
0.72625005 -0.06564451 0.31747419 10461088
0.73100001 -0.068214573 0.3199771 10329501
0.71300006 -0.058189154 0.31042895 11579568
0.72500002 -0.052379541 0.31904802 10792107
0.71525002 -0.041626893 0.3155978 11711927
0.72000003 -0.048647232 0.31684768 11515830
0.70683336 -0.035350617 0.31105351 12961993
0.71477771 -0.034537006 0.31697041 11843512
0.70674998 -0.026038462 0.3114318 12698821
0.7148 -0.025202921 0.31724074 11383218
0.70716667 -0.015493602 0.31120017 11317425
0.71433336 -0.015646959 0.31602624 11778234
0.70900005 -0.0030899053 0.31034717 11252147
0.71537501 -0.0056304783 0.31502479 10593959
0.72100002 -0.0048300764 0.31897563 10527652
0.71499997 0.002184011 0.31353459 10396837
0.72033334 0.0052930503 0.31699437 10462629
0.71600008 0.015873047 0.31341124 10001820
0.72060001 0.015414449 0.31711173 11186350
0.71625006 0.022869065 0.31352067 9607061
0.72080004 0.023859503 0.31719974 11251887
0.71560001 0.035414957 0.31156093 9475736
0.72175002 0.034443673 0.31635246 9936028
0.71850008 0.04480806 0.31282353 8949905
0.72466666 0.047736332 0.31720486 9015696
0.7166667 0.052237857 0.31202534 10002080
0.72700006 0.051293094 0.31822625 9278868
0.78500003 -0.19442432 0.3251096 8816262
0.79049999 -0.19929779 0.32504705 8882308
0.76800001 -0.18133931 0.32178974 8552835
0.77338892 -0.1850308 0.32515278 8750469
0.76456249 -0.17415571 0.32426715 9408401
0.77100003 -0.17843781 0.32846153 8750469
0.7572 -0.16638371 0.32222801 11447984
0.76099998 -0.16840278 0.32598439 11052969
0.74300003 -0.15456383 0.32001171 12106684
0.73900002 -0.14335164 0.32001889 10265252
0.74440002 -0.14683613 0.32305777 11317427
0.7523334 -0.14417605 0.32872844 11383218
0.73800004 -0.13106397 0.32131353 10988973
0.74437499 -0.13481016 0.32496232 11186096
0.75000006 -0.13846238 0.32829392 11252145
0.73633337 -0.12387212 0.32173735 11251631
0.74475008 -0.12485223 0.32708794 11514804
0.73500007 -0.11418385 0.32172802 11909047
0.74419999 -0.11474414 0.3274973 11909560
0.73520005 -0.10475229 0.32181555 11909303
0.74366665 -0.10508697 0.32726258 12238268
0.7335 -0.095065244 0.32107142 11119787
0.74316669 -0.094575584 0.32704255 12041143
0.73583341 -0.085025817 0.3220928 10329755
0.74480003 -0.085193738 0.32776135 12106421
0.73516673 -0.074634649 0.32180098 10197911
0.74449998 -0.075578175 0.3276293 12369080
0.73525 -0.066034302 0.32355872 11184806
0.74300003 -0.064121865 0.32870859 12435900
0.72900003 -0.056081735 0.32080829 10659489
0.73525006 -0.055706903 0.32527992 11185579
0.72500008 -0.042202353 0.3224425 10658726
0.73337501 -0.04590508 0.3268128 11514805
0.71900004 -0.030064557 0.32145721 9673626
0.72420007 -0.035374641 0.32378206 10528166
0.73133332 -0.034863938 0.32868335 12962504
0.72200006 -0.028499786 0.32279846 9936285
0.73133332 -0.02458453 0.32868335 12435648
0.72750008 -0.017646216 0.32525745 10462629
0.73224998 -0.016050443 0.32823971 11515060
0.7335 -0.0042685722 0.32729852 12041148
0.72900003 0.0053559435 0.32251489 12369856
0.7330001 0.0051411963 0.32575634 11844025
0.72900003 0.016448857 0.32251489 11317936
0.73255563 0.013956954 0.32523316 11317423
0.73387504 0.026008518 0.3259618 11712181
0.73400009 0.034848701 0.32497376 12304574
0.74000001 0.033154413 0.32911372 12106682
0.73388886 0.046050403 0.32391697 12041659
0.73580003 0.054673564 0.32414627 12896968
0.74300003 0.053292822 0.32870859 12897221
0.74100006 0.060954325 0.32608908 12568003
0.78730774 -0.19426575 0.33469996 8948614
0.79033333 -0.19894707 0.33515713 9211529
0.77700007 -0.18460475 0.33238128 8816772
0.78400004 -0.18658878 0.3380371 9145993
0.76900005 -0.17257422 0.33120999 8684676
0.7743572 -0.17558856 0.3349455 9013641
0.78000003 -0.17869475 0.33959967 9145480
0.76750004 -0.16774753 0.33236063 10790055
0.77500004 -0.16484457 0.33833104 10000796
0.76433343 -0.15183978 0.33516803 11579570
0.77166671 -0.15631264 0.33838037 11053483
0.75800008 -0.14526221 0.3322399 11448755
0.76320004 -0.14339671 0.33657676 11251377
0.75550002 -0.13506144 0.33247003 11317683
0.76180005 -0.13529584 0.33702582 11119790
0.75650001 -0.12489602 0.33438846 11383219
0.76000005 -0.1296335 0.3362295 11119537
0.75419998 -0.11452223 0.33366352 11909819
0.76220006 -0.11395358 0.33898714 11844282
0.7486667 -0.10316416 0.33121556 12040891
0.75628567 -0.10445572 0.33610827 12107198
0.76000005 -0.10561465 0.3388983 12041661
0.74733335 -0.095106803 0.33062568 11975095
0.7553637 -0.094765753 0.33691242 12171962
0.7486667 -0.087388813 0.33121556 12369594
0.75314295 -0.084387526 0.33521414 12237752
0.74800003 -0.072428763 0.33092064 12369337
0.75285721 -0.075541079 0.3352125 12435388
0.74816674 -0.065436475 0.33245474 12435642
0.75327283 -0.065483913 0.33742356 12896451
0.74590909 -0.053414308 0.33333197 12764613
0.75030005 -0.056315262 0.337208 12764612
0.73750007 -0.042062134 0.33145487 13225163
0.74518198 -0.045431033 0.33617929 12830662
0.73580009 -0.034215361 0.33241332 12830405
0.74400008 -0.036085922 0.33761176 12829635
0.73625004 -0.026473116 0.33261663 12304063
0.74500006 -0.024175499 0.33787975 12369856
0.73775005 -0.012711541 0.3315672 12172477
0.74449998 -0.014569682 0.33634377 11975098
0.74544448 -0.0053801006 0.3358033 12172477
0.75000006 -0.0015128243 0.3388285 12238270
0.73900002 0.00023937608 0.33039898 12172477
0.74427283 0.0049946276 0.33370855 11909305
0.75116676 0.0046385787 0.33935556 12172220
0.74425006 0.015047234 0.333619 11448496
0.75000006 0.015166928 0.33882853 11645361
0.74433333 0.025510833 0.33365643 11842997
0.75080001 0.024849171 0.33918992 11974326
0.7459231 0.035568658 0.33376649 12172219
0.75000006 0.03448033 0.33882853 12237498
0.7462858 0.044293344 0.33316055 12369599
0.75059998 0.045756273 0.33839655 12435136
0.74680007 0.054442562 0.33143759 12764610
0.75309092 0.05506058 0.33702108 12633027
0.75800008 0.061466664 0.33711919 12764868
0.76275003 0.065423936 0.33833864 12764867
0.77600002 0.07291656 0.33967474 9738134
0.78736377 -0.18423845 0.34364423 9343372
0.79071426 -0.18564712 0.34796634 9541008
0.78715384 -0.1752297 0.34668666 9474702
0.77750003 -0.16173957 0.34124202 9935258
0.78700006 -0.16579261 0.34725446 9276814
0.79000002 -0.16803989 0.3495017 9474192
0.77560008 -0.15408413 0.34240535 10461089
0.78275001 -0.15550551 0.34721017 9013643
0.76900005 -0.14557058 0.34021118 10856617
0.77466667 -0.14462844 0.34493694 9408401
0.78100002 -0.14784215 0.3491767 8750471
0.77346146 -0.13499351 0.34539273 10132382
0.76825005 -0.12474805 0.34167784 11383475
0.77400011 -0.12567577 0.34574667 11449268
0.76700002 -0.11555937 0.34202087 11778489
0.77400005 -0.11553581 0.34713617 11251890
0.76466674 -0.10536929 0.34277084 11646903
0.77180004 -0.10454661 0.34831613 11251890
0.75900006 -0.093037866 0.34111762 11974585
0.76314294 -0.095715813 0.34425706 11711926
0.77000004 -0.09168236 0.34966651 11580342
0.75880003 -0.0850197 0.34102774 12040121
0.76500005 -0.084816836 0.34650448 11711669
0.77000004 -0.089879774 0.34966651 11711926
0.75787497 -0.074270867 0.34105623 12501442
0.76240009 -0.075427152 0.34568241 11974842
0.75771427 -0.063740112 0.34434223 12698821
0.76120001 -0.067113884 0.34745273 12369600
0.75426084 -0.055111594 0.3446725 12896199
0.74900001 -0.042716235 0.34100682 12961479
0.75273687 -0.045293286 0.34507751 12896200
0.74780005 -0.034769572 0.3413358 13027016
0.75400007 -0.035058312 0.34681466 12501442
0.74800003 -0.029526092 0.34142709 12501442
0.75310004 -0.024789851 0.34613836 12304063
0.74900001 -0.019045033 0.34013012 12106684
0.7536552 -0.014600191 0.34589756 12238270
0.75390005 -0.0050498927 0.34500474 12238271
0.75362509 0.0046527381 0.34487882 12040889
0.75244832 0.015367758 0.34510162 11645874
0.75220007 0.02489532 0.34510773 11909047
0.75089997 0.034520339 0.34451112 12106169
0.75059998 0.045051001 0.34437317 12106428
0.75413328 0.054977525 0.34475386 12633029
0.75809091 0.061392948 0.34474072 12764613
0.76368427 0.06649559 0.34490752 12435903
0.7742942 0.072760813 0.34553072 10396316
0.78439999 0.078298941 0.34610096 10264732
0.78857148 0.0820098 0.34596819 10067355
0.79184622 0.086814731 0.34646717 10001306
0.78850007 -0.16126078 0.35068399 9474193
0.7919445 -0.16505536 0.35530862 9540753
0.78744453 -0.15459573 0.35205847 9342863
0.79109097 -0.15530929 0.35739282 9672081
0.78638464 -0.14433159 0.35498673 9474445
0.79000002 -0.14769644 0.35874876 9672080
0.77900004 -0.13409011 0.35010621 8750216
0.7870909 -0.1347556 0.35642469 9079948
0.77900004 -0.12284425 0.35010621 11382963
0.78561538 -0.12565051 0.35520738 9343122
0.77750003 -0.11168861 0.3512522 10725803
0.78522229 -0.11555243 0.35617384 9408915
0.77725005 -0.10573373 0.35296118 10396583
0.7840001 -0.10711508 0.35740179 8948624
0.77428579 -0.09503264 0.35291395 11317169
0.78100008 -0.09665034 0.35831842 8685705
0.7750001 -0.08502242 0.35466036 11645877
0.78000003 -0.080091082 0.35968563 11777719
0.76800001 -0.073465206 0.35055616 12040893
0.77400011 -0.074876338 0.35580716 11448756
0.76429999 -0.063452929 0.35298446 12040123
0.77149999 -0.066577971 0.35757205 12040380
0.75816673 -0.053297397 0.35198465 12238272
0.76222229 -0.056063168 0.35585129 12106686
0.75799996 -0.045004006 0.35220352 12304064
0.76133341 -0.045200352 0.35642466 12040893
0.75779998 -0.035235941 0.35211062 12435649
0.76200008 -0.033900265 0.35699257 12304063
0.75706673 -0.024921345 0.35324746 11909305
0.76066667 -0.025278507 0.35819018 11777719
0.75712514 -0.014820279 0.35534358 11777720
0.75728583 -0.00524149 0.35385716 11975098
0.76000005 -0.0042017559 0.35935876 11711927
0.75758344 0.0046787956 0.35378489 11711926
0.76066667 0.0046966695 0.35967398 11317168
0.75704175 0.015307035 0.35500839 11646132
0.76000005 0.01092122 0.35935876 11580340
0.75499994 0.025135433 0.35508358 11975098
0.75433338 0.034679856 0.35491744 12106682
0.75463349 0.045292415 0.35505998 11777718
0.7557618 0.055262633 0.35449317 12633541
0.75840002 0.061498631 0.35416415 13423057
0.76250011 0.066074073 0.35496104 12501442
0.76880008 0.07044024 0.35452041 10132889
0.77482355 0.074730203 0.3548412 10330522
0.78242862 0.078754798 0.35399947 10330522
0.78784621 0.082543246 0.35521495 10330522
0.79125005 0.087548919 0.3546848 10396316
0.79228574 -0.1446798 0.36429468 9869203
0.79266667 -0.13493849 0.36473566 9606288
0.78900003 -0.11241528 0.36014169 8553092
0.7876001 -0.1033677 0.36171585 8816520
0.78757149 -0.094300948 0.36370483 8619398
0.79119998 -0.095687054 0.3670738 9014154
0.78581828 -0.084868915 0.36354247 9343378
0.79149997 -0.085907117 0.36869448 8882825
0.77900004 -0.072693788 0.36104813 11119791
0.78618187 -0.075205714 0.36622044 9408916
0.79000002 -0.07741908 0.36984515 8356483
0.77522224 -0.064681709 0.36292866 10527140
0.78250003 -0.066611275 0.36816525 8685448
0.76666671 -0.053596634 0.36071625 9804445
0.77369237 -0.055202521 0.3662537 8685448
0.76719999 -0.045724869 0.36096722 11909308
0.77390003 -0.045040756 0.36683887 9869469
0.76840007 -0.035730205 0.36153179 12172477
0.77427274 -0.034852125 0.36709836 11185584
0.7658 -0.024852805 0.36281854 11580341
0.77216673 -0.025058238 0.36782372 11579827
0.76509094 -0.014567836 0.36437494 11054253
0.77000004 -0.019579004 0.36769235 11317168
0.76525003 -0.0058007259 0.36430776 10923181
0.77000004 -0.0024544583 0.36769235 11186354
0.7646364 0.005126575 0.36415741 10396325
0.77033335 0.0056603984 0.36905399 10462374
0.75880003 0.018364331 0.36127847 11383732
0.76292866 0.014661779 0.36495772 10659753
0.75833338 0.024506779 0.3618255 11186353
0.76300013 0.025250629 0.36703178 11055282
0.75825 0.034858931 0.36296988 11383732
