# .PCD v0.7 - Point Cloud Data file format
VERSION 0.7
FIELDS x y z rgb
SIZE 4 4 4 4
TYPE F F F U
COUNT 1 1 1 1
WIDTH 1111
HEIGHT 1
VIEWPOINT 0 0 0 1 0 0 0
POINTS 1111
DATA ascii
0.75639999 -0.064384654 0.094697714 15855848
0.76414287 -0.065683909 0.093241021 15987945
0.77350008 -0.065165684 0.091633782 14935257
0.74644446 -0.054801397 0.097820602 15592676
0.75587499 -0.055936668 0.095075585 16316397
0.76388896 -0.05399473 0.093549274 15922152
0.77391666 -0.055005725 0.091456734 13882570
0.74720001 -0.045120183 0.098036185 15461603
0.75475001 -0.043930825 0.095816851 15593189
0.76400012 -0.044949494 0.09394078 15593446
0.77400005 -0.046406366 0.091920242 14737367
0.78500003 -0.040175103 0.090011813 11776425
0.74720013 -0.03561534 0.098970257 15658727
0.75477779 -0.035293985 0.096751407 15132636
0.76333344 -0.033704009 0.095268637 15856362
0.7748751 -0.03466646 0.092472248 14211793
0.78500003 -0.034662008 0.090011813 11513251
0.74775004 -0.026888432 0.099744529 15988204
0.75533336 -0.025388895 0.098101176 14803415
0.76462501 -0.025485376 0.09595073 15395809
0.77464294 -0.025140259 0.093352571 14474964
0.78466672 -0.024236262 0.090583555 11185057
0.75825 -0.015728619 0.098925866 14343379
0.76310015 -0.014224524 0.097144485 14803929
0.77481252 -0.015620833 0.094507158 14344150
0.78575009 -0.014767989 0.091626696 11316645
0.79000002 -0.01084053 0.090585135 11119263
0.75900006 -0.0050846436 0.099468365 14408918
0.7639001 -0.0051162983 0.097424671 14409431
0.77450001 -0.0051875436 0.095151983 13685963
0.78562504 -0.0052586184 0.092839152 11053729
0.79120004 -0.0052980143 0.090722732 11119263
0.75900006 0.00379952 0.099468365 14014160
0.76362503 0.0047148932 0.098284185 14079953
0.77391672 0.0047789952 0.096588425 14146001
0.7853334 0.004850388 0.094335854 11580073
0.79300004 0.00532198 0.091770403 10987678
0.76400006 0.012408595 0.099404454 13816781
0.77469999 0.014757058 0.09807615 14277332
0.78581828 0.014969117 0.095620006 12435383
0.77580011 0.024043063 0.099125117 13948366
0.78628582 0.025629153 0.0969925 12566199
0.79343748 0.02475225 0.092947811 10790300
0.77600002 0.032042384 0.099879615 13487816
0.78611112 0.034812745 0.098520324 12763833
0.78600001 0.04533558 0.099326678 13422536
0.78736365 0.055047635 0.098491505 12172209
0.78692305 0.065157287 0.097881146 11119264
0.79194123 0.064816296 0.093095027 11119522
0.78799987 0.074967377 0.097732931 11119265
0.79073685 0.075470217 0.092714436 11119522
0.78900003 0.082449883 0.099705793 10724510
0.79233336 0.085652828 0.094971411 11053729
0.71500003 -0.1504129 0.10792962 11710380
0.71543336 -0.14402607 0.10525475 14210257
0.71663338 -0.13526529 0.10554232 16119279
0.72320002 -0.13283248 0.1013758 15789798
0.71805269 -0.12521972 0.10737139 16580086
0.72439128 -0.12503132 0.10259334 16316398
0.73000002 -0.1210985 0.10079468 16777205
0.71875 -0.11502487 0.10849538 16646135
0.72413045 -0.1151827 0.10447309 16381934
0.731125 -0.11443824 0.10137755 16513774
0.71900004 -0.10664979 0.10937501 16711672
0.72369576 -0.10502498 0.10654522 16514033
0.73140007 -0.10455127 0.10235608 16118503
0.72483343 -0.095207743 0.1077807 16579827
0.73234999 -0.094483748 0.10282998 16315882
0.72599995 -0.086310461 0.10886725 16514034
0.73356682 -0.084769122 0.10385386 16250603
0.74066669 -0.082987167 0.10053357 16316653
0.72883338 -0.075689368 0.10916466 16316912
0.73392332 -0.074963599 0.10502922 16118761
0.74188888 -0.074441537 0.10127717 16447726
0.733643 -0.065206856 0.10650259 16053226
0.74266672 -0.064956203 0.10167297 16316398
0.7338621 -0.055447765 0.10659194 16185068
0.74300003 -0.054549683 0.10171879 16382704
0.73430008 -0.045315076 0.10653656 16316655
0.74330002 -0.045000106 0.10175999 16317168
0.73470014 -0.035020556 0.10659584 16119279
0.74366671 -0.035447732 0.10181006 16185328
0.73522723 -0.025106134 0.10753722 15987693
0.74394733 -0.024780437 0.10289938 16119278
0.75150001 -0.021745756 0.10024475 15659239
0.73875004 -0.017486893 0.10848805 15066591
0.74444437 -0.014280542 0.10562148 15658985
0.75409102 -0.014355814 0.10139099 15527653
0.74470001 -0.0049888464 0.10717855 15461606
0.7536667 -0.0050489153 0.10229263 15396067
0.74462509 0.0045994907 0.10716773 15329763
0.75366664 0.0046549947 0.10229263 15330018
0.74577272 0.014765563 0.10757206 15066591
0.75555557 0.015279278 0.10313846 15330019
0.76400006 0.018490091 0.10083576 14277332
0.74706674 0.024727475 0.10839552 14803419
0.75518185 0.024672717 0.10491098 15000798
0.76260006 0.025239259 0.10225705 14737883
0.77100003 0.026422907 0.10104098 13422023
0.74816674 0.034397017 0.10855746 15263970
0.75335306 0.03478919 0.10567436 15132384
0.76316673 0.035086427 0.10269058 14869212
0.77260005 0.034616403 0.10125067 13619402
0.74880004 0.044066407 0.10864935 15789801
0.75378948 0.045476329 0.10602405 15395043
0.76410007 0.044968206 0.10281602 15198177
0.77490002 0.045423992 0.10082404 13684938
0.75453341 0.054532614 0.10747313 15526629
0.76350009 0.055478014 0.10434498 15330020
0.77466673 0.055140153 0.10163668 14343125
0.75718188 0.064544097 0.108897 15460580
0.76307702 0.065239593 0.10604375 15460836
0.77478945 0.065450653 0.10210365 14540244
0.76475 0.074247301 0.10767727 15263459
0.77405882 0.075184509 0.10442114 14606040
0.78299999 0.076196589 0.10130364 14014159
0.76800001 0.082054473 0.10963733 14342868
0.77572727 0.084119946 0.10743665 14737882
0.78564715 0.085184276 0.1038198 14013903
0.79150003 0.089196339 0.10094759 11382437
0.78700006 0.091848262 0.1078717 14014161
0.71500003 -0.1504129 0.11044035 11973552
0.70871437 -0.1436397 0.11894991 14473434
0.71153134 -0.14541507 0.11411628 13947344
0.70840007 -0.13476229 0.11738013 15527146
0.71156538 -0.13542163 0.1120797 15329767
0.70849997 -0.12540957 0.11793616 15987694
0.71262968 -0.12488609 0.11284928 15724523
0.70900005 -0.11927463 0.11947228 16316658
0.71383721 -0.11507023 0.11510797 16053488
0.71588099 -0.1051041 0.11547429 16119537
0.71772718 -0.094927832 0.11544016 15987693
0.72000003 -0.092471093 0.11121266 16711671
0.71844447 -0.084982499 0.11639012 15790315
0.72145456 -0.083750755 0.11158865 16645878
0.7186842 -0.074857816 0.11756133 15461350
0.72252184 -0.074849948 0.11233184 16382706
0.71857148 -0.065012418 0.11820067 15395558
0.72346157 -0.064972378 0.11343186 16251120
0.73000002 -0.062139966 0.11104834 16580341
0.71892303 -0.054399826 0.11842557 15593193
0.72312498 -0.054782912 0.1139448 16382706
0.73000002 -0.055475086 0.11104834 16580341
0.71899998 -0.04584448 0.11884298 15790573
0.72346419 -0.044222087 0.11494459 16251121
0.73049998 -0.045079634 0.1111244 16580085
0.72530782 -0.035091564 0.11711845 16053486
0.73092854 -0.034351107 0.11241126 16316401
0.72800004 -0.025481332 0.11833475 15593191
0.73173088 -0.02400638 0.11394401 15790313
0.72900003 -0.018536486 0.11942924 14869212
0.73354995 -0.014358285 0.11501155 15527142
0.74000001 -0.01015442 0.11083719 15263970
0.73360026 -0.0049146414 0.11587779 15527144
0.74100006 -0.0049640592 0.11098697 14869212
0.72900003 0.0002361369 0.11942924 14672092
0.73374283 0.0046549067 0.11577944 15198178
0.74066669 0.0045739207 0.11093704 14540247
0.73437947 0.014466263 0.11692321 15132384
0.74200004 0.015875647 0.11233771 15066591
0.73494738 0.024417575 0.1179535 15001055
0.74327284 0.026025688 0.11337961 14869212
0.73724997 0.034111001 0.11840642 15264227
0.74451864 0.0352934 0.11363708 14803419
0.73900002 0.040894665 0.11933748 15198434
0.74444741 0.044865198 0.11484155 15066334
0.74499989 0.055005223 0.11532525 15197921
0.75000006 0.058183137 0.11057924 14539479
0.74544007 0.064530782 0.11681038 15263458
0.75245458 0.06558197 0.11189988 14605272
0.74693328 0.07403364 0.11746915 15000028
0.755 0.074982338 0.11332881 15000029
0.76033336 0.076785088 0.11032283 15263202
0.74800003 0.080792032 0.11903976 14868442
0.75576931 0.083265416 0.11700345 14671321
0.7628001 0.085248038 0.1141284 14934493
0.773 0.087715894 0.11155558 14934748
0.7663334 0.09114372 0.11836705 14473945
0.77511114 0.093599953 0.11629331 12763581
0.78540003 0.096968412 0.11432185 11382440
0.79000002 0.09827432 0.11092858 11448233
0.78780001 0.1024275 0.11836423 11382439
0.70825005 -0.1443308 0.12499341 13881296
0.70752794 -0.1347626 0.12501979 15198181
0.7077502 -0.12486251 0.12505962 15658730
0.70844448 -0.11586335 0.1260732 15987438
0.71011114 -0.11281177 0.12279934 16119279
0.70900005 -0.10931595 0.12943096 15856109
0.71115786 -0.10504542 0.1250899 16185073
0.71320003 -0.09515699 0.12507258 16119280
0.7145853 -0.084959142 0.12522091 16053487
0.71502864 -0.074710995 0.12473769 15724779
0.71416652 -0.065089479 0.12535036 15593193
0.71587175 -0.054680951 0.12500922 15856108
0.71808338 -0.044313267 0.12520371 15987950
0.71885717 -0.034686197 0.12636152 15987950
0.72090006 -0.032505151 0.12164466 15856366
0.71899992 -0.025435781 0.12831092 15592937
0.72246438 -0.024045512 0.12318496 15395815
0.71900004 -0.017440617 0.12957332 15329765
0.72373515 -0.014862725 0.12483137 15066850
0.72339016 -0.0055896193 0.1253943 14803423
0.71900004 0.0061240699 0.12957332 14934754
0.72365791 0.0042928685 0.12478209 14606299
0.71900004 0.012015242 0.12957332 14803422
0.72352934 0.014730431 0.12559518 14737628
0.7306 0.015631188 0.1214017 14343127
0.72350013 0.024594503 0.12638795 14540249
0.73120004 0.026427224 0.1215 14277334
0.72462505 0.034378078 0.12718786 14803166
0.73236835 0.03561198 0.12223325 14737884
0.72714287 0.044860687 0.12812053 15066595
0.73348016 0.045499768 0.12352142 14869213
0.72837508 0.054802142 0.12913102 15066338
0.73396784 0.054886777 0.12400167 15000543
0.7337299 0.064441159 0.12548466 14935007
0.74150008 0.068374932 0.12104163 15461092
0.73503846 0.074627712 0.1260372 14342869
0.74316669 0.07548631 0.12131331 15000285
0.73600006 0.081794016 0.12861586 14145748
0.74511123 0.083196238 0.12448629 14737626
0.75475001 0.087487787 0.12231893 15395043
0.75725001 0.091099031 0.12671556 14737628
0.76228571 0.092533536 0.1241141 13289669
0.77412504 0.097208701 0.12274267 11250598
0.77750003 0.10035963 0.12555115 11316647
0.78690475 0.10543939 0.12470406 11382440
0.79025 0.10894301 0.12298774 11382696
0.79226673 0.11525179 0.1251557 11448233
0.79348379 0.12489222 0.12549454 11514025
0.71116668 -0.15154915 0.13648592 12960445
0.70836008 -0.1434454 0.13468684 14605272
0.71010005 -0.14838484 0.13694653 13487048
0.70711124 -0.13468343 0.13488008 15263457
0.7070002 -0.12473103 0.1348587 15592422
0.708139 -0.11498421 0.13507591 15658214
0.70900005 -0.10865203 0.13457629 15921900
0.71038467 -0.10402756 0.13576046 15527401
0.71127802 -0.095513076 0.13567565 15527401
0.71172231 -0.085574836 0.13520366 15856109
0.71221048 -0.075544059 0.13475446 15724523
0.71102798 -0.065518409 0.13562614 15592680
0.71286047 -0.055535201 0.1350214 15855595
0.71528202 -0.045362335 0.13482331 15921644
0.71625704 -0.035122246 0.13496673 15921644
0.71705884 -0.025538135 0.13529177 15461350
0.71819437 -0.015739089 0.13530973 15263972
0.71831435 -0.0055807405 0.13545272 14935264
0.72000003 -0.0081944428 0.13143906 15001057
0.71822214 0.0044355537 0.13531511 14869216
0.71847224 0.014530039 0.13536292 14474459
0.71879995 0.024183476 0.13615499 14211285
0.72000003 0.026920827 0.13200091 14408664
0.71880949 0.034368891 0.13747136 14474457
0.72066677 0.035663962 0.13240273 14803422
0.71899992 0.043842874 0.13875438 14935007
0.72135484 0.045339417 0.13358848 15066337
0.72245246 0.055202678 0.13525967 15197664
0.7252726 0.065218255 0.13517107 15131614
0.73100001 0.068688147 0.13002458 15527142
0.72708344 0.074350007 0.13627385 14407634
0.73086667 0.075406201 0.13148288 14276305
0.72900003 0.080446437 0.13990846 14473684
0.73308694 0.083589919 0.13531998 14803163
0.74200004 0.088829152 0.13545525 15526374
0.74500006 0.090932362 0.13774543 14737371
0.75800002 0.093407512 0.13394341 11316391
0.76800001 0.095537566 0.13210994 11382442
0.77900004 0.10055325 0.13309151 11382183
0.787 0.10506959 0.1344557 11382438
0.79037499 0.10872914 0.13572931 11448232
0.79263997 0.11530468 0.13542262 11448231
0.79276001 0.12459884 0.13544285 11579816
0.79196668 0.13467272 0.13530867 11514280
0.71260005 -0.15241104 0.14426771 12829629
0.70835298 -0.14247999 0.14443211 14473942
0.71084219 -0.14752495 0.14614625 13486533
0.70727795 -0.13471569 0.14484674 14934237
0.70719457 -0.12476432 0.14482957 15131873
0.70843995 -0.11626042 0.14432172 14934493
0.71027273 -0.11253487 0.14719819 14736858
0.71133345 -0.10551057 0.14567815 14540249
0.7122221 -0.095639646 0.14585894 14408663
0.71278113 -0.085494265 0.14482667 14474456
0.7128787 -0.075930566 0.14470394 14408663
0.71131438 -0.065427043 0.14555533 14211284
0.71111131 -0.055537391 0.1456307 14671835
0.71156108 -0.045476347 0.14500932 15000543
0.71199995 -0.035605397 0.14497702 15066592
0.71240485 -0.025618425 0.14505735 14869214
0.71350008 -0.015636083 0.1452789 14540250
0.71426189 -0.0056211264 0.14543299 14408664
0.71407151 0.0044106874 0.1453938 14277080
0.71499985 0.014269004 0.14519827 14145493
0.71636105 0.024548264 0.1450253 13948369
0.71613878 0.034601498 0.14497918 14079955
0.71786118 0.044768259 0.14532994 14474457
0.71838236 0.054691594 0.14568332 14408407
0.72000003 0.058384106 0.14155225 15723751
0.71853572 0.064754054 0.1465493 14474458
0.72057158 0.065660171 0.14118201 15066079
0.71890903 0.073060237 0.14822251 14342871
0.72175997 0.075459212 0.14385395 14342870
0.72581822 0.08194834 0.14562388 15132386
0.73333341 0.085651539 0.14202435 15000542
0.74349999 0.090749271 0.14356154 14474456
0.75266665 0.093630135 0.14445287 13487304
0.76560003 0.097031303 0.14370392 11184549
0.77550006 0.10010147 0.14247796 11447976
0.78833342 0.10575684 0.14483635 11448232
0.7913 0.10862579 0.1444554 11448232
0.79346663 0.13492952 0.14485088 11448233
0.71440011 -0.15329896 0.15517053 12894911
0.70900005 -0.14126673 0.15432769 14144465
0.71150011 -0.14641288 0.15564069 14078927
0.70816678 -0.1348844 0.15497637 14539736
0.70797235 -0.12490238 0.15493281 14935007
0.70876926 -0.11821441 0.1547887 15131873
0.71052188 -0.11359932 0.15567128 15395046
0.71180558 -0.10558155 0.15577172 15066338
0.71222579 -0.095774896 0.15519208 14474199
0.7132051 -0.085303344 0.15434462 14474456
0.71336359 -0.07537438 0.1545181 14474456
0.71280652 -0.065817684 0.15499546 14408407
0.71193761 -0.055395711 0.15528102 14342870
0.71080577 -0.045530736 0.15555342 14540249
0.71075028 -0.035543524 0.15553968 14408664
0.71041667 -0.025548 0.15546595 14277079
0.71072227 -0.015575035 0.15553315 14145494
0.71130574 -0.005597299 0.15566075 14013909
0.71083325 0.0043901112 0.15555617 13816530
0.71171796 0.014586684 0.15530093 13816529
0.71209526 0.02440156 0.15499668 13817041
0.71195227 0.034398776 0.15496543 14145748
0.71397626 0.04452651 0.15540412 14343127
0.71452379 0.054594506 0.15552278 14408920
0.7157222 0.064741381 0.15494874 14540253
0.717861 0.075018615 0.15541391 14605789
0.71899998 0.082896322 0.15856165 15066597
0.72106677 0.084074944 0.15357709 15461352
0.73200005 0.089345619 0.15419322 15724523
0.78733331 0.10501052 0.15632455 11382440
0.79119998 0.10879712 0.15517774 11382694
0.79286665 0.11533698 0.15494819 11382694
0.79296654 0.12463196 0.15496893 11448231
0.79286098 0.13482562 0.15494704 11448488
0.71446681 -0.15331267 0.16421452 12763072
0.70900005 -0.1408518 0.16594617 15066079
0.71160001 -0.14608438 0.16531645 14671065
0.70899981 -0.13536951 0.16478936 14474199
0.71000004 -0.13163176 0.16895042 14408406
0.70879996 -0.12562928 0.16299614 14803166
0.71025008 -0.1245762 0.16800578 14803167
0.70900005 -0.11927463 0.16096683 15328742
0.71114284 -0.11535225 0.16573597 15329254
0.71232259 -0.10579335 0.16521873 15526631
0.71357507 -0.094984159 0.16472143 14934237
0.71463895 -0.084532604 0.16475824 14605529
0.71319348 -0.075063221 0.16428913 14802651
0.71277487 -0.065513216 0.16490947 14342358
0.71259987 -0.055822283 0.1653699 14342871
0.71113908 -0.045552149 0.16561453 14277078
0.71011096 -0.035511807 0.16537549 13882063
0.70900005 -0.025828917 0.16528225 13750735
0.70999998 -0.025405068 0.16528526 13750734
0.71008313 -0.015561521 0.16536824 13882066
0.71050006 -0.0055913175 0.16546458 13882323
0.70999974 0.0043852893 0.16534916 13553615
0.70894992 0.014917424 0.16717909 13421772
0.71000004 0.013630848 0.16275209 13488335
0.7088927 0.024352226 0.1661578 13488079
0.71000004 0.024122998 0.16160938 13619921
0.70843339 0.0342273 0.16581219 13817044
0.71000004 0.034303498 0.16119385 14014421
0.70843482 0.043710422 0.16667823 14079959
0.71046162 0.045137521 0.16244969 14343129
0.70900005 0.054080352 0.16889688 14145495
0.71067864 0.054538477 0.16443588 14342872
0.71153647 0.06446328 0.16474687 14671838
0.71433336 0.074460253 0.16513042 14803424
0.71843481 0.083377235 0.16581392 15592940
0.72040004 0.088267803 0.16625419 15724525
0.72100002 0.091378741 0.16875485 11974322
0.78833342 0.10421919 0.16113803 11382184
0.79050004 0.10772233 0.16492999 11448233
0.79195994 0.11520492 0.16497025 11448488
0.79203564 0.12508065 0.16518416 11382695
0.70866674 -0.15129285 0.1785869 13684169
0.71135712 -0.15273888 0.17422524 13223362
0.70899987 -0.14409232 0.17677428 15197152
0.71046668 -0.14657745 0.17305264 14934493
0.7089411 -0.1376183 0.17481616 15723496
0.71000004 -0.13291481 0.17554058 15131616
0.71097249 -0.12543146 0.17556246 14671322
0.71169448 -0.11556157 0.17573966 15000544
0.71277767 -0.10572644 0.17461675 15461095
0.7134999 -0.094974652 0.17451496 15460837
0.71500009 -0.084296703 0.1748827 14539993
0.71383327 -0.074970223 0.17459844 14277078
0.71243751 -0.065858074 0.17477775 14145493
0.7123667 -0.055635773 0.17507385 14145237
0.71220005 -0.045620088 0.17503306 14342617
0.7112779 -0.035570994 0.17563815 14079186
0.71052784 -0.025551736 0.17545398 13421512
0.71075028 -0.015576199 0.17550811 13355977
0.71083361 -0.005594526 0.17552829 13421772
0.71047223 0.004387523 0.17543998 13158600
0.70899993 0.016339306 0.17365928 13027270
0.71010536 0.012566319 0.17661683 12895428
0.70894426 0.024294723 0.17506155 12698563
0.70841664 0.034225866 0.17493184 13225163
0.70800012 0.044980235 0.17482802 13882580
0.70825005 0.055773444 0.1748886 13948116
0.70825011 0.065721154 0.17488852 14146009
0.70850003 0.072172195 0.17640263 14474975
0.71204168 0.076217175 0.17443357 14869475
0.71788466 0.083877206 0.17565154 15461098
0.72011119 0.088831156 0.1732291 15789805
0.72162509 0.092092663 0.17608161 12039861
0.70766664 -0.15052687 0.18468411 13618119
0.70777786 -0.14475103 0.18471345 15066080
0.70821881 -0.13525553 0.18529482 15790059
0.71000004 -0.13232431 0.18155485 15395301
0.70875007 -0.12711322 0.18731849 15526887
0.71037513 -0.1242867 0.18421341 15066593
0.71127796 -0.11549335 0.18562756 14935008
0.71294987 -0.10537495 0.18497959 15395561
0.71412832 -0.094672419 0.18450913 15526631
0.71558321 -0.084364019 0.18507697 15132129
0.71534282 -0.074409634 0.18513581 14737114
0.71427286 -0.064829633 0.1848166 14539736
0.71391171 -0.055510458 0.1844507 14211031
0.71355575 -0.045707446 0.18455391 14211030
0.71231246 -0.035414711 0.18537752 14079188
0.71188891 -0.025600523 0.18578815 13553358
0.71172231 -0.015598904 0.18574488 13421772
0.71147227 -0.005598871 0.18568055 13224393
0.71161115 0.0043940046 0.18571587 12895428
0.70900005 0.018487258 0.18586355 12895428
0.71051437 0.014247898 0.18540509 12632256
0.70899981 0.024296496 0.18503366 12566720
0.70852768 0.03423116 0.18490964 12895684
0.70797634 0.044978611 0.18476661 13355978
0.70708346 0.055681124 0.18453303 13684942
0.70730573 0.065634541 0.1845908 13948116
0.70829415 0.073187932 0.18548405 14408924
0.71092856 0.077383384 0.18434615 14606304
0.71712488 0.08510308 0.18517643 15001063
0.71875006 0.091514379 0.18841891 13750738
0.72016668 0.091835357 0.18345179 12829634
0.70600003 -0.15017235 0.19251449 13684173
0.70577246 -0.14460236 0.19507785 14671581
0.70675009 -0.13477798 0.19495094 15658730
0.70839995 -0.12509486 0.19470854 15658731
0.71000004 -0.12110499 0.19942267 15526891
0.71066678 -0.11539422 0.19545072 15329511
0.71245229 -0.10523978 0.19514574 15197926
0.71382511 -0.094767243 0.19481406 15526632
0.71525002 -0.084325366 0.1950358 15461094
0.71539992 -0.074415438 0.19495669 15395045
0.71494609 -0.064363882 0.19506666 15197409
0.71500009 -0.055004716 0.19496864 14868702
0.71458346 -0.045773771 0.1948549 14605789
0.71314704 -0.035860196 0.19470887 14342874
0.71296668 -0.025639415 0.19524893 14079702
0.713 -0.015625931 0.19525787 13750737
0.71290004 -0.0056105428 0.19523099 13618894
0.71256661 0.0044003227 0.19514039 13027014
0.71137154 0.01450368 0.19552688 12698048
0.70900005 0.025748802 0.19146529 12303291
0.7102499 0.023923257 0.19634655 12434875
0.70872211 0.034333646 0.19252011 12435133
0.71005559 0.034214173 0.19768381 12566975
0.70838463 0.045258846 0.19297415 13356232
0.71021432 0.043932676 0.19829562 13356233
0.70773697 0.055425573 0.1948207 13553611
0.70694894 0.065791339 0.1948728 13948370
0.70735145 0.075104803 0.19545349 14606300
0.71000004 0.078349754 0.19111206 14737634
0.70850009 0.083852023 0.19748066 15198436
0.71250004 0.085555591 0.1935111 15132645
0.71518183 0.091403894 0.19386698 12764353
0.70379406 -0.14369115 0.20489947 14869216
0.70605248 -0.13430607 0.20544645 15527144
0.70768434 -0.12502417 0.20487376 15724269
0.70866668 -0.11626874 0.20688161 15658476
0.71038896 -0.11414891 0.2033193 15526891
0.70900005 -0.10931595 0.20910048 15724523
0.71162856 -0.10543582 0.20559064 15461353
0.71297705 -0.095475696 0.20507492 15395303
0.7124877 -0.085323185 0.20520203 15395560
0.71187812 -0.075493358 0.20506591 15395561
0.71266663 -0.065668359 0.20517328 15329768
0.71340007 -0.055882763 0.2051342 15197669
0.7127381 -0.04565509 0.20519368 15131876
0.71178573 -0.035595268 0.20491974 14737375
0.71221417 -0.025611239 0.20504393 14474203
0.71345967 -0.015747735 0.20472649 14211031
0.71350008 -0.0056157722 0.2045802 14013909
0.71316659 0.0044047832 0.2044864 13487566
0.71260595 0.01448486 0.20531084 12632510
0.71152782 0.024381848 0.20568275 12764095
0.7108891 0.03434696 0.20549771 12698302
0.70900005 0.048363332 0.20910048 12829888
0.7106002 0.044193491 0.20529409 13092805
0.70785367 0.055273701 0.20480056 13422026
0.71000004 0.050093669 0.20440905 13356234
0.7060768 0.065328203 0.20531273 13619150
0.70605254 0.075609356 0.20544676 14277081
0.70808834 0.085356683 0.20478494 14803680
0.71000004 0.089984618 0.203578 11645614
0.71033335 0.091689765 0.20533608 11184808
0.70437157 -0.14407741 0.21555673 14342871
0.70536113 -0.13434814 0.2154568 15461097
0.70615387 -0.12447508 0.21525383 15526888
0.70676202 -0.11476096 0.21505521 15527144
0.70779997 -0.10581598 0.21575829 15658730
0.71062499 -0.10311931 0.21228245 15592937
0.70841175 -0.095177345 0.21731584 15527144
0.71089482 -0.095418788 0.21316136 15263972
0.70844007 -0.084750608 0.21616508 15395558
0.71036363 -0.086396717 0.21207246 15329765
0.70856237 -0.075710103 0.21513855 15395559
0.71000004 -0.071656831 0.21230413 15526891
0.70900005 -0.068817273 0.21773136 15198179
0.71083868 -0.064935982 0.21500956 15329766
0.71194732 -0.055427026 0.21549515 15000802
0.7111668 -0.04555539 0.21556583 14606046
0.71002758 -0.03550721 0.21522112 14671582
0.71052772 -0.02555011 0.21537179 14474460
0.71231687 -0.01550776 0.2152012 14408667
0.71343249 -0.0057254052 0.21474065 14342874
0.71363902 0.004406367 0.21464539 14013909
0.71248698 0.014342684 0.21526001 13290185
0.71197218 0.02439818 0.21581079 12764097
0.71091676 0.034345549 0.21549119 12961474
0.70844448 0.045651928 0.21524769 12961475
0.71000004 0.041229013 0.21216561 13027012
0.70718193 0.05531102 0.2145838 13158853
0.70599985 0.065630712 0.215535 13421772
0.70632249 0.075331286 0.21508572 14079958
0.70808572 0.08548113 0.21456186 14343387
0.71000004 0.089984618 0.21770602 11974326
0.71100003 0.09177582 0.21967711 10987431
0.70520008 -0.15165308 0.22614045 11842480
0.70454061 -0.14558299 0.22521619 13882064
0.70428228 -0.13509385 0.22483025 15263972
0.70489478 -0.1246627 0.22530285 15461096
0.70561099 -0.11457419 0.22544402 15526634
0.70614976 -0.104578 0.22503808 15263974
0.70671421 -0.094900131 0.22496766 15263973
0.70735151 -0.085162289 0.22450022 15263972
0.70788896 -0.075171702 0.22451517 15066593
0.70874995 -0.067299195 0.22553501 15198179
0.71012503 -0.062941469 0.22428969 15197922
0.71063888 -0.055500861 0.22538665 15198179
0.70900005 -0.042924669 0.2290179 14211288
0.71027273 -0.045723759 0.22489339 14408666
0.70900005 -0.036285542 0.22154886 14211031
0.70999974 -0.035456773 0.22538115 14145238
0.70999974 -0.025532922 0.2251856 13948116
0.70900005 -0.015538268 0.22901788 13684944
0.71044111 -0.01556837 0.22507946 13882323
0.71168298 -0.0054978295 0.22500369 14145495
0.7118333 0.0043966966 0.22492978 14211288
0.71211112 0.014171168 0.22557603 13488076
0.71283334 0.02442766 0.22525057 13093574
0.71144122 0.034566641 0.22539854 13093060
0.7084139 0.046721123 0.22431152 12829632
0.71023083 0.041284665 0.22609065 13224389
0.70783353 0.055739686 0.22449893 12895427
0.70706457 0.065477565 0.22492215 13224393
0.70708585 0.075663917 0.2243793 13750738
0.7083143 0.08550857 0.22472131 14342615
0.71000004 0.089984618 0.22269239 14868961
0.70900005 0.091517664 0.22901788 11645355
0.71020001 0.091672555 0.22441678 11119012
0.70599991 -0.15127419 0.23548627 12236723
0.70519996 -0.14462587 0.23491304 14145235
0.70400029 -0.13522324 0.2350252 15395558
0.70447636 -0.12510867 0.23497829 15263718
0.70466673 -0.11442157 0.23503998 15329512
0.70513886 -0.10459223 0.23519771 15132390
0.70599985 -0.094804928 0.2354863 14935011
0.70685387 -0.084889241 0.23506443 14935011
0.70727521 -0.07527142 0.234835 14606044
0.7083714 -0.065391161 0.23473644 14606044
0.71000004 -0.061268561 0.23100302 15001057
0.70899993 -0.055580508 0.23742054 14671579
0.71000004 -0.055284917 0.2330807 15000547
0.70899987 -0.046059802 0.23430465 14474459
0.71000004 -0.043539256 0.23672809 14276823
0.71063888 -0.035536151 0.23537153 13882577
0.71072221 -0.025559608 0.23539925 13684941
0.70899987 -0.013463537 0.2354081 13421769
0.71000004 -0.018157249 0.23443116 13355977
0.70899981 -0.0058562076 0.23560172 13684941
0.71000004 -0.0042023449 0.23128004 13816530
0.70899993 0.0031066134 0.23654222 13882579
0.71000004 0.0052954992 0.23393145 14145752
0.71110815 0.014496441 0.23536667 13882577
0.71266651 0.024422364 0.23520565 13487819
0.71184212 0.034214705 0.23545992 13487818
0.70890009 0.047360405 0.2323049 12961218
0.71029639 0.043338973 0.23602599 13027267
0.70829272 0.055067372 0.23469441 13026756
0.70712215 0.06571696 0.23491147 13355978
0.70669049 0.075502098 0.23488803 14079700
0.70709538 0.085479043 0.23502116 14671322
0.70785719 0.091370143 0.23527347 11316392
0.70539999 -0.15169609 0.24436715 12368054
0.70463902 -0.14575931 0.24492799 13881808
0.70429289 -0.13508943 0.24491045 15066597
0.70459467 -0.12446352 0.24480191 15132133
0.70400029 -0.11431327 0.24470769 15263976
0.70438904 -0.10448101 0.24484226 15395561
0.70580548 -0.094777942 0.24533449 15395559
0.70638889 -0.084934302 0.24553664 15263972
0.70681596 -0.074883588 0.24537949 15132385
0.70770735 -0.065312847 0.24504499 15066593
0.70883995 -0.056720719 0.24496226 15066850
0.71000004 -0.052353539 0.2446022 14672092
0.71044433 -0.045505177 0.24528517 14869472
0.71182352 -0.035693802 0.24551652 14145493
0.71130562 -0.025582241 0.24558258 13684939
0.70899987 -0.013759928 0.24443014 13421766
0.71000004 -0.01805337 0.2456297 13619145
0.7088331 -0.0055787857 0.24472737 13422025
0.70866656 0.0043770531 0.24466912 13750735
0.70868415 0.013588885 0.2468151 13882575
0.71023536 0.015194811 0.24281563 13619149
0.70850003 0.023450641 0.24834476 13619402
0.71064276 0.024590908 0.24428155 13816782
0.70900005 0.030935623 0.24893527 13619402
0.71052951 0.034524694 0.24506757 14079954
0.70900005 0.046371594 0.24860331 14079955
0.71006429 0.043931447 0.24453652 13750990
0.70830238 0.055254564 0.24483281 13355976
0.71000004 0.050093669 0.24429999 13882576
0.70678389 0.065472148 0.24551681 13487563
0.7060554 0.075434886 0.24542178 14145494
0.70613879 0.085362978 0.2454506 14474460
0.70683336 0.09123797 0.24569225 11382189
0.70454186 -0.14415956 0.25444826 14145493
0.7037074 -0.13558179 0.25519153 14803680
0.70302254 -0.12541343 0.25487557 15132390
0.7035107 -0.11484595 0.25541562 15198183
0.70345247 -0.10434385 0.2552194 15395561
0.70447379 -0.094771549 0.25506869 15461351
0.70569438 -0.084851235 0.25520739 15461096
0.70583326 -0.074954137 0.25525805 15395559
0.7062431 -0.064964846 0.25524935 15461353
0.7075367 -0.055358283 0.25516495 15658733
0.71000004 -0.051295828 0.25094849 15132643
0.70846671 -0.046871483 0.25737169 15658733
0.71054554 -0.044680141 0.25363562 15592939
0.70900005 -0.039605107 0.25889394 15922159
0.7115407 -0.035379376 0.25522614 15066338
0.70872736 -0.023300642 0.25713477 14145236
0.71076006 -0.026526671 0.25427726 14342358
0.70805562 -0.015012105 0.25546166 13882320
0.71000004 -0.018468898 0.25136402 13618889
0.70714301 -0.0055657434 0.25490168 14145748
0.706738 0.0043652258 0.25475553 14145748
0.70680952 0.01429373 0.25478101 14145747
0.70688903 0.024610009 0.25502995 13948112
0.70740473 0.034887366 0.25499421 14211283
0.70732611 0.04526028 0.25475046 14211284
0.7064749 0.055466384 0.25490907 13882319
0.70469987 0.065554902 0.25542209 13750734
0.70404756 0.07522139 0.25543287 14079445
0.70559442 0.085187063 0.25532714 14671836
0.70600003 0.091130421 0.25862485 12631999
0.78777778 -0.18283442 0.26521868 9342087
0.7753846 -0.17387053 0.26679617 13092031
0.78355563 -0.1780826 0.26430145 11052448
0.76800001 -0.168754 0.26965058 13092031
0.77166671 -0.16955967 0.26732269 12894652
0.70538896 -0.14353162 0.26445428 14276567
0.70291418 -0.13546078 0.26532146 14737375
0.7017777 -0.12545328 0.26529184 14868961
0.70159459 -0.11540877 0.26511002 15066340
0.70207292 -0.10484029 0.26550326 15132134
0.70292485 -0.094225645 0.26514775 15263974
0.70342863 -0.084580101 0.26508927 15263972
0.70321417 -0.074675702 0.26500678 15461351
0.70409513 -0.064878307 0.26533872 15527145
0.70525622 -0.055269592 0.26539725 15461098
0.7064634 -0.045149799 0.26470011 15724270
0.70721954 -0.035386253 0.26498261 15330023
0.71000004 -0.034674596 0.26092124 15198183
0.70711911 -0.025429901 0.26482454 14474203
0.70610505 -0.015650345 0.26496884 13684943
0.70518416 -0.0053769597 0.26523012 14145493
0.70440471 0.0043501444 0.26545551 14342872
0.70382214 0.014615878 0.26545495 14079958
0.70339125 0.025248338 0.2648578 14145751
0.70345217 0.035634313 0.26509652 14342873
0.70361871 0.045525439 0.26515871 14277080
0.70361888 0.055408269 0.26516005 14211030
0.70273662 0.065034889 0.26535118 13947856
0.7017222 0.074971519 0.26527035 14408665
0.70418912 0.085066155 0.26497623 14671841
0.7062 0.091817804 0.26498002 12697794
0.77750003 -0.18130639 0.2766217 9276297
0.78546655 -0.18497722 0.27455378 9342089
0.79033333 -0.18846281 0.27194068 9342344
0.76607698 -0.17205597 0.27476308 12894652
0.7732501 -0.17715114 0.27454457 13092032
0.74700004 -0.16064216 0.27451855 12894652
0.75733346 -0.16404812 0.27713454 12565687
0.76200002 -0.1678182 0.27543938 13092031
0.74500006 -0.15846801 0.27378356 12828861
0.75000006 -0.15953155 0.27913254 12960447
0.70666671 -0.14226529 0.27425382 14408153
0.713 -0.14609905 0.27704522 13816275
0.70310342 -0.134859 0.27484691 14342874
0.7015 -0.12540357 0.27504224 14408668
0.70100009 -0.11546759 0.27484566 14605789
0.701244 -0.1049555 0.27484018 14737631
0.70154053 -0.094361328 0.27516577 14868959
0.70116669 -0.08430817 0.2749083 14934750
0.69859999 -0.073369697 0.27962786 14803421
0.70041698 -0.07437934 0.27461454 15198179
0.69868755 -0.064790197 0.27823105 15000800
0.70069242 -0.064313278 0.27339762 15395558
0.69900006 -0.057046589 0.27978799 15132133
0.70141017 -0.054588821 0.27455911 15329768
0.70309526 -0.045033943 0.27483884 15461354
0.70484209 -0.035419352 0.27500227 15263975
0.70541656 -0.025367998 0.27492344 14342875
0.70385361 -0.015327273 0.275015 13421515
0.69900006 -0.0014099523 0.27896979 13421772
0.70205128 -0.0058009531 0.27455702 13882321
0.69783336 0.0050580003 0.2765967 13816785
0.70072228 0.0033250547 0.27263844 14145748
0.69760621 0.014775536 0.27615982 13619407
0.70043749 0.015291776 0.27165154 13817042
0.6980769 0.025305716 0.27665159 13816787
0.70037502 0.026050195 0.27193469 14079959
0.69861543 0.034068413 0.27824959 14145495
0.70037949 0.036072049 0.2738367 14211288
0.70036125 0.045314677 0.27459264 14211288
0.70108342 0.055209991 0.27487627 14145495
0.70183319 0.065126471 0.27517077 13948373
0.70144445 0.074942693 0.27501953 14145496
0.70434284 0.085221469 0.27490738 14540255
0.70633334 0.092000596 0.27528313 12763843
0.78900003 -0.19183901 0.28995332 9211016
0.77588898 -0.1819925 0.28634405 10658463
0.78581256 -0.18773389 0.28440994 9342345
0.76468754 -0.17317724 0.28549227 12763068
0.77200001 -0.17821862 0.28415772 13289668
0.75400001 -0.16214749 0.28062123 12894654
0.76110524 -0.16583318 0.28635958 12894141
0.72600001 -0.15102738 0.28549805 11908277
0.73233342 -0.15405928 0.28798786 11908531
0.74100006 -0.15761717 0.28966051 12895424
0.70820004 -0.14102483 0.28347093 14211288
0.71508336 -0.14485569 0.28524315 13750481
0.72100002 -0.14829937 0.28690758 12960965
0.70499998 -0.13499032 0.28496137 14013909
0.70341921 -0.12524135 0.2849066 13684946
0.7024827 -0.11522993 0.28441665 14013910
0.70165718 -0.10508583 0.28484333 14342619
0.70114297 -0.095395833 0.28467974 14277080
0.70005155 -0.085118771 0.28420106 14145748
0.69848567 -0.07419879 0.28490847 14474713
0.70000005 -0.078431465 0.28428504 13816783
0.69800001 -0.06431812 0.28510681 14408665
0.69788569 -0.054621588 0.28517532 14803425
0.70000005 -0.051802386 0.28059793 15263719
0.69837499 -0.045857012 0.28760931 15066594
0.70080781 -0.044194441 0.28347525 15263717
0.69900006 -0.0390465 0.28960621 15527401
0.70235002 -0.034956891 0.28465834 15000546
0.7028572 -0.025277223 0.28461644 14211031
0.69846666 -0.014272457 0.28785858 13289930
0.70121431 -0.016073121 0.28354421 13224136
0.69786674 -0.005057313 0.28575897 13553356
0.7002728 -0.0070765065 0.28148943 13750737
0.69708365 0.0043050875 0.28473189 13421770
0.69702417 0.014911653 0.28470814 13093319
0.69730574 0.025528699 0.28482401 13422029
0.69828123 0.035015982 0.28476217 13619410
0.70000005 0.039555848 0.28838181 13619923
0.69900006 0.04113571 0.28306073 14014423
0.70012134 0.045672253 0.2844092 13488080
0.7011112 0.055211697 0.2847372 13619923
0.70119452 0.065066159 0.28477097 13619409
0.70119452 0.074916869 0.28477001 14013911
0.70462161 0.085116707 0.28493375 14145497
0.78840005 -0.19169313 0.29526839 9145225
0.79258829 -0.19642527 0.2949807 9145479
0.77471435 -0.18240964 0.29571104 11842737
0.78380001 -0.18800844 0.29446164 9079689
0.75875002 -0.17071819 0.29837471 13158339
0.76320004 -0.1740472 0.29476139 12566459
0.77099997 -0.17843781 0.29236147 13158596
0.74633336 -0.16049878 0.29436454 12829631
0.75643754 -0.16555247 0.29591176 12369080
0.76050007 -0.1673287 0.29171884 12434616
0.72900003 -0.15165146 0.29094273 11645104
0.73277783 -0.15339221 0.29616576 11842225
0.74120009 -0.15765971 0.29494512 12171701
0.71649998 -0.14388314 0.29461986 13158857
0.72371429 -0.14837573 0.29597035 12698306
0.70711768 -0.13405241 0.29277599 13224394
0.71157151 -0.13708091 0.29719552 13290956
0.70639271 -0.12438817 0.29408935 13092809
0.71150005 -0.12885678 0.29978204 13421774
0.70583332 -0.11461195 0.29491991 12961223
0.70554841 -0.10478839 0.29546723 12829894
0.7039333 -0.094530374 0.29495001 12896199
0.70166671 -0.084369399 0.29399994 13158856
0.69900006 -0.072592117 0.2912426 14014162
0.70128578 -0.074940167 0.2956 13027014
0.69839996 -0.063538268 0.29251906 13948116
0.70080006 -0.065397039 0.29702508 13553358
0.69775009 -0.054189119 0.29434779 14079447
0.70000005 -0.056308843 0.29903346 13684687
0.69761121 -0.044683918 0.29474765 14211542
0.69861287 -0.035066746 0.2958295 14408923
0.69999999 -0.034186222 0.29083985 14540252
0.6987499 -0.024924828 0.2957392 13685200
0.69999999 -0.02582879 0.290676 14145238
0.69811106 -0.015299497 0.29495856 12895169
0.6977942 -0.0056842854 0.29458532 12764357
0.70000005 -0.0022313257 0.29985279 12171964
0.69770014 0.0043097488 0.2939696 12830407
0.70000005 0.0043235249 0.29985282 12369343
0.69814283 0.014176936 0.29357192 11974840
0.70019996 0.016127706 0.29813543 11514288
0.69859999 0.024431713 0.29189387 12566463
0.70074999 0.026228908 0.29648417 11711925
0.69900006 0.03131748 0.2912426 13816275
0.7015 0.035895053 0.29521376 12105914
0.70191669 0.045415711 0.29492724 12369086
0.70233321 0.05530794 0.29509962 12632771
0.70230544 0.065168701 0.29508767 12763844
0.70169437 0.074969746 0.29483044 12895687
0.70307696 0.084045187 0.29363534 13092809
0.78775007 -0.19199684 0.30562878 9079433
0.77418756 -0.18393713 0.30500939 10987428
0.78200001 -0.18830633 0.30385363 8947847
0.75858337 -0.17260492 0.30467284 12565691
0.76328576 -0.17729391 0.3048771 12236983
0.74650002 -0.16053464 0.30491784 12500153
0.75454545 -0.16644523 0.30515051 12039602
0.73338467 -0.15309554 0.3058283 11119018
0.74266672 -0.15797168 0.30509007 11973555
0.71833342 -0.14158541 0.30154061 13225164
0.72462499 -0.14565548 0.30531257 12238015
0.71675003 -0.1344226 0.3026244 12961994
0.72142857 -0.13608478 0.30686116 11975100
0.71523088 -0.12457502 0.30444974 12369601
0.72049999 -0.12711331 0.30863419 11251377
0.70900005 -0.1134654 0.3020483 12303036
0.71615386 -0.11505613 0.30716375 11579827
0.70900005 -0.10101703 0.3020483 11119021
0.71487504 -0.10540571 0.30633643 11645363
0.70737505 -0.094162762 0.30177066 11975099
0.71388888 -0.096143521 0.30673319 11316656
0.70633334 -0.084930025 0.30174017 12238270
0.71133333 -0.085529655 0.30637279 11711669
0.70683336 -0.075061299 0.30277994 12829636
0.71200007 -0.075610161 0.30665994 12500672
0.70585716 -0.064219087 0.30366188 12237498
0.71150005 -0.066395491 0.3081108 12237498
0.70345014 -0.055272173 0.30429941 13224394
0.69900006 -0.041501056 0.30106083 13882835
0.70279992 -0.045015335 0.30517191 13487567
0.69900006 -0.037410129 0.30106083 14738655
0.70152175 -0.034976892 0.30472153 13882835
0.69900006 -0.02350097 0.30106083 14079961
0.70099998 -0.025357278 0.30461004 13422287
0.70220834 -0.015387523 0.30491388 12698049
0.70254999 -0.0057757371 0.30456927 12172220
0.70375007 0.0039345212 0.3045527 11579827
0.71000004 0.0068784738 0.3091228 11382191
0.70373696 0.015575914 0.30362672 11185581
0.71133333 0.012439604 0.30970326 10658725
0.70480949 0.024976209 0.3040393 10922923
0.71000004 0.023499703 0.3091228 9738394
0.70576471 0.035022341 0.30387974 10988204
0.71000004 0.038458806 0.30746067 11119791
0.70549995 0.0456472 0.30303553 11448242
0.71216661 0.044413883 0.3083989 10528169
0.70560008 0.055399336 0.30423692 11119791
0.71250004 0.051103458 0.30937666 10199206
0.70369232 0.064980321 0.30257598 11250604
0.71000004 0.061728522 0.30746067 9343378
0.7026667 0.072604857 0.30099508 11514290
0.78558344 -0.19193082 0.31443813 8882052
0.79325002 -0.19751774 0.31564966 8947845
0.77340007 -0.18442926 0.31439489 11250345
0.75866669 -0.17114371 0.31343898 11118503
0.76300013 -0.17575949 0.31552511 11381933
0.74660003 -0.16055612 0.31457338 11710897
0.75493747 -0.1661101 0.31476948 11776689
0.73412508 -0.15228742 0.31318423 10987690
0.7420001 -0.15667224 0.3152388 12040119
0.72850001 -0.14728445 0.31035566 10593447
0.73330009 -0.14482085 0.31497774 10790826
0.72650003 -0.13327819 0.31120437 11448756
0.73290002 -0.13512821 0.31583673 11317170
0.72520006 -0.12369859 0.31268606 10659240
0.73120004 -0.12643376 0.31629938 10988205
0.72366667 -0.11581259 0.3130976 10593189
0.73124999 -0.11574361 0.31837469 10987433
0.72433335 -0.10546624 0.31366763 10460319
0.73100001 -0.10500718 0.31826589 10986406
0.71900004 -0.090659469 0.31135803 9934747
0.72500008 -0.095048606 0.31493017 10395039
0.73100001 -0.099017695 0.31826586 10591648
0.71900004 -0.085609898 0.31135803 11053740
0.72600001 -0.087576412 0.31608891 9803931
0.72540009 -0.074491724 0.31582767 10198689
0.73100001 -0.071637146 0.3199771 9671573
0.71750003 -0.063591935 0.31322974 9868950
0.72366667 -0.065840818 0.31676713 9869721
0.73000002 -0.069830209 0.3195394 9934745
0.71700001 -0.058515593 0.31384897 12237498
0.72000003 -0.052018303 0.31684768 10988203
0.71550006 -0.043601457 0.3154273 11711159
0.70683336 -0.035351004 0.31105351 13224393
0.71371424 -0.034619551 0.31623295 12105914
0.70674998 -0.026245937 0.3114318 12698822
0.71511108 -0.025066443 0.31730413 11646135
0.70775002 -0.017165679 0.31145689 12040377
0.71562505 -0.014844936 0.31618127 11514549
0.70900005 -0.0047496869 0.31034717 10856617
0.71575004 -0.0050055981 0.31477138 10922410
0.71620005 0.0022452662 0.31383544 10856360
0.72175002 0.004461667 0.3176178 10527393
0.71700001 0.015900685 0.31384897 10066329
0.72366673 0.016605929 0.31846127 11382442
0.71775007 0.022915199 0.31417727 9606293
0.72325003 0.023516284 0.31827793 11449264
0.71660006 0.035464443 0.31199631 9410200
0.72100008 0.034836717 0.31559989 9476249
0.71883339 0.044828068 0.31296864 9081236
0.7256667 0.047802199 0.31764257 9344150
0.71900004 0.050728656 0.31304124 9738654
0.78646159 -0.19278327 0.32470995 8816262
0.79174995 -0.1976058 0.32548368 8882310
0.77523077 -0.18346944 0.32370222 9276556
0.7816667 -0.1876166 0.32751605 8882053
0.76562506 -0.17293845 0.32393366 10131865
0.77166671 -0.17738883 0.32663903 9145227
0.75800002 -0.16655669 0.32114875 11974069
0.76133329 -0.16847837 0.32374951 11579568
0.74599999 -0.15343995 0.32246962 11843255
0.74483329 -0.14448164 0.32356527 11054511
0.75133342 -0.14398754 0.32887754 11383733
0.73900002 -0.13729659 0.32001889 10790826
0.74610001 -0.13512346 0.32571548 10988718
0.73750007 -0.12666067 0.32109585 11382961
0.74500006 -0.1250125 0.32674333 11646131
0.73600006 -0.11520515 0.32216573 12106169
0.7456001 -0.11496045 0.32811338 12040889
0.73583341 -0.10570168 0.3220928 11974326
0.74466676 -0.10522828 0.32770267 12369597
0.73383331 -0.095109232 0.32121733 11119276
0.74300003 -0.094557293 0.32696921 12172476
0.73333335 -0.084739842 0.32099846 10461860
0.74300003 -0.084985957 0.32696921 11909304
0.73450011 -0.074554093 0.32208467 10724260
0.74320006 -0.075964086 0.32740602 12369597
0.72900003 -0.062908143 0.32080829 10264478
0.73233336 -0.066626936 0.32227519 11579827
0.74250007 -0.06842038 0.3284874 12501953
0.73800004 -0.052456092 0.32822424 12830406
0.74000001 -0.055195607 0.32911372 12500670
0.72533339 -0.042220969 0.32259074 10724004
0.73299998 -0.045360915 0.32698169 11974584
0.72460008 -0.036070731 0.32362378 10987176
0.73159999 -0.034019135 0.32880321 12895943
0.72466677 -0.025200427 0.3239907 10395810
0.73200005 -0.024606943 0.32898298 12369856
0.72500008 -0.017303286 0.32301137 11053997
0.73200005 -0.013895617 0.32726935 11251375
0.72850001 -0.0091433134 0.32399911 11317168
0.73328573 -0.0051598591 0.32686597 12172477
0.72700006 0.00023548906 0.32163006 11185580
0.73333335 0.0048163109 0.3253879 11975096
0.74000001 0.0089014657 0.32911372 11646131
0.73366666 0.015697211 0.32515484 11448236
0.74066669 0.012376533 0.32941023 11448494
0.73537499 0.02562654 0.32641447 12040631
0.74100006 0.029729828 0.32955849 11776947
0.73433334 0.035480719 0.3248744 12041917
0.74100006 0.031464525 0.32955849 11776947
0.73466665 0.046099558 0.32426053 12041661
0.73300004 0.052575573 0.32256857 12765384
0.74266666 0.055004779 0.3276926 12831176
0.74100006 0.060954325 0.32608908 12633796
0.78860009 -0.19248058 0.33300558 8882306
0.79146153 -0.19600233 0.33575395 9079685
0.77866673 -0.18203582 0.33172691 8750980
0.78607148 -0.18666145 0.33593521 8882821
0.77509093 -0.17476812 0.33350539 8816520
0.78300005 -0.17846671 0.33907282 9014411
0.77350003 -0.16181579 0.33858043 10592675
0.75750005 -0.15137535 0.33157685 11514547
0.76425004 -0.15271807 0.33632469 11119791
0.77100003 -0.15677872 0.33929107 11316398
0.75683337 -0.14415039 0.33305874 11055024
0.76160002 -0.14523867 0.3369388 10791340
0.75680006 -0.13528855 0.33393031 11186096
0.76350003 -0.1364851 0.33956531 10922923
0.75728571 -0.12561753 0.3347775 11580340
0.75725007 -0.11542792 0.33501288 12106683
0.7615 -0.11117174 0.3386758 12040634
0.75489998 -0.10419577 0.33503792 12303806
0.76000005 -0.10561465 0.3388983 12040635
0.74816674 -0.09521383 0.33099434 11843512
0.75550008 -0.095264599 0.33689386 12040892
0.74849999 -0.086492851 0.3311418 12172477
0.75300008 -0.084750429 0.33540159 12106427
0.74800003 -0.075054683 0.33127129 12566973
0.75326675 -0.074875996 0.33689839 12304061
0.7458334 -0.065239027 0.33170807 12239037
0.7524001 -0.064927422 0.33727235 12830406
0.74611115 -0.053510953 0.33397079 12764613
0.75128573 -0.05679154 0.33740041 12830406
0.73800004 -0.041225061 0.33167955 13092809
0.74481827 -0.045250461 0.33569857 12961993
0.73759997 -0.034637563 0.3328824 13093323
0.74485719 -0.035877623 0.3377519 12764614
0.73900002 -0.027440818 0.333859 12304063
0.745 -0.024615318 0.33766231 12369856
0.73675007 -0.01614204 0.33111778 12106684
0.74462503 -0.013703369 0.33596593 12040890
0.73900002 -0.0032206485 0.33039898 11909305
0.74555564 -0.0051922635 0.33546674 12238269
0.75050008 -0.0023917148 0.33905438 12567233
0.74499995 0.0046061478 0.33395532 11975098
0.75183338 0.0046426961 0.33965674 12106684
0.74633342 0.015090634 0.33455238 11382446
0.75139999 0.014315722 0.33946094 11316396
0.7457273 0.025158929 0.33420178 11777717
0.75200003 0.024889823 0.33973202 11777460
0.74580002 0.034983221 0.33291808 12107196
0.75036371 0.034894805 0.33819476 12106682
0.7463333 0.044153944 0.33344868 12238783
0.75000006 0.046087876 0.33804819 12369856
0.74716669 0.05388099 0.33201081 12435905
0.75263637 0.055027876 0.33713648 12501699
0.75749999 0.061426312 0.33689877 12765126
0.76249999 0.065402783 0.33733261 12633796
0.77600002 0.07291656 0.33967474 9540755
0.7881667 -0.18271865 0.34254119 9080458
0.79142857 -0.18568252 0.34669393 9409422
0.7876001 -0.17490563 0.34512427 9277579
0.79000002 -0.1763622 0.3495017 9541008
0.77800006 -0.16184476 0.34237155 9145229
0.78637505 -0.16612524 0.3472077 9342606
0.77525008 -0.15491945 0.34388658 9014157
0.78200006 -0.15627301 0.34870732 9145998
0.76550007 -0.1440126 0.34045482 8948878
0.77344441 -0.14500183 0.34580135 8948363
0.76550007 -0.13146707 0.34045482 10790825
0.77291673 -0.13454975 0.34646952 9409171
0.76850003 -0.12838416 0.34178904 11119789
0.77327287 -0.12482416 0.3453972 11317169
0.76800001 -0.11122113 0.34336454 12434881
0.77428579 -0.1144651 0.34747109 11316912
0.76499999 -0.10464386 0.3433055 11711671
0.77225006 -0.10550944 0.34842917 11514292
0.75900006 -0.093037866 0.34111762 12040893
0.76314294 -0.094687767 0.34451458 11515062
0.77000004 -0.093484946 0.34966651 11515319
0.75800002 -0.084930062 0.34066817 12040892
0.76418191 -0.085135348 0.34621459 11515063
0.75850004 -0.075218976 0.34237316 12172477
0.76225007 -0.074697562 0.34637243 12040893
0.75768751 -0.064165629 0.34440941 12567492
0.76100004 -0.066562057 0.34825116 12041149
0.75504166 -0.055067629 0.34457147 12764615
0.74900001 -0.043592945 0.34013012 13027786
0.7535001 -0.045089852 0.34535322 12896458
0.74900001 -0.034825832 0.34188354 12501442
0.7540834 -0.035061803 0.346414 12698307
0.75468427 -0.025139198 0.34606278 12435392
0.7548334 -0.014775272 0.34543464 12172735
0.75395 -0.0050522173 0.3450281 12304064
0.75333339 0.004947037 0.34523493 11909305
0.75325811 0.015375354 0.34542146 11777202
0.75384617 0.024950843 0.34565905 11843767
0.75256675 0.034595404 0.34527671 12040889
0.74900001 0.043201465 0.34100682 12040120
0.75050008 0.045169167 0.34451532 12171963
0.75337929 0.055045657 0.34454885 12698565
0.75800008 0.061466467 0.34510362 12830663
0.76393753 0.06619963 0.34467235 12566721
0.77000004 0.06874761 0.34335744 12567235
0.77552938 0.072876461 0.34491205 10527647
0.78433335 0.078189678 0.34474972 10001304
0.78850007 0.082398221 0.34606928 10198427
0.79108334 0.087299198 0.34658512 10198428
0.79200006 -0.17495568 0.35502407 9934996
0.78800011 -0.16300423 0.35138401 9540755
0.79117638 -0.16512977 0.35612547 9737875
0.78737503 -0.15411577 0.35387254 9408910
0.79100007 -0.15631965 0.35817489 9672594
0.77900004 -0.14563991 0.35010621 9145480
0.78580004 -0.14507398 0.35555649 9343629
0.79000002 -0.14954583 0.35874873 9541008
0.77900004 -0.13560982 0.35192984 9277838
0.78477788 -0.13487871 0.35576785 9146509
