# .PCD v0.7 - Point Cloud Data file format
VERSION 0.7
FIELDS x y z rgb
SIZE 4 4 4 4
TYPE F F F U
COUNT 1 1 1 1
WIDTH 836
HEIGHT 1
VIEWPOINT 0 0 0 1 0 0 0
POINTS 836
DATA ascii
0.78900003 -0.060697515 0.10894111 14209733
0.78623074 -0.053835087 0.1077048 13486780
0.79347366 -0.055960923 0.10300235 11842215
0.77630007 -0.044457305 0.1079128 13420732
0.78580946 -0.045033906 0.10411397 12828853
0.79150003 -0.048846472 0.100947 12105387
0.76719999 -0.033878848 0.10952313 14998738
0.77400005 -0.035321672 0.10705614 14670285
0.78553349 -0.03468556 0.10294013 13683902
0.76640004 -0.024868531 0.10940893 15262680
0.77353346 -0.025100946 0.10680132 15394264
0.78599989 -0.024854334 0.10289316 14210503
0.79240006 -0.023857217 0.10013545 11711142
0.76850003 -0.018640742 0.10970871 15263194
0.77528572 -0.016081817 0.1074336 15000790
0.7856667 -0.014213156 0.1047972 14474962
0.79359996 -0.014602083 0.10121343 11185057
0.778 -0.007942725 0.10924359 14540497
0.78613335 -0.0055101914 0.10743643 15330014
0.78860009 0.0017326248 0.10814705 14079177
0.7941364 0.0052429652 0.1057555 11579558
0.79393107 -0.085369766 0.11442015 12105390
0.78862506 -0.072899893 0.11765789 14604237
0.79123825 -0.075866021 0.11383428 12631219
0.78603131 -0.064672209 0.11548248 14669773
0.79050004 -0.0672905 0.11099879 11709860
0.77640915 -0.053370591 0.1158746 12696754
0.78377777 -0.057034474 0.11209001 13617598
0.76677781 -0.042036656 0.11683861 13618113
0.7725001 -0.045867726 0.11389427 12828597
0.7625832 -0.034568474 0.11510633 14933974
0.76269996 -0.024747605 0.11512508 15263195
0.76660877 -0.016679481 0.11567773 14934744
0.7713846 -0.012112331 0.11317374 14737108
0.77396566 -0.0053071165 0.11516985 14276815
0.78200006 -0.0015773715 0.11071825 14935256
0.77650011 0.0027539248 0.11698364 14013131
0.7847392 0.0059275986 0.11321802 14606036
0.78676188 0.014553563 0.11660862 14277072
0.79133344 0.016107358 0.11214402 13816521
0.78845459 0.023412319 0.11842949 13685191
0.79320002 0.025436264 0.11352416 12632505
0.78870004 -0.092801392 0.12791672 14538446
0.79125017 -0.095603228 0.12391368 13552063
0.78820002 -0.084254727 0.12626608 14275272
0.7902 -0.085578635 0.12131567 14933202
0.787 -0.075353369 0.12483315 14209993
0.79000002 -0.079268485 0.1201756 14472651
0.7824828 -0.065128028 0.12522036 14209480
0.77643329 -0.055072531 0.12453331 12762034
0.78000003 -0.058179155 0.12961036 12893621
0.76541173 -0.042865638 0.12476152 12432812
0.7712 -0.047594279 0.12453824 12104103
0.7605862 -0.034812879 0.12478729 15065560
0.76078117 -0.025521301 0.12546954 15263709
0.76532346 -0.014761604 0.12474378 15066332
0.76900005 -0.0087521207 0.12958278 15197661
0.77203858 -0.0052370881 0.12488016 14737624
0.77637941 0.0044565168 0.12493412 14145230
0.78000003 0.009382627 0.12504537 14013644
0.78257143 0.014716133 0.12512845 14210766
0.7857188 0.02531898 0.12469316 13552836
0.78674078 0.035044532 0.1247904 13224126
0.79000002 0.037243981 0.1201756 13882569
0.78784209 0.044035196 0.12634909 13421248
0.79109091 0.045545794 0.121687 14605778
0.78860003 0.054900888 0.12771562 14013385
0.79128575 0.054769699 0.1227501 13684420
0.78879994 0.064886793 0.12737897 14277070
0.79099995 0.065067299 0.12217791 12303025
0.78900003 0.071675353 0.12802742 13948362
0.79129636 0.075521357 0.12455507 12171696
0.78900003 -0.12165061 0.13849412 13946309
0.7936334 -0.12508976 0.13453004 12894648
0.78870004 -0.11440431 0.13770266 14735825
0.79222733 -0.11515141 0.13298556 13617858
0.78795838 -0.10450464 0.13654079 14735827
0.79049999 -0.10676982 0.13197158 14275274
0.78654838 -0.095317356 0.1351493 14143945
0.78528565 -0.085098878 0.13521455 14144458
0.78503329 -0.075094961 0.13504092 13486528
0.78369707 -0.065128364 0.13523108 13551807
0.7768001 -0.052609034 0.13405016 12629935
0.78170002 -0.057208724 0.13611621 12893363
0.76637506 -0.041690215 0.13385056 12827315
0.77257895 -0.046491623 0.13532683 12235435
0.75900012 -0.032498632 0.13627419 15263453
0.76119053 -0.036582995 0.13420707 14801875
0.75868183 -0.026233502 0.13591646 15395040
0.76020014 -0.023244701 0.13201456 15329247
0.76314282 -0.015057042 0.13471848 15263454
0.76900005 -0.0087521207 0.13498349 15197661
0.77234793 -0.0041485946 0.13486275 15131868
0.77614278 0.0036962987 0.1350034 14737110
0.78079998 0.0093922503 0.13522597 14276559
0.78259265 0.015114973 0.13513018 14211023
0.78388911 0.025028391 0.13484459 13882314
0.7833004 0.035094399 0.13474281 13487299
0.78486109 0.045273237 0.13501054 13487043
0.78751862 0.055359453 0.13495605 13421250
0.78800005 0.064820521 0.13462916 13223871
0.78866655 0.074586861 0.1350849 13421250
0.79000002 0.079163812 0.13188849 13948106
0.78900003 0.081526354 0.13849412 13750215
0.79211551 0.085918576 0.13475721 14276815
0.78900003 -0.14289182 0.1495765 14538701
0.79224145 -0.14510904 0.14519612 13617858
0.78864288 -0.13386047 0.14766207 14802131
0.79162502 -0.13560894 0.14300629 14209994
0.78755546 -0.12477539 0.14513367 14604495
0.79000002 -0.12858592 0.14113551 14144199
0.78641665 -0.11480864 0.14448087 14209995
0.78608 -0.10463861 0.14534208 14604239
0.78568 -0.095388353 0.14527029 14209738
0.78589982 -0.085295491 0.14531115 14538961
0.78655988 -0.075240046 0.14543299 14407374
0.78609979 -0.065077558 0.14534827 12762034
0.77824998 -0.051216945 0.14389533 12893107
0.78231573 -0.055753104 0.14522423 12827571
0.76677781 -0.041637383 0.14536288 13683137
0.77336848 -0.046159554 0.14480264 12432814
0.75805891 -0.033369262 0.14485812 15000282
0.76115388 -0.03785928 0.14484404 14275532
0.75755554 -0.025467962 0.14450124 15395040
0.759 -0.018588573 0.14548832 15263454
0.76226914 -0.013474331 0.1447117 15066076
0.76790011 -0.0080197379 0.14539497 15065821
0.77184212 -0.0038367875 0.1448011 15000283
0.77603334 0.0046175262 0.14511846 14868441
0.78000003 0.009382627 0.14239232 14671317
0.77900004 0.011194251 0.14950438 14736856
0.78250015 0.014840709 0.1448907 14408145
0.78473336 0.025055869 0.14509426 14144973
0.78531998 0.035185177 0.14520383 13816008
0.78627586 0.045194332 0.14525397 13816008
0.7877931 0.055583041 0.14521444 13881801
0.7883333 0.06484849 0.14483705 13881800
0.78866649 0.075030632 0.14489779 13750214
0.78900003 0.082603805 0.14557452 13619399
0.7905556 0.087137491 0.14483258 13618888
0.78888893 -0.15261891 0.15673715 14670803
0.79094738 -0.15664573 0.15384097 12170671
0.78784007 -0.14544986 0.15488774 14670545
0.78663337 -0.1350984 0.15465035 14801874
0.78572005 -0.1248247 0.1544733 14868180
0.78586668 -0.11472702 0.15450265 14933717
0.78696001 -0.1047551 0.15471783 15065303
0.7874667 -0.094683506 0.15481763 14802388
0.78776002 -0.084575742 0.15487482 14736082
0.78800005 -0.075378366 0.15492111 14538446
0.78766668 -0.065206438 0.15485619 12959414
0.7775715 -0.050977293 0.15598705 12762292
0.78361905 -0.055833057 0.15475853 12827828
0.75900006 -0.040621296 0.15899226 14210253
0.76392859 -0.042420946 0.15491197 13683652
0.77326673 -0.047180422 0.15455638 12498863
0.7574445 -0.034826305 0.15541418 14604754
0.76033336 -0.038912702 0.15304093 14012104
0.75808841 -0.025745662 0.1550432 15197661
0.76000005 -0.021103906 0.15831216 15263454
0.75900006 -0.018707028 0.15158878 15131614
0.76135701 -0.014326302 0.15515707 15065820
0.76685715 -0.0074438513 0.15550962 14802904
0.77157152 -0.0029736552 0.15452886 14737111
0.77531439 0.0046647605 0.15501855 14868697
0.77900004 0.011194251 0.15497532 14737111
0.78213054 0.015938373 0.15488146 14539733
0.78561294 0.024937488 0.15463082 14078925
0.78744006 0.035280533 0.15481247 14013132
0.78796005 0.04452651 0.15491341 14013389
0.78800005 0.054674551 0.15492107 14013902
0.78859991 0.064870909 0.15503848 14144975
0.78899974 0.0749024 0.1549903 14210511
0.79000002 0.079780273 0.15901309 14276305
0.78900003 0.081988119 0.15280886 14210766
0.79080951 0.086034723 0.15591565 13158080
0.79376 0.0950289 0.15456825 11382439
0.7925927 -0.16509265 0.16468744 10328727
0.78845829 -0.15386949 0.16516329 12499381
0.79000002 -0.15879287 0.1645613 9933713
0.78693336 -0.145283 0.16484457 14933718
0.78672218 -0.13511091 0.16480155 15196119
0.78730011 -0.12507497 0.16492267 15393755
0.78700006 -0.11489318 0.16485924 15393755
0.78784621 -0.10487273 0.16496426 15262170
0.78800005 -0.094747946 0.16506705 15065305
0.78829992 -0.084633008 0.16513003 14868181
0.7889998 -0.075816065 0.16483186 14143687
0.79000002 -0.070946157 0.16826011 13485499
0.78856659 -0.064788498 0.16438644 13091001
0.79000002 -0.06817206 0.16826011 13156793
0.77554548 -0.051576372 0.16468368 12630451
0.7843529 -0.056672748 0.16521858 12630194
0.75750005 -0.041251518 0.16576934 14012103
0.76366669 -0.045046497 0.16443467 13025465
0.77116662 -0.048493709 0.16514741 12630451
0.75309998 -0.035019048 0.16480185 14473426
0.75614291 -0.02554138 0.16534233 15000285
0.76000005 -0.021103906 0.16009133 15066075
0.75900006 -0.018855099 0.16743222 15198177
0.76112491 -0.014394693 0.16439171 15066333
0.76615 -0.0065631382 0.16550604 14934491
0.77089995 -0.0022762497 0.16437115 14934234
0.77471882 0.0047912039 0.16500407 14934234
0.77900004 0.011194251 0.16500543 14868696
0.78290004 0.015835999 0.16491593 14605524
0.78651434 0.02524486 0.16488808 14144974
0.78780007 0.03529679 0.1650245 14013645
0.78782362 0.04516859 0.16524653 14211025
0.78721887 0.055195916 0.1646719 14145231
0.78770006 0.064796858 0.16500375 14276561
0.78874058 0.073704325 0.164914 14210511
0.79028571 0.079280727 0.16541442 14276304
0.79358345 0.085566677 0.16515575 12895421
0.79275006 -0.16471852 0.17500906 10723740
0.78888893 -0.15261891 0.17376935 10525593
0.79023534 -0.15655547 0.17625469 10065042
0.7885384 -0.14500915 0.17540511 15196635
0.79000002 -0.14954583 0.17935653 9275526
0.78814286 -0.13502584 0.1750478 15591135
0.78859985 -0.12528118 0.17534786 15525342
0.78859252 -0.11543403 0.17493579 15393757
0.79000002 -0.11255776 0.17935653 15262171
0.78879988 -0.10500018 0.17446829 15262171
0.79000002 -0.10516014 0.17935653 15262171
0.78868949 -0.094671838 0.17524023 15196635
0.79000002 -0.099611931 0.17935653 15262171
0.78879982 -0.0846873 0.17539169 14868182
0.78900003 -0.07847549 0.17474273 14078409
0.79000014 -0.073054478 0.17521387 13551549
0.78900003 -0.061005365 0.17481969 13485757
0.7901364 -0.065661818 0.17509972 13288378
0.77490908 -0.051369287 0.17461178 12564146
0.7852667 -0.056738343 0.17521644 13024694
0.75763631 -0.041517284 0.17507097 13947081
0.76272732 -0.045205936 0.1754355 13288381
0.77000004 -0.048420347 0.17481586 12630195
0.74795455 -0.033663221 0.17450401 14473684
0.75150001 -0.038021684 0.17413284 14078925
0.74800003 -0.027190382 0.1762405 14868442
0.75222725 -0.023685055 0.17349824 14934235
0.75700003 -0.015344973 0.17520043 15131614
0.76000005 -0.011021922 0.17135942 14868955
0.75900006 -0.0086383093 0.17764901 15197661
0.76340753 -0.004841744 0.17490314 15197663
0.77000004 -0.0015531663 0.17121071 15065821
0.77455878 0.0047932258 0.1749426 15131614
0.78348154 0.014864687 0.17495495 14737111
0.78690016 0.025124459 0.17496869 14210766
0.78776008 0.035295054 0.1751602 14013646
0.78803855 0.044743601 0.17508022 14145232
0.78813791 0.054843232 0.17537296 14145489
0.78835988 0.064850606 0.17529483 14145489
0.78885704 0.072542146 0.17434867 14145746
0.79072219 0.077592187 0.17602447 14145489
0.79386204 -0.17431144 0.1847178 11513770
0.79211098 -0.1649866 0.18498673 11316134
0.79187989 -0.15546343 0.18534741 10328471
0.78900003 -0.14114738 0.18364455 15262686
0.79071438 -0.14659761 0.18551371 12236467
0.7889998 -0.13458005 0.1846707 15525601
0.7889998 -0.12534474 0.1846707 15591137
0.78900003 -0.11795647 0.18097657 15459550
0.79029649 -0.11506575 0.18538588 15393501
0.79092008 -0.10528296 0.18512166 15196378
0.78900003 -0.092328474 0.18213099 15131354
0.7901364 -0.095930219 0.18586193 15130842
0.78899992 -0.084824771 0.18305452 14933717
0.79000002 -0.084611207 0.18778157 14802133
0.78900003 -0.079168148 0.18097657 14143688
0.79000026 -0.074485533 0.18503232 13354171
0.78871429 -0.062258743 0.18565826 13419964
0.79000002 -0.066630885 0.18413417 13222584
0.77460003 -0.05185594 0.18564725 12564401
0.78525007 -0.056965832 0.18470921 13485244
0.74900001 -0.040086098 0.18933581 13881801
0.75505561 -0.042281445 0.18507019 13815239
0.76318187 -0.04685748 0.18463419 12959416
0.77000004 -0.048420347 0.18112491 12761782
0.74726659 -0.034746483 0.18452369 14341840
0.74727756 -0.025122667 0.18452615 14868441
0.74885714 -0.018540422 0.18629383 15131614
0.75364518 -0.013863686 0.18469955 15065821
0.75818175 -0.0078217713 0.18584622 15000027
0.76250005 -0.0034181355 0.18481158 15066076
0.76825005 0.0002488507 0.18610667 15131613
0.77377433 0.0052843569 0.18490207 15131868
0.778 0.0122213 0.18755834 15263454
0.78343481 0.015729122 0.18432336 14868696
0.78750014 0.025144983 0.18524133 14277073
0.78800005 0.035304971 0.185359 14145743
0.78883982 0.044576798 0.18463346 14145489
0.78899986 0.053204715 0.18354195 14145489
0.79000002 0.05712508 0.18660004 14145489
0.78900003 0.063055724 0.18143834 14079696
0.79000002 0.065337308 0.18552125 14145489
0.79107708 0.074549899 0.1850152 13948110
0.79374981 -0.15523472 0.19487585 10789534
0.78900003 -0.14012124 0.19482954 14473428
0.79080009 -0.14533062 0.19523694 10459799
0.78899974 -0.13458005 0.19482952 15394272
0.78899974 -0.12547213 0.19467032 15460065
0.79000002 -0.12180479 0.19969998 16052457
0.78900003 -0.11980354 0.19390601 15328734
0.79008609 -0.11521181 0.1951236 15262685
0.79100019 -0.10529316 0.19532302 15196634
0.79036146 -0.095033392 0.19516584 15196377
0.79000026 -0.084816694 0.19507647 14604240
0.78900003 -0.071779892 0.19852367 13024694
0.79000032 -0.074953191 0.19471221 13091257
0.78837043 -0.064274356 0.19518614 13288379
0.79000002 -0.06817206 0.19353528 13222842
0.76800007 -0.050092477 0.19233926 12892856
0.77480006 -0.054047227 0.19524884 12762037
0.782875 -0.057936225 0.19423226 13354172
0.74900001 -0.040086098 0.19371936 14013387
0.75463164 -0.04373984 0.19484521 13486787
0.76200008 -0.048514236 0.19559459 12762295
0.74706656 -0.034736477 0.19496879 14276559
0.74694431 -0.025113024 0.19493599 14737110
0.74783987 -0.015862748 0.1961142 15065820
0.75130773 -0.011796311 0.1932985 15000028
0.75603843 -0.0056725685 0.19560258 15197407
0.76083332 -0.0021281245 0.19262284 15131614
0.75900006 0.00024585446 0.198971 15591652
0.76461899 0.0025532427 0.19566397 15328992
0.77250004 0.0072851162 0.19416791 15065820
0.77580774 0.014295787 0.19548059 15197662
0.78200006 0.017828733 0.19181861 14672087
0.78560609 0.024839347 0.19540788 14342867
0.78800005 0.035304971 0.19550499 14079953
0.7889331 0.044581633 0.19481276 14211538
0.78900003 0.050818928 0.19321334 14013647
0.79000026 0.055936165 0.19553879 14145233
0.79006696 0.064990833 0.19509323 14145489
0.79200006 0.074280612 0.19485793 14211284
0.79323679 0.10493063 0.19508642 11382441
0.78900003 -0.14012124 0.20129426 9145223
0.79107159 -0.14505528 0.20506413 10132116
0.78900003 -0.13665798 0.20291045 13618889
0.79000002 -0.13377151 0.20622724 14078926
0.79000014 -0.12550357 0.20524821 15591391
0.79000026 -0.11533184 0.20524819 15459805
0.79048014 -0.1052232 0.20537226 15262170
0.79016691 -0.095009297 0.20529106 15196376
0.78899992 -0.082985409 0.20548092 13814466
0.79000002 -0.087405868 0.20450845 15196120
0.78899986 -0.075668454 0.2057661 13156793
0.79000002 -0.074953206 0.20278233 12958901
0.78778118 -0.06498979 0.20501539 13156537
0.76900005 -0.05195795 0.20789334 12761782
0.77431589 -0.054899994 0.20489539 12761780
0.78033334 -0.058204014 0.20273595 13288379
0.74849999 -0.040059339 0.20585464 14013387
0.75439131 -0.044068161 0.20505629 13684166
0.76200008 -0.049108073 0.20391846 12959161
0.74622577 -0.034867961 0.20536919 14144717
0.74530572 -0.025058027 0.20497516 14539475
0.74633342 -0.014606414 0.20525789 15263199
0.74822229 -0.0077366065 0.20645884 15394786
0.75300008 -0.0039665624 0.20436791 15460579
0.75786668 0.0019029281 0.20600533 15394529
0.76327282 0.0066692899 0.20430937 15328480
0.77000004 0.0092623364 0.20005204 15131355
0.76775002 0.011032589 0.20755218 15065308
0.77369237 0.015094378 0.20463133 15131357
0.77833343 0.020295134 0.20494868 15000283
0.78432161 0.025901495 0.2050809 14473939
0.78812003 0.03531063 0.20476033 14342353
0.78888881 0.043553185 0.20424162 14342354
0.79000002 0.047283601 0.20709762 14342098
0.79090017 0.054877922 0.20548324 14342354
0.79176003 0.065130755 0.20570782 14145489
0.7934801 0.074561961 0.20466758 13421767
0.79077429 0.10469962 0.20527133 11382440
0.79362506 -0.14450651 0.21532728 10657947
0.79084015 -0.13489547 0.21472412 11315621
0.79004014 -0.12551011 0.21450596 15196891
0.78900003 -0.11395451 0.21853353 14999253
0.79000014 -0.11594832 0.21372463 15262169
0.78900003 -0.10502703 0.21884139 14998997
0.79000002 -0.10516013 0.21357051 15064790
0.7889998 -0.094448395 0.21707825 15130583
0.79000002 -0.096055388 0.212219 15196376
0.78899974 -0.084709339 0.21514724 14012103
0.78899974 -0.075474024 0.21514723 13156793
0.78722852 -0.065256394 0.21510851 13156536
0.76525003 -0.051929314 0.21538036 12959415
0.7745294 -0.056068506 0.21509025 12564400
0.74700004 -0.042804856 0.21573016 14078926
0.75456256 -0.046681426 0.21469569 13683910
0.76100004 -0.049635909 0.21285489 13091258
0.74424994 -0.035477653 0.21513826 14144719
0.74347222 -0.024995547 0.2149139 13947340
0.7446112 -0.014573615 0.21524327 15000283
0.74672431 -0.0053620348 0.21527925 15328993
0.75033337 -0.0020987513 0.21133666 15394786
0.74799997 0.0011184172 0.21797529 15394786
0.7549355 0.0043567251 0.21500383 15329250
0.76083332 0.0085586235 0.21221523 15132128
0.76460004 0.012303131 0.21546572 14868699
0.77337503 0.016773708 0.21450505 14868699
0.77675003 0.020709176 0.21589664 15131614
0.78480774 0.026336752 0.21513185 14802393
0.78869218 0.034839954 0.21456644 14408147
0.79000002 0.039093386 0.21726932 14277075
0.78900003 0.041506648 0.21114527 14407891
0.79063642 0.045099374 0.21508999 14342355
0.79266661 0.055000924 0.21522184 14210769
0.79215395 -0.13497889 0.22456804 9802639
0.78900003 -0.12165061 0.22438256 14934233
0.79011559 -0.12609139 0.22470032 13881291
0.78899974 -0.11518586 0.22530606 14999768
0.7889998 -0.10502702 0.22530605 15064791
0.78889972 -0.094856754 0.22527733 15064790
0.78851992 -0.084658362 0.2251679 13485757
0.78859985 -0.075435758 0.22519046 13091000
0.77850008 -0.061712235 0.22868583 13091000
0.78662962 -0.065977447 0.22503527 13091000
0.75766677 -0.051488344 0.22581667 13420482
0.76354545 -0.053867217 0.22469538 12696246
0.77400011 -0.058097444 0.22427875 12564657
0.74609095 -0.044300023 0.22480288 14210512
0.75362498 -0.048935406 0.22379713 13947340
0.74381816 -0.035219602 0.22506897 14144719
0.74294454 -0.02497855 0.22520126 13618375
0.74330556 -0.014549132 0.22530802 14210768
0.74426675 -0.0050430638 0.22553994 14868955
0.74691993 0.003742419 0.22559743 15066591
0.75241667 0.0078783678 0.22336918 15329763
0.75741673 0.011772125 0.22574021 15132127
0.76343751 0.015442546 0.22515246 14802906
0.77142859 0.017793803 0.22312438 14605270
0.77573687 0.022334468 0.22543445 15065821
0.78411776 0.027792349 0.22466555 14934235
0.78815007 0.034114137 0.22552314 14671063
0.79000002 0.038631033 0.22374225 14473941
0.79225004 0.044573184 0.22497487 14277075
0.79158336 -0.12560354 0.235157 11381414
0.7889998 -0.11410171 0.23397924 14868440
0.79000002 -0.11889858 0.23668805 14868697
0.7889998 -0.10502703 0.23454146 14933976
0.78883308 -0.094848961 0.23449235 14670548
0.7880401 -0.084606454 0.23425625 13222586
0.78832 -0.075408407 0.23434021 13025206
0.77633333 -0.061540481 0.23531801 13090743
0.78569567 -0.066927128 0.23515509 13090999
0.75628579 -0.052113231 0.23530738 13683911
0.7644546 -0.056046627 0.2357011 12565172
0.77287507 -0.059006382 0.23381992 12498606
0.74692309 -0.044685248 0.23541768 14407634
0.75100005 -0.048983663 0.23379119 14144719
0.74518204 -0.035759933 0.23499693 14276305
0.74413335 -0.025018936 0.23514095 13355203
0.7439667 -0.014563147 0.23508759 13487045
0.74352014 -0.0049802847 0.23494548 14145233
0.74505562 0.0046049943 0.23455749 14803162
0.74771434 0.012746244 0.23727037 14934492
0.75527287 0.015278238 0.23471881 14803163
0.7626667 0.018698167 0.23365273 14540246
0.76500005 0.021288283 0.23634858 14276817
0.77450007 0.024404006 0.23500758 14934747
0.78244448 0.028951466 0.23442361 15065820
0.78741384 0.035409719 0.23514859 14868186
0.78900003 0.043430675 0.23731199 14671063
0.79110521 0.045485828 0.23341033 14408148
0.78900003 0.050126277 0.23823553 14540247
0.79240012 0.055113416 0.23448513 14145490
0.79352003 -0.1242089 0.24517483 10065555
0.78900003 -0.11149175 0.24008258 14868183
0.79057717 -0.11449223 0.24519014 14737112
0.78899986 -0.10391879 0.24359199 14802390
0.79000002 -0.10737942 0.24722967 14737110
0.78899974 -0.094868183 0.24470027 14275278
0.78899974 -0.084709339 0.24470033 13025207
0.78899974 -0.075474024 0.24470027 12893621
0.76425004 -0.060582627 0.24775173 12301486
0.77445453 -0.062876612 0.24570765 12893623
0.78538895 -0.067371234 0.24470027 13025207
0.74787509 -0.051187575 0.24573186 14407890
0.75374997 -0.054902505 0.24523368 13749703
0.76200002 -0.058026966 0.24286377 12433328
0.77150005 -0.059351247 0.24107715 12630451
0.74641383 -0.045070402 0.24531966 14539476
0.74547249 -0.035536047 0.24516217 14538963
0.74433345 -0.025026284 0.24478756 13552580
0.7439999 -0.014563603 0.24467765 13158079
0.74326676 -0.0049799462 0.2444374 13552581
0.7437222 0.0045949388 0.24458581 14210512
0.74576467 0.014829001 0.24525566 14736856
0.75275004 0.019189104 0.24138467 14736856
0.75688893 0.022099875 0.24566348 14407891
0.76411116 0.024896089 0.24502482 14868441
0.77427274 0.02810083 0.24416685 15132124
0.78100002 0.029506342 0.24130495 15263454
0.77750009 0.032409631 0.24811046 15132638
0.78477782 0.035504907 0.24478102 15132125
0.78823322 0.04454286 0.24446011 14934490
0.7888844 0.053315796 0.24516137 14540246
0.79000002 0.058512129 0.24371581 14211282
0.79142863 0.064906821 0.24512114 13487559
0.79211545 -0.11478689 0.25529602 12565687
0.79028016 -0.10519844 0.25527298 14737110
0.78899992 -0.092590138 0.25498226 13617088
0.79000002 -0.097269349 0.2550588 14275531
0.7889998 -0.084709339 0.25485909 12959414
0.78778559 -0.075032547 0.25512043 12827828
0.75900006 -0.06016646 0.25849491 13025725
0.76249999 -0.061517261 0.25432795 12236208
0.77406257 -0.066461988 0.2556926 12762549
0.78380001 -0.069106266 0.2520754 12893621
0.74825001 -0.051578596 0.25527158 14802390
0.75300002 -0.056072012 0.25556535 14341839
0.74673074 -0.045344491 0.25498822 14868181
0.74552959 -0.035333376 0.25539523 14802389
0.74494481 -0.025045857 0.25545189 14342095
0.74433333 -0.014571494 0.25524241 13881801
0.7439 -0.0049837204 0.25509313 13816265
0.74289471 0.0047694608 0.25506535 13684679
0.74312502 0.014944998 0.25512594 14013132
0.74675 0.021657227 0.25650322 14210512
0.75557148 0.023874477 0.25479755 14539477
0.76375008 0.027518108 0.25474688 14868442
0.77050006 0.029109649 0.25158837 15592678
0.77500004 0.032710548 0.25496742 15066077
0.7816667 0.037767228 0.25523242 15066333
0.78620011 0.044430848 0.25487298 15066076
0.78866655 0.053645018 0.25475109 14868698
0.79000002 0.059128597 0.25518212 14737369
0.79216009 0.065165535 0.2551392 12895423
0.79073089 -0.10511724 0.26488793 14670807
0.7889998 -0.093376324 0.26501793 13222843
0.79000002 -0.09887217 0.26535383 14144205
0.78849995 -0.084656984 0.26484951 12827828
0.77625006 -0.071075276 0.26663616 12762036
0.78600007 -0.076001622 0.26441061 12762292
0.7573334 -0.061807793 0.26550877 14539218
0.76371431 -0.064757667 0.26469356 12630964
0.7727778 -0.067892291 0.26408762 12893879
0.74602944 -0.053953335 0.26542491 15196889
0.75166672 -0.058999103 0.2636205 15197147
0.74451435 -0.045075394 0.26488423 15328732
0.74394751 -0.035646092 0.26523378 15328732
0.73866671 -0.023682812 0.26943851 14473423
0.74294269 -0.025103677 0.26507163 14736595
0.73661906 -0.013396377 0.2675792 14210508
0.74237508 -0.01511222 0.26340184 14407888
0.73517251 -0.0048075654 0.26600993 14408145
0.7413637 -0.0052835969 0.26140162 14605780
0.73533338 0.004541927 0.26505601 14210766
0.74100006 0.0028420654 0.2601707 14343120
0.73667747 0.01392784 0.26543435 14144974
0.74120009 0.018459765 0.26336312 14210764
0.74519992 0.023098851 0.26530504 14210769
0.75422221 0.026927749 0.26559475 14078927
0.76066667 0.028738147 0.26291814 14868442
0.76575005 0.03072283 0.2657119 15066591
0.77475011 0.034035504 0.26510286 15132128
0.7817778 0.037874434 0.26533759 14868955
0.78592312 0.044274531 0.26511613 14671319
0.78857136 0.053528812 0.2646102 14605527
0.79000002 0.058908429 0.26575014 14342611
0.79216009 -0.10545047 0.27479652 12828603
0.78893745 -0.092321329 0.27492383 12960185
0.79007143 -0.097903624 0.27581498 13354688
0.78703701 -0.084297262 0.27489856 12696500
0.77393758 -0.072225764 0.27512875 12761780
0.78300005 -0.07722377 0.27417809 12761780
0.75599998 -0.062505037 0.27477011 12630449
0.76299995 -0.066945106 0.27503732 12564657
0.73800004 -0.05228262 0.2784659 14999510
0.7444644 -0.055350251 0.27433145 14275532
0.73600006 -0.044979498 0.2760092 15328732
0.74062502 -0.046138588 0.27130812 15262939
0.73542851 -0.03505658 0.27542046 15065560
0.74050003 -0.035299134 0.27039629 15262939
0.7339288 -0.02467728 0.27485952 14473424
0.74000001 -0.027477952 0.27021369 14736595
0.72900003 -0.013416681 0.27984983 13881801
0.73212826 -0.014531191 0.2745848 14013130
0.72862506 -0.0042426446 0.27906588 14210766
0.73114818 -0.0050883768 0.27420592 14210510
0.72825009 0.00449801 0.27806863 14473683
0.73100007 0.004514995 0.27324411 14276304
0.72874999 0.011752108 0.27932721 14671577
0.73302639 0.015146829 0.27479634 14671319
0.73800004 0.021316642 0.27777389 14211283
0.74428576 0.024141768 0.27476168 14079440
0.75433332 0.028498871 0.27632508 14737368
0.75900006 0.030452011 0.27715167 14539989
0.76237506 0.031704668 0.27414355 14868698
0.77473336 0.036406882 0.27551705 15197664
0.78133339 0.038664512 0.27250135 15132384
0.78487098 0.044535115 0.27509618 15000541
0.78847057 0.052699577 0.27466652 14474454
0.79046154 0.058191206 0.27540147 14277332
0.78866649 -0.092059337 0.2852155 12697270
0.79033339 -0.097804546 0.28489274 12960187
0.78660727 -0.08465334 0.28480038 12696500
0.77444452 -0.07186836 0.28379813 12696243
0.7827 -0.07743831 0.28470948 12696242
0.75800002 -0.062305886 0.28299779 11972521
0.76444453 -0.065375797 0.28510097 12367278
0.77250004 -0.068470359 0.28841132 13025208
0.73357147 -0.052140992 0.28503382 14604495
0.74325007 -0.055874914 0.28422487 14012103
0.75350004 -0.05973047 0.28484973 11643556
0.72675008 -0.042725198 0.2874881 15262169
0.73133343 -0.046053357 0.28372312 14999767
0.72451353 -0.034148097 0.28645852 14802131
0.73092854 -0.035330489 0.28181168 14999767
0.72448844 -0.024416031 0.28532249 14407630
0.73042858 -0.025169464 0.28064236 14473424
0.72497141 -0.015040044 0.28508136 14012873
0.73000002 -0.018561913 0.28023371 14276046
0.72399986 -0.0055303178 0.2851494 14210509
0.72245836 0.0044619939 0.28493848 14605269
0.72506672 0.013140974 0.28551778 14671321
0.73116666 0.017924791 0.28381774 14474457
0.7339412 0.022171561 0.28548032 13948113
0.74368751 0.026249897 0.28515786 13750989
0.75066668 0.028360343 0.28289375 14211024
0.75766677 0.030990792 0.28612328 14539988
0.76083344 0.03230669 0.28405246 14605525
0.77390915 0.037310489 0.2848995 15131868
0.77850008 0.040346786 0.28518161 15263455
0.784069 0.046082951 0.28484738 15197662
0.78822219 0.053768523 0.28505346 15066334
0.79049999 0.058549751 0.28495282 15197407
0.78900003 -0.090866208 0.29241607 12368305
0.79114813 -0.095575556 0.29561308 11644842
0.78873903 -0.084360607 0.2951569 12564913
0.79000002 -0.088515505 0.29864311 12236461
0.77750003 -0.070733666 0.29209936 12630451
0.78694451 -0.076101691 0.29584953 12630450
0.76275003 -0.062698811 0.29457915 12104106
0.77409095 -0.066803038 0.29583848 12564658
0.78100002 -0.069223747 0.29981166 12564656
0.73290002 -0.051922359 0.29524463 14340810
0.74445462 -0.056481298 0.29481035 12893108
0.75566673 -0.059902221 0.29716203 11117211
0.71888888 -0.042027716 0.29822028 14736595
0.72367746 -0.044858202 0.29441249 14933460
0.73039997 -0.049349912 0.29406488 14998997
0.71875 -0.034020122 0.29634568 14605266
0.72036368 -0.035641484 0.29155806 14867668
0.71885002 -0.02534605 0.29690427 14341839
0.7203334 -0.023599174 0.29192373 14276045
0.71877271 -0.015446675 0.29718575 14078667
0.72050011 -0.015696334 0.29223469 14078666
0.71812123 -0.0052186958 0.29594544 14407632
0.72037506 -0.0079880189 0.29129428 14276044
0.71828574 0.0043166061 0.29519144 14736854
0.72000003 0.0086608864 0.2915647 14868442
0.71876919 0.012011745 0.29701969 14671320
0.72303224 0.01607451 0.29415041 14539478
0.72771436 0.021166427 0.2966333 13750474
0.73311549 0.024930885 0.29456177 13553353
0.74388891 0.029266201 0.29426882 14079952
0.74680007 0.031710804 0.29716834 14145744
0.75539994 0.032962523 0.29493228 14211024
0.76350003 0.035773724 0.29621786 14803159
0.77300006 0.037710186 0.2943837 15066076
0.77670002 0.041164391 0.29652324 15197661
0.78334624 0.046455979 0.29464465 15197405
0.78768194 0.054739472 0.2954191 14803161
0.79016668 0.059141133 0.29346439 13816525
0.79154545 -0.0954303 0.30520645 10328985
0.78899992 -0.082862273 0.30472982 12499120
0.79000002 -0.087590806 0.30511603 12302769
0.78829622 -0.075340644 0.30520999 12564656
0.75750005 -0.060047552 0.30586427 11709862
0.76471436 -0.062927 0.30582982 12367535
0.77437502 -0.066372193 0.30497161 12499120
0.78260005 -0.069365568 0.30592215 12498863
0.71799999 -0.050192952 0.30756176 14670548
0.72366673 -0.050589088 0.30490133 14539218
0.73479998 -0.052058924 0.30270916 14012360
0.745 -0.055571359 0.30342785 12301486
0.75380003 -0.058697045 0.30454317 11117468
0.71731251 -0.044584021 0.30485111 14539475
0.72266674 -0.04882741 0.30109954 14539216
0.71522492 -0.035558458 0.30490404 14408146
0.71482211 -0.025540203 0.30496496 14144719
0.70833337 -0.013036326 0.30839631 13354950
0.71319038 -0.015989622 0.30394158 14012877
0.70864701 -0.0069913948 0.30775216 13947598
0.71215147 -0.0051765051 0.30287808 14407891
0.71300012 0.0044062575 0.30457792 14737114
0.71668583 0.013851323 0.30531833 14474458
0.72060001 0.018452622 0.30260256 14342873
0.72484213 0.022029664 0.3052164 13355976
0.73338896 0.026854806 0.30528337 13750732
0.74100006 0.029729828 0.30266893 14145489
0.74570006 0.032538932 0.30580673 14145489
0.75489998 0.035946451 0.30587095 14145489
0.76327282 0.038909364 0.30453217 14605782
0.76800001 0.04160051 0.30830431 14934490
0.77519238 0.044578359 0.30518699 15000539
0.78210008 0.048407376 0.30279574 15000282
0.78667742 0.055449907 0.30531362 13750474
0.78900003 0.061208654 0.30657688 10198166
0.79166669 0.065666325 0.30467728 10263959
0.791484 -0.095021166 0.31513301 9276039
0.7889998 -0.083665334 0.3150894 12236464
0.79000002 -0.088251308 0.31462723 12038829
0.78753579 -0.075402685 0.31502643 12368048
0.76475006 -0.061071154 0.31416285 12104878
0.7746923 -0.065879405 0.31496519 12236463
0.78066665 -0.069194205 0.31491283 12236462
0.75800002 -0.058312695 0.31316352 11578276
0.76100004 -0.058543485 0.31707525 11841705
0.71577787 -0.044640776 0.31107858 14210513
0.71300006 -0.034823969 0.31098455 13354948
0.71250004 -0.026460323 0.31062737 12960447
0.70900005 -0.016368158 0.31034717 11052197
0.71000004 -0.018884428 0.31078491 10920864
0.70866674 -0.0030876722 0.31130704 10526622
0.71000004 -0.0014321404 0.31078491 14671065
0.71100003 0.0046709576 0.31177771 10855331
0.71570009 0.015066859 0.31269222 13750481
0.71900004 0.020431202 0.31388283 12829379
0.72460002 0.023876494 0.31389433 13158598
0.73242855 0.028285656 0.31410667 13290439
0.7378 0.031328641 0.31604344 13553354
0.74495 0.034513924 0.31491709 13750732
0.75549996 0.038271282 0.31477755 13948110
0.76000005 0.039388001 0.31221068 14079696
0.75900006 0.041113008 0.31801879 13882317
0.76464289 0.042699873 0.31539106 14210768
0.77315003 0.047041304 0.31435078 14868442
0.77762502 0.051679961 0.31626305 14802649
0.78490484 0.056172695 0.31452021 12434359
0.78900003 0.061472528 0.31554833 10066580
0.79168189 0.066137999 0.31502995 10263959
0.79200006 -0.094233163 0.32500035 9079173
0.78899997 -0.082730345 0.32478365 11973036
0.79009092 -0.087348796 0.32583362 9210246
0.7871154 -0.075225398 0.32483765 12170670
0.77655554 -0.063581258 0.32355681 12104877
0.7828182 -0.067720443 0.32616678 12236463
0.77566671 -0.059065461 0.3262147 11710376
0.73200005 0.029368738 0.32041487 12435130
0.74483341 0.033956606 0.32283255 13158596
0.75440001 0.037687074 0.32563102 13290439
0.75800002 0.041058838 0.322036 13750732
0.76462501 0.043882493 0.32507345 13684683
0.77280009 0.048193902 0.3247062 14276562
0.77744454 0.052022409 0.32453325 14802649
0.78529412 0.057032872 0.3248159 10658204
0.78900003 0.061901309 0.32435486 10066580
0.79068422 0.066601299 0.32544848 10197909
0.79275674 0.075044073 0.32518584 10395289
0.78900003 -0.081630893 0.33120438 11183778
0.79119056 -0.085211053 0.33547676 9145223
0.78827995 -0.075259164 0.33479068 11973550
0.79000002 -0.079268485 0.33840528 11316392
0.78521746 -0.065843999 0.33531901 12302514
0.77900004 -0.05992822 0.33186969 12171183
0.7840001 -0.05847751 0.33583668 12499380
0.75800002 0.035735361 0.33002123 12435130
0.76250005 0.036848806 0.33287004 12632509
0.77500004 0.045431983 0.33506185 13289926
0.78350008 0.049776852 0.33837399 13421002
0.78649998 0.05549759 0.33496141 11645101
0.79000002 0.059436832 0.3374806 10066580
0.78900003 0.061208658 0.3305887 10000787
0.79222733 0.065087058 0.33548287 10066580
0.78880006 -0.072500512 0.3430621 12697274
0.79084218 -0.076431513 0.34558782 10855072
0.78790003 -0.065225475 0.3448863 12566201
0.78792858 -0.05600195 0.34648004 12434617
0.78758335 -0.044919316 0.34751096 11776430
0.78509998 -0.034666888 0.34641558 10328216
0.78711116 -0.025948055 0.34740531 9341832
0.79000002 -0.020087549 0.3495017 8355707
0.79050004 -0.017323816 0.34972292 8619136
0.77700001 0.038450077 0.34193146 10329501
0.78620005 0.035221983 0.34782058 9144970
0.77700001 0.040269047 0.34193146 9803157
0.78581816 0.044907756 0.34514654 10987430
0.79033333 0.047744334 0.34903273 9671824
0.78860009 0.052686285 0.34223619 11842227
0.79195011 0.056064058 0.3459172 10132119
0.7923103 -0.07489901 0.35500148 9737618
0.78900003 -0.064391643 0.35090637 12500923
0.79079998 -0.064538777 0.35633704 10263705
0.78900003 -0.055772007 0.3512142 11842994
0.79073679 -0.055083312 0.35645464 10000790
0.7887333 -0.044429239 0.35226527 10001559
0.7906 -0.045644246 0.3575412 9672080
0.78799999 -0.034600291 0.35308483 9211530
0.79016668 -0.035507392 0.35851619 9541008
0.78849995 -0.026162684 0.35287654 8948614
0.79035711 -0.023003338 0.3569293 9146249
0.79272002 -0.035003453 0.36555356 9606544
0.79303324 -0.045227695 0.3749781 9869462
0.79180551 0.15503308 0.38459289 10594465
0.79117262 0.1649695 0.38444382 10660257
0.7919333 0.17452808 0.38465437 10725537
0.79242301 0.16514356 0.39524001 10659745
0.79272002 0.17470035 0.3952449 10660003
0.79244822 0.11540168 0.40514949 10462110
0.79218185 0.12484734 0.40491691 10593696
0.79103708 0.11506686 0.41477361 10527646
0.79009408 0.12487491 0.4146269 10527903
0.7920357 0.13581221 0.41470078 10593696
0.79153854 0.11521289 0.42487305 10462110
0.79137498 0.12484553 0.42437044 10593183
0.79234469 0.13489798 0.42486328 10593183
0.79249996 0.14516422 0.42541268 10593439
0.79144454 0.15496352 0.42517605 10658976
0.79221225 0.16548446 0.42499694 10724768
0.78900003 0.10707739 0.43894973 10462110
0.79205883 0.10479893 0.43450296 10396317
0.78900003 0.11255702 0.43882662 10462110
0.79073107 0.11502516 0.43404871 10462110
0.79179996 0.12444966 0.43463707 10593183
0.79199994 0.13467753 0.43474698 10593182
0.78893334 0.14776169 0.436573 10593181
0.79065001 0.14342384 0.43372744 10593182
0.78873903 0.15511717 0.43604743 10658717
0.79000002 0.15560584 0.43133786 10724511
0.78900003 0.16168889 0.43808776 10658717
0.79018193 0.16531165 0.43425319 10724512
0.79090345 0.17519571 0.43483129 10724512
0.78879994 0.11376008 0.44437778 10461853
0.79000002 0.11782517 0.44276455 10461854
0.79152006 0.1244075 0.44467515 10527646
0.79203326 0.13468164 0.4449639 10461853
0.78866667 0.14721879 0.44381127 10462108
0.79009092 0.14200372 0.4442091 10396316
0.78815001 0.15524168 0.44370475 10593181
0.78900003 0.16187358 0.44418305 10658973
0.79000002 0.16670227 0.44382134 10461595
0.79082781 0.17536853 0.44415891 10593439
