# .PCD v0.7 - Point Cloud Data file format
VERSION 0.7
FIELDS x y z rgb
SIZE 4 4 4 4
TYPE F F F U
COUNT 1 1 1 1
WIDTH 793
HEIGHT 1
VIEWPOINT 0 0 0 1 0 0 0
POINTS 793
DATA ascii
0.78900003 -0.060697515 0.10894111 14472651
0.78653848 -0.053855695 0.10774712 13420732
0.79361117 -0.055789895 0.10317236 11907750
0.77645457 -0.044366803 0.10770264 13617342
0.78575003 -0.045088775 0.10398017 12894388
0.79150003 -0.048846468 0.100947 12039593
0.76740003 -0.03388815 0.10955168 15064532
0.77383339 -0.035077516 0.10684332 14670286
0.78446662 -0.03463893 0.10279989 13749181
0.76620001 -0.024862509 0.10938038 15328473
0.77326673 -0.025091985 0.1067642 15328729
0.78531241 -0.025136158 0.10279552 14012613
0.76800001 -0.018628029 0.10963733 15263194
0.77481252 -0.01572969 0.10754517 15197913
0.78561115 -0.01507074 0.10386983 14013897
0.79150009 -0.013023432 0.10063818 11381408
0.778 -0.007942725 0.10924359 14474706
0.78617644 -0.0055899005 0.10703014 14868950
0.79326665 -0.00481728 0.10222156 11250078
0.78866673 0.0024099811 0.10827938 14343120
0.78850007 -0.071734399 0.11902389 14472908
0.79317248 -0.075301111 0.11431274 13026231
0.78655171 -0.064451031 0.11590017 14604237
0.79025006 -0.066806577 0.11142603 13222842
0.77647626 -0.053418994 0.11612547 12828083
0.78380007 -0.056630511 0.11207316 13485756
0.76820004 -0.041833777 0.11721847 13683651
0.77240008 -0.045536943 0.11416858 12828340
0.76372218 -0.034622792 0.11527809 14933717
0.77100003 -0.039458606 0.1100656 14011587
0.76209998 -0.024729699 0.11503521 15263195
0.76576924 -0.016294036 0.11558966 14803415
0.77129996 -0.011667348 0.113174 14671829
0.7739656 -0.0053067938 0.11517009 14277071
0.78250003 -0.00157838 0.11078963 15066843
0.77639133 0.0039684139 0.11691732 13947850
0.78466666 0.0056655612 0.11221626 14737621
0.77900004 0.011194251 0.11850227 14079950
0.78600013 0.014736951 0.11579993 14473937
0.79133338 0.016621994 0.11173266 12961467
0.7882666 0.024615033 0.1184346 14013385
0.79229999 -0.13514526 0.12516242 12172210
0.792 -0.12489291 0.12511581 12171697
0.79369992 -0.1149412 0.12537983 12105389
0.78866673 -0.092879586 0.12817805 14539216
0.79196006 -0.095558345 0.1241033 13552063
0.78805566 -0.084301382 0.12664263 14275786
0.79133338 -0.08542376 0.12176627 14671055
0.78688002 -0.075052194 0.12514955 14209992
0.79025 -0.077906519 0.12067598 14210249
0.78253335 -0.065151289 0.12514359 14275272
0.77683866 -0.055192426 0.12497889 12696498
0.76673335 -0.042473659 0.12453173 12433582
0.77184623 -0.04700974 0.12505852 12104874
0.75900006 -0.031737134 0.12967452 15920869
0.76103449 -0.034957476 0.12486016 15000023
0.75900006 -0.029960301 0.12967452 15263452
0.76048493 -0.02516265 0.12555696 15263710
0.7648437 -0.014849991 0.12496316 15001052
0.77000004 -0.010566086 0.12073835 14606294
0.7722224 -0.005369693 0.12510277 14671832
0.77554852 0.0049399715 0.12506457 14079694
0.77835304 0.013222739 0.12451391 14211536
0.78115392 0.016994191 0.12558106 14013901
0.78420013 0.025041103 0.12479687 13355970
0.78655171 0.035114232 0.12440645 13289406
0.79000002 0.039093386 0.1201756 14145741
0.78778952 0.044032466 0.12634058 13487299
0.79090905 0.04553574 0.12165935 14343376
0.78857148 0.054186471 0.12786926 13882314
0.79154545 0.055257771 0.12293462 13619141
0.78900003 0.064210132 0.12856615 14276816
0.79209083 0.065410286 0.12369161 13092543
0.78900003 0.071367502 0.12925881 13881804
0.79290015 0.075061962 0.1251879 12369077
0.78900003 -0.12257414 0.13849412 13881285
0.79140002 -0.12550482 0.13468967 12828856
0.78872734 -0.11405557 0.13743876 14538959
0.79064709 -0.11558931 0.13366467 14078665
0.78812486 -0.10452633 0.13657004 14736337
0.79016668 -0.10672427 0.13191618 14341321
0.7870968 -0.095384017 0.13524562 14078408
0.78602839 -0.08517909 0.13534382 14276044
0.7850334 -0.075095825 0.13504286 13420736
0.78309393 -0.06505768 0.13528302 13486271
0.77693754 -0.052496884 0.13444427 12565168
0.78120005 -0.057172131 0.13602938 13025205
0.76545465 -0.041782908 0.13484766 12565425
0.77276474 -0.046894345 0.13500606 12104873
0.75876915 -0.033230782 0.1353731 15328733
0.76085716 -0.037668001 0.13418926 14670545
0.75876933 -0.026124708 0.13530487 15394783
0.76000005 -0.021548698 0.13295892 15329247
0.76291668 -0.014925146 0.13480715 15197918
0.76900005 -0.0087521207 0.13498349 15131868
0.77247846 -0.0041495706 0.13488533 15066076
0.77660006 0.0034554729 0.13457151 14605782
0.78085715 0.0086103687 0.13654308 14539987
0.78288007 0.014917822 0.13559003 14145486
0.78397244 0.025030173 0.13486022 13948364
0.78400016 0.035127398 0.13486464 13290434
0.78617644 0.045077652 0.13523826 13421507
0.78788465 0.055376463 0.13446727 13355457
0.78800005 0.064820521 0.13462915 13223616
0.78839284 0.074741133 0.13495913 13420996
0.79000002 0.078855574 0.13127203 14276818
0.78900003 0.082265176 0.13701646 13355973
0.79168189 0.086440168 0.13424335 14145489
0.78900003 -0.14196829 0.1495765 14406860
0.79258621 -0.14504525 0.14538704 13683651
0.78861547 -0.1338051 0.14779896 14801619
0.79123533 -0.135508 0.14313377 14341068
0.78774077 -0.12480454 0.14516862 14604239
0.79000002 -0.12858593 0.14113553 14209481
0.78666657 -0.1148456 0.14452747 14078665
0.78696007 -0.10475435 0.14550574 14538959
0.78760022 -0.094699383 0.14562477 14078666
0.78780013 -0.084580876 0.1456617 14539217
0.78699994 -0.075283736 0.14551407 14341325
0.78603345 -0.065071575 0.14533554 12565426
0.77787501 -0.051420446 0.14427927 12631220
0.78238893 -0.055918388 0.14527088 12565426
0.76483339 -0.04183108 0.14499171 13223103
0.77268761 -0.046671025 0.14501268 12236463
0.75800008 -0.033978254 0.1449662 14934231
0.76066673 -0.038336702 0.14420591 14276046
0.75811112 -0.025485991 0.14460719 15394783
0.75900006 -0.019299306 0.14744283 15395042
0.76254845 -0.014716782 0.14490646 15066075
0.76900005 -0.0087521216 0.14488482 15000282
0.77218187 -0.0044298898 0.1450723 15066075
0.77633333 0.0035122146 0.14512943 14868696
0.78080004 0.0086618531 0.14454813 14605525
0.78396004 0.014938582 0.14494915 14473939
0.78466672 0.025051091 0.14508145 14079180
0.78519994 0.035180457 0.14517976 13816008
0.78712004 0.044481196 0.14553514 13815752
0.7882778 0.054694798 0.1448271 13816008
0.78866655 0.064875364 0.14489917 13816010
0.78868729 0.074628368 0.14438331 13684168
0.79000002 0.078393221 0.14930372 13947597
0.78900003 0.082142033 0.14311178 13224387
0.79069579 0.086049542 0.14555131 14145489
0.78870004 -0.15299293 0.15690461 14144461
0.79178953 -0.156618 0.15351643 12368052
0.78754163 -0.14524083 0.15498179 14801874
0.79000002 -0.14954583 0.15161547 14735823
0.78670007 -0.13510923 0.15466355 14801618
0.78683996 -0.12500176 0.15469423 14933204
0.78733343 -0.11494163 0.15479222 14999254
0.78803998 -0.10489868 0.15492943 15065561
0.7887665 -0.094839543 0.1550719 14802389
0.78839993 -0.084646225 0.15500009 14670545
0.78796005 -0.07537473 0.15491341 14407374
0.78720015 -0.065167099 0.15476505 12893621
0.77700001 -0.051135123 0.15593874 12827828
0.78400004 -0.056003641 0.15468471 12696499
0.75866669 -0.040603455 0.15803362 13683909
0.76406246 -0.043357037 0.15524405 13289151
0.77300006 -0.047555342 0.15408154 12301999
0.75671434 -0.034934949 0.15521994 14605009
0.76000005 -0.038895644 0.15208504 14078665
0.75650001 -0.02543111 0.15492284 15197660
0.75853336 -0.017629374 0.15646671 15197661
0.76161909 -0.01290993 0.15414663 14934489
0.76692861 -0.0073155728 0.15616179 14934489
0.77200001 -0.0032491712 0.15414663 14802903
0.77626467 0.0045873569 0.15507129 14868696
0.78230011 0.014907629 0.15471502 14539731
0.78499997 0.024813684 0.154833 14144974
0.78592002 0.035212897 0.15451328 13947340
0.78776002 0.044516239 0.15487455 14013133
0.7889331 0.054739702 0.15510483 14078926
0.78899986 0.063774019 0.15460458 14210512
0.79000002 0.067891248 0.15663528 14210512
0.79006696 0.075163506 0.15532762 14144719
0.79169244 0.085656241 0.15543421 13224131
0.7915386 -0.16480796 0.16466683 10197654
0.78817242 -0.15460981 0.16526273 11973296
0.79000002 -0.15879287 0.16086249 9670797
0.78660005 -0.14522034 0.16477624 14867926
0.78724998 -0.13520138 0.16491206 15131097
0.78823334 -0.12522279 0.16511747 15197147
0.78802788 -0.11504412 0.16507304 15197148
0.78806674 -0.10490264 0.16508058 15197148
0.78816676 -0.094768308 0.16510111 14999769
0.78803343 -0.084605701 0.16507381 14933461
0.78800005 -0.075378366 0.16506705 14143687
0.7880556 -0.065237574 0.16507959 13156792
0.77600008 -0.052435003 0.16493636 12630451
0.78483337 -0.057471383 0.16455705 12696242
0.75745463 -0.0413456 0.16535574 13815495
0.76343763 -0.045667976 0.16517176 12959672
0.77100009 -0.048483234 0.16240686 12630708
0.75339997 -0.035033543 0.16487096 14539218
0.7536667 -0.025333704 0.16493048 15131612
0.75788009 -0.015932254 0.16553438 15197662
0.76037508 -0.0111012 0.16306235 15066075
0.76415002 -0.0065449411 0.16561291 15000283
0.77099997 -0.0022762171 0.16439386 14934490
0.77590621 0.0050277389 0.16491683 14934489
0.78250015 0.01477192 0.16504318 14737110
0.78615159 0.02535327 0.16509864 14079439
0.7876001 0.035287902 0.16498445 13948110
0.78853327 0.044560052 0.1651793 14211026
0.78899986 0.053139906 0.16483907 14144976
0.79000002 0.057160649 0.16470355 14144975
0.78899986 0.064389706 0.16722621 14145488
0.79000002 0.065755628 0.16255775 14210512
0.78900003 0.070905745 0.16850889 14079951
0.79017884 0.07550507 0.16440034 14013902
0.79287994 0.085643023 0.16516264 12763580
0.78875005 -0.15323335 0.17284125 10657693
0.79093343 -0.15577298 0.17673019 9803153
0.78876179 -0.14429913 0.17441604 15262685
0.79000002 -0.14654057 0.17866302 14012619
0.78884602 -0.13476638 0.17525981 15525343
0.7889998 -0.12534474 0.17543536 15459550
0.78873324 -0.11514749 0.17537712 15262428
0.78851992 -0.10496331 0.17532994 15196635
0.78853327 -0.09481176 0.17533301 15262428
0.7886399 -0.084670484 0.17535666 14999255
0.7889998 -0.075474016 0.17543535 13683138
0.7889331 -0.065310039 0.17542078 13288122
0.77466679 -0.051587794 0.17421149 12564658
0.78478575 -0.056835361 0.17528358 12893621
0.75709093 -0.041487031 0.17494585 13881032
0.76353848 -0.045681294 0.1748556 13156795
0.77000004 -0.048420351 0.17661846 12630197
0.74871433 -0.033561107 0.17799558 14342352
0.75130445 -0.035317618 0.17385791 14342095
0.74870002 -0.027099635 0.17751624 14802903
0.75153852 -0.024520209 0.17380221 14868442
0.7558158 -0.014881233 0.17484868 15065821
0.75880003 -0.0086360332 0.17582491 15328993
0.76350003 -0.004511002 0.17519794 15197664
0.77000004 -0.0015531663 0.17121071 15132384
0.77489662 0.0037613204 0.17486201 15000541
0.78060001 0.0093898447 0.17539643 14803418
0.78373086 0.014865149 0.1748284 14671318
0.78710002 0.025133345 0.17501402 14210766
0.78847998 0.035327129 0.17532095 14013645
0.7889598 0.044583015 0.17542666 14145489
0.78899974 0.054743938 0.17569923 14145490
0.79000002 0.054813322 0.17072599 14079697
0.7889998 0.064902782 0.17543536 14079697
0.78899997 0.072006874 0.17557746 14145489
0.79028577 0.077431336 0.17457607 14211282
0.79056686 -0.14502852 0.18503831 13091776
0.78888446 -0.13441883 0.18485628 15460319
0.78874058 -0.12550801 0.18501924 15525599
0.78899974 -0.11518586 0.1846707 15393757
0.78900009 -0.10586662 0.18231992 15196378
0.79007149 -0.10450882 0.1867712 15262171
0.78900003 -0.09552785 0.18124045 15262171
0.79021758 -0.094813801 0.18600199 15196378
0.78900003 -0.083272725 0.18241318 14801620
0.79000002 -0.085625812 0.18617624 15064792
0.7889998 -0.075474031 0.1846707 13485500
0.78869689 -0.065039486 0.18510211 13288379
0.77466667 -0.051860288 0.18566331 12630194
0.78525007 -0.056965683 0.18470904 13354430
0.75500005 -0.041982982 0.18524942 13815239
0.76333338 -0.046812862 0.18506241 13090745
0.77000004 -0.048420347 0.18112491 12761780
0.74724132 -0.034625158 0.18466714 14276560
0.75000006 -0.03838386 0.18080978 13881288
0.74719435 -0.025119705 0.18450411 14737625
0.7484445 -0.018057041 0.18666343 15000797
0.75293106 -0.013547291 0.18455108 14934748
0.75800008 -0.0077389008 0.185398 14934749
0.76300007 -0.0033212928 0.18494432 15000541
0.76900005 0.00024909366 0.18719053 14934748
0.77476674 0.0049154395 0.18508647 15197407
0.78000003 0.009382627 0.18165119 14934235
0.77900004 0.011194251 0.18871292 15197407
0.78388888 0.015279872 0.18456046 14868699
0.78800011 0.025029302 0.1852275 14211282
0.7889998 0.035349771 0.18467067 14145489
0.7889998 0.044585094 0.18467066 14145489
0.78899974 0.054743946 0.1846707 14145232
0.78899986 0.064463004 0.18405502 14211025
0.79000002 0.067296803 0.1881412 14211539
0.78900003 0.070443973 0.18282361 13947856
0.79059273 0.07572905 0.18525006 14013905
0.79089302 -0.14396463 0.19496679 11118501
0.78892571 -0.13443086 0.1947089 15263455
0.79000002 -0.13844942 0.19877528 15526115
0.78885698 -0.12512372 0.19512452 15591391
0.7889998 -0.11618635 0.19336726 15459548
0.79000002 -0.11332835 0.19800468 15262169
0.79050028 -0.10522538 0.19520019 15196378
0.79072249 -0.095076233 0.19525415 15196378
0.78900003 -0.081015207 0.19021188 14012104
0.79000026 -0.084944241 0.19523591 14735826
0.78899974 -0.075474024 0.1948296 13222329
0.7878387 -0.065729417 0.19469075 13287865
0.76800001 -0.051171221 0.19521604 12630451
0.77458829 -0.054900452 0.19494884 12959415
0.78200006 -0.057962667 0.19254947 13616831
0.74816674 -0.040041503 0.19525434 14078925
0.75521058 -0.044145878 0.19480959 13552323
0.76200008 -0.048810847 0.19547385 12959416
0.74583352 -0.034680702 0.19464575 14276305
0.74569476 -0.025069477 0.19460852 14671576
0.74734372 -0.015118658 0.19542152 14869212
0.75100005 -0.010656518 0.19230039 14737626
0.74900001 -0.008524497 0.19985634 15198177
0.75540733 -0.0055124797 0.19540352 15066335
0.76120001 -0.0022475538 0.19206253 14934748
0.75900006 0.00024585446 0.198971 15329763
0.76455563 0.0025386005 0.19634411 15198176
0.77359098 0.0065930369 0.19414943 15000541
0.77670598 0.012981219 0.19601403 15066591
0.7821334 0.016855847 0.19380333 14934748
0.78684384 0.025127532 0.19521509 14408148
0.78849995 0.035327137 0.19470517 14276561
0.78899974 0.04458509 0.19482951 14276819
0.78899986 0.051973347 0.19482952 14145232
0.79000002 0.057587437 0.1950765 14079441
0.79010022 0.064993732 0.19510108 14079954
0.79181486 0.074199095 0.19501019 14211541
0.79200006 -0.14457028 0.20535614 10065813
0.79020017 -0.13478537 0.20530076 13947086
0.79000014 -0.12550358 0.20524821 15525855
0.79000026 -0.11533185 0.20524819 15328475
0.78900003 -0.1013329 0.20775899 15393755
0.79000008 -0.10548179 0.20500696 15196633
0.78899986 -0.094868183 0.20673285 15262169
0.79000002 -0.094988428 0.2026282 15327962
0.78900003 -0.084093653 0.20652764 14078152
0.79000002 -0.085385747 0.20382556 14538449
0.7889998 -0.075152792 0.20482777 13025206
0.79000002 -0.079268485 0.20709759 13156793
0.78677791 -0.065922342 0.20522712 13156536
0.76759994 -0.051863354 0.2048208 12696501
0.7750001 -0.056689434 0.20515196 13024952
0.74849999 -0.040936053 0.20498143 14012875
0.755 -0.044693004 0.20508417 13749446
0.76112509 -0.048976872 0.20420569 13025466
0.74550009 -0.03528161 0.2052356 14210254
0.74458355 -0.025033813 0.204777 14539220
0.74588907 -0.01459739 0.20513596 15132127
0.74809092 -0.0075583761 0.20661682 15329506
0.7529524 -0.0036132105 0.20443141 15329506
0.75782353 0.0022299681 0.20596586 15263970
0.76265001 0.006767475 0.20438652 15197921
0.77100003 0.0092743654 0.20031184 14935005
0.76700002 0.01138186 0.20752892 14803162
0.77407706 0.015449708 0.20452093 14934749
0.77800006 0.020894324 0.20728974 14934235
0.78506458 0.025755081 0.2046161 14539477
0.78851992 0.03532939 0.20486346 14342098
0.7889998 0.044585094 0.20498839 14342355
0.78899992 0.052342758 0.20486528 14407891
0.79000002 0.057217553 0.20537145 14276819
0.79012018 0.064995468 0.20527962 14145491
0.79230773 0.074452236 0.20492016 13421769
0.79280007 -0.1445093 0.21525639 10789793
0.79104006 -0.13493013 0.21477807 11315368
0.78900003 -0.12365159 0.21730216 15131355
0.79000002 -0.12642829 0.21322373 15131357
0.78886181 -0.11500691 0.21615987 14999769
0.79000002 -0.11599236 0.2110606 15262941
0.78896278 -0.10481669 0.21564999 14933719
0.79000002 -0.10700955 0.21079642 14933976
0.78899974 -0.094868183 0.2151472 15130584
0.78899974 -0.084709339 0.21514721 13946310
0.78899974 -0.075346641 0.21530648 13090999
0.79000002 -0.079268485 0.21079642 13748930
0.78610015 -0.065696992 0.21539523 13156793
0.76462507 -0.051887084 0.2152054 12828084
0.77470011 -0.056610979 0.21468964 12433070
0.74659997 -0.042871594 0.21564163 14144716
0.75468743 -0.047020108 0.21506247 13749700
0.76075006 -0.0496196 0.21278585 13025208
0.74416667 -0.035473522 0.21511558 14144717
0.74327779 -0.024990015 0.21485819 13947339
0.74447232 -0.014570211 0.21520345 15000027
0.74670011 -0.005116486 0.21514596 15328993
0.75000006 -0.0015128243 0.21065776 15394786
0.74820006 0.00094325689 0.21750765 15328993
0.75506455 0.0045858091 0.21464081 15263713
0.76066667 0.0091500664 0.21187226 15198177
0.76417655 0.012564041 0.2151586 14737626
0.77228576 0.017040441 0.21471925 14934748
0.7766 0.021706672 0.21558176 15065821
0.78399998 0.027112942 0.21470003 14605527
0.78816664 0.035313997 0.21491934 14342612
0.7889998 0.044243041 0.21470255 14342355
0.79000002 0.048340406 0.21819402 14407891
0.78900003 0.050741967 0.21268447 14276562
0.79012513 0.055824202 0.21491505 14276305
0.79104012 0.065072745 0.21477936 14144976
0.79242313 -0.13502473 0.22464493 9802641
0.78900003 -0.12318981 0.22453646 15000028
0.7902 -0.12763213 0.22552626 13092034
0.78826672 -0.11508007 0.22509708 14934233
0.78800005 -0.10489393 0.2250205 14933976
0.78856659 -0.094814561 0.22518182 14933720
0.7889998 -0.084709339 0.22530611 13419966
0.7889998 -0.075474024 0.22530609 13091000
0.78642315 -0.065958612 0.22513424 13091000
0.757375 -0.051616706 0.22646721 13354946
0.76389998 -0.053941272 0.22439584 12630965
0.77442867 -0.058025956 0.22437786 12564914
0.7458182 -0.044442706 0.22471935 14210510
0.75200003 -0.049048893 0.22529338 14012875
0.74399996 -0.035279837 0.22512318 14144973
0.7428056 -0.024976188 0.22515768 13684166
0.74311107 -0.014543861 0.22524887 14342096
0.74480671 -0.0049320152 0.22522682 14868696
0.74740905 0.0027099589 0.22535799 15197406
0.75329417 0.0076127052 0.22402605 15263200
0.75825006 0.011340281 0.22539908 15197407
0.76405263 0.015127372 0.22514409 14934235
0.77160001 0.018313233 0.22394674 14605270
0.77557898 0.022425346 0.22538958 15000028
0.78306246 0.027983444 0.22452503 14868442
0.78769237 0.035152249 0.22514445 14473941
0.78900003 0.041198805 0.22469039 14342868
0.79019058 0.045885965 0.22529446 14211282
0.7916857 0.054799221 0.22501557 14210769
0.79147828 -0.12509629 0.23503812 11579563
0.78887486 -0.11432149 0.23388916 14868183
0.79000002 -0.11847584 0.23705795 14868439
0.7886399 -0.1049793 0.23443574 14933975
0.78869992 -0.094831459 0.23445314 14604754
0.78899986 -0.085412979 0.23436551 13222586
0.79000002 -0.081117891 0.23576337 13024694
0.78900003 -0.073626958 0.23084728 13091000
0.79000008 -0.07573048 0.23516034 13090487
0.77749997 -0.061632965 0.23566914 13025207
0.78658342 -0.066656478 0.23489326 13090744
0.75576931 -0.052155994 0.23554395 13749703
0.76427275 -0.05603328 0.23564512 12499380
0.77262509 -0.058987148 0.23374355 12433328
0.7462858 -0.044935483 0.23519766 14342353
0.75000006 -0.048918441 0.2326048 14210512
0.7450608 -0.035700809 0.23495865 14341841
0.74393344 -0.025012838 0.23507819 13355458
0.74323338 -0.014549571 0.23485664 13487043
0.74341935 -0.0048673693 0.23558554 14276304
0.74527788 0.0046065631 0.23462637 14868698
0.75100005 0.0090337852 0.23027779 15065821
0.7471112 0.012097179 0.23763473 14803419
0.75526094 0.014471315 0.23503955 14803163
0.76216674 0.01794244 0.23369889 14606040
0.76620007 0.021772442 0.23744342 14408661
0.77434778 0.024216641 0.23467621 15000285
0.78177786 0.028926283 0.23422153 15000285
0.78693116 0.03538866 0.23500431 14803162
0.78883338 0.042421538 0.23618402 14671320
0.79021424 0.046239745 0.23384476 14211282
0.79103243 0.055036198 0.23496404 14145232
0.78900003 -0.11130704 0.24396142 14933975
0.79052633 -0.11584819 0.2453201 14802904
0.78899974 -0.10502701 0.24470034 14802388
0.78899974 -0.094868176 0.24470022 14210251
0.78899974 -0.084836721 0.24485949 13091001
0.79000002 -0.081117891 0.24038687 13091000
0.78883982 -0.075089857 0.24542566 12893879
0.79000002 -0.07741908 0.24112663 13025207
0.75800002 -0.060087189 0.24928069 12170672
0.76450002 -0.061051331 0.24693878 12038573
0.77492309 -0.063524805 0.24556357 12762807
0.78549999 -0.067889601 0.24452808 12959671
0.74743748 -0.052251998 0.24580592 14276816
0.75423533 -0.055740308 0.24414197 13354945
0.76249999 -0.058213498 0.24228084 12038574
0.77100003 -0.059312783 0.24092148 11907498
0.74610019 -0.045171261 0.24536797 14605524
0.74591696 -0.035555996 0.24530846 14473681
0.74475014 -0.025040848 0.24492542 13552581
0.74311119 -0.014549192 0.24438459 13158078
0.74110353 -0.0048454413 0.2453092 13486786
0.74273682 0.0044079064 0.24457949 14079181
0.74594116 0.01472991 0.24521023 14671576
0.7536667 0.01906435 0.24197103 14606040
0.75700003 0.021955224 0.24584733 14276561
0.76362503 0.023935236 0.24397509 14671576
0.77453858 0.027871119 0.2436299 15000540
0.778 0.031214315 0.24857278 15395040
0.78514826 0.035115723 0.2448305 15131870
0.78872401 0.044697851 0.24477316 14934235
0.78900003 0.050947201 0.24603422 14671063
0.79029655 0.056102619 0.24465714 14473683
0.79246151 0.065047339 0.24505933 13421253
0.78900003 -0.11056822 0.25301203 14539218
0.79139137 -0.11469243 0.25514928 12434101
0.7889998 -0.10460725 0.25443929 14867669
0.79000002 -0.10824248 0.25826445 14605011
0.78899974 -0.094868183 0.25485909 13880517
0.7889998 -0.084709339 0.25485912 12893621
0.78774077 -0.075152338 0.25486004 12828085
0.75740004 -0.060394991 0.25529224 12762296
0.76409096 -0.06317535 0.25526714 12367792
0.77514285 -0.066634811 0.25323674 12893623
0.78150004 -0.06926807 0.25334832 12828086
0.74795234 -0.053039066 0.25494155 14605267
0.75160003 -0.057822924 0.25632769 14144206
0.74636018 -0.04518766 0.25506413 14802902
0.74600023 -0.035559542 0.25494063 14605522
0.74541199 -0.024857704 0.25535533 14276301
0.74369448 -0.014559345 0.25502452 13881801
0.74219227 -0.0051071947 0.25517777 13881801
0.73869997 0.0062915133 0.2581521 14079181
0.74113309 0.0042313468 0.25402752 13684167
0.73866665 0.012536115 0.25800589 14144974
0.74325001 0.015633456 0.25410587 13882062
0.74657148 0.021714984 0.25713012 14013905
0.75542867 0.023617756 0.25487682 14473940
0.764 0.027078601 0.25475723 14933979
0.77260005 0.029188987 0.25317571 15131868
0.77583337 0.032189038 0.2557489 15065819
0.78447372 0.036698334 0.25436094 15131868
0.78775012 0.04431764 0.25504714 15066332
0.78874987 0.05306546 0.25533178 14868954
0.79009998 0.058149774 0.25410429 14737624
0.79196548 0.065277174 0.25504857 12829628
0.78900003 -0.10225643 0.2604003 14539218
0.79058343 -0.10531651 0.2651653 14670805
0.78899974 -0.094008349 0.26434919 13420220
0.79000002 -0.098555133 0.26812792 14078409
0.78893304 -0.08470241 0.26499513 12762035
0.77700001 -0.070688181 0.26644123 12696244
0.7864815 -0.075647719 0.26447597 12827572
0.75660002 -0.062280238 0.26617283 14407633
0.76355559 -0.065097772 0.26510817 12499636
0.77387506 -0.0681407 0.26332989 12762037
0.74661112 -0.054235663 0.26548636 15197146
0.75199997 -0.059611559 0.26314855 14999514
0.73900002 -0.042145923 0.26984856 15526111
0.74477154 -0.045091629 0.26497558 15328732
0.73816663 -0.035187129 0.26954424 15394527
0.74411905 -0.035470251 0.26474246 15394270
0.73866671 -0.024835765 0.26972684 14473425
0.74339479 -0.02517822 0.26503509 14670804
0.73726666 -0.013226565 0.2684072 14210509
0.74255174 -0.014925072 0.26412818 14408145
0.73591995 -0.0046550045 0.26692557 14408145
0.7414 -0.0054307282 0.26216102 14671317
0.73495227 0.0045379587 0.26492155 14144973
0.73600006 0.014078573 0.26530239 14013901
0.74085724 0.018822644 0.26284483 14079696
0.74472219 0.022811897 0.26525053 14145491
0.7547273 0.026749475 0.26498535 13947855
0.76166672 0.028775925 0.26207614 15131614
0.76612508 0.031187642 0.26584446 15066334
0.77505267 0.034826044 0.26515368 15066077
0.78262502 0.038041927 0.26310268 14868698
0.78573328 0.04458895 0.2649585 14606039
0.7885142 0.054843746 0.26472282 14474453
0.78900003 0.061208658 0.26963562 14671833
0.79053593 0.065030865 0.26520208 11908784
0.79191661 0.075133331 0.26532367 10658717
0.79278135 0.085281104 0.26419646 10987682
0.79232001 -0.10547252 0.27485198 12828346
0.78900009 -0.092433423 0.27366555 12959671
0.79010528 -0.096413083 0.27643868 13223100
0.7889998 -0.084709339 0.27517685 12762036
0.77508336 -0.071423106 0.27485573 12696244
0.78629416 -0.076735601 0.27444816 12762036
0.75590008 -0.062577069 0.2751359 12302001
0.7628001 -0.066542387 0.27514309 12630964
0.77000004 -0.068248771 0.27035281 12697014
0.7374 -0.051895142 0.27720222 14801619
0.74444008 -0.055185646 0.27406272 14341327
0.75000006 -0.059453022 0.27825466 12696760
0.73445004 -0.045156248 0.27531379 15328476
0.74075007 -0.047015261 0.27092066 15328733
0.73330969 -0.034954764 0.27462956 15065304
0.73345238 -0.024659373 0.27468276 14539218
0.72900003 -0.010003476 0.27984983 14013133
0.73272496 -0.014516219 0.27466965 14078923
0.72857147 -0.0041510696 0.27919769 14144719
0.73146451 -0.0050838636 0.27449352 14210254
0.7281251 0.004923596 0.27802077 14473684
0.73130786 0.0042543416 0.27335933 14341840
0.72840011 0.011831941 0.27893686 14802649
0.73286492 0.015220157 0.27460471 14671064
0.73742855 0.021448823 0.27691749 14342356
0.74404341 0.024859257 0.27494308 14079696
0.75316668 0.028162166 0.27295992 14343124
0.75800002 0.030411888 0.27589747 14672089
0.76309103 0.03240617 0.27441821 14935004
0.77433336 0.036870901 0.27440941 15066591
0.77866673 0.040355425 0.27704069 15132384
0.78437501 0.045535948 0.27459443 14868955
0.78857142 0.055023104 0.27458778 14342355
0.79000002 0.058974478 0.27783731 14539991
0.78900003 0.061208658 0.27148265 14277077
0.79078269 0.065131351 0.27539706 10921633
0.79133338 0.075129986 0.27452633 10724510
0.79262972 0.085200593 0.27479711 10856351
0.78900003 -0.090250522 0.28441212 12827828
0.79051745 -0.095212363 0.2849597 12828600
0.7889998 -0.084298886 0.2850278 12762036
0.79000002 -0.088515505 0.28754666 12827830
0.77475005 -0.071165308 0.28403643 12565428
0.7868824 -0.077225782 0.28484103 12696243
0.75825006 -0.06232629 0.28309083 11644070
0.76355565 -0.065299869 0.28436878 12170415
0.77166671 -0.068396494 0.28719872 12564916
0.73471433 -0.052224059 0.28461507 14670033
0.74536365 -0.056390762 0.28486314 13617346
0.75375003 -0.059750285 0.28494334 11709349
0.72722232 -0.042705994 0.2867291 15197147
0.73100001 -0.046341024 0.28366694 15065304
0.71900004 -0.030064557 0.28947654 14407632
0.7242195 -0.034419786 0.28577504 14802389
0.7306 -0.034996368 0.2811476 14933976
0.71900004 -0.026698172 0.28947654 14605011
0.72402513 -0.024086896 0.28555357 14407632
0.7306 -0.025246967 0.28114763 14473425
0.72397542 -0.015142609 0.28567594 14012874
0.73019999 -0.015149114 0.28031051 14013130
0.71900004 -0.0056582741 0.28947654 14407375
0.72309524 -0.0056921742 0.28434312 14210255
0.71900004 0.0044408781 0.28947654 14605268
0.72185737 0.0044578002 0.2838594 14605270
0.72425008 0.013665278 0.28541207 14671320
0.73100007 0.018110458 0.28308815 14408406
0.73459095 0.022833133 0.28527316 13881805
0.74376935 0.027299307 0.28431386 14013647
0.74849999 0.030030737 0.28645882 14277076
0.75300008 0.030566651 0.28200251 14474454
0.76466674 0.034859639 0.28220561 15131870
0.77266669 0.037634 0.28395113 15197663
0.77737504 0.042566143 0.28647742 15131614
0.78304172 0.047002893 0.28409323 15197664
0.78805 0.054126423 0.2853592 14935006
0.79000002 0.058614869 0.2843616 15197921
0.79164296 -0.094528042 0.29463229 12105391
0.78900003 -0.082123443 0.29475567 12499635
0.79000002 -0.086666107 0.2959846 12433842
0.77750003 -0.070733666 0.29209936 12630967
0.78705561 -0.075909436 0.29599306 12499636
0.75800002 -0.060087185 0.29808035 10985626
0.76383334 -0.062936656 0.29351434 12301743
0.77320004 -0.066543944 0.29554978 12367793
0.78000003 -0.069135115 0.29760182 12564404
0.73399997 -0.052077234 0.29437068 14143432
0.74566668 -0.056204114 0.2952598 13024952
0.71885717 -0.041358013 0.29807347 14933975
0.72416133 -0.044396788 0.29433665 14933974
0.73100001 -0.049390454 0.29516351 14670289
0.71848404 -0.034003902 0.29550651 14539474
0.72033334 -0.037427794 0.29141799 14802390
0.71822584 -0.025150251 0.29518244 14341839
0.71819437 -0.015739935 0.29503354 14078666
0.71753663 -0.0057485914 0.2954776 14276303
0.71811116 0.004435909 0.29499954 14737111
0.71866667 0.011898083 0.29629532 14737112
0.72284007 0.016484553 0.29440251 14539733
0.72816676 0.020691684 0.29572079 14276561
0.7333914 0.024504039 0.29489282 13355718
0.74375004 0.029116595 0.29421368 14145233
0.74775004 0.031751141 0.2966733 14145233
0.75550002 0.033851907 0.29585958 14408148
0.76287496 0.036860049 0.29642358 14736856
0.77100003 0.038514148 0.29452753 15131615
0.77621216 0.044418704 0.29510853 15131870
0.78100002 0.049618028 0.291583 15000285
0.78607148 0.055271056 0.2949855 14671577
0.79000002 0.059436832 0.29032081 14606042
0.78900003 0.061208658 0.2982651 9934739
0.79259264 0.065478615 0.29463753 10395545
0.78900003 -0.081015207 0.30472979 12565428
0.79009998 -0.085752606 0.30515498 12368306
0.78849995 -0.07535705 0.30510467 12499379
0.75900006 -0.06016646 0.30469254 11512227
0.76250005 -0.061783548 0.30386189 12235949
0.77490008 -0.065964684 0.30563083 12302000
0.78540003 -0.06961374 0.30518228 12433585
0.71850002 -0.050227903 0.30861789 14276303
0.72150004 -0.050437625 0.30652726 14472655
0.73500007 -0.051381364 0.30538264 13552321
0.7448889 -0.054593943 0.30571187 12565428
0.75300002 -0.057928048 0.30405253 11249055
0.71781486 -0.044082526 0.30536631 14605268
0.7226001 -0.047641862 0.30259264 14605009
0.73000002 -0.049322888 0.30074102 14605009
0.71512818 -0.035441324 0.30491099 14473683
0.71451068 -0.025606576 0.30509901 14144718
0.70900005 -0.012218705 0.30868742 13618377
0.71269566 -0.015766187 0.30419302 13947596
0.70862502 -0.0076497444 0.3081089 13684170
0.71169448 -0.0050899517 0.30383867 14473940
0.71370208 0.004321787 0.30475411 14737113
0.71687871 0.013611838 0.30550244 14540248
0.72100008 0.01816779 0.30315006 14408662
0.72576934 0.021410137 0.30539444 13356230
0.73426324 0.025847344 0.30493397 13553609
0.7438333 0.029843504 0.30556837 14079698
0.74700004 0.03242043 0.30512053 14145491
0.75590914 0.035801936 0.3051416 14211283
0.76336366 0.039076671 0.30440301 14539991
0.76800007 0.04160051 0.30740497 14934493
0.77528578 0.045891028 0.30474404 14934493
0.78539288 0.055289894 0.30504015 13750475
0.78900003 0.061208658 0.30472979 9935251
0.79227275 0.066102862 0.30506584 10133143
0.78899997 -0.082466476 0.31554836 12104877
0.79018748 -0.086802706 0.31478399 11973549
0.78824991 -0.075601861 0.31491765 12302256
0.76499999 -0.061091557 0.31381404 12104879
0.77450001 -0.065025836 0.31453675 12236463
0.78400004 -0.069032863 0.3160983 12368306
0.74533343 -0.05384858 0.31403813 12302256
0.75600004 -0.057719894 0.31189248 11315361
0.76100004 -0.058543485 0.31707525 12170670
0.71600008 -0.04409577 0.31098881 14144977
0.71330011 -0.035339545 0.3112272 12960447
0.71200007 -0.026997751 0.31110397 12565435
0.70900005 -0.012218705 0.31034717 12236982
0.71100003 -0.019743258 0.31122261 10987174
0.70900005 -0.0069627292 0.31034717 13486792
0.71000004 -0.0022632019 0.31161597 11711152
0.71136367 0.0046234503 0.31183553 10855844
0.71595001 0.014989805 0.31280142 13685199
0.72414291 0.022398988 0.31382424 13224646
0.7334286 0.027468517 0.31490293 13290440
0.74150002 0.029749889 0.31155369 13882319
0.74535 0.033572841 0.31561011 13684940
0.75521433 0.037627172 0.31453401 13948112
0.76050007 0.039413914 0.31241548 14013907
0.75850004 0.041085921 0.31869653 13816524
0.76418751 0.042961162 0.31548938 14145234
0.77289474 0.047106571 0.3140277 14737114
0.77725005 0.051654965 0.31610942 14671834
0.78509098 0.056318071 0.31432763 12237239
0.78900003 0.061208662 0.31488866 10001047
0.792409 0.066115253 0.3153187 10198425
0.78900003 -0.082123443 0.32430869 11907755
0.79046673 -0.086594783 0.32614598 9868174
0.78769237 -0.075209014 0.32472175 12170669
0.77480006 -0.062873177 0.32373109 12039087
0.78436369 -0.068188563 0.32580873 12302000
0.76900005 -0.059158921 0.32220876 11709865
0.77200007 -0.058487251 0.32527301 11841964
0.73300004 0.028552046 0.32085258 12633027
0.74466676 0.033758089 0.32227281 12961478
0.75416666 0.038205847 0.32482356 13158598
0.75800002 0.041058838 0.32381108 13487561
0.76375008 0.044356462 0.3241733 13750732
0.77271444 0.048834115 0.3253141 14408663
0.77630001 0.052046724 0.32435888 14737627
0.78482354 0.057106122 0.32462093 10132118
0.78900003 0.061516505 0.32473966 10198168
0.79104555 0.066251658 0.32521528 10066837
0.78900003 -0.081015207 0.3305887 11447206
0.79159093 -0.084906429 0.33521327 9144966
0.78845829 -0.074961707 0.33451566 12105391
0.79000002 -0.078652017 0.33778882 11578281
0.778 -0.062584423 0.33053184 12105906
0.78595251 -0.066425405 0.33553329 12237235
0.77700007 -0.058865458 0.33192891 11908527
0.78300005 -0.058402922 0.3372398 12040113
0.75800002 0.034848116 0.33090848 12567234
0.76300001 0.039543476 0.33219814 12238268
0.76900005 0.042554803 0.33391035 12632511
0.77411115 0.046765998 0.33421817 13487306
0.78100002 0.049618024 0.33820671 13224136
0.77750003 0.051215813 0.33214247 14408663
0.78633338 0.056274708 0.33551979 11250600
0.78900003 0.061208654 0.33243576 9934995
0.79210007 0.065439649 0.33550411 10000789
0.78900003 -0.072395578 0.34228674 12697527
0.79100019 -0.07566788 0.34573632 11249571
0.78840744 -0.064822756 0.34476551 12697786
0.79000002 -0.06817206 0.3495017 12565687
0.7882666 -0.056089062 0.34639916 12303286
0.7872501 -0.044900108 0.34736392 11776430
0.78549993 -0.034684554 0.34659183 10394777
0.78733337 -0.025545068 0.34770861 9407628
0.78800005 0.029770805 0.3486169 9145480
0.77500004 0.038351107 0.34105134 9738136
0.78516668 0.035481576 0.3470591 9211531
0.77700007 0.042090356 0.34102082 10988202
0.78550005 0.045612633 0.34537026 10593186
0.79000002 0.048340406 0.3495017 9672341
0.78870004 0.053431232 0.34375691 10527135
0.79075003 0.056563083 0.34659472 9804180
0.78900003 -0.060697515 0.35090637 12500923
0.79070848 -0.064686067 0.35552427 10592926
0.78900003 -0.054130182 0.35193253 11448235
0.79025 -0.055822372 0.35666591 9869203
0.78857881 -0.044828754 0.35276014 9935253
0.79000002 -0.045306701 0.35790804 9672594
0.78815001 -0.034800746 0.35329744 9146250
0.7902 -0.034890674 0.35883957 9606801
0.78853858 -0.026581468 0.35254744 9014406
