# .PCD v0.7 - Point Cloud Data file format
VERSION 0.7
FIELDS x y z rgb
SIZE 4 4 4 4
TYPE F F F U
COUNT 1 1 1 1
WIDTH 783
HEIGHT 1
VIEWPOINT 0 0 0 1 0 0 0
POINTS 783
DATA ascii
0.79456669 -0.11506858 0.10505488 12303538
0.79437053 -0.12468362 0.11518966 12303539
0.79424012 -0.1150199 0.11524354 12237746
0.79441923 0.10517716 0.11508958 11777197
0.79231995 0.11525737 0.11496438 11842989
0.79379994 -0.13540073 0.125397 12434097
0.79255539 -0.12498191 0.12520242 12237489
0.79393333 -0.11497448 0.12541765 12237746
0.79448384 -0.094778463 0.12565276 12303281
0.7942 -0.085267313 0.12545635 12237231
0.79313779 0.12535962 0.12475141 11843247
0.78891677 0.1375393 0.12462787 11974576
0.7904762 0.13313949 0.12474146 11908783
0.78900003 -0.14104477 0.13849412 12302255
0.79231036 -0.14512365 0.13452835 12301996
0.78900003 -0.13458005 0.13849412 12038824
0.79120004 -0.13495553 0.13424775 12434609
0.78900003 -0.12534472 0.13849412 12433070
0.79081821 -0.12512822 0.13401465 11908524
0.78900003 -0.11518588 0.13849412 13289664
0.79095459 -0.11504915 0.13437438 11908526
0.78900003 -0.10423543 0.13796639 12566198
0.79122227 -0.10563198 0.13394272 12369333
0.78850013 -0.094149664 0.13748248 11842475
0.79088235 -0.095367938 0.13315982 12171953
0.78824997 -0.084628806 0.13743778 11777194
0.79030001 -0.084849142 0.13224658 12698293
0.78824997 -0.075402267 0.13743775 11842988
0.79041672 -0.07468386 0.13226599 12697523
0.78829986 -0.065995112 0.13744679 11777708
0.79058331 -0.064057924 0.13275604 12566451
0.78877783 -0.055550467 0.1376342 11449775
0.79175001 -0.054976933 0.13285615 11974316
0.78900003 -0.045657147 0.13823026 12370877
0.79203457 -0.04501114 0.13333105 11776682
0.78900003 -0.035762161 0.13849412 12896970
0.79265392 -0.034856893 0.13377652 11514027
0.79388893 -0.024830755 0.1346969 11448488
0.79443341 0.015133565 0.13479024 11119526
0.79302943 0.025045574 0.1347696 10856096
0.79409379 0.035229102 0.13449647 10592922
0.78900003 0.048279215 0.13849412 11579816
0.7942071 0.044751372 0.13458754 10790301
0.78900003 0.054743942 0.13849412 11909296
0.79356682 0.055059969 0.13371484 10855839
0.78900003 0.065694384 0.13796639 11909556
0.79239142 0.064939804 0.13319695 10856096
0.78900003 0.073522411 0.13818629 11053217
0.79257709 0.075045779 0.1337634 10921888
0.7940802 0.13499255 0.1350044 11908527
0.78900003 -0.16043893 0.1495765 10591386
0.79262972 -0.16482379 0.14510715 11052449
0.78754997 -0.1540627 0.14634874 12104620
0.79079998 -0.15636262 0.14195639 10592411
0.77900004 -0.14381625 0.14950438 12958899
0.78537148 -0.14483465 0.14488202 12630448
0.78534204 -0.13501865 0.14495304 12762032
0.78539401 -0.12488267 0.14481491 12696241
0.78631425 -0.11492439 0.14432693 12499376
0.78629047 -0.10484403 0.14460406 12564914
0.78622586 -0.095277064 0.14435586 12762292
0.78496534 -0.085037008 0.14525992 12498863
0.78448015 -0.075042114 0.14504315 11644583
0.78493744 -0.064747177 0.14478192 12039854
0.78646666 -0.054978453 0.14448895 12302768
0.78686118 -0.044875845 0.14456122 12302768
0.7870667 -0.034752879 0.14459832 12302770
0.7876969 -0.024889443 0.14513488 11973804
0.79000002 -0.021936953 0.14051905 12171956
0.78811997 -0.014505019 0.14571753 12039854
0.79000002 -0.014539337 0.14051905 12369334
0.78779989 -0.0052779531 0.14565808 11513765
0.79000002 -0.0052923169 0.14051905 11973802
0.78796661 0.0048675109 0.14568888 11513765
0.79000002 0.0048794062 0.14051904 12040366
0.78761536 0.015146519 0.14540991 11119008
0.79000002 0.014126427 0.14051905 11645354
0.78683335 0.025120964 0.14455511 11381668
0.78686678 0.035254274 0.14456111 10986910
0.78629428 0.045080096 0.1446712 10921887
0.78526473 0.055239163 0.14442386 10855323
0.78400022 0.065054171 0.14522871 11381668
0.77885723 0.076310292 0.14869539 9012861
0.78464532 0.074736588 0.14364471 11316388
0.7786001 0.081910186 0.14869815 10722451
0.7853334 0.084893197 0.1445134 12828597
0.79000002 0.088102594 0.14051905 14934231
0.78780007 0.09308403 0.14688781 14670802
0.79231256 0.096246578 0.14312729 13421508
0.78877783 -0.1614199 0.15609935 9933199
0.79211116 -0.16643129 0.15459299 10394263
0.78430444 -0.15477975 0.15490915 11380130
0.7776401 -0.14502326 0.15470336 12236977
0.78150004 -0.14976631 0.15089834 12893110
0.77708578 -0.13514553 0.15562983 12434098
0.78200006 -0.13338606 0.15008013 13354424
0.77752024 -0.12555878 0.15547842 12631220
0.78100008 -0.12453265 0.1508012 13157048
0.77846158 -0.11679983 0.15697061 12894136
0.78139991 -0.11435001 0.15298089 12894135
0.78250015 -0.10507602 0.15475267 12894135
0.78306687 -0.095071338 0.15486629 12828342
0.7825278 -0.084931366 0.15475996 12630964
0.7816332 -0.074770279 0.15458331 12302768
0.78174996 -0.064713404 0.15460598 12367791
0.78293335 -0.054731373 0.15483961 12170668
0.78272223 -0.044640355 0.1547972 12434354
0.78270018 -0.034559358 0.15479328 12236975
0.7838335 -0.025434565 0.15501565 11973803
0.78474998 -0.015360852 0.15519644 11513510
0.78450018 -0.0052558617 0.15514717 11777194
0.78419441 0.0048431917 0.15508646 11711402
0.78366673 0.014929141 0.15498236 11645096
0.78283346 0.024993777 0.15481927 11119010
0.78293329 0.035077736 0.15483811 11053474
0.78163898 0.045081731 0.1545821 10987680
0.77899998 0.055743493 0.15810159 10461081
0.7803809 0.054536644 0.15342161 10790044
0.77896005 0.06517081 0.15569668 11513512
0.78000003 0.064162448 0.15152228 10987166
0.77803999 0.074927501 0.15478343 9606027
0.77759272 0.084193148 0.15523402 12433068
0.78100002 0.089110062 0.15244648 13419707
0.78520006 0.095539637 0.15497895 14735823
0.78883338 0.10243823 0.15662335 14210508
0.79225004 0.10653182 0.15473279 12039853
0.78837502 -0.1619276 0.16468544 9868431
0.7906363 -0.16699813 0.16503096 9868688
0.78504348 -0.15476486 0.16536857 10723996
0.77837509 -0.14335966 0.16407768 12105133
0.78109097 -0.14752801 0.16586353 11645096
0.77724153 -0.13514705 0.16541871 11906474
0.77763343 -0.12481249 0.16526461 12300974
0.77842861 -0.1156581 0.16403937 12497837
0.78016669 -0.11328705 0.16799252 12499377
0.78106254 -0.10511015 0.16487078 12432813
0.78207988 -0.094951659 0.16474201 12301740
0.78199977 -0.084873125 0.16472554 11908525
0.78187978 -0.07479322 0.16470085 11777453
0.78233337 -0.064761885 0.16479722 12105903
0.7828002 -0.054722808 0.16489483 12237489
0.78203315 -0.044600356 0.16473259 12435381
0.78203988 -0.034531124 0.16473377 12632502
0.78207988 -0.025378758 0.16474205 12368559
0.78283364 -0.015323013 0.16490053 11842217
0.78308022 -0.0052456777 0.16495344 11973291
0.78280014 0.0048343115 0.16489498 11973035
0.78260005 0.014909488 0.1648528 12170413
0.78236663 0.024978317 0.16480388 11381667
0.78195983 0.035034169 0.16471724 11316646
0.77900004 0.049490962 0.16226995 11119011
0.7806564 0.045140568 0.16501449 10856097
0.77900016 0.054961927 0.16226992 11184802
0.78073341 0.05508437 0.16811475 11052702
0.77866656 0.065798394 0.16341577 10855581
0.78058338 0.063448623 0.16838694 12105134
0.7773335 0.07486105 0.16465367 9408135
0.77731442 0.084948219 0.16477953 13223100
0.77900004 0.091434985 0.16318178 12564656
0.7837826 0.096310638 0.16525809 14012359
0.78850001 0.10270304 0.16517179 13355201
0.79079998 0.10763146 0.16472825 11711148
0.79432148 0.11575017 0.16486427 11711405
0.78900003 -0.16043893 0.17174126 9671565
0.79241675 -0.16500281 0.17519194 9802637
0.78695828 -0.15434845 0.17482896 11315876
0.79000002 -0.15879287 0.17935653 9933454
0.77900004 -0.14089842 0.17284714 12040112
0.78166664 -0.14518289 0.175896 12105903
0.77900016 -0.13511886 0.17293127 12040114
0.78058338 -0.1345145 0.17767632 12565428
0.77900004 -0.12557973 0.17138821 13356231
0.78160006 -0.1249 0.17635357 12105652
0.7821601 -0.11510236 0.17574781 12368565
0.78252941 -0.10486573 0.17518349 12631477
0.78253353 -0.095006756 0.17491518 12499892
0.78224999 -0.084899984 0.17485125 12236976
0.78280032 -0.074880555 0.17497407 12236722
0.78300041 -0.064818487 0.1750178 11973553
0.78293359 -0.054732375 0.17500259 11579050
0.78211093 -0.044605251 0.17481884 11645355
0.7820664 -0.034532253 0.17480955 11579307
0.78296697 -0.025407379 0.1750105 11513513
0.78322893 -0.015461348 0.17493822 11052705
0.78460002 -0.0052553923 0.17445804 11315363
0.78466666 0.0048454511 0.17447315 10920606
0.78432012 0.01494254 0.17439722 11249311
0.78403044 0.025281359 0.17483306 11116697
0.78317893 0.035154171 0.17473248 10920344
0.78254551 0.044885483 0.17533469 10724251
0.78244019 0.055205204 0.17581025 10527131
0.77900004 0.069551148 0.17138821 11645355
0.78186208 0.065070242 0.17580633 10921374
0.77880019 0.07500238 0.17316784 10722968
0.78020012 0.075137675 0.17804506 10393748
0.77880013 0.083025277 0.17262074 12894904
0.78141183 0.085693657 0.17665455 13618368
0.78537041 0.095389813 0.17517413 13487040
0.78880006 0.10181824 0.17539184 12895421
0.79170001 0.10655107 0.1751087 11776941
0.79348147 -0.16513947 0.18496098 9802381
0.78769571 -0.15376244 0.18476656 11513513
0.79000002 -0.15879287 0.18536711 9867404
0.78348005 -0.14464642 0.1852148 12303542
0.7825771 -0.13510439 0.18514203 12237233
0.78331059 -0.12519875 0.18504763 12105391
0.78418535 -0.1149917 0.18558474 12039087
0.7842502 -0.1049851 0.18519859 12039599
0.78316015 -0.095083341 0.18513718 12302512
0.78323358 -0.085006408 0.1851557 12171181
0.7832402 -0.07492359 0.18515696 12302508
0.78300029 -0.064818487 0.18509935 12302254
0.78272009 -0.054717321 0.18503366 11907503
0.78230011 -0.044614863 0.18493487 11908018
0.78284013 -0.034566354 0.18506218 11842740
0.78300017 -0.025408614 0.18509938 11580079
0.7834841 -0.015186814 0.18503627 11316904
0.78496659 -0.0052584414 0.18464543 11316904
0.78563869 0.0048537385 0.18480402 11382955
0.78516662 0.014959048 0.18469207 11185316
0.78484845 0.024807038 0.18503535 11250592
0.7846666 0.035087995 0.18508558 11446174
0.78476655 0.045264248 0.18551801 11446172
0.78443998 0.055345263 0.18544109 11052957
0.78310019 0.065331854 0.18512388 11249825
0.78227997 0.075337991 0.1849311 10196623
0.78336006 0.084613539 0.18518625 13553091
0.78685719 0.095256127 0.18522224 14408142
0.78883332 0.10438778 0.18637508 11645354
0.79070002 0.10761802 0.1824757 11645866
0.78900003 0.11246466 0.18790305 11645867
0.79265392 0.11566453 0.18394931 11777452
0.79378575 -0.16506782 0.19527766 9736588
0.78827775 -0.15342443 0.19557364 12171441
0.7902 -0.1580933 0.19438562 10460053
0.78523999 -0.1449706 0.1948204 12829630
0.78463334 -0.13475345 0.19467121 12500920
0.78460002 -0.12464573 0.19466284 12565683
0.78493327 -0.11459177 0.19474436 12302256
0.78408021 -0.1043735 0.19453251 12433589
0.78319257 -0.095156662 0.19452392 12368823
0.78469998 -0.08516565 0.19468747 12105650
0.78420013 -0.075016648 0.19456348 12171694
0.78300041 -0.064818487 0.19518095 12039849
0.78300029 -0.054933276 0.19485363 11908266
0.78291708 -0.044650447 0.19516066 11907754
0.78303361 -0.034575325 0.1951893 11710376
0.7834233 -0.025563706 0.19458219 11513254
0.78390026 -0.015344127 0.19448809 11250338
0.78487998 -0.0052574556 0.19473067 11381922
0.78566658 0.0048542023 0.1949261 11315873
0.78559989 0.014966739 0.19491011 11315871
0.78503323 0.025064085 0.19476907 10725279
0.78499991 0.035170559 0.19476071 10790558
0.78499991 0.045277901 0.19476074 11644068
0.78499991 0.055385251 0.19476067 11906726
0.78420013 0.065424055 0.19456278 11842217
0.78360015 0.075464822 0.19441462 10722965
0.78479993 0.084768146 0.19471225 13684165
0.78723329 0.095169552 0.19531532 14604752
0.78889453 0.1050384 0.19378318 11645099
0.79011112 0.10733124 0.19828965 11645612
0.78900003 0.11292643 0.1915312 11711661
0.79122227 0.1158192 0.19538009 11645611
0.78875005 -0.16154251 0.20653874 9671049
0.79119998 -0.16588905 0.20407562 9671308
0.78710341 -0.15440124 0.20525528 11316387
0.78393358 -0.1447292 0.20458764 12236974
0.78400016 -0.134643 0.20460488 12369335
0.7852999 -0.12475577 0.20494615 12303285
0.78538871 -0.1146603 0.20496948 12499889
0.78479999 -0.10446796 0.2048161 12630704
0.78472412 -0.095208898 0.20495529 12367536
0.78541654 -0.085243061 0.20497641 12171701
0.78479993 -0.075073197 0.20481576 12041398
0.78346694 -0.064857416 0.20538478 12238259
0.7841484 -0.054612 0.20515607 12369330
0.78413349 -0.04472141 0.20556164 12369327
0.78320014 -0.034583274 0.20531558 12302764
0.7838968 -0.025310643 0.20473823 11973287
0.78430569 -0.01535306 0.20468645 11841958
0.78479993 -0.0052565443 0.20481578 11842216
0.78497219 0.0048483852 0.20485958 11513251
0.78496665 0.014955238 0.20485829 11579045
0.78499991 0.025063211 0.20486791 11053216
0.78499991 0.035170563 0.20486794 10724767
0.78486109 0.045269072 0.20483154 10987427
0.78499991 0.055385251 0.20486797 11184292
0.78493744 0.064912662 0.20462258 11776425
0.78450012 0.074903309 0.20495512 10921118
0.78519994 0.084810972 0.20492016 13618371
0.78736371 0.094933987 0.20506504 14802132
0.78900003 0.10184405 0.20560408 11513767
0.790591 0.10625759 0.20531765 11579561
0.79358619 0.11531568 0.2050904 11645611
0.78863156 -0.1624054 0.21528949 9605259
0.79030001 -0.16717902 0.21457596 9736588
0.78619236 -0.15449239 0.2150891 11710892
0.78258651 -0.14435281 0.21507168 12171698
0.78300035 -0.13521196 0.2151963 12828856
0.78403234 -0.1255596 0.21518265 12500147
0.78503323 -0.11460688 0.21498433 12434609
0.78472 -0.10445759 0.21489897 12564911
0.78483993 -0.095287129 0.21493144 12432556
0.78496659 -0.085195303 0.21496606 12103593
0.78448004 -0.07504259 0.21483231 11843247
0.78325045 -0.064839803 0.21541214 11711917
0.78407425 -0.055014342 0.21512836 11975087
0.78489995 -0.044764232 0.21494821 12172207
0.783741 -0.034403604 0.21503867 11974571
0.78330022 -0.025418503 0.21542606 11908778
0.78322262 -0.015331496 0.21540427 11776937
0.78353345 -0.0052486057 0.21548876 11514023
0.78330588 0.0048375055 0.21542677 11382182
0.78335744 0.014794057 0.21511364 11053471
0.78503329 0.025065489 0.21498379 11316898
0.78527993 0.035182729 0.21505222 11251105
0.78493321 0.045273662 0.21495733 11316388
0.78499991 0.055385247 0.21497536 11185320
0.78596002 0.064652897 0.21523842 12105908
0.7852999 0.074708581 0.21505819 11118499
0.78515989 0.084806748 0.21501896 13816007
0.78742421 0.09544421 0.21513641 14737111
0.78900003 0.10184405 0.2142237 11382437
0.79050004 0.10666539 0.21463117 11711402
0.79180771 0.11532454 0.21477105 11645609
0.79306674 0.12465031 0.21439245 11645866
0.78830004 -0.16306636 0.22510628 9474187
0.79000002 -0.1680399 0.22466694 9802894
0.78575861 -0.15413667 0.22514117 11776685
0.78303868 -0.14470336 0.22522561 12171956
0.78300017 -0.13538966 0.22542572 12302513
0.78326499 -0.12513402 0.22485363 12630962
0.78417158 -0.11461005 0.22486997 12763319
0.78493541 -0.10466376 0.22503485 12566195
0.78496659 -0.095302202 0.22507337 12762290
0.78494436 -0.085192367 0.22506708 12563114
0.78483325 -0.075075671 0.2250357 12367278
0.78376698 -0.064882606 0.22564737 12105903
0.78350025 -0.054574437 0.22497894 11777966
0.78366691 -0.044693634 0.22469804 11909040
0.78310734 -0.034775071 0.22486666 11843248
0.78292012 -0.025406394 0.22540243 11382697
0.78266698 -0.015320102 0.22532864 11119527
0.78300017 -0.0052454234 0.22542572 11316651
0.78283352 0.004834712 0.22537714 11316139
0.78318548 0.015057244 0.22507069 10921635
0.7838335 0.025025966 0.22474582 10856353
0.78470004 0.035158291 0.22499599 10922655
0.78486109 0.045269664 0.22504218 11184799
0.78493327 0.055380702 0.22506328 11052704
0.78573322 0.064634457 0.22529173 11974063
0.7851665 0.074694604 0.22512916 11249568
0.78476679 0.084765881 0.22501516 13749957
0.78808337 0.094271429 0.22466022 14737112
0.79000002 0.09827432 0.22836575 15066591
0.79167861 0.10470831 0.22461613 11645611
0.79407418 0.11509743 0.22510658 11579561
0.79247999 0.12455466 0.22444746 11645610
0.7933104 0.13474415 0.2245526 11711148
0.78837502 -0.16204289 0.23470175 9736588
0.79009998 -0.16713646 0.23486885 9670795
0.78650004 -0.15455109 0.23542804 12105134
0.78344023 -0.14463764 0.23472345 12237489
0.78300017 -0.13538966 0.23459092 12369074
0.78296691 -0.12530291 0.23458076 12300969
0.78292888 -0.11515006 0.23515715 12104105
0.78373349 -0.10524295 0.23480842 11974572
0.78380775 -0.095160969 0.23504187 12106159
0.78463334 -0.085158423 0.2350789 12499118
0.78456002 -0.075049952 0.23505686 12695215
0.78350031 -0.064860299 0.23473944 12498607
0.78251725 -0.054577366 0.23520306 12303025
0.78247046 -0.044839859 0.23507734 12238004
0.78300017 -0.034573693 0.23459089 12171956
0.78296018 -0.02540732 0.23457904 11777456
0.78300029 -0.015327017 0.23459086 11711406
0.78296179 -0.0051043434 0.23479056 11645356
0.78225702 0.0046995832 0.23515277 11513515
0.78277791 0.014710124 0.23493125 11382186
0.78300029 0.024999358 0.23459083 11250341
0.78432 0.03514206 0.23498696 11053733
0.78443342 0.04524409 0.23502073 11317156
0.78420013 0.055329744 0.23495035 11184542
0.78476918 0.064766362 0.23526134 11644839
0.78410357 0.074751303 0.23479387 11117981
0.78408003 0.084691964 0.23491439 13881028
0.78760874 0.093249716 0.23484804 15131352
0.79000002 0.09827432 0.23483865 14474195
0.79334617 0.10426795 0.23490319 11579562
0.78890914 -0.16176377 0.24374881 9737100
0.79081261 -0.16601568 0.24561009 9670795
0.78736007 -0.1545783 0.24511373 12170925
0.78396678 -0.1447359 0.24497429 12828597
0.78253341 -0.13530998 0.24452589 12500917
0.78222215 -0.1251839 0.24442834 12630450
0.78218502 -0.11517435 0.24492551 12629679
0.78216666 -0.10503295 0.24441105 12433326
0.78213769 -0.094958596 0.24456006 12040365
0.78258353 -0.084935695 0.24454086 12368304
0.78306699 -0.074906521 0.24469283 12694960
0.78280586 -0.064802803 0.24461068 12695216
0.78184611 -0.054797851 0.24501441 12499377
0.78206235 -0.044372335 0.24495089 12434098
0.78260028 -0.034555797 0.24454579 11513510
0.78250015 -0.025392858 0.24451461 10987425
0.78213871 -0.015310843 0.24440148 10986913
0.78186208 -0.0053642141 0.24447219 11118497
0.78193539 0.0049778358 0.24507691 11315875
0.78235722 0.015102582 0.24479736 11184289
0.78313935 0.025004344 0.24471579 10921118
0.78413349 0.035133053 0.24502459 10856097
0.78449994 0.045248866 0.24513896 10856350
0.78426671 0.055334289 0.24506697 11250591
0.78413904 0.065419421 0.24502809 11513254
0.78293353 0.075400516 0.24465081 11513253
0.78320026 0.08459527 0.24473324 14407115
0.78724998 0.094317101 0.24488011 14867667
0.79289299 0.10427578 0.24477826 11448232
0.79274285 0.12501787 0.24540474 11514282
0.79209089 0.13511518 0.24506491 11514283
0.78900003 -0.16043893 0.25485909 10657691
0.79223812 -0.1657822 0.25519794 9408394
0.78699994 -0.15438132 0.25497326 11973290
0.78310728 -0.14438009 0.25537631 12761779
0.78196651 -0.13521191 0.25533211 12434611
0.78133333 -0.12504163 0.25512427 12434097
0.78133339 -0.11498164 0.25512493 12497578
0.78161103 -0.10495725 0.25521705 12235175
0.78199977 -0.094941847 0.255344 12302765
0.78191638 -0.084864393 0.25531635 12237744
0.78196675 -0.074801393 0.25533104 12696756
0.77899998 -0.064096563 0.25814196 13419194
0.78103858 -0.06528984 0.25369188 12826801
0.77900016 -0.05563727 0.25720716 13156024
0.78068757 -0.054346681 0.25240171 12761265
0.77900004 -0.048986297 0.25801173 13484984
0.78124237 -0.044414915 0.25473446 13024948
0.78193527 -0.034703784 0.25547019 12761775
0.77900004 -0.021631503 0.25892356 12696242
0.78137928 -0.025482757 0.25498149 12038568
0.778889 -0.014132349 0.25665772 12104618
0.78055561 -0.016397525 0.25253701 12170412
0.77883351 -0.0049139578 0.25643662 12038826
0.78025007 -0.005683694 0.25157565 12301742
0.77882361 0.0047573587 0.2571485 12630193
0.78047359 0.004869421 0.25229636 12301998
0.77900004 0.012106078 0.25892356 13485756
0.78110713 0.015078098 0.25472322 12301996
0.78177762 0.024961311 0.25526923 11908265
0.78233325 0.035051551 0.25545147 11514024
0.78252786 0.045135215 0.25551462 11382696
0.78286225 0.055108719 0.25546581 11118753
0.78287888 0.065563314 0.25521252 11381410
0.77900004 0.077073716 0.25732785 13026236
0.78131825 0.074496239 0.2540389 11117982
0.77900004 0.081100948 0.25831568 14210251
0.78176934 0.084653154 0.25463378 14538958
0.78695655 0.0936554 0.25459719 15065304
0.79000002 0.09827432 0.2570315 11512998
0.7937308 0.10424764 0.255101 11514024
0.79191309 0.12478757 0.25451225 11448233
0.79313636 0.13529362 0.25510123 11579819
0.78863645 -0.16120456 0.26514682 10131088
0.79211116 -0.16643208 0.26502925 9473928
0.78488898 -0.1542996 0.2646206 12368818
0.78175861 -0.14489491 0.26513994 12762546
0.78096008 -0.13503756 0.2650589 12828595
0.77900004 -0.12238834 0.26485044 12434096
0.78030777 -0.12522858 0.26476732 12500916
0.77900004 -0.11828512 0.26986548 13420735
0.78080004 -0.11490259 0.26500469 12629423
0.77900004 -0.10065647 0.26925758 13353659
0.78106886 -0.10504315 0.26496926 12497322
0.7789287 -0.094308771 0.26814738 12039339
0.78106248 -0.09505643 0.26349282 12170924
0.77882373 -0.085439585 0.2675516 11842988
0.7808001 -0.08492627 0.2628113 12565682
0.77892309 -0.075141624 0.26675269 12302768
0.78050005 -0.075346254 0.26193404 12104619
0.77789998 -0.065308236 0.26492953 12761264
0.77722239 -0.055242267 0.26469952 12892337
0.77800012 -0.045617893 0.26540124 12892849
0.78000003 -0.042353868 0.26169059 12761260
0.77800012 -0.035023931 0.26750433 12695467
0.78064704 -0.03565174 0.26301762 12563625
0.77744454 -0.024891922 0.26521039 12300454
0.78000003 -0.028354583 0.26169059 12300198
0.77644455 -0.015200125 0.26443231 11774882
0.77636683 -0.0052009844 0.26440686 11709603
0.77680576 0.0047983341 0.26455662 12103847
0.7778669 0.014820665 0.26491645 11972518
0.77830768 0.024360003 0.26647019 11709603
0.78020012 0.026189094 0.26206189 11315359
0.77900016 0.034480896 0.26832241 11842475
0.78064698 0.035298593 0.26355454 11382179
0.77878588 0.046221334 0.26809788 11316903
0.78099996 0.044215802 0.26415741 11053988
0.77875012 0.054185018 0.2682592 11711149
0.78115785 0.05578839 0.26377699 11316392
0.77900004 0.069551148 0.26986548 11380121
0.78127271 0.064930432 0.26466417 11776683
0.77804011 0.075584017 0.26545155 12303025
0.78000003 0.071831621 0.26327312 10197907
0.77822232 0.08243756 0.26584899 14473422
0.78153855 0.087090164 0.26441061 15131351
0.78682619 0.093640193 0.26488677 14999768
0.79000002 0.09827432 0.26442915 11315363
0.78839999 -0.16216353 0.27496687 9802124
0.79116672 -0.16736279 0.27500424 9539465
0.78409529 -0.15490043 0.27460125 12105647
0.78057164 -0.14489137 0.27484721 12236975
0.78026682 -0.13491726 0.27487004 11907751
0.77900016 -0.12349554 0.27729037 11974315
0.77999997 -0.12557493 0.27295089 12106670
0.77895468 -0.11488003 0.27581748 12433069
0.7801429 -0.11350171 0.27104396 13024180
0.77788901 -0.1048305 0.27534533 13155509
0.7802 -0.10714382 0.27064639 13287609
0.77671462 -0.095079817 0.27556515 12433327
0.77673352 -0.08521007 0.2754423 12106158
0.77680576 -0.075217269 0.27546781 12500146
0.77610016 -0.065156646 0.27521715 12892850
0.77541679 -0.055114549 0.27497524 13155508
0.77540016 -0.045129154 0.27496874 13352886
0.77522224 -0.035138652 0.27490553 13155764
0.7742666 -0.025126306 0.27456701 12366505
0.7740556 -0.015152191 0.27449268 12038827
0.7743333 -0.0051873634 0.27459183 12368048
0.77461112 0.004785073 0.27468973 12368303
0.77516657 0.014769303 0.27488631 12433321
0.77580541 0.024770599 0.27511308 12038821
0.77620023 0.034776289 0.27525192 11974060
0.77623546 0.044986159 0.27499747 11842990
0.77686691 0.054812886 0.275489 11842736
0.77794111 0.064957045 0.27586865 11513510
0.78000003 0.064162448 0.27051625 11776681
0.77626675 0.074757464 0.27527592 11446942
0.77660012 0.083945118 0.27533466 14670801
0.78083342 0.089517891 0.27354547 15131352
0.78615385 0.095466569 0.27503106 13552835
0.78900003 0.10184405 0.27887091 11316647
0.79172415 0.10539487 0.27516624 11382439
0.78855556 -0.16219538 0.28517547 9802640
0.79089993 -0.16730639 0.28509814 9539210
0.7849167 -0.15463676 0.28515938 11842734
0.78158611 -0.14505197 0.28502172 12237234
0.78088003 -0.13502419 0.28514314 12104620
0.77899998 -0.12361582 0.28459498 12040111
0.7801429 -0.12837319 0.28669867 12039597
0.77764523 -0.11461643 0.28501511 12236718
0.77617878 -0.10533259 0.28465655 12432813
0.77593344 -0.095113918 0.28515112 12433583
0.77514815 -0.084835894 0.28526431 11645866
0.77441674 -0.074986152 0.28549847 11973804
0.77370018 -0.064954706 0.28523406 12629165
0.7733891 -0.054970261 0.28511992 12892592
0.77346689 -0.045017023 0.28514853 12761261
0.77311134 -0.035042759 0.28501746 12629674
0.77246666 -0.025067424 0.28477937 11906211
0.77222222 -0.015115719 0.28468832 11579304
0.77273333 -0.0051760986 0.28487831 11841450
0.773139 0.0047756871 0.28502774 12104106
0.77343345 0.014735735 0.28513628 11906724
0.77402776 0.024713773 0.285355 11906723
0.77416676 0.03468496 0.28540748 11644581
0.77416676 0.044653375 0.28540742 11710895
0.77466667 0.054656964 0.28559035 11777201
0.77486497 0.064621575 0.2854909 11776939
0.77391446 0.075308546 0.28544247 12104361
0.77596664 0.085452929 0.28503984 14999252
0.78517252 0.095843263 0.28486741 13158077
0.78900003 0.10184405 0.28533566 11448233
0.79170591 0.10644779 0.28484312 11316647
0.78853327 -0.16219081 0.29531923 9605258
0.79083329 -0.16729228 0.29525402 9342345
0.78546154 -0.15420747 0.29508883 11447974
0.78244001 -0.14445238 0.29487044 11974065
0.78191984 -0.13520364 0.29467389 12171443
0.77900016 -0.1229745 0.29513606 12106676
0.7803334 -0.12786569 0.29541528 11777195
0.77721447 -0.11496111 0.29471961 11974834
0.7760402 -0.10511877 0.2942743 12499892
0.77582383 -0.094887257 0.294833 12367792
0.77471417 -0.085184924 0.29500225 11777451
0.77350026 -0.074898317 0.29512182 11777192
0.77300012 -0.064895459 0.29493096 12563885
0.77270603 -0.054762393 0.29545599 12695729
0.77216685 -0.044941835 0.29551566 12762033
0.77138877 -0.03496483 0.29521799 12827569
0.77079999 -0.025013734 0.29499248 11973549
0.77027798 -0.015077528 0.29479271 11710892
0.7711333 -0.0051649902 0.29511955 12105649
0.77166641 0.0047668871 0.29532418 12039084
0.77206647 0.014709463 0.29547799 11972262
0.77257138 0.024538111 0.29554126 12038567
0.7731601 0.034640182 0.29499146 11841448
0.77310014 0.044591092 0.29496902 11579310
0.77328587 0.055140674 0.29523283 11645102
0.77311128 0.065002814 0.29477188 11644842
0.77244449 0.075295053 0.29562169 11907754
0.77428579 0.085641764 0.29483679 14868438
0.77866673 0.091395862 0.29709232 15460319
0.78500009 0.09604387 0.29487449 12960442
0.79363173 0.10518692 0.2951737 11316646
0.78864288 -0.16208112 0.30432898 9605002
0.79036367 -0.16694035 0.30559313 9473674
0.78728002 -0.15456221 0.30517298 10855837
0.78504008 -0.1449334 0.30504203 11052705
0.78376931 -0.13531214 0.30468923 10855583
0.77900004 -0.12132454 0.30208334 9738905
0.78184998 -0.12539959 0.30517331 11119524
0.77809101 -0.11500181 0.30134517 10198943
0.78118193 -0.11529216 0.30653322 11842478
0.77759999 -0.10533015 0.30123773 11184804
0.78183335 -0.1049876 0.30653891 11579307
0.77762496 -0.096231118 0.3017022 11513766
0.78240001 -0.094992295 0.30676118 10987937
0.77688891 -0.084824845 0.30268043 10198168
0.78162503 -0.085062578 0.30759996 11119266
0.77573073 -0.074626178 0.3045674 11251110
0.77396005 -0.064976707 0.30435899 11841962
0.77365375 -0.055198126 0.30479571 11578279
0.77355015 -0.045021676 0.30510393 12104620
0.77304173 -0.035039667 0.30490419 12236464
0.77225006 -0.02506106 0.30459157 11710640
0.77154177 -0.015101795 0.30431253 11447466
0.77350008 -0.0051792059 0.30508637 11315879
0.7744118 0.0050517232 0.30443069 11315619
0.77473336 0.01475902 0.30466369 11380382
0.77400011 0.025122754 0.30470541 11315615
0.77408004 0.034681309 0.30440748 11513767
0.7742002 0.044654969 0.30445474 11382187
0.77375001 0.055172499 0.3040826 11381933
0.77319372 0.065178193 0.30493245 11381929
0.77260011 0.075310089 0.3056328 11644586
0.77380764 0.085254088 0.3045066 14210253
0.77788883 0.091912448 0.30529505 14604498
0.78555 0.0973593 0.30486527 11776426
0.79386204 -0.17482364 0.31544977 10790304
0.78900003 -0.16136247 0.31027099 9934994
0.79156536 -0.16490974 0.31531024 10592924
0.78890002 -0.15487857 0.31226319 9934994
0.79058331 -0.1556717 0.31690946 10592924
0.78843749 -0.14521299 0.31385761 10132116
0.79000002 -0.14492233 0.31806183 10527131
0.78780955 -0.1347287 0.31410843 10132116
0.79000002 -0.13428825 0.31944889 10527131
0.78710538 -0.12523754 0.31428203 9803152
0.79000002 -0.12550358 0.31991127 10395545
0.7868697 -0.11467433 0.31416315 9540238
0.79000002 -0.11588669 0.31991127 10264472
0.7872777 -0.10510471 0.31389761 9211273
0.79000002 -0.10238604 0.31806183 10198168
0.78776479 -0.094990246 0.31358424 9868944
0.79049999 -0.095047176 0.31826317 9211530
0.78699994 -0.084597349 0.31419647 10132117
0.79000002 -0.086049639 0.31867829 9277325
0.77900004 -0.071781963 0.31180951 8684677
0.78480011 -0.075809367 0.31572777 9474448
0.77744448 -0.064863846 0.31199732 9014153
0.78214294 -0.065401174 0.31646869 8817029
0.77711111 -0.056144968 0.31166106 8947586
0.78275013 -0.054031733 0.31628999 9079686
0.778 -0.045277983 0.31140924 11051934
0.78433341 -0.044729576 0.31670064 10197915
0.77766675 -0.035250027 0.31127581 11776171
0.78430003 -0.034632035 0.31668723 10396061
0.77700001 -0.024433013 0.31153002 11383472
0.78325003 -0.026103811 0.3164925 9936541
0.77688891 -0.016117528 0.31157234 10988456
0.78377771 -0.014424824 0.31678212 9541269
0.77900004 -0.0088659329 0.31180951 12039597
0.78566676 -0.0054156482 0.31616798 10263444
0.79000002 -0.0025182103 0.31991127 10066578
0.78629416 0.0051269047 0.31484219 10394514
0.79000002 0.00025589595 0.31991127 10132370
0.78540009 0.014961618 0.31437638 10196877
0.79000002 0.018749937 0.31991127 10132370
0.78664273 0.025116757 0.31684703 9802890
0.79000002 0.020599341 0.31991127 10066577
0.77900004 0.036725391 0.31180951 9737353
0.78475004 0.034700714 0.3164117 9803148
0.77866668 0.044911046 0.31167611 10987680
0.78391665 0.045213178 0.31653211 9408911
0.77750003 0.055583678 0.31230256 10526881
0.78233337 0.054789767 0.31741893 9869207
0.7765789 0.065028615 0.31409615 10000790
0.78066665 0.063605495 0.31856796 10198680
0.77621055 0.074562617 0.31509638 10000017
0.78000003 0.078770399 0.31951374 9869203
0.77680004 0.084510788 0.31299129 12435129
0.7816667 0.086565353 0.31775674 10592672
0.78572732 0.096077807 0.31533957 11513512
0.78900003 0.10184405 0.31304157 10987682
0.79320002 0.1053628 0.31525987 11053218
0.79370385 -0.17481448 0.32492316 11053475
0.79371995 -0.16511466 0.32513621 10921889
0.79335707 -0.15515573 0.32518721 10856096
0.792889 -0.14493597 0.32459196 10724510
0.79336375 -0.13549215 0.32541493 10592924
0.79311782 -0.12479587 0.32478139 10461338
0.78866673 -0.073904075 0.32183328 9803407
0.79118752 -0.075569734 0.32606545 10066579
0.78740007 -0.06536743 0.32217842 9474700
0.79128569 -0.063784912 0.32731315 10066580
0.78800005 -0.055495575 0.32176697 9343628
0.79299998 -0.054659516 0.32747146 9803921
0.78850007 -0.044967208 0.32114974 9870233
0.79329431 -0.044966545 0.32671139 9540749
0.78860009 -0.034822375 0.32119045 11185831
0.79326659 -0.035027962 0.32680902 9277577
0.78825009 -0.023732791 0.32150966 10199709
0.79337507 -0.025278986 0.32708639 9079942
0.78840005 -0.014508488 0.321109 10133920
0.79250002 -0.014581835 0.32556397 8883334
0.78900003 0.037196834 0.32135338 8553598
0.78825009 0.045925662 0.32150969 9474963
0.79291672 0.04465054 0.32681829 9145994
0.78776926 0.055579737 0.32369101 8948359
0.7906 0.054113548 0.32792801 9343116
0.78594995 0.064740852 0.32480839 9211528
0.78529406 0.074979253 0.32547113 9868944
0.78638893 0.084633857 0.32459009 10395546
0.79000002 0.088102594 0.32915828 10724510
0.78831244 0.094836578 0.323035 10856096
0.79049999 0.095376067 0.32825696 10921889
0.79196554 0.10523511 0.32524484 11053475
0.78900003 0.067211606 0.33105046 9737616
0.79131585 0.06489823 0.33555928 9869202
0.78863639 0.074608102 0.33127591 10000787
0.79105556 0.075257137 0.33669889 10263960
0.78900003 0.082449883 0.3305887 10263959
0.79176205 0.085254475 0.33545583 10724510
0.79324996 0.094965525 0.33515751 10921889
0.79226452 0.13493997 0.3548671 10988452
0.79217237 0.14484288 0.35493815 11119782
0.79286659 0.15524305 0.35448205 11119526
0.79316002 0.16551276 0.35461372 11185575
0.79253316 0.12456344 0.36453554 11053988
0.79256237 0.13454263 0.36513039 10988195
0.79312003 0.14500646 0.36536503 10988453
0.79328126 0.15497535 0.36447662 10922661
0.79366678 0.16511178 0.36531225 11119782
0.79333335 0.10518765 0.37512174 10856609
0.79236001 0.11526161 0.374661 10856609
0.79135716 0.12497381 0.37418628 10922659
0.79240727 0.13526389 0.37468249 10987684
0.7935937 0.11491638 0.3851715 10790817
0.79213327 0.12450127 0.38475263 10856867
0.79299998 0.13461828 0.38459396 10922660
0.79324228 0.16502148 0.38503617 11053733
0.79316652 0.11463454 0.39472091 10725281
0.79275995 0.12460025 0.39526257 10922147
0.79364711 0.13517834 0.39504793 10856611
0.79216653 0.10503414 0.40516609 10659489
0.79120004 0.11509273 0.40467098 10659489
0.79073554 0.12493441 0.40465036 10791075
0.79150009 0.13517275 0.40459204 10791075
0.79186654 0.10499296 0.41520956 10593696
0.79020029 0.11494728 0.41526011 10593953
0.79002976 0.12487796 0.4148992 10725538
0.79088002 0.13541439 0.41469339 10791075
0.7914412 0.10515263 0.42490238 10593696
0.78900003 0.11366526 0.42626658 10725282
0.79000002 0.11519637 0.42495742 10659489
0.7906155 0.12447826 0.42508906 10659489
0.79330772 0.13461679 0.4250384 10725282
0.78883338 0.098744489 0.43824121 10593694
0.79270983 0.094598129 0.43456104 10527902
0.78794998 0.10604222 0.43648809 10593694
0.79062504 0.10355586 0.43225637 10659487
0.78709364 0.11409303 0.43602017 10659487
0.79000002 0.11713824 0.43161526 10659487
0.7884286 0.1228647 0.43713662 10659487
0.79061115 0.12560016 0.43367559 10725281
0.78853339 0.097352274 0.44410452 10527901
0.78534997 0.1051361 0.44240004 10593694
0.77900004 0.11331882 0.44128886 10593694
0.78308326 0.11574778 0.44146135 10659487
0.78705263 0.1248703 0.44313344 10659487
0.79000002 0.12971419 0.44197193 10790560
0.79253584 0.13583365 0.44457844 10724767
