# .PCD v0.7 - Point Cloud Data file format
VERSION 0.7
FIELDS x y z rgb
SIZE 4 4 4 4
TYPE F F F U
COUNT 1 1 1 1
WIDTH 715
HEIGHT 1
VIEWPOINT 0 0 0 1 0 0 0
POINTS 715
DATA ascii
0.79280001 -0.064701669 0.11503526 11974829
0.79199988 -0.095230654 0.1251135 12303536
0.79253334 -0.085086502 0.12519424 12237487
0.79312515 -0.14491582 0.13480011 12170924
0.79256684 -0.13518873 0.13447453 12303022
0.79170966 -0.12523736 0.13478006 11908267
0.79193109 -0.11468569 0.13484827 12106161
0.78900003 -0.10317997 0.13849412 13158594
0.79154176 -0.10582978 0.13430378 12237489
0.78880006 -0.094290718 0.13698134 11711402
0.79046673 -0.095601 0.13282943 12434864
0.78869998 -0.084677011 0.13567097 11974572
0.79000002 -0.084816694 0.13127203 12237226
0.78847045 -0.075098254 0.13698816 11843244
0.79053843 -0.074339025 0.13249962 12434865
0.78822219 -0.065660462 0.13774088 11908781
0.79092312 -0.06426353 0.13299066 12369329
0.78877783 -0.055550471 0.1376342 11711662
0.79250008 -0.054977797 0.13269411 12039853
0.78900003 -0.04499748 0.13849412 13027522
0.79296547 -0.045062102 0.1337416 11710890
0.78900003 -0.038532756 0.13849412 12961221
0.79282767 -0.034880251 0.13435683 11711149
0.79300016 -0.024804965 0.13454598 11514282
0.78900003 -0.010826807 0.13849412 12435123
0.79265529 -0.014717283 0.13432872 11579301
0.78900003 -0.0045929691 0.13780148 11840931
0.79136837 -0.0058876015 0.13334861 11906466
0.78900003 0.0021026353 0.13849412 11841704
0.79110736 0.0053508952 0.13456164 11776167
0.79303342 0.015110169 0.13455246 11053988
0.7937879 0.024920171 0.13493037 10921888
0.78900003 0.067673378 0.13849412 13290439
0.78900003 0.075061627 0.13849412 11053217
0.79303718 0.074928939 0.13383107 10987680
0.78900003 0.082449883 0.13849412 12631221
0.79318517 -0.16480289 0.14520788 10986400
0.78783333 -0.15395325 0.14668943 12170669
0.79091662 -0.15635517 0.14237797 10723740
0.78664511 -0.14469144 0.14478408 12827569
0.79000002 -0.14862114 0.14051905 11314334
0.78694129 -0.1348778 0.14479037 12762034
0.78713322 -0.12504819 0.14460908 12564912
0.78724998 -0.11493048 0.14463151 12499890
0.7869001 -0.10474827 0.14456828 12499377
0.78640628 -0.095131584 0.14424767 12631475
0.78591174 -0.08502692 0.14460315 12302769
0.7855714 -0.075344697 0.1446524 11711146
0.78543758 -0.064846076 0.14487439 12039596
0.7863999 -0.054973945 0.14447616 12302511
0.78683329 -0.04487313 0.14455616 12434098
0.78743321 -0.034768913 0.14466693 12434099
0.78761762 -0.024907859 0.14448416 12105132
0.78756255 -0.014839342 0.14492162 12105132
0.78763318 -0.0052763065 0.14470424 11579302
0.78777772 0.0048659407 0.14473042 11710889
0.78759992 0.015004701 0.1446967 11250082
0.78705543 0.02512826 0.1445962 11381668
0.78706658 0.035262764 0.1445982 10986654
0.7860589 0.045066044 0.14462674 11118238
0.7856971 0.055209622 0.1443129 10855324
0.78458965 0.065103166 0.14533639 11512997
0.77883339 0.07652498 0.14886451 9208961
0.78462511 0.074759834 0.14380009 11381411
0.77866673 0.082585834 0.14883251 11445661
0.78503573 0.084989771 0.14428583 13091000
0.79000002 0.0890273 0.14051905 14999767
0.78761113 0.093575388 0.1466473 14735823
0.79158336 0.095848761 0.14249812 13223614
0.79270375 -0.16497868 0.1550882 10328214
0.78643495 -0.15480043 0.15493236 11315107
0.77878577 -0.14325598 0.15558334 12302515
0.78105879 -0.14634843 0.15301733 12696757
0.77813649 -0.13504484 0.15587793 12368563
0.78180009 -0.13518144 0.15095595 12499633
0.77822244 -0.12484634 0.15633728 12368563
0.78176463 -0.12505665 0.15175521 13025977
0.778889 -0.11664695 0.15758687 12893880
0.78195459 -0.11448977 0.15339673 12959671
0.78283358 -0.10512182 0.15481901 12893878
0.78316694 -0.095083497 0.15488662 12763062
0.78272253 -0.084952243 0.15479888 12630963
0.7821666 -0.074820668 0.15468851 12236979
0.78169441 -0.064710036 0.15459405 12367792
0.78243333 -0.054696646 0.15474035 12236205
0.78291702 -0.04464972 0.15483552 12499891
0.78376693 -0.034607235 0.15500307 12302512
0.78416675 -0.025446085 0.15508114 12170670
0.7848888 -0.015362693 0.15522543 11578789
0.78473324 -0.0052579711 0.15519398 11842218
0.78341681 0.0048370212 0.15493283 11776682
0.78276694 0.014913085 0.15480512 11710634
0.78325027 0.025007894 0.15490164 11053218
0.78316677 0.035087716 0.15488487 11053217
0.77900004 0.049490962 0.15862264 11908529
0.78142869 0.044939071 0.15441084 11052960
0.77900004 0.054961931 0.15862264 10657948
0.78045839 0.054912359 0.1535887 10724253
0.77900016 0.066095807 0.1562231 12039856
0.78009105 0.063173503 0.15303394 10790302
0.77783996 0.074908234 0.15474372 9736846
0.77762514 0.083842419 0.15485336 12301481
0.78071433 0.089547686 0.1540084 13617597
0.7851786 0.095646806 0.15495315 14736591
0.78900003 0.10184405 0.15696473 15394524
0.79226089 0.10613924 0.15503064 12171183
0.79246151 -0.16500108 0.16486032 9999504
0.78720003 -0.15432768 0.16493694 10920607
0.79000002 -0.15879287 0.16733542 9670282
0.77900004 -0.14222056 0.16295381 12104878
0.78152943 -0.14514707 0.16613321 11776170
0.77841365 -0.13484815 0.16416056 11906987
0.78000003 -0.13608824 0.16978224 12499893
0.77865529 -0.12508388 0.16421089 12235693
0.78033334 -0.12335806 0.16955046 12565942
0.77890015 -0.11626367 0.16151989 12827573
0.7808125 -0.11421787 0.16584679 12169126
0.78189975 -0.10499655 0.16470473 12432554
0.78255999 -0.095008895 0.16484313 12301738
0.78256673 -0.084934138 0.16484453 11974318
0.78236008 -0.074839599 0.1648024 11842733
0.78189987 -0.064727068 0.1647059 12171440
0.78240007 -0.054695219 0.16481113 12303281
0.78213316 -0.044606097 0.1647539 12500660
0.78232002 -0.034543298 0.16479181 12698040
0.78247994 -0.025391176 0.16482563 12303023
0.78306699 -0.015328008 0.16494992 11973290
0.78304023 -0.0052462523 0.16494443 12104362
0.78250009 0.0048325765 0.1648321 12038827
0.78231996 0.014904529 0.16479416 12170159
0.7826001 0.024985803 0.16485189 11381668
0.78207994 0.035039641 0.1647424 11250595
0.77900004 0.049490962 0.16287784 11184806
0.78087103 0.044831283 0.16531359 10921634
0.77900016 0.054860611 0.16308045 10987425
0.78049999 0.055219531 0.16821702 10987165
0.77888 0.065163672 0.16333914 11184546
0.78050005 0.064751372 0.16897783 11381668
0.77810007 0.074934885 0.16481707 9408136
0.77822852 0.084839471 0.16471383 13092027
0.78000003 0.089726366 0.16978224 12433840
0.78378582 0.095739827 0.16490261 13618115
0.78850007 0.10270304 0.1651718 13289921
0.79166669 0.10775052 0.16490848 11711403
0.78810006 -0.15380065 0.17523549 11841706
0.79000002 -0.15879287 0.17473304 9867405
0.78323084 -0.14460075 0.17507011 12236976
0.78159994 -0.13514748 0.1756216 12303027
0.78233331 -0.12520018 0.17578632 12303285
0.78310376 -0.1153676 0.17488548 12368563
0.78317165 -0.10503728 0.17492665 12631475
0.7828669 -0.095047139 0.17498867 12500147
0.78238887 -0.084914826 0.17488243 12171440
0.78283346 -0.074884132 0.17498146 12368309
0.78300041 -0.064818293 0.1750181 12039089
0.78300029 -0.054736879 0.17501777 11644845
0.7821666 -0.044608749 0.17483155 11645097
0.78199977 -0.034529544 0.17479424 11645354
0.78270024 -0.025397787 0.17495123 11579305
0.78379434 -0.015556661 0.1749265 11118496
0.78460008 -0.0052563287 0.17445832 11183775
0.78426683 0.0048435261 0.17438503 11051933
0.78412008 0.014938449 0.17435263 11183519
0.78358096 0.025164209 0.17440936 11050904
0.78256685 0.035060529 0.17492184 10920089
0.78174984 0.044860668 0.17531084 10724251
0.78191996 0.055168226 0.17569365 10526873
0.78193551 0.06520588 0.17551929 11052701
0.77900004 0.075933933 0.17138821 11512737
0.78069562 0.075105809 0.1757362 10590867
0.77900004 0.083228543 0.17138821 12763317
0.78143477 0.085040428 0.1759821 13486783
0.78481495 0.095322177 0.17505017 13486785
0.78871435 0.1023349 0.17458126 12565943
0.79185718 0.10645226 0.17474699 11776939
0.78839993 -0.15358168 0.18462282 11710378
0.79016668 -0.15851814 0.185561 10064271
0.78525925 -0.1451793 0.18522578 12369076
0.78320014 -0.1354247 0.18514778 12303281
0.78296691 -0.12530251 0.1850916 12170928
0.7844376 -0.11428759 0.18509452 12236209
0.78460008 -0.10444199 0.18547902 11974065
0.78324026 -0.09509258 0.18515716 12171699
0.78370023 -0.085056826 0.1852672 12105645
0.78396016 -0.074991815 0.18532866 12302253
0.78376687 -0.064881586 0.18528146 12170925
0.78316015 -0.054748729 0.18513763 11973551
0.78276688 -0.044642963 0.18504487 12039089
0.78248006 -0.034549803 0.18497728 11776945
0.78296018 -0.02540713 0.18509011 11580079
0.78356278 -0.01510656 0.18488733 11251113
0.78499991 -0.0052588214 0.1846533 11316903
0.78563863 0.0048526335 0.18480514 11316902
0.78553319 0.014965641 0.18478023 11250852
0.78485709 0.024926284 0.18475159 11316387
0.78408003 0.03512831 0.18535684 11577505
0.78360015 0.045197468 0.18524364 11380126
0.7837202 0.055294849 0.18527193 10987167
0.78300017 0.065323867 0.18510059 11118752
0.78231996 0.075341746 0.18493986 10130574
0.78348005 0.084626682 0.18521452 13684164
0.78724241 0.095087461 0.18504222 14342352
0.78900003 0.10184405 0.18097657 11579564
0.79242861 0.105383 0.18511777 11645612
0.78866667 -0.15286365 0.19530098 12302515
0.79100001 -0.15767239 0.19505851 10788763
0.78539991 -0.14500098 0.19485991 12894907
0.7845518 -0.13489754 0.19477716 12500663
0.78411549 -0.12478042 0.19440232 12499890
0.78466672 -0.11455183 0.19467857 12499635
0.78491998 -0.1044841 0.19474103 12302260
0.78472 -0.095272176 0.194692 12302776
0.78496659 -0.085194901 0.19475259 11974321
0.78487998 -0.075080469 0.19473062 12040365
0.78400022 -0.06490133 0.19451243 12237228
0.78356028 -0.054776594 0.19440442 11974315
0.78302896 -0.044526152 0.19505721 11842218
0.78296697 -0.034572143 0.19517282 11710890
0.78300029 -0.025408616 0.19518094 11381925
0.78315187 -0.015579052 0.19480197 11381667
0.78515989 -0.0052591441 0.19480056 11315874
0.78629994 0.0048577636 0.19508368 11184545
0.78628016 0.014979601 0.19507872 11184802
0.78569984 0.025084354 0.19493489 10594462
0.78527999 0.035182074 0.19483061 10593692
0.7852999 0.04529532 0.19483605 11709862
0.7850399 0.055387884 0.1947708 11840680
0.78440011 0.065440431 0.19461264 11907498
0.7830717 0.075610355 0.19487169 10854297
0.78424013 0.084709734 0.19457257 13618884
0.78781247 0.09547019 0.19511209 14539472
0.78900003 0.10184405 0.19760013 11579304
0.79111546 0.10610864 0.19520816 11645610
0.78900003 -0.16043893 0.20775899 9670282
0.79267865 -0.16516767 0.20474727 9736588
0.78751844 -0.15426815 0.2053521 11316131
0.79000002 -0.15879287 0.20154938 10525853
0.78496665 -0.14491881 0.20485877 12433840
0.78452784 -0.13473508 0.20474339 12434870
0.78499997 -0.12470873 0.20486742 12369335
0.78513885 -0.11462279 0.20490399 12499890
0.78539979 -0.10454689 0.204973 12696241
0.7857666 -0.095399395 0.20506929 12367536
0.78497213 -0.085196972 0.20486052 12237234
0.78370029 -0.074967965 0.20452641 12238518
0.78350037 -0.064858578 0.20447534 12172210
0.78430015 -0.054827221 0.2046864 12171952
0.78380662 -0.044851411 0.20529768 12368559
0.78340018 -0.034591358 0.20536886 12434093
0.78392011 -0.02543837 0.2055047 12039591
0.78363663 -0.01508941 0.20492855 11776934
0.78489995 -0.0052571367 0.20484109 11842214
0.7856943 0.0048532365 0.20504783 11579300
0.78543323 0.014963269 0.20497939 11644841
0.78486127 0.025057381 0.20482966 10987683
0.78496659 0.035169456 0.20485875 10724511
0.78513885 0.045286402 0.20490415 11119012
0.78549987 0.055420529 0.20499881 11183779
0.7851935 0.064766899 0.20477107 11907498
0.78437513 0.074505083 0.20527978 10723994
0.78486663 0.084776141 0.20483375 13749700
0.78812903 0.095127925 0.20494042 14867667
0.78900003 0.10184405 0.20498839 11579046
0.79009998 0.10661048 0.20527379 11711145
0.79243338 0.11527567 0.20494993 11711402
0.78900009 -0.1612785 0.21556702 9604234
0.79125005 -0.16622418 0.21460254 9736587
0.78729635 -0.15477045 0.21519469 11907244
0.78507996 -0.14493938 0.21499772 12368306
0.78392875 -0.13496077 0.21474835 12565171
0.78403711 -0.1249624 0.21464427 12565685
0.78499991 -0.1146019 0.21497534 12499632
0.78511995 -0.10451027 0.21500777 12761775
0.78568 -0.09538807 0.2151605 12498090
0.78493547 -0.085045792 0.21513508 12103849
0.78293359 -0.07489384 0.2153254 11974320
0.78297257 -0.064815767 0.21533592 11777199
0.78407711 -0.054951824 0.21493295 12040624
0.78483331 -0.044760667 0.21492979 12237745
0.78464007 -0.034646675 0.21487752 12106156
0.78448004 -0.02545739 0.21483248 11974313
0.78348517 -0.015088112 0.21506038 11908523
0.78362983 -0.0054515749 0.21500674 11579558
0.78499991 0.004848524 0.21497536 11381923
0.78483999 0.01495245 0.21493171 11316388
0.7840668 0.025032636 0.21472096 11382435
0.78500003 0.03517168 0.21497627 11382180
0.7857666 0.045323018 0.2151859 11382182
0.78571999 0.055436987 0.21517299 11250856
0.78600001 0.064655997 0.21524921 12039601
0.78480643 0.074808389 0.21509996 11184288
0.78511113 0.084598839 0.21541275 13750471
0.78821874 0.094998881 0.21481872 14934231
0.78900003 0.10184405 0.21145311 11645352
0.79064012 0.10561089 0.21511447 11842988
0.79183996 0.11518691 0.21499667 11645866
0.7924999 0.12475915 0.21457513 11580074
0.79357141 -0.1743115 0.22494929 10790046
0.78885716 -0.16212502 0.22552899 9539211
0.79035711 -0.16679467 0.22423853 9671054
0.78660715 -0.15423383 0.22521281 11776430
0.78400016 -0.14474003 0.2247932 12171954
0.78438902 -0.1347114 0.22490591 12565426
0.78470004 -0.12466092 0.22499569 12696497
0.78499991 -0.1146019 0.22508271 12697525
0.78499991 -0.10449457 0.22508273 12566195
0.78499991 -0.095306084 0.22508274 12762547
0.78465718 -0.085294366 0.22511567 12563115
0.78284001 -0.07488551 0.22537951 12366763
0.78290015 -0.064809851 0.22539742 12236973
0.7830348 -0.054612312 0.22467585 11909037
0.7833336 -0.044674758 0.22460257 12105648
0.78336698 -0.03458973 0.22461277 11908527
0.78346699 -0.025423996 0.22464117 11447719
0.78315187 -0.015580541 0.22496857 11316391
0.78375012 -0.0050525474 0.22505069 11382187
0.78444457 0.0048450925 0.22492109 11184810
0.78493327 0.014954915 0.22506335 10921892
0.78508323 0.02506604 0.22510698 10856095
0.78556657 0.035196565 0.22524436 11119265
0.78574973 0.045321453 0.22529644 11250336
0.7856999 0.05543495 0.2252821 11052703
0.78583318 0.064641736 0.22532089 11908527
0.78417164 0.074468173 0.22497524 11052445
0.78450012 0.084934928 0.22526625 13816006
0.78810006 0.093427449 0.22504945 14672087
0.79000002 0.09827432 0.22559166 15001054
0.79241377 0.10433584 0.22461873 11711661
0.79240733 -0.17418844 0.23479813 10592669
0.78899997 -0.16215406 0.23427753 9801868
0.79000002 -0.16686301 0.23517494 9736332
0.78644449 -0.1546043 0.23521374 12170926
0.78320014 -0.14459257 0.23465081 12237489
0.78350025 -0.13455787 0.23473974 12303026
0.78436005 -0.12460655 0.23499753 12235178
0.78489286 -0.11491472 0.23496059 12300713
0.78448159 -0.10483385 0.2352369 11974315
0.78456002 -0.095252104 0.23505639 12106159
0.78433341 -0.085128628 0.23498988 12564656
0.78262985 -0.074662268 0.23488645 12563372
0.78205538 -0.064740039 0.23522298 12563887
0.78196651 -0.054664891 0.23519607 12237231
0.78188872 -0.044591535 0.23517235 12303541
0.78265393 -0.034698062 0.23469861 11974836
0.78300017 -0.025408614 0.23459092 11777200
0.78264719 -0.015105493 0.23513055 11579821
0.78239995 -0.0052414816 0.23532532 11448235
0.7826767 0.0046193847 0.23513934 11447979
0.7835201 0.014928608 0.23474562 11579308
0.78443336 0.025044616 0.23501839 10987428
0.78479993 0.035162348 0.23512954 10987684
0.78426671 0.045235526 0.23496866 11382435
0.78476006 0.055368878 0.23511726 11446945
0.78499991 0.06498152 0.23539355 11578792
0.78367883 0.074880652 0.234597 11052188
0.78468013 0.084757708 0.23509558 13683907
0.78804547 0.093253046 0.23476054 15066330
0.79000002 0.09827432 0.23483868 14540246
0.79303706 0.10429483 0.23498401 11579819
0.78900003 -0.16105461 0.24377672 10065809
0.79084212 -0.16568714 0.24522388 9604746
0.78696156 -0.15435924 0.24520133 12039340
0.78353351 -0.14465527 0.24483904 12828341
0.78311801 -0.13476223 0.24470921 12632246
0.78350031 -0.12481457 0.24482821 12630450
0.78363359 -0.11532129 0.24486926 12563886
0.78275019 -0.10511177 0.24459325 12367791
0.78293353 -0.095054768 0.24465106 12040366
0.78313929 -0.084997565 0.24471456 12433840
0.78242868 -0.075042717 0.24481983 12694960
0.78199977 -0.064735696 0.2452753 13089204
0.78152001 -0.054635111 0.24512388 12565168
0.77900004 -0.044528481 0.24858952 12630703
0.78081816 -0.045111213 0.24390621 12631475
0.78190637 -0.034923449 0.24472834 11645095
0.78243351 -0.025390305 0.24449369 10987427
0.78215617 -0.015540103 0.24498029 10987169
0.78199983 -0.0052387239 0.24527535 11119011
0.78218734 0.0050609387 0.24499011 11184547
0.78260016 0.014910145 0.24454579 11118752
0.78286147 0.024995539 0.2446284 10921374
0.78320038 0.035090387 0.24473399 10921889
0.78305596 0.045165755 0.24468946 10922145
0.78383344 0.055305358 0.24493207 11316128
0.78474998 0.065470733 0.24521913 11512999
0.78316694 0.075423546 0.24472386 11644070
0.78496444 0.084591858 0.24495685 13815750
0.78852379 0.093520917 0.24477191 15263195
0.79014289 0.098027892 0.24571602 13026490
0.79330766 0.10440508 0.2448933 11447975
0.78900003 -0.16074677 0.25547481 10526105
0.79195243 -0.16598651 0.2551043 9604746
0.78657138 -0.15442422 0.25499362 12039598
0.7832002 -0.14459248 0.2548188 12630451
0.78274089 -0.13514176 0.25507572 12500662
0.78244472 -0.12521915 0.2554875 12171182
0.78300023 -0.11536736 0.2549651 12431787
0.78270608 -0.10489076 0.25530455 12103847
0.78229988 -0.094978049 0.25544089 12237231
0.78197217 -0.084871389 0.25533393 12238002
0.78100002 -0.074709386 0.25501508 12630964
0.77900004 -0.061751872 0.25892356 14208454
0.78094119 -0.064863145 0.25472698 13023924
0.7790001 -0.05400135 0.25755581 13221300
0.78036839 -0.055130783 0.25303164 12826544
0.77900016 -0.045147028 0.25633201 13090226
0.78000009 -0.046440613 0.25195196 13419706
0.77900004 -0.039868034 0.25892356 14406085
0.78080016 -0.03525725 0.25482118 12827567
0.7815333 -0.025361646 0.25518972 12169896
0.77900004 -0.013425065 0.25892356 13025206
0.78118753 -0.015520666 0.25450462 12038570
0.77900004 -0.0048133703 0.25811303 12696500
0.78066665 -0.005404253 0.2532973 11710118
0.7790001 0.0043969993 0.25809461 13025461
0.78104001 0.0050070393 0.25338289 12170154
0.77900004 0.013382634 0.25819409 13025205
0.78100008 0.015171821 0.25424653 12235946
0.78166658 0.024958871 0.25523323 11973289
0.78239995 0.035054464 0.25547317 11514281
0.78236109 0.045125861 0.25546038 11382698
0.78279322 0.055104099 0.25544319 11118497
0.78306079 0.065578759 0.25527117 11381155
0.77900004 0.07623788 0.25831568 12828602
0.78137028 0.075114258 0.25469515 11381156
0.78396553 0.084682338 0.25506473 14144456
0.78833336 0.092531256 0.25464374 15393754
0.79049999 0.097411811 0.25534362 13551807
0.79253125 0.11493589 0.2548362 11447976
0.79159999 0.12441847 0.25477123 11514025
0.78864706 -0.16210561 0.26517099 9802382
0.79041672 -0.1668954 0.26472133 9605003
0.78525001 -0.15410031 0.26487231 12434356
0.78276688 -0.14451188 0.26475543 12762292
0.78210706 -0.13543259 0.26485923 12696754
0.78046691 -0.12490222 0.26489073 12566453
0.78196537 -0.11494716 0.26464108 12498350
0.7816875 -0.1051981 0.26496154 12300457
0.77900004 -0.090930313 0.26986548 12895672
0.78120005 -0.094844721 0.26513928 12039595
0.77900004 -0.085915275 0.26986548 12237743
0.78113329 -0.084779844 0.26511663 12040622
0.77900016 -0.073535472 0.26790154 12302512
0.78022218 -0.075649709 0.26409855 12433841
0.77864295 -0.065304898 0.26550868 12629936
0.78000003 -0.066396125 0.26108193 12234921
0.77775025 -0.055280983 0.2648772 13023408
0.77776664 -0.045266509 0.26488221 13089200
0.77807689 -0.035827648 0.26625025 12891822
0.78050011 -0.03391457 0.26252776 12300199
0.77773923 -0.025000637 0.26610059 12300713
0.78042859 -0.02610907 0.26174745 11774627
0.77705711 -0.0150817 0.26477066 11972262
0.78000003 -0.019833278 0.26108193 10919831
0.77653337 -0.005202258 0.2644628 11775138
0.7764169 0.0047958023 0.26442289 12104358
0.77720004 0.014808589 0.26468891 11906725
0.77819228 0.024215994 0.26636019 11709603
0.78030008 0.026558071 0.26227817 11315362
0.77864301 0.034625217 0.26804838 11710888
0.78068751 0.035205886 0.26336706 11381925
0.77890015 0.044197191 0.26910138 10856613
0.78103852 0.045330916 0.26452175 11119785
0.77900004 0.051314622 0.26986548 10987174
0.78161532 0.055288441 0.26506898 11710640
0.77900004 0.069551148 0.26895365 11644066
0.78153139 0.064800583 0.2646226 11842475
0.77806902 0.075056925 0.26514378 11973291
0.78000003 0.071466424 0.26108193 11578533
0.77850008 0.081352934 0.26718503 14341835
0.78321731 0.085557036 0.26478687 14473164
0.78821063 0.092711605 0.26499438 15328732
0.79036367 0.097478911 0.26505479 13026236
0.79315001 0.12466212 0.26455802 11448233
0.78843749 -0.16240177 0.27521074 9736588
0.79039997 -0.16738521 0.27473897 9605002
0.78472006 -0.15472257 0.27463818 11908012
0.78167725 -0.14466593 0.27515975 12368049
0.77900004 -0.13105069 0.27898374 11119263
0.78106892 -0.1351821 0.2749933 11973289
0.77899998 -0.12610076 0.27820215 11580072
0.78031033 -0.1245318 0.27397254 12106415
0.7790001 -0.11311811 0.27670419 12630450
0.78022218 -0.11583224 0.27333248 12499378
0.77879184 -0.10518757 0.2756418 13090230
0.78000009 -0.1041942 0.27094233 13156538
0.77853858 -0.095082179 0.27552238 12433839
0.78000003 -0.094699033 0.27057713 12368302
0.77830768 -0.085243687 0.27529907 12106672
0.78000003 -0.083743066 0.27021191 12566709
0.77766663 -0.075053252 0.2753582 12369075
0.77650017 -0.065190233 0.27535912 12958642
0.77544457 -0.055117726 0.27498507 13155763
0.77469999 -0.045088887 0.2747207 13418420
0.77458328 -0.035109065 0.27467868 13155251
0.77456671 -0.025134714 0.27467278 12366506
0.77461106 -0.015163198 0.27468964 11973034
0.77403325 -0.005185979 0.27448454 12433070
0.7739445 0.0047803055 0.27445328 12367530
0.77456665 0.014757794 0.27467415 12367528
0.77552795 0.02476212 0.27501404 12039076
0.77596682 0.034765836 0.27516946 11908267
0.77641654 0.044784084 0.27532774 11974577
0.77750027 0.054661445 0.27603689 11776944
0.78016669 0.056566674 0.27087829 11316139
0.7775625 0.065098733 0.2763035 11579561
0.78033346 0.06378331 0.27113897 11514026
0.77603352 0.074735612 0.27519342 11512481
0.77695847 0.083164863 0.27567372 14670800
0.78140008 0.08842428 0.27453688 15262424
0.78643483 0.094073884 0.27476001 14210252
0.79000002 0.09827432 0.27275145 11447206
0.78819048 -0.16264799 0.284648 9802126
0.79028571 -0.16757226 0.28566915 9539211
0.78454179 -0.15425596 0.28533021 12039343
0.77900004 -0.14016895 0.28901383 12302259
0.78117239 -0.14510296 0.28436428 12499893
0.77900004 -0.13439402 0.28605038 12301998
0.78000003 -0.13608822 0.28299385 12170668
0.77897042 -0.12493137 0.28535563 12105646
0.78000003 -0.12026295 0.28116786 11579044
0.77858055 -0.11475288 0.28535837 12236461
0.77740014 -0.10530335 0.28477895 12367020
0.77663922 -0.09520103 0.28450072 12301998
0.77613819 -0.085271306 0.28447318 11711402
0.77548575 -0.075116679 0.28482866 12039340
0.77426666 -0.065002583 0.28544322 12629165
0.77325016 -0.054961007 0.28506839 12892335
0.77283347 -0.04498072 0.28491491 12826798
0.77233338 -0.035007242 0.28473043 12629677
0.77230018 -0.025061239 0.28471738 11840420
0.77233332 -0.01511822 0.28472969 11579048
0.77223325 -0.005173529 0.28469291 11842218
0.77252793 0.0047718477 0.28480247 11973033
0.77306682 0.014729374 0.28500143 11841188
0.77355558 0.024698272 0.2851814 11710115
0.77353364 0.034656662 0.28517309 11513509
0.77361119 0.044621393 0.28520128 11710894
0.77384388 0.054937869 0.28551266 11908273
0.77414721 0.064852953 0.28518438 11776169
0.7737059 0.075151764 0.28544927 11907753
0.77575767 0.085280314 0.28491735 14802901
0.77900004 0.091434985 0.28810203 15394525
0.78551853 0.095885389 0.28499234 13092541
0.78900003 0.10245974 0.28933764 11185061
0.78900003 0.11846761 0.28995332 11382440
0.78900003 0.12493235 0.28995332 11448233
0.78866667 -0.16221824 0.29536963 9670284
0.79049999 -0.16722155 0.295131 9407625
0.78546154 -0.15420811 0.29508823 11644328
0.77900004 -0.14016895 0.2917493 10921634
0.78116673 -0.14437099 0.29484734 11908527
0.77900016 -0.13399659 0.29343265 11513254
0.78049999 -0.13571917 0.29809764 11974577
0.77869231 -0.12496957 0.29514056 12105648
0.78000003 -0.12939292 0.29942781 10657944
0.77782148 -0.11505064 0.29495007 12105906
0.77692014 -0.10523816 0.29460797 12499634
0.77616704 -0.095142886 0.29432258 12236205
0.77564287 -0.084897332 0.29470816 11777194
0.77482343 -0.075239629 0.29498717 11842473
0.77352011 -0.06494052 0.29512945 12629679
0.77211756 -0.054668527 0.29523209 12564657
0.77176654 -0.04491793 0.29536426 12827828
0.77102774 -0.034947712 0.29508087 12762035
0.7705667 -0.025005847 0.29490337 11973549
0.77027798 -0.015078114 0.29479265 11710891
0.77073342 -0.005162545 0.2949675 12105649
0.77119434 0.0047638714 0.29514503 11842218
0.7719999 0.014514557 0.29513034 11907237
0.77268761 0.024445366 0.29515028 11907495
0.77300012 0.034632921 0.29493096 11710891
0.77290344 0.044667244 0.29506874 11579308
0.77224225 0.055142827 0.29513416 11710895
0.77284002 0.065383166 0.29487002 11579049
0.77263337 0.075314477 0.29479134 12039084
0.77392602 0.085608445 0.29488012 14868440
0.77766663 0.091582425 0.29549772 15263198
0.7840476 0.096666336 0.29477227 12434357
0.78860009 0.10271595 0.29534423 11316646
0.79033339 0.10756709 0.29506838 11250853
0.78900003 0.11685144 0.29341659 11382183
0.79028577 0.11399156 0.29571262 11250853
0.78899986 0.12532812 0.29417515 11316647
0.79011112 0.12418291 0.29899347 11316647
0.78900009 0.13324413 0.29465491 11382440
0.79026318 0.13637903 0.29499242 11382440
0.78881818 -0.16174528 0.30382064 9538953
0.79050004 -0.16629668 0.30597028 9408393
0.78708017 -0.15452322 0.3050957 10855323
0.78416663 -0.14492433 0.30485693 11183777
0.78347623 -0.13521102 0.30548254 10921375
0.77900004 -0.12193243 0.30086759 10330011
0.78214282 -0.12521441 0.30496192 11053475
0.77900004 -0.11463781 0.30086759 10329758
0.78300005 -0.11488013 0.30619657 11775660
0.77840006 -0.10543968 0.30063587 10921634
0.78317654 -0.10489795 0.30604333 11250090
0.77800006 -0.094638348 0.30121082 12105133
0.78381824 -0.095495656 0.30706832 11250597
0.77771431 -0.086099878 0.30167192 10856094
0.78281826 -0.085381724 0.30700833 10527387
0.77680957 -0.074136563 0.30452713 11250850
0.78100008 -0.07775598 0.30834469 11842990
0.77472007 -0.065041363 0.30465814 11841704
0.77369225 -0.055270679 0.30481088 11578533
0.77360004 -0.045024589 0.30512378 12169899
0.77283317 -0.035030071 0.30482182 12235694
0.77205008 -0.025054336 0.30451289 11776173
0.77133346 -0.015098645 0.30423 11578537
0.77280009 -0.0051749847 0.30480933 11316132
0.77514297 0.004399702 0.30534488 11381924
0.77500004 0.015083726 0.30434266 11250593
0.77404165 0.025089318 0.30409062 11316386
0.77404016 0.034679238 0.30439204 11448232
0.7739656 0.044547524 0.30448747 11316394
0.77364004 0.055452179 0.30445039 11381929
0.77348161 0.065034054 0.30437121 11184549
0.77325827 0.075286381 0.30425686 11513511
0.77384001 0.085396945 0.30431041 14144974
0.77763647 0.092103653 0.30447707 14604756
0.78452939 0.097598612 0.30483592 11513255
0.78900003 0.1021519 0.30411413 11250595
0.79175001 0.10660278 0.30544603 11119266
0.79310006 -0.1649904 0.31467202 10461336
0.78887504 -0.15441202 0.31206861 9934477
0.79114282 -0.15598094 0.31667158 10724507
0.78842866 -0.14476617 0.3136068 10197908
0.79037499 -0.14591715 0.31775048 10527130
0.78799999 -0.13468596 0.31403035 10066581
0.79000002 -0.13475062 0.31898654 10461339
0.78764999 -0.12512992 0.31435275 9803152
0.79000002 -0.12550358 0.31991127 10527131
0.78806245 -0.11550924 0.31336278 9736846
0.79050004 -0.1144781 0.31780082 9868944
0.78850007 -0.10496048 0.3128438 9079177
0.79100001 -0.10529326 0.31753978 9737358
0.78846163 -0.094448678 0.31304151 10131859
0.79081815 -0.095508069 0.31755063 9342858
0.78738892 -0.084026143 0.31404373 10329498
0.79000002 -0.085741401 0.31852418 9079433
0.78472227 -0.0753754 0.31532896 9540497
0.778 -0.064535327 0.31193024 9013894
0.78299993 -0.064887539 0.31722009 9211274
0.77750003 -0.055990882 0.31193855 9144450
0.78287506 -0.054500189 0.31679887 9211274
0.778 -0.045277975 0.31140924 11183519
0.78408337 -0.044716191 0.31659958 10066586
0.7768333 -0.035211671 0.31094223 11974065
0.78411114 -0.035029575 0.31671295 10526880
0.77666664 -0.024595989 0.31117949 11646385
0.78371429 -0.025433462 0.31684378 10001819
0.7770834 -0.015211296 0.31195393 10462108
0.78333336 -0.015333542 0.3172116 9805208
0.77750003 -0.0061157215 0.31120908 11908267
0.78418183 -0.0049170847 0.31639001 9803405
0.78611767 0.0045857974 0.31574565 10065805
0.79000002 0.0058041085 0.31991127 9934991
0.78569233 0.015390802 0.31477547 9868681
0.79000002 0.015051131 0.31991127 10527128
0.78642857 0.025109498 0.31676036 9737352
0.79000002 0.020599341 0.31991127 10132368
0.77900004 0.038549047 0.31180951 9606024
0.78450012 0.034884792 0.3159838 9737610
0.77883339 0.044921245 0.31174281 11119269
0.78441674 0.045242209 0.31673416 9408400
0.77737504 0.05552968 0.31184262 10855846
0.78266668 0.055220105 0.3169432 9803416
0.77663165 0.065416515 0.3129696 10461084
0.78120005 0.062796615 0.31781128 11119272
0.776389 0.074669451 0.31349391 10460822
0.78075004 0.074732393 0.31936446 9934736
0.77692872 0.083917975 0.31241137 12764093
0.78242862 0.085557804 0.31763077 11119012
0.78547621 0.095878102 0.31501728 11513769
0.78900003 0.10184405 0.3130416 11053218
0.79270601 0.1054927 0.3154369 11053218
0.79280001 -0.14450932 0.32475924 10724510
0.7920385 -0.13531271 0.32537386 10658716
0.7922799 -0.12475231 0.32528812 10527131
0.79291308 -0.085374139 0.32512888 10066325
0.78844452 -0.073780864 0.32256344 9803409
0.79100001 -0.075549603 0.32703021 10066580
0.78814298 -0.065769933 0.32337806 9869201
0.79111105 -0.064975172 0.32859328 10132373
0.78800005 -0.05508595 0.32223853 9343116
0.79166669 -0.054928638 0.32717669 10066580
0.78850007 -0.044967204 0.32114974 9607064
0.79283345 -0.045214336 0.32663026 9540493
0.78820008 -0.03480424 0.32102755 11251624
0.79306668 -0.035017885 0.32672691 9408650
0.78825009 -0.023732791 0.32150966 10264985
0.78820008 -0.014506211 0.32195109 9475728
0.78860009 -0.0052815331 0.32119045 9409163
0.79291672 -0.005775182 0.32620028 9145734
0.78900003 0.037196834 0.32135338 8619389
0.78866673 0.045180768 0.32152545 9606546
0.79299992 0.044544749 0.32683101 9145735
0.78775007 0.05465652 0.32238212 9080203
0.79093331 0.054691263 0.32781979 9408650
0.78665 0.065166436 0.3247292 9211527
0.79000002 0.061286233 0.32915828 9606029
0.78625011 0.07516773 0.32539138 9868945
0.78728575 0.084905393 0.32381687 10527132
0.79066664 0.085710287 0.32881919 10724511
0.78866673 0.092877842 0.32183331 10724512
0.79228574 0.095512994 0.32640412 10856096
0.79258615 -0.14434277 0.33471331 11053475
0.7918148 -0.1350593 0.33506241 10987682
0.7928887 -0.12503386 0.33500209 10921889
0.78900003 0.068596907 0.3305887 9803410
0.79163158 0.064923845 0.33462003 9803408
0.78900003 0.073214576 0.3305887 10000530
0.79150003 0.075195625 0.33482996 10197910
0.79320002 -0.11487152 0.34534675 10987682
