# .PCD v0.7 - Point Cloud Data file format
VERSION 0.7
FIELDS x y z rgb
SIZE 4 4 4 4
TYPE F F F U
COUNT 1 1 1 1
WIDTH 730
HEIGHT 1
VIEWPOINT 0 0 0 1 0 0 0
POINTS 730
DATA ascii
0.8064 0.21169448 -0.11519061 5065289
0.81900007 0.21883678 -0.11124002 4340531
0.82300007 0.22279848 -0.11274546 4405296
0.83500004 0.22800235 -0.11243934 4602674
0.83900005 0.23105517 -0.11101034 4536881
0.80825007 0.21123435 -0.10505047 9736588
0.81250006 0.21329583 -0.10369521 4603965
0.82150006 0.21950479 -0.10676879 3945261
0.82500011 0.22159925 -0.10548748 4405554
0.8365714 0.2271698 -0.10438999 4668726
0.84428567 0.23350309 -0.10549413 4471090
0.85180008 0.23876853 -0.10333166 4339504
0.8083334 0.21030967 -0.096545734 11708837
0.81480008 0.21389961 -0.095410794 4996665
0.82700008 0.22097439 -0.096837647 4602676
0.83640003 0.2258369 -0.097155832 4536883
0.8405 0.22851682 -0.093499005 4340018
0.84866667 0.23371732 -0.097387992 4537140
0.85179996 0.23697504 -0.09575589 4668983
0.85400003 0.24218339 -0.098000795 3879467
0.80800003 0.2121145 -0.086102843 4536111
0.81200004 0.21316457 -0.089379273 4470320
0.84100002 0.22865276 -0.088633798 4537395
0.85100001 0.23336378 -0.089687705 4800567
0.80900002 0.21048312 -0.06253469 11511718
0.81550002 0.21505022 -0.063045323 8419701
0.82150006 0.21950477 -0.062538758 5064256
0.82700008 0.2229104 -0.061987702 5130563
0.83600003 0.22794573 -0.061359931 5196612
0.81000006 0.20884709 -0.054078974 14013653
0.81400001 0.21178401 -0.055298351 9275786
0.82157147 0.21787645 -0.05471525 5393226
0.82587504 0.22164267 -0.054414455 5196612
0.8338182 0.22741184 -0.054874718 5459784
0.83600003 0.23218685 -0.052880377 5525577
0.82000005 0.21814415 -0.048987709 5130570
0.82357138 0.2244684 -0.047136459 5261895
0.83000004 0.22954816 -0.048613597 5327944
0.79210001 0.015092778 0.1251298 10987936
0.79329032 -0.14477929 0.13474612 12367533
0.78900003 -0.13458005 0.13849412 12170410
0.79200029 -0.13509174 0.1334538 12368559
0.78900003 -0.12534472 0.13849412 12170157
0.79258621 -0.12514499 0.13342386 11908525
0.78900003 -0.11518588 0.13849412 13092546
0.79323095 -0.11508763 0.13380092 11908782
0.78900003 -0.10502703 0.13849412 13092801
0.79311556 -0.10536183 0.13349622 12106416
0.7887333 -0.094283096 0.13696983 11776939
0.7906 -0.095617652 0.13285157 12172208
0.78821737 -0.084625714 0.13650937 12040367
0.79000002 -0.084200226 0.13158026 12434353
0.78819984 -0.075397253 0.13742907 11974834
0.79061544 -0.074346744 0.13251241 12500403
0.78805262 -0.065090925 0.13813192 11909299
0.79172206 -0.064510025 0.13248152 12237489
0.78866673 -0.0555427 0.13761468 11515311
0.79228574 -0.055209324 0.13279495 11974574
0.78900003 -0.04739866 0.1381247 12305085
0.79316121 -0.044845507 0.13388583 11777197
0.79311109 -0.024807792 0.13456535 11579819
0.78900003 -0.010826807 0.13849412 10527126
0.78900003 -0.0046699299 0.13818629 11841446
0.79239142 -0.0056331274 0.13351817 11841187
0.78900003 0.0032570497 0.13780147 12039083
0.79036373 0.0054695671 0.13393857 11710632
0.79096013 0.015070825 0.1351328 11119781
0.7926563 0.025018796 0.1348958 10856096
0.78900003 0.055051778 0.13849412 11712177
0.78900003 0.063055724 0.13849412 12370107
0.78900003 0.072291039 0.13849412 11579819
0.78900003 -0.16043893 0.1495765 10591384
0.79281479 -0.16486187 0.14513966 11052703
0.78773689 -0.1541665 0.14661676 12170413
0.79109097 -0.15615164 0.14205875 10591896
0.78590631 -0.14485928 0.14547069 12827826
0.79000002 -0.14769644 0.14051905 11709343
0.78644127 -0.13506354 0.14448126 12761775
0.78558832 -0.12496445 0.14502384 12762033
0.78669447 -0.11484853 0.14452852 12565426
0.78683347 -0.10473862 0.14455669 12434097
0.78668743 -0.095166028 0.14429989 12762549
0.78533334 -0.085175522 0.14513984 12368048
0.78420013 -0.075015433 0.14499067 11447718
0.78439987 -0.06493289 0.14502773 12039596
0.78619999 -0.054959726 0.1444398 12302768
0.78700006 -0.044882569 0.14458638 12368561
0.78776652 -0.034783863 0.14472786 12303284
0.78785288 -0.024752036 0.14474429 12039854
0.79000002 -0.025635764 0.14051905 12567486
0.78754842 -0.014672589 0.14483701 12039853
0.78716671 -0.0052738045 0.14461751 11579304
0.78744435 0.004864858 0.14466861 11710632
0.78746659 0.015002319 0.14467183 11250340
0.78694439 0.025124582 0.14457534 11250596
0.787 0.035260163 0.14458591 10921375
0.78608829 0.045067843 0.14463322 11052703
0.78529412 0.055241443 0.14442873 10986910
0.78438473 0.065085873 0.14529817 11644326
0.77885723 0.07578925 0.14895591 9473672
0.78535491 0.07492207 0.14371507 11250083
0.77860004 0.081910186 0.14869817 10985369
0.78539282 0.08502692 0.14474455 12828343
0.79000002 0.088102594 0.14051905 15000022
0.78766668 0.093068548 0.14686254 14670543
0.79173344 0.096020013 0.14329572 13487299
0.78871435 -0.16090856 0.15585211 10196628
0.79215002 -0.16618252 0.15490264 10328726
0.7848261 -0.15488188 0.15501252 11249315
0.77800006 -0.14474097 0.15477444 12171184
0.7808333 -0.14659132 0.15259559 12697014
0.77780783 -0.13491149 0.15522586 12434099
0.78142864 -0.13590048 0.15049218 13090485
0.7778002 -0.12531334 0.15480672 12499892
0.78120005 -0.12410839 0.150657 13090742
0.77853858 -0.11723236 0.15670572 12960185
0.78160006 -0.11410496 0.15320306 12894391
0.78347242 -0.10520604 0.15494472 12894392
0.78400016 -0.095185131 0.15504907 12894135
0.7826947 -0.084950626 0.15479304 12630963
0.78159994 -0.074767418 0.15457685 12368562
0.78169435 -0.064708866 0.15459505 12368303
0.78236669 -0.054692376 0.15472712 12236717
0.7823714 -0.044750109 0.15459621 12368563
0.7829355 -0.034746956 0.15498528 12171697
0.78386664 -0.025436271 0.15502077 11974059
0.78419471 -0.015350431 0.15508623 11644581
0.78346664 -0.0052498751 0.15494297 11842218
0.78297216 0.0048360317 0.15484506 11842219
0.78273338 0.014912295 0.15479867 11710890
0.78311145 0.025002841 0.1548755 11119010
0.78313345 0.035086535 0.15487771 11184546
0.77900004 0.049490962 0.15862264 11184806
0.78157151 0.044947412 0.15443809 11184289
0.77900016 0.055613231 0.15679899 10789792
0.78057146 0.054027874 0.15228441 10855325
0.77892309 0.065265715 0.15552092 11579563
0.78000003 0.063249454 0.15152228 10723997
0.7776401 0.074889548 0.15470392 9737100
0.77750009 0.084565699 0.15487123 12433069
0.78099996 0.089841403 0.15171498 13880002
0.77900004 0.091434985 0.15862264 13156791
0.78496438 0.095817372 0.15491077 14933202
0.78880006 0.10218765 0.15655509 14802644
0.7920953 0.10639655 0.1548415 12105646
0.78866673 -0.16098683 0.16274552 10065297
0.79273683 -0.16589241 0.16562042 9999503
0.78620839 -0.15481563 0.1656131 10723485
0.77864295 -0.14296909 0.16401987 12170927
0.78108341 -0.14679238 0.16575174 11316134
0.77767652 -0.13511124 0.16451335 12038828
0.77816671 -0.1250799 0.16428488 12235949
0.78039998 -0.12251629 0.16950409 12434612
0.77872735 -0.1167512 0.162048 12958900
0.78066671 -0.11366387 0.16566341 12234406
0.78193319 -0.10500083 0.16471155 12432555
0.78219986 -0.094966322 0.16476685 12433069
0.78203309 -0.084876552 0.16473265 11974063
0.78252023 -0.074853785 0.16483632 11842989
0.78273368 -0.064796098 0.16488202 12171694
0.78244001 -0.054698769 0.16482019 12303280
0.7813462 -0.045335624 0.16479975 12369074
0.78044456 -0.035373915 0.16530976 12368818
0.78080004 -0.025336521 0.16538446 12039596
0.78193313 -0.015305747 0.16471125 12038569
0.78199983 -0.0052387239 0.16472553 12169900
0.78199977 0.0048299949 0.16472557 12170157
0.78239989 0.01490699 0.16481094 12170157
0.78296691 0.024998488 0.16492933 11381408
0.78223985 0.035046343 0.16477685 11250592
0.77900004 0.048275195 0.16348571 11185063
0.78075004 0.044117332 0.1653768 10921888
0.7790001 0.054961924 0.16377644 11053219
0.7801429 0.055043228 0.16929162 10987424
0.77851725 0.065108873 0.16386741 11316131
0.78042859 0.064457551 0.16961466 11118497
0.77766681 0.074892685 0.16472514 9539465
0.77758336 0.08489918 0.16470662 13092028
0.77900004 0.091434985 0.16135812 12565167
0.78328001 0.095904917 0.16521223 13881285
0.78850001 0.10270304 0.1651718 13355455
0.79133332 0.10770483 0.16483903 11711659
0.78740001 -0.15366523 0.17508045 11710378
0.7902 -0.15883306 0.17570314 9998990
0.77900004 -0.14016895 0.17138821 13290432
0.78208005 -0.14460756 0.17528856 12237231
0.77900004 -0.13538186 0.17207208 12566713
0.78105879 -0.13473107 0.17689808 12302513
0.78186667 -0.12512518 0.17568111 12434614
0.78260028 -0.1151675 0.17493001 12565685
0.78263927 -0.1050962 0.17493834 12631477
0.7821998 -0.094966911 0.17483932 12500147
0.78199977 -0.08487314 0.17479426 12302511
0.78283364 -0.074883342 0.17498036 12433330
0.78405899 -0.065119721 0.17498474 12104880
0.78375018 -0.05459426 0.17485823 11579309
0.78231263 -0.045132428 0.1752651 11710635
0.78088897 -0.034887295 0.17525826 11842734
0.78128004 -0.025351679 0.17554808 11711148
0.78227776 -0.015311643 0.1748569 10987168
0.78320032 -0.0052465284 0.17506351 11184288
0.78329068 0.0046898001 0.17434449 11117982
0.7833932 0.014924834 0.17477942 11117469
0.78311151 0.025002254 0.17504235 11051161
0.78300029 0.035080958 0.17501783 10919831
0.78251523 0.044883627 0.17532736 10724250
0.78204018 0.055176597 0.17572129 10461593
0.78180003 0.065223902 0.17566685 10921374
0.77900004 0.076617807 0.172528 12038056
0.78017646 0.074382842 0.17648208 10261900
0.77900004 0.08312723 0.17240135 13091256
0.78110522 0.085716814 0.17647208 13617856
0.78473085 0.09550561 0.1749824 13618114
0.78866673 0.10241672 0.17382322 12631734
0.79206252 0.10641442 0.17495693 11842988
0.78800011 -0.15332009 0.18471301 11711147
0.79042858 -0.1583506 0.18579935 10065037
0.7838847 -0.1448621 0.18509769 12369077
0.78268003 -0.13533431 0.18502496 12303538
0.7823 -0.12519732 0.18493438 11973806
0.78304017 -0.11523214 0.18510875 12170159
0.78360021 -0.10522623 0.18524154 12105138
0.78292012 -0.095053643 0.18508087 12171700
0.78290015 -0.084970377 0.18507706 12105904
0.78364015 -0.074960545 0.18525262 12236718
0.78456247 -0.064716645 0.18512513 12301486
0.78477776 -0.055066139 0.1851117 11842224
0.78300035 -0.044655997 0.18509981 11908017
0.78207994 -0.034533452 0.18488216 11974065
0.78191984 -0.025373474 0.18484448 11711150
0.78266686 -0.015319088 0.18502109 11382442
0.7840001 -0.0052511846 0.18533668 11514281
0.78491426 0.0049797604 0.1847645 11382951
0.78466672 0.014949173 0.185086 11185828
0.78343356 0.025012529 0.18520334 11185572
0.78356016 0.035106886 0.18523242 11446947
0.78386694 0.045212071 0.18530479 11314846
0.78360021 0.055286661 0.1852428 11119007
0.78316683 0.065337569 0.18514036 11381409
0.78175998 0.075287074 0.18480743 10590865
0.78296 0.084570624 0.1850922 13618628
0.78712904 0.094771467 0.18488735 14342351
0.78799999 -0.15337092 0.19550434 12105393
0.79059994 -0.15817371 0.19448298 10394005
0.78400022 -0.1445457 0.19510069 12829628
0.78300029 -0.13538964 0.19518094 12764091
0.78290027 -0.12529239 0.19424009 12500404
0.78324026 -0.11526129 0.19432512 12368048
0.78403348 -0.10528242 0.19452168 12433845
0.78420013 -0.095209233 0.19456482 12237239
0.78470004 -0.085165657 0.1946875 11974577
0.78499991 -0.075091384 0.19476067 12171696
0.7850666 -0.064989246 0.19477722 12171436
0.78499991 -0.0548767 0.19476067 12039338
0.78335333 -0.044461489 0.19499914 11842218
0.78250015 -0.03455162 0.19505803 11710633
0.7826001 -0.025395246 0.19508277 11512997
0.78363365 -0.015338517 0.19442286 11250339
0.78495997 -0.0052583651 0.19475092 11381667
0.78499991 0.004848524 0.19476071 11381666
0.78499991 0.014955873 0.19476067 11250080
0.78503323 0.025063695 0.19476959 10660000
0.78483993 0.035163391 0.19472174 10659230
0.78473336 0.045261271 0.19469482 11709862
0.78440011 0.055344325 0.19461182 11972009
0.78430009 0.065431736 0.19458775 11907753
0.78283364 0.07539098 0.19514021 10854809
0.78411543 0.084555037 0.19475314 13684420
0.78765386 0.094439872 0.19520599 14473680
0.78900003 -0.16123053 0.20630772 9670282
0.79177278 -0.16580749 0.20427342 9736588
0.78685719 -0.15428342 0.20502214 11315875
0.78329635 -0.14481552 0.20493276 12434353
0.78325838 -0.13436827 0.20515287 12303029
0.78496659 -0.12470381 0.20485945 12369335
0.78497213 -0.11459776 0.20486085 12499889
0.78493327 -0.10448562 0.20485088 12696240
0.78499991 -0.095306084 0.20486797 12433583
0.78502774 -0.085202232 0.20487505 12302772
0.78483325 -0.075075202 0.20482355 12237750
0.78486109 -0.064972706 0.2048309 12238003
0.78463334 -0.054851532 0.20477083 12303536
0.78368771 -0.044925526 0.20509972 12434350
0.78328025 -0.034585774 0.20533709 12434092
0.78384018 -0.025435122 0.20548475 12105385
0.78427792 -0.01535229 0.20467874 11710629
0.78450012 -0.0052553932 0.20473562 11841958
0.78461117 0.0048465775 0.20476495 11578788
0.78483331 0.014952696 0.20482354 11710374
0.78511095 0.025066502 0.20489633 11053216
0.78506655 0.035173468 0.20488501 10790305
0.78458333 0.045252342 0.20475897 11053221
0.78393352 0.055311788 0.20458837 11183779
0.78487873 0.065064184 0.20458621 11644840
0.78367865 0.074880488 0.20563826 10855584
0.7844829 0.084862217 0.20489125 13683652
0.787889 0.094120502 0.20510963 14736594
0.79253572 0.10436019 0.20530793 12303027
0.78899986 0.1352964 0.20509104 11777197
0.79025006 0.13414757 0.2043867 11777197
0.78858346 -0.16127773 0.21503313 9670282
0.79100007 -0.16640243 0.21476673 9736075
0.78681487 -0.15467709 0.21506207 11841706
0.78324163 -0.1444744 0.21525127 12237231
0.78277433 -0.13517232 0.21513316 12762550
0.78357172 -0.12526721 0.21563001 12631733
0.78472406 -0.11471932 0.21477218 12369073
0.7846539 -0.10466009 0.21502084 12499631
0.78495997 -0.095301419 0.21496421 12432811
0.78461289 -0.08501032 0.2150462 12103592
0.78355199 -0.074952289 0.21533695 11974320
0.7837944 -0.064992353 0.21529171 11777199
0.78396016 -0.054803904 0.21469039 12171697
0.78481245 -0.044644091 0.21526742 12237743
0.78476 -0.034651224 0.21490888 12105899
0.7840358 -0.025246745 0.21530001 11974056
0.783167 -0.015330604 0.21538951 11842730
0.78300029 -0.0052454229 0.21534421 11579559
0.78329444 0.004731196 0.21515472 11381925
0.78351748 0.014990423 0.21532699 11119008
0.78377181 0.024893492 0.21542419 11119776
0.78487992 0.035165749 0.21494259 11316645
0.78483331 0.045267388 0.21493003 11316391
0.78456002 0.055355333 0.21485619 11251113
0.78543997 0.064610966 0.21509668 12105651
0.78446674 0.074628085 0.2148297 11052193
0.78483999 0.084773511 0.2149321 13750728
0.78810722 0.094548725 0.21523321 14868952
0.79132271 0.10507593 0.21467352 11974577
0.79196292 0.11499597 0.21461363 11645612
0.7904644 0.12483416 0.21442457 11645612
0.79237509 0.13481973 0.21499006 11711406
0.78860003 -0.16220452 0.22519168 9539213
0.79069233 -0.1670489 0.224507 9736332
0.78589296 -0.15409519 0.22500928 11710893
0.78234601 -0.14457628 0.22502574 12237748
0.78223991 -0.13525768 0.22520694 12433840
0.78303367 -0.12531216 0.22543582 12499120
0.78422594 -0.11522891 0.22500992 12763319
0.78411454 -0.10516314 0.22469857 12434867
0.78446674 -0.095240794 0.22493026 12696754
0.7837432 -0.085194618 0.22485293 12628907
0.78303868 -0.074903749 0.22522506 12367020
0.78306282 -0.064708948 0.22509962 12171438
0.78320032 -0.054750785 0.22456519 11908781
0.78288239 -0.044756956 0.22474277 12105905
0.78306693 -0.034576405 0.22452681 11843245
0.78303725 -0.025613656 0.22502838 11447974
0.7828337 -0.015323949 0.22537702 11513513
0.78284013 -0.0052437889 0.22537912 11447724
0.78318781 0.004952332 0.22513518 11250347
0.78303868 0.014847908 0.22522503 10987429
0.78322613 0.02515473 0.22531392 10790559
0.78430015 0.035139974 0.22488092 10922912
0.78486109 0.045270443 0.22504228 11119518
0.78499991 0.055385251 0.22508278 10987168
0.78506452 0.064756662 0.2252484 11842735
0.7838859 0.074703492 0.22463056 11184034
0.78490013 0.084781624 0.22505301 13815750
0.78832 0.094376162 0.22511221 14803417
0.79117155 0.10477316 0.22486798 11711404
0.79273331 -0.17450131 0.23502962 10723996
0.788625 -0.16209432 0.23477584 9670796
0.79009998 -0.16713646 0.23486838 9736589
0.7864815 -0.15461148 0.23522483 12039341
0.78316015 -0.14458539 0.23463938 12368819
0.78300017 -0.13538966 0.23459087 12368818
0.78353351 -0.12539098 0.234751 12366762
0.78489286 -0.11491472 0.23496059 12301226
0.78448153 -0.10483367 0.23523729 12040364
0.78452003 -0.09524779 0.23504482 12172208
0.78360021 -0.085048273 0.23477024 12630191
0.78300017 -0.074900068 0.23459089 12629422
0.78300029 -0.064818487 0.2345909 12695728
0.78186649 -0.054658595 0.23516542 12434353
0.78155547 -0.044571873 0.23507182 12369333
0.7824617 -0.034690116 0.23464166 12106163
0.78261542 -0.02525603 0.23468742 11711663
0.78186089 -0.015305276 0.23516414 11579565
0.78179991 -0.0052368375 0.23514508 11513515
0.78232366 0.0046172743 0.23503366 11579309
0.78296018 0.014917471 0.23457918 11579309
0.78396684 0.025030263 0.23488139 11053223
0.7837202 0.03511218 0.23480701 10922662
0.78360021 0.045198403 0.23476963 11185312
0.78472 0.055366244 0.23510531 11447201
0.78406692 0.065412618 0.23490958 11513513
0.78288472 0.075395949 0.23476735 11051933
0.7841202 0.084697314 0.23492631 13749699
0.78814298 0.094157793 0.23487929 14803416
0.79116142 0.10505448 0.23500428 11579819
0.78888893 -0.16123727 0.24435833 9868431
0.7907778 -0.16584103 0.24515027 9670795
0.78700006 -0.15436642 0.24521311 12039597
0.78353363 -0.14465518 0.24483874 12894391
0.78290021 -0.13537244 0.24464066 12500918
0.78294486 -0.12529902 0.24465407 12762035
0.78313357 -0.11524685 0.24471286 12695215
0.78269458 -0.10510365 0.24457553 12433583
0.78316694 -0.095083885 0.24472331 11909550
0.78258348 -0.084936887 0.24454063 12302768
0.78266692 -0.074867561 0.24456702 12695472
0.78300041 -0.064818487 0.24467246 12761009
0.78184009 -0.054658037 0.24522513 12564914
0.78107417 -0.045052882 0.24478136 12303026
0.78209382 -0.034932531 0.24478778 11579560
0.78227574 -0.025511935 0.24460277 10987428
0.78116667 -0.015292808 0.24501318 10987427
0.78112006 -0.0052322652 0.24499899 11381411
0.78224999 0.0050622029 0.2450095 11381412
0.7832337 0.014922988 0.24474484 11118496
0.78411126 0.025034444 0.2450166 10921117
0.7834003 0.035098877 0.24479578 10987683
0.78330588 0.045180075 0.244766 10987679
0.78366691 0.05529188 0.24487849 11447456
0.78372258 0.065384626 0.2448974 11578534
0.78279328 0.075387165 0.24476489 11512996
0.78413814 0.084572293 0.24486938 13881285
0.78820843 0.094132572 0.24468486 15130840
0.79000002 0.09827432 0.2477845 12236464
0.79172409 0.10450053 0.24461967 11448232
0.78900003 -0.16043893 0.25485909 10460311
0.7923333 -0.16580236 0.25522771 9539209
0.78711122 -0.154461 0.25499868 11973547
0.7835201 -0.14465268 0.25492337 12761521
0.78203446 -0.13509797 0.25519639 12500402
0.78138888 -0.12504967 0.25514275 12171183
0.7824139 -0.1152657 0.25532028 12365737
0.78239995 -0.10514273 0.25534406 12300713
0.78250015 -0.09500248 0.25550735 12368303
0.78202748 -0.084876321 0.25535309 12238000
0.78203315 -0.074807443 0.25535473 12631220
0.78208321 -0.064742878 0.25536978 13024181
0.78099996 -0.054598406 0.25501508 12827315
0.78073347 -0.045439407 0.25493062 13090998
0.78102779 -0.035400257 0.25502622 12827055
0.77900004 -0.02254333 0.25892356 12761775
0.78071445 -0.025531249 0.25459644 12104361
0.77856004 -0.014912643 0.25578678 12170156
0.78027284 -0.016022012 0.25120962 12433841
0.77834785 -0.0054521249 0.25537717 12038568
0.78000009 -0.0044427561 0.25064769 12368303
0.77864712 0.0041122823 0.25698259 12367789
0.78068423 0.0054478436 0.25246039 12302252
0.77900004 0.012653174 0.25819409 13222839
0.78127998 0.015324078 0.25433767 12236202
0.78213906 0.024973134 0.25538647 11908009
0.78206664 0.035038903 0.25536367 11514026
0.78158319 0.045080412 0.25520638 11447979
0.7820667 0.055179544 0.25536415 11250083
0.78261113 0.065292321 0.25554219 11578790
0.77900004 0.07623788 0.25831568 12894650
0.78125924 0.075103477 0.25465959 11578790
0.78425932 0.084713526 0.2551626 14078661
0.78825009 0.092752606 0.2543864 15262940
0.79066664 0.09753529 0.25580969 13684167
0.78900003 -0.16090068 0.26501793 10526104
0.79147619 -0.16579838 0.26509771 9408137
0.78624141 -0.15436074 0.26500857 12434611
0.78263342 -0.14448851 0.26470977 12828084
0.78111547 -0.13520657 0.26489988 12763062
0.78046674 -0.12490091 0.26489213 12500405
0.78165376 -0.11488652 0.26508296 12629680
0.78170961 -0.10488296 0.26513565 12366251
0.77900004 -0.090930313 0.26986548 12501173
0.78155988 -0.09488862 0.26526177 12039595
0.77900004 -0.084547535 0.26986548 12238002
0.78113788 -0.084937513 0.26499185 12106416
0.7789287 -0.074901566 0.26853815 12105131
0.78083324 -0.074997663 0.26379627 12499890
0.77871442 -0.065201961 0.26681411 12629934
0.78020012 -0.065318026 0.26187927 12563374
0.77817124 -0.055180106 0.26515111 13023153
0.77786368 -0.04560443 0.2662411 13023665
0.78000009 -0.044484194 0.26199493 12891823
0.77779996 -0.035072893 0.266534 12695212
0.7803638 -0.035786558 0.26203367 12431527
0.77748275 -0.02510518 0.26494226 12168869
0.78000003 -0.028963247 0.26108193 12234146
0.77613896 -0.015193918 0.26432905 11709604
0.77603352 -0.0051988303 0.26429394 11643812
0.77613914 0.0047939559 0.26432952 12038569
0.77703351 0.014805413 0.26463279 11906980
0.778 0.024432382 0.26593634 11709858
0.78028578 0.026609601 0.26169926 11184030
0.77847064 0.034557026 0.26742959 11842730
0.78046161 0.035388783 0.26278165 10922143
0.7790001 0.043655276 0.26895365 10791329
0.78053856 0.045512538 0.26442346 10988967
0.78112 0.055112623 0.26511332 11382443
0.77900004 0.069551148 0.26986548 11051415
0.78136659 0.065187789 0.26519647 11842217
0.77826917 0.075441174 0.2655462 12236720
0.78050005 0.071968734 0.26261938 10394516
0.77842861 0.081475772 0.2678442 14276300
0.78352004 0.085293807 0.26467797 14473678
0.78818756 0.0922838 0.26497468 15329243
0.79100007 0.096975379 0.26504767 13553094
0.78850007 -0.16172236 0.27546379 9867919
0.79126668 -0.16682884 0.27485391 9473929
0.78474998 -0.15490974 0.27468714 12039598
0.77900004 -0.1415367 0.27852783 12171182
0.78087109 -0.14534251 0.27469867 12302512
0.77900004 -0.13773741 0.27837586 12104618
0.78040749 -0.13460347 0.27447999 11907496
0.78058356 -0.12492061 0.27498218 11975344
0.77899998 -0.11281415 0.27794164 12564912
0.78043491 -0.11540509 0.27385634 12499121
0.77872735 -0.10490299 0.27590224 13156023
0.78008342 -0.10490566 0.27130595 13353145
0.77834618 -0.094778903 0.27545378 12499634
0.78000003 -0.096159831 0.27057713 12434097
0.77751857 -0.085095756 0.27521423 12172209
0.78000003 -0.089221045 0.27021191 12830138
0.77666694 -0.075203925 0.27541769 12368562
0.77630019 -0.065173194 0.27528727 12892592
0.77563912 -0.055131245 0.27505389 13286836
0.77506667 -0.045110058 0.27485049 13484214
0.77486122 -0.035122044 0.27477777 13221299
0.77446657 -0.025131937 0.2746388 12432041
0.77449995 -0.015160631 0.27465075 12104363
0.77423328 -0.005186928 0.27455577 12367791
0.77427775 0.0047826888 0.27457157 12433324
0.77476662 0.014761449 0.27474445 12433321
0.77536118 0.024756277 0.27495521 12170151
0.77580005 0.03475884 0.2751106 11908010
0.77675021 0.044803575 0.27544656 11908784
0.7776925 0.054589726 0.27641064 11711406
0.7803334 0.055868849 0.27134207 11448233
0.77742445 0.065107174 0.27609906 11579301
0.78050005 0.063517369 0.27107015 11974317
0.77606666 0.074738979 0.27520508 11446687
0.77690911 0.082758918 0.27550456 14604494
0.78130013 0.088047579 0.27486745 15328217
0.78677773 0.094536848 0.27501449 14012872
0.79050004 0.098336518 0.27107292 11447207
0.7881667 -0.16211575 0.28503489 9933966
0.79059994 -0.16724281 0.28498933 9342344
0.78419048 -0.15474457 0.28477713 11973549
0.77900016 -0.14235732 0.28500181 12697271
0.78084624 -0.1480954 0.28555131 12302515
0.77900016 -0.13594575 0.28637433 12368305
0.78000009 -0.13271292 0.28398988 12170155
0.77900016 -0.12385739 0.28749406 11974831
0.77999997 -0.12595576 0.28320867 11974061
0.77819341 -0.1146967 0.28521606 12171182
0.77693355 -0.1052403 0.28460774 12432556
0.77663922 -0.095200196 0.28450018 12301740
0.77600014 -0.08532621 0.28459007 11776682
0.7745555 -0.074999705 0.28554976 11973803
0.77390009 -0.064971641 0.28530815 12563886
0.77344477 -0.05497447 0.2851404 12826543
0.77323347 -0.045003764 0.28506237 12892335
0.77300006 -0.035036877 0.28497604 12695471
0.77289999 -0.025081096 0.28493965 11840676
0.77272236 -0.01512609 0.28487286 11579047
0.77233338 -0.0051742774 0.28472969 11973292
0.77230573 0.0047705397 0.28471935 12104362
0.773 0.014727712 0.2849758 11906979
0.77358341 0.024699129 0.28519142 11710114
0.77400017 0.034678195 0.28534609 11579302
0.7742222 0.044656254 0.28542709 11776430
0.77432275 0.054807112 0.28560832 11908274
0.77405721 0.06470798 0.28523526 11842218
0.77369708 0.075006068 0.2854802 11841961
0.77587092 0.084743947 0.28530061 14868181
0.78125006 0.089870155 0.28253087 15131095
0.78558069 0.095891401 0.28501344 13026747
0.7888332 0.10459313 0.28701922 11382438
0.79016668 0.10708187 0.28313661 11382694
0.78900003 0.11200289 0.28995332 11382440
0.78866667 -0.16221823 0.29536963 9736329
0.79058337 -0.16723926 0.2951616 9473159
0.78528005 -0.15431923 0.29513031 11578532
0.77900004 -0.14199258 0.2917493 11249829
0.78100014 -0.14468604 0.29540762 12038829
0.77900004 -0.13333027 0.29311702 11447719
0.78041172 -0.13558698 0.29700759 11974062
0.7790001 -0.12399396 0.29515877 11645612
0.78000003 -0.1281756 0.29729748 12171698
0.77807683 -0.11471392 0.2949076 12171955
0.77704024 -0.10525423 0.29465467 12499891
0.77633351 -0.095163107 0.29438642 12498605
0.77531028 -0.084930994 0.29474905 11842730
0.77390009 -0.074936576 0.29527518 12039596
0.77312011 -0.064906195 0.29497752 12629936
0.77232271 -0.054749325 0.29484734 12564659
0.77203327 -0.044933602 0.29546562 12893365
0.77199978 -0.034991615 0.2954531 12827314
0.77133334 -0.025030803 0.29519659 12104877
0.7705279 -0.015083235 0.29488808 11710893
0.77040017 -0.0051612472 0.29483911 12171442
0.77075005 0.0047615166 0.294974 12104364
0.77146655 0.014699127 0.29524925 11973031
0.77234286 0.024531083 0.2954542 11842727
0.77300012 0.034632921 0.29493096 11711144
0.77300018 0.044585761 0.29493096 11645358
0.7729336 0.055438619 0.2949053 11710639
0.77232003 0.065338247 0.29467088 11579049
0.77202761 0.07525479 0.29546323 11908011
0.77355176 0.085366666 0.29513893 14802645
0.77762508 0.091729507 0.29623827 15525598
0.78414297 0.096590459 0.29446024 12499891
0.78868747 0.10434342 0.29445392 11316647
0.79000002 0.10772684 0.29751289 11250854
0.78900003 0.1120029 0.29272389 11316647
0.7902084 0.11564317 0.29571635 11250854
0.79140556 0.12513947 0.2951397 11382439
0.78876919 -0.16195489 0.30421498 9604745
0.79075003 -0.16681199 0.30586925 9473417
0.78676927 -0.15453389 0.30514482 10986654
0.78291321 -0.14477971 0.30453333 11183777
0.78220004 -0.13525179 0.30485195 11052705
0.77900004 -0.12071666 0.30147547 10329244
0.78157699 -0.12536243 0.30573604 10855582
0.77900004 -0.11532167 0.30155143 10394781
0.78171432 -0.11503742 0.3064931 11775915
0.77900004 -0.10460772 0.30086759 11315876
0.78255558 -0.10508374 0.30590761 11578537
0.77837515 -0.093818761 0.30131006 12171181
0.78316671 -0.095540576 0.30660501 11185060
0.77725005 -0.085040301 0.30223948 10264728
0.78220004 -0.085263558 0.30723172 10725278
0.77628583 -0.074345648 0.30414912 11120295
0.78150004 -0.077501431 0.30915117 11449773
0.77503997 -0.065067753 0.30478466 11776427
0.77417237 -0.055182282 0.3045688 11841450
0.77420008 -0.045058928 0.30536059 12169646
0.77370828 -0.035069294 0.30516696 12236207
0.77254999 -0.025070909 0.30470949 11776175
0.77150017 -0.015101127 0.30429563 11447723
0.77255011 -0.005174364 0.30471125 11447720
0.77442861 0.0043954575 0.30506358 11381927
0.77459997 0.014757103 0.30461112 11184288
0.77420849 0.024867369 0.30506268 11447458
0.77428007 0.034690645 0.30448669 11645096
0.77406687 0.044646811 0.30440232 11381932
0.77367866 0.055167876 0.30405456 11381932
0.77348167 0.06503354 0.30437139 11447721
0.77295834 0.075344585 0.30486915 11447977
0.77369565 0.085617661 0.30456859 14145230
0.77770013 0.092194214 0.30491644 14736597
0.78476477 0.097627468 0.30492896 11447462
0.78900003 0.10184405 0.30472979 11184805
0.79068422 0.10683614 0.30528459 11119268
0.78900003 -0.16043893 0.31119454 10131346
0.79195654 -0.16507389 0.31538516 10724253
0.78858811 -0.1544919 0.31391066 10395288
0.79016668 -0.15574402 0.31843719 10592924
0.78743476 -0.14489274 0.31486902 10329496
0.79000002 -0.14769644 0.31991127 10658717
0.78693092 -0.13498992 0.31486195 10263702
0.78704989 -0.12503542 0.31595701 10001045
0.78696156 -0.11488834 0.31500098 9737617
0.79000002 -0.11163305 0.31991127 10658717
0.78781253 -0.1050991 0.31372523 9079428
0.79000002 -0.10516014 0.31843171 9869200
0.78799999 -0.094747931 0.31356877 9934737
0.79000002 -0.094988428 0.31806183 9145737
0.78727782 -0.08421801 0.31430709 10066837
0.79000002 -0.085741401 0.31898654 8948359
0.78500003 -0.075288393 0.31528035 9606547
0.77900004 -0.064943269 0.31180951 8488065
0.78323078 -0.065049179 0.31604427 9080202
0.7786001 -0.056250609 0.31164941 9079169
0.78381819 -0.054460384 0.3162432 9013635
0.77900004 -0.048074469 0.31180951 9868176
0.78473341 -0.044570226 0.31631324 10526620
0.77900004 -0.033485249 0.31180951 11974063
0.78425008 -0.035391476 0.31620958 10724511
0.7768572 -0.024430048 0.31147245 11382446
0.78314292 -0.025677113 0.31661242 10001821
0.77625006 -0.015193619 0.31161878 10461600
0.78288895 -0.015629955 0.31764418 10067869
0.77749997 -0.0058133402 0.31151304 11250081
0.78400004 -0.0048414036 0.31666738 9737358
0.78547364 0.005093561 0.31566533 10131599
0.79000002 0.0095029166 0.31991127 10592921
0.78538883 0.015269433 0.31498685 10262927
0.79000002 0.012277024 0.31991127 10461335
0.78593338 0.02490706 0.31679681 9736840
0.78406656 0.035127342 0.31567851 9934221
0.77900004 0.048579138 0.31180951 11513776
0.78375006 0.044748139 0.31577969 9802898
0.77760005 0.054861743 0.31124911 11646903
0.78310007 0.055248857 0.31620246 9014414
0.77700001 0.06482359 0.3119196 11053736
0.78254551 0.065701321 0.31772679 9935252
0.77666664 0.074797399 0.31269684 10723483
0.78200006 0.075311027 0.31850234 10000018
0.77671432 0.083893664 0.31232557 12829886
0.78200006 0.085836537 0.31758875 11250855
0.78539127 0.095789917 0.3153283 11447976
0.78900003 0.10184405 0.31396511 11053218
0.79171437 0.10661057 0.31531006 11119012
0.79257149 -0.14473221 0.32546288 10790303
0.79174995 -0.13504946 0.32525736 10592924
0.78900003 -0.12534472 0.32135338 10395545
0.79200011 -0.12489402 0.32628527 10527131
0.79238099 -0.11501471 0.32538468 10527131
0.78875005 -0.073834799 0.32240593 9803408
0.79099995 -0.075556129 0.32696235 10198166
0.78793335 -0.065780364 0.32239592 9606286
0.79090005 -0.064547166 0.32749778 9934994
0.78828579 -0.055897992 0.32159019 9079687
0.79176933 -0.054921504 0.3264752 9934994
0.78900003 -0.04499748 0.32135341 10198684
0.79233342 -0.045187056 0.32642284 9606286
0.78880006 -0.034830738 0.3212719 11251110
0.79193342 -0.034968462 0.3262583 9343112
0.78800005 -0.025069248 0.32195312 9804179
0.79173338 -0.024210772 0.32765749 9277321
0.78760016 -0.015049284 0.32244438 9278094
0.79138458 -0.014137493 0.32816884 9212043
0.78842866 -0.0060717165 0.32164836 9342858
0.79235727 -0.0051743351 0.3269625 9211785
0.78900003 0.028885052 0.32135338 8553084
0.78900003 0.037196834 0.32135338 8685697
0.78880006 0.044572849 0.32127196 9606803
0.78810012 0.055418801 0.32172537 9409941
0.78783339 0.064806424 0.32364628 9146248
0.79071432 0.065307327 0.32839844 9474957
0.78699994 0.074870318 0.32422611 9671822
0.79000002 0.075156771 0.32915828 10000789
0.78723079 0.084604584 0.32403737 10461339
0.79057151 0.086184487 0.32886797 10592924
0.78850001 0.094242789 0.32284251 10856096
0.79100001 0.0949267 0.32749259 10856096
0.79218173 -0.025032917 0.33512419 9606287
0.79231989 -0.014581192 0.33569026 9606545
