# .PCD v0.7 - Point Cloud Data file format
VERSION 0.7
FIELDS x y z rgb
SIZE 4 4 4 4
TYPE F F F U
COUNT 1 1 1 1
WIDTH 675
HEIGHT 1
VIEWPOINT 0 0 0 1 0 0 0
POINTS 675
DATA ascii
0.81700003 0.2221276 -0.11096837 3944744
0.8210001 0.21937118 -0.10286102 4340018
0.81900007 0.22075407 -0.10932273 4668467
0.82350004 0.22293152 -0.10606248 4142638
0.78900003 -0.14150652 0.13803236 12038825
0.79140007 -0.14543982 0.13468836 12368046
0.78900003 -0.13458005 0.13757059 11907752
0.79158825 -0.13469267 0.13295008 12829110
0.78900003 -0.12596042 0.13818629 11776167
0.79278576 -0.125016 0.13331966 11974317
0.78900003 -0.11888 0.13849412 13027262
0.78900003 -0.10317997 0.13849412 12894905
0.78846157 -0.093882158 0.13797262 12105901
0.792 -0.095228799 0.13283615 12106157
0.78799993 -0.084601976 0.13831705 11908779
0.79225004 -0.085058264 0.13256827 12237743
0.78786671 -0.075366072 0.13829331 12171954
0.79226106 -0.075060017 0.13244939 12172209
0.78783327 -0.065218493 0.13736472 11777711
0.79124993 -0.065040544 0.13194053 12369330
0.78849995 -0.055779692 0.13708687 11449518
0.79135716 -0.054525159 0.13242126 12106673
0.78900003 -0.045657147 0.13823025 12501693
0.79265529 -0.045044757 0.13343468 11580075
0.78900003 -0.0071326806 0.13849412 11710117
0.79286212 -0.0052485252 0.13436244 11775907
0.78900003 -0.16043893 0.14865297 10394262
0.79276001 -0.16499415 0.14479317 11184033
0.78752631 -0.15412605 0.1465776 12367279
0.79090905 -0.15611529 0.1420262 10657431
0.78567648 -0.14466988 0.1450924 12762034
0.79000002 -0.14954583 0.14051905 11972519
0.78596973 -0.13512145 0.14431116 12762033
0.78497148 -0.12501864 0.1449689 12630961
0.78637153 -0.11493267 0.14433682 12434097
0.78612912 -0.10482354 0.14457257 12499889
0.78531039 -0.095471211 0.14443298 12697011
0.78453332 -0.085148081 0.14505309 12433840
0.78404015 -0.075000212 0.14496171 11382181
0.78443336 -0.064935289 0.14503489 12105646
0.78631055 -0.054839548 0.14461909 12302511
0.7871666 -0.044892784 0.14461739 12434098
0.7876333 -0.034777503 0.14470328 12368562
0.78824228 -0.024907213 0.14523678 12104876
0.79000002 -0.021936953 0.14051905 12303797
0.78838456 -0.014367708 0.14555421 11973804
0.79000002 -0.01546404 0.14051905 12632761
0.7881 -0.0052799005 0.14479104 11710374
0.78786105 0.0048659025 0.14474595 11710633
0.78726661 0.014997883 0.14463492 11250084
0.78644449 0.025108617 0.14448227 11315874
0.78633332 0.035230927 0.14446205 11052448
0.78608829 0.045069151 0.14463311 11053218
0.78643739 0.055141013 0.14425007 10921117
0.78584862 0.065142244 0.14478818 11512739
0.77880007 0.077190295 0.14873654 9275264
0.78514707 0.074640103 0.14413042 11315619
0.7786001 0.081910186 0.14869814 11051157
0.78533334 0.084893025 0.14451297 12959926
0.79000002 0.088102594 0.14051905 14802902
0.78788233 0.094107866 0.14730163 14604750
0.79128569 0.095392108 0.14259832 13552836
0.78900003 -0.16043893 0.15511769 10262421
0.79243475 -0.16590042 0.1550653 10328727
0.78543472 -0.1547626 0.15473494 11380900
0.77785736 -0.14429964 0.15457274 12433843
0.78099996 -0.14936538 0.15445788 12762551
0.77772003 -0.13549593 0.15544686 12433587
0.78111112 -0.13465725 0.15072107 12762805
0.77812505 -0.12452655 0.15571062 12499635
0.78066671 -0.12523974 0.15104157 12959928
0.77900004 -0.11755566 0.15716371 12828601
0.78092003 -0.11433491 0.15381886 12894137
0.7818889 -0.1049946 0.15463302 12894392
0.7823 -0.094977893 0.15471499 12762806
0.78280586 -0.08496099 0.15481618 12630706
0.78179991 -0.074786447 0.15461621 12368562
0.78138894 -0.064684257 0.15453389 12368303
0.78243339 -0.05469634 0.15474008 12236204
0.78327805 -0.044670548 0.15490663 12434355
0.78460008 -0.034642469 0.15516901 12237489
0.78584367 -0.02515479 0.15518327 11973803
0.78597075 -0.015114607 0.15565425 11710375
0.78499997 -0.0052603823 0.15524551 11776682
0.78366655 0.0048392485 0.15498176 11776939
0.78300005 0.014916754 0.15485181 11579558
0.78247225 0.024982996 0.15474874 11184545
0.78273362 0.035069242 0.15479988 11052962
0.77900004 0.049490962 0.15862264 11842734
0.78177154 0.044959724 0.15447733 10987680
0.77900004 0.054961931 0.15862264 10461082
0.78139991 0.055131253 0.15361977 10658459
0.77900016 0.066164367 0.15705951 11776686
0.78123808 0.064176336 0.15271848 11053477
0.77800012 0.075075038 0.15492779 9802636
0.78000003 0.071466424 0.15152228 12303544
0.77710015 0.084362671 0.15544502 12630702
0.78100002 0.088927232 0.15171538 13419705
0.78486663 0.095499106 0.15491247 14736080
0.78883338 0.10243823 0.15662335 14210251
0.79114294 0.10697392 0.15456776 12039854
0.78900003 -0.16043893 0.16342947 9867920
0.79133344 -0.165327 0.16501528 9933969
0.78661543 -0.15478848 0.1654153 10789534
0.77840006 -0.14297673 0.16269299 12302256
0.78119999 -0.14544411 0.16626409 11644582
0.77790916 -0.13500592 0.16452935 12169387
0.77848142 -0.12549518 0.16391841 12366766
0.78042859 -0.12241688 0.167788 12104105
0.77900004 -0.11828512 0.16044629 13683139
0.78141671 -0.11483991 0.16475698 12366764
0.78233331 -0.10505463 0.16479716 12432813
0.78292024 -0.095053174 0.16491964 12301742
0.78300029 -0.08498168 0.16493617 11974318
0.78268003 -0.074870117 0.16486984 11908782
0.78223342 -0.064755209 0.16477688 12040368
0.78223991 -0.054684125 0.16477714 12237487
0.78233337 -0.044616107 0.16479522 12435122
0.78328019 -0.034585491 0.16499376 12698036
0.78336024 -0.025421141 0.16501053 12302767
0.78276688 -0.015323346 0.16488566 11973291
0.78219986 -0.0052406252 0.16476692 12104363
0.78199977 0.0048299953 0.16472551 12038570
0.78215998 0.014902324 0.16475981 11908011
0.78226656 0.024975635 0.16478279 11381922
0.78187978 0.035030216 0.16470028 11447460
0.7790001 0.047501527 0.16326468 11053218
0.78045839 0.044025153 0.16592385 10855325
0.77866668 0.054786637 0.1638723 11119011
0.78000003 0.055641141 0.16947789 11118237
0.77888459 0.065333493 0.16357853 11118753
0.78000009 0.064162448 0.16886926 11776425
0.77826667 0.07495039 0.16485214 9539206
0.77757573 0.084980182 0.16511966 12960442
0.77900004 0.091434985 0.16318178 12434098
0.78330445 0.096252069 0.16515715 14012873
0.78857148 0.10310806 0.16492288 13223871
0.79053849 0.10788023 0.16481644 11777452
0.79292589 -0.16474964 0.17486538 9867918
0.78768182 -0.15413937 0.17514238 11578536
0.79000002 -0.15879287 0.17565773 9933198
0.7827037 -0.14457148 0.17512032 12368049
0.77900004 -0.13196251 0.17138821 13355972
0.78069562 -0.13522978 0.17573552 12368050
0.78181249 -0.12488712 0.17532581 12434614
0.78354567 -0.1148044 0.17522454 12368818
0.78387523 -0.10468905 0.17498508 12762805
0.78386694 -0.095168583 0.17521217 12500147
0.78361154 -0.085048243 0.17515594 12105648
0.78381503 -0.075181253 0.17469184 12105650
0.78367668 -0.064659633 0.17490065 11776944
0.78300029 -0.054736879 0.1750178 11514030
0.78205538 -0.044601753 0.17480668 11645611
0.78206646 -0.034532253 0.17480876 11645097
0.78233325 -0.025387293 0.17486784 11513770
0.78283358 -0.01532421 0.17498124 10987424
0.7828337 -0.0052443068 0.17498153 11184288
0.7830559 0.0048368401 0.17503168 10920860
0.78331065 0.014860872 0.17493032 11183518
0.78308374 0.025001533 0.17503652 11051676
0.78263348 0.035064142 0.17493719 10854295
0.78241932 0.044980701 0.17562862 10920858
0.78236002 0.055198897 0.1757936 10526872
0.78160012 0.065206669 0.17562202 11052446
0.77900004 0.077453643 0.17260398 11973286
0.78015786 0.074364163 0.17606516 10459280
0.77900004 0.083000585 0.17230004 12894905
0.78114998 0.085653253 0.17634334 13421247
0.78503859 0.095542826 0.17505111 13421248
0.78871435 0.10233492 0.17458126 12631736
0.79170597 0.10699282 0.17462043 11711403
0.7927143 -0.16510972 0.18494233 9867918
0.78773075 -0.15429695 0.18465741 11381671
0.79000002 -0.15879287 0.18860355 9736075
0.78365397 -0.14481986 0.18504336 12237749
0.78247988 -0.13529973 0.18497781 12237490
0.78280014 -0.12527533 0.18505277 12105135
0.78357702 -0.11509813 0.18502304 12039600
0.78443348 -0.10533668 0.18543781 11974321
0.78404015 -0.095189355 0.18534543 12303029
0.78493327 -0.085189775 0.18555754 12302511
0.78550005 -0.074942157 0.18510091 12302510
0.78503126 -0.065217331 0.18523583 12302000
0.78372008 -0.054788534 0.18527099 11973551
0.7828669 -0.044648152 0.18506813 12104880
0.78288019 -0.034568116 0.18507159 11974064
0.78300017 -0.025408616 0.18509941 11580078
0.78343356 -0.01533429 0.1852033 11317160
0.78436005 -0.0052541588 0.18542284 11448231
0.78473336 0.0048475019 0.18551011 11449002
0.78465378 0.015019958 0.18527928 11316900
0.78360021 0.025016721 0.18524227 11250852
0.78300017 0.035080962 0.18509941 11447203
0.78433347 0.045241009 0.18541627 11445918
0.78456002 0.055353545 0.18546945 10987421
0.78310007 0.065330915 0.18512434 11184543
0.78163987 0.075275697 0.18477911 10459536
0.78284001 0.08455766 0.18506315 13618628
0.78705883 0.095149778 0.18513781 14277071
0.78838891 -0.15344597 0.19519123 12040369
0.79039997 -0.15813349 0.19517525 10131603
0.78531998 -0.14498584 0.19484124 12895165
0.7843793 -0.13486771 0.19473538 12566711
0.78380787 -0.12473188 0.19432592 12500401
0.7834003 -0.11528532 0.19436511 12499633
0.78391457 -0.10513584 0.19527631 12630710
0.78464007 -0.095261812 0.19467136 12236984
0.78546655 -0.085247651 0.1948763 11908786
0.78587997 -0.07517603 0.19497851 12237231
0.78556657 -0.065031148 0.19489989 12368302
0.78480005 -0.054863557 0.19471142 12105133
0.78305906 -0.04444417 0.19492674 12038314
0.78300029 -0.034573689 0.19518092 11841191
0.78300029 -0.025408618 0.19518092 11512998
0.78476661 -0.01536039 0.19470282 11316131
0.78519994 -0.0052594119 0.19481085 11513252
0.78586656 0.0048540332 0.19497633 11381666
0.78555989 0.014966258 0.19490074 11250594
0.78479993 0.025055738 0.19471186 10725281
0.78404015 0.035127927 0.19452491 10659232
0.78496659 0.045276172 0.19475235 11644326
0.78499991 0.055385251 0.19476065 11841192
0.78384405 0.065622218 0.19481769 11776168
0.78263342 0.075371556 0.19509086 10920345
0.78355569 0.084430903 0.1948096 13684421
0.78722572 0.095318899 0.19513413 14604753
0.79209095 0.10486081 0.19517036 11579562
0.78900003 -0.16043893 0.20683546 9802123
0.79277796 -0.16533613 0.20472844 9736844
0.78718525 -0.15420321 0.20526555 11316645
0.79000002 -0.15879287 0.20154938 10395037
0.78406674 -0.14475398 0.20462237 12302513
0.78427774 -0.13469017 0.20467819 12500662
0.78509986 -0.12472492 0.2048942 12435125
0.78476661 -0.11548743 0.2048073 12565425
0.78325838 -0.10532847 0.20515254 12564397
0.78383362 -0.095162958 0.20456205 12564657
0.78491664 -0.085189253 0.20484596 12237236
0.78493327 -0.075085312 0.20485042 12303541
0.78408355 -0.064908393 0.20462608 12303538
0.78420007 -0.054821011 0.20465797 12303023
0.78371906 -0.044927351 0.20510793 12434350
0.78304023 -0.034575649 0.20527327 12499373
0.78336024 -0.025419736 0.20535807 12104874
0.78444457 -0.015353863 0.20472239 11776421
0.78513324 -0.0052589336 0.20490202 11776422
0.78538865 0.0048506665 0.20496786 11579044
0.78516656 0.01495858 0.20491067 11645094
0.78536105 0.025074776 0.20496337 11052961
0.78526652 0.035182275 0.20493892 10724511
0.78499991 0.045277897 0.20486794 11053219
0.78499991 0.055385243 0.20486797 11184037
0.78484368 0.064962015 0.20488501 11776427
0.78407413 0.075101867 0.20575058 10723739
0.78439295 0.084921256 0.20503828 13618115
0.78724235 0.094920389 0.20503391 14933459
0.78900003 0.10184405 0.20868251 11316901
0.79179168 0.10583764 0.20532538 11514281
0.78899992 -0.1619166 0.21570133 9736075
0.79076922 -0.16663828 0.21427549 9736332
0.78714818 -0.15474184 0.21515436 11907500
0.78353596 -0.14445932 0.21516356 12171698
0.78329068 -0.13514285 0.21503851 12631478
0.78403348 -0.12541072 0.21525913 12434354
0.78392005 -0.11536315 0.2146785 12368817
0.78313363 -0.10516261 0.21446446 12564912
0.78420013 -0.095207378 0.21475796 12497836
0.78499991 -0.08519841 0.21497567 12169385
0.7850399 -0.075095221 0.2149865 11908782
0.78367668 -0.064660594 0.21526037 11711663
0.78348166 -0.054973248 0.21496694 11975345
0.78410023 -0.044718374 0.21472873 12171953
0.78370398 -0.034401532 0.21502855 12040106
0.78323364 -0.025416344 0.21540758 11973800
0.78316706 -0.015330278 0.21538898 11842473
0.78386682 -0.0052498239 0.21558017 11514024
0.78391677 0.0048408899 0.21559343 11316647
0.78364307 0.014734705 0.2151915 11119265
0.78519988 0.025070302 0.21502954 11447972
0.78596002 0.035213754 0.21523805 11382180
0.78589988 0.045329619 0.21522225 11447721
0.78563988 0.055430595 0.21515188 11251113
0.78619987 0.064672545 0.21530573 12171444
0.78539997 0.074717745 0.21508534 10986657
0.78499991 0.084788725 0.21497518 13684936
0.78736365 0.095436677 0.21511954 14737110
0.78899986 0.10446883 0.21616797 11579817
0.79011112 0.10733123 0.21226446 11645611
0.78899997 0.11609282 0.21607079 11711404
0.79008335 0.11369774 0.21282215 11645612
0.78899974 0.12466422 0.21475993 11711404
0.79000002 0.12509067 0.21449521 11711405
0.78900003 0.13139705 0.21330017 11777198
0.79095238 0.13613336 0.21493049 11711405
0.79213041 -0.17462388 0.2246667 10920862
0.78876179 -0.16338101 0.22523807 9604747
0.79000002 -0.16871241 0.22458287 9670284
0.78681487 -0.15426748 0.2250903 11842221
0.78322232 -0.14480175 0.22508068 12237748
0.78284633 -0.13529217 0.22516924 12434353
0.78320622 -0.1251246 0.22483733 12499890
0.78403056 -0.11487652 0.22505593 12697782
0.784697 -0.10495458 0.22474667 12566196
0.78526652 -0.095337749 0.22515956 12827572
0.78588873 -0.085294746 0.22533815 12563115
0.78553325 -0.075143494 0.22523484 12301228
0.78403145 -0.06513498 0.2253779 12302255
0.78357166 -0.054579522 0.22499967 11974832
0.78355592 -0.044687301 0.22466715 12040113
0.78307182 -0.034773659 0.22485626 11908782
0.78232008 -0.025386548 0.22522891 11514024
0.78283364 -0.015323561 0.22537699 11250856
0.78300017 -0.0052454229 0.22542576 11251117
0.78300029 0.0048361714 0.22542572 11185069
0.78322244 0.015126361 0.2250818 10987172
0.78441674 0.025045665 0.22491424 10856095
0.78536665 0.035188004 0.22518651 10922398
0.78616655 0.045346368 0.225416 11184544
0.78636652 0.055481754 0.22547351 11117985
0.78670013 0.064713046 0.22556888 11974321
0.78519434 0.074696824 0.22513726 11183778
0.78426677 0.084711403 0.22487183 13750214
0.78765512 0.094743967 0.22492202 14737368
0.78900003 0.10184405 0.22253549 11316390
0.79083329 0.10563046 0.22536856 11645610
0.79166669 0.11500796 0.22437388 11580073
0.78899992 -0.16253228 0.2338026 9736076
0.79008335 -0.16728704 0.23532619 9801355
0.78699988 -0.15470575 0.23519698 12170669
0.78292316 -0.14440204 0.23477966 12434610
0.78223318 -0.13525675 0.23527576 12565939
0.78310025 -0.12532346 0.23462065 12301226
0.78417867 -0.11480852 0.23474596 12104616
0.78462958 -0.10485356 0.23528172 11974571
0.78456002 -0.095252179 0.23505649 12106156
0.78466666 -0.085163243 0.23508817 12565168
0.78392023 -0.074989483 0.23486444 12629679
0.78272235 -0.06479606 0.23542227 12432813
0.78243333 -0.05469704 0.23533525 12303283
0.78281844 -0.044894099 0.23503534 12238007
0.78292012 -0.034570534 0.23456722 12106164
0.78243989 -0.025390908 0.2344242 11711406
0.78224981 -0.015311386 0.23470956 11645100
0.78300017 -0.0052454234 0.23459081 11776431
0.7829681 0.0049836072 0.23475838 11579566
0.78296173 0.014776211 0.23479055 11447980
0.78390026 0.02502868 0.23486042 11118758
0.78452003 0.035150271 0.23504584 11250596
0.78443331 0.045244552 0.23501827 11316642
0.78463995 0.055360507 0.23508047 11381665
0.78526914 0.064807661 0.23541069 11579050
0.7839312 0.074734703 0.23474208 11051933
0.78360015 0.084639572 0.23477063 13946563
0.78746426 0.09427613 0.23500492 14934487
0.78900003 -0.1609007 0.24377671 10196883
0.79120004 -0.16561198 0.24529126 9604746
0.78752005 -0.15461028 0.24516343 12236206
0.78344846 -0.14476712 0.24497032 13024950
0.78199983 -0.13521673 0.24527524 12763319
0.78244466 -0.12521869 0.24449719 12762036
0.78296673 -0.11522186 0.24465984 12629422
0.78261125 -0.10509315 0.24454887 12499119
0.78280032 -0.09503828 0.24460921 12105901
0.78277802 -0.084958024 0.24460189 12368303
0.78243327 -0.074846581 0.24449399 12629423
0.78186649 -0.064725362 0.24523312 12958387
0.78120011 -0.05461105 0.24502343 12565170
0.78196967 -0.044345301 0.24476485 12236976
0.78270036 -0.034560211 0.2445773 11644582
0.78290015 -0.025405137 0.24464059 10987171
0.78264719 -0.015321141 0.24483097 10987170
0.78236675 -0.0052412581 0.24447227 11315619
0.78228593 0.0047007301 0.2445785 11249825
0.78227568 0.015030545 0.24460267 11249825
0.78294474 0.024998952 0.24465339 10921373
0.78316694 0.035088424 0.24472348 10921890
0.78305602 0.045165755 0.24468946 10790559
0.78346699 0.055278394 0.24481747 11250593
0.78380573 0.065390907 0.24492206 11644071
0.78250009 0.075358547 0.24451475 11447203
0.78310013 0.084585316 0.24470231 14276043
0.78737497 0.095131323 0.2451168 14276044
0.79212004 0.10521846 0.24481305 11579816
0.78900003 -0.16074677 0.25547478 10262676
0.79219055 -0.16603725 0.25518131 9604748
0.78710711 -0.15433165 0.25483838 11907755
0.7831853 -0.14438836 0.25522059 12762036
0.78176659 -0.13517727 0.25526741 12500146
0.78147215 -0.12506279 0.25517035 12236718
0.78199977 -0.1150793 0.25534403 12365992
0.78197199 -0.10500681 0.25533488 12234920
0.78229988 -0.094977885 0.25544059 12368046
0.78186107 -0.084859006 0.2552973 12303281
0.78146648 -0.074753322 0.25516731 12696499
0.77900004 -0.062663697 0.25892356 13945282
0.78100002 -0.065053739 0.25450104 12826802
0.77900016 -0.054913171 0.25732785 13024181
0.78050005 -0.054790515 0.25234112 12958388
0.77900004 -0.04777053 0.25831568 13879487
0.78065526 -0.044803981 0.25424087 13090486
0.78126472 -0.035141196 0.25531685 12695727
0.78163326 -0.025364341 0.25522214 12103848
0.77900004 -0.012513239 0.25892356 12827828
0.78133339 -0.01554488 0.25470752 12104363
0.7788825 -0.0046818824 0.25641716 12169899
0.78061545 -0.0059326538 0.25214964 12301741
0.77887511 0.0040125526 0.25717232 12629935
0.78065014 0.0054616313 0.25261775 12432812
0.77900004 0.012106078 0.25892356 13682621
0.78096426 0.015074873 0.25467685 12433323
0.78177762 0.02496144 0.25527036 12039081
0.78236675 0.03505313 0.25546241 11514024
0.78290355 0.045009706 0.25489953 11185832
0.78308022 0.055250168 0.25477979 11118497
0.7824859 0.065411545 0.25537011 11447206
0.77900004 0.077210486 0.25819409 13224128
0.78116006 0.074790671 0.25429928 11184289
0.77900004 0.080493063 0.25801173 13683905
0.78175008 0.084701024 0.25499898 14605005
0.78692597 0.094144277 0.2549378 14670801
0.79126924 0.12457912 0.25545076 11513769
0.78850001 -0.1612608 0.26484999 9999763
0.79112506 -0.16631347 0.26515231 9408139
0.78617859 -0.15441413 0.26479137 12434870
0.78271437 -0.14469947 0.26506642 12762804
0.78215986 -0.13524449 0.26546776 12828853
0.78156668 -0.12507816 0.26526681 12566454
0.78199983 -0.11507929 0.26541272 12629937
0.77900004 -0.10096042 0.26895365 13023665
0.78107136 -0.10514884 0.26483512 12431786
0.77887511 -0.094334938 0.26777059 12170922
0.78092855 -0.095072113 0.26308915 12170922
0.77894461 -0.085352212 0.26741469 11777705
0.78046155 -0.085339673 0.26250094 12369328
0.77871859 -0.075231627 0.26577905 12302767
0.78000003 -0.075830422 0.26108193 12170667
0.77813333 -0.065326735 0.26500803 12629678
0.77786112 -0.05528817 0.26491478 12892336
0.77770007 -0.04526348 0.26485926 12958642
0.77765524 -0.035656337 0.26581752 12695726
0.78000009 -0.033658661 0.26160365 11906211
0.7775836 -0.025081553 0.26588205 12366505
0.78000003 -0.025919924 0.26138628 11840161
0.77727807 -0.015216114 0.26471528 11840675
0.77653342 -0.0052026482 0.26446259 11840932
0.77647251 0.0047964053 0.26444286 12104103
0.77757132 0.014620453 0.26514134 11972262
0.78000003 0.017599601 0.26108193 11182490
0.77836853 0.024228713 0.26753545 11577760
0.78058827 0.025622185 0.26310551 11709090
0.77900004 0.034217872 0.26918161 11447716
0.78122717 0.035251275 0.26464966 11710889
0.77900004 0.044931833 0.26986548 11119011
0.78177166 0.04522305 0.26454705 11251368
0.77900004 0.054961927 0.26986548 11053478
0.78186679 0.055164181 0.26444852 11448236
0.77900004 0.068943262 0.26925758 11117981
0.78103358 0.064854875 0.26477754 11579563
0.77868968 0.07511735 0.2653563 11908269
0.78000003 0.071466424 0.26108193 11644585
0.77861124 0.082478523 0.26598242 14407885
0.7811538 0.087187812 0.26484424 15065557
0.78648144 0.094433747 0.26474974 14342093
0.78858346 -0.16173953 0.27549323 9868176
0.79119998 -0.166815 0.27483132 9473931
0.78560716 -0.15423568 0.27491149 12039598
0.78308022 -0.14456986 0.27494556 12368303
0.78292012 -0.1353761 0.27488869 11973803
0.78203112 -0.12492502 0.27491984 12172210
0.77900004 -0.1109905 0.27898374 12301484
0.78117239 -0.11508489 0.27503037 12565170
0.77885729 -0.1045455 0.27563271 13156023
0.7803334 -0.10773034 0.27215365 13221815
0.77724153 -0.095117986 0.27483994 12564913
0.77719247 -0.085121483 0.2749061 12237488
0.77677804 -0.075214937 0.27545783 12565940
0.77603328 -0.06515073 0.27519354 12958129
0.77511132 -0.055093445 0.27486622 13287091
0.77486652 -0.045098267 0.27477983 13353142
0.77486116 -0.035121143 0.27477786 13155765
0.77470016 -0.025139587 0.27472097 12300712
0.77438891 -0.015159171 0.27461097 12104362
0.77393341 -0.0051847617 0.27444932 12433327
0.77425009 0.0047828094 0.27456164 12499116
0.77500004 0.01476613 0.27482703 12433321
0.77575016 0.024768956 0.27509287 12104614
0.77613342 0.034773462 0.27522781 11842475
0.77616674 0.0447684 0.27523938 12039856
0.77676672 0.054805357 0.27545235 11908274
0.77763891 0.064877838 0.27576143 11579561
0.78000003 0.063249446 0.27021191 11711403
0.77646691 0.074777812 0.27534723 11446945
0.77713656 0.08286614 0.27517229 14605007
0.78090912 0.088834956 0.27468109 15197144
0.7864784 0.095440127 0.2746962 13552579
0.78845006 -0.16254298 0.28495231 9934223
0.79062498 -0.16747931 0.28522903 9408136
0.78525931 -0.15416811 0.28490177 11908014
0.78256685 -0.14447589 0.28484043 12500406
0.78166652 -0.13515995 0.28451225 11973032
0.77900016 -0.1241208 0.28846672 12105390
0.78096002 -0.1256042 0.28319412 11973547
0.77851999 -0.11413083 0.28595486 12302511
0.7802 -0.11700653 0.28197032 11973289
0.77733344 -0.10529447 0.28475428 12498349
0.7767781 -0.095217578 0.28455153 12432810
0.77606696 -0.085138962 0.28465301 11711401
0.77476478 -0.07502076 0.2855728 12039595
0.77360016 -0.064946465 0.28519735 12694956
0.77294469 -0.054939125 0.28495502 12892333
0.77283341 -0.044980083 0.2849142 12695723
0.77291679 -0.035033002 0.28494582 12695726
0.7730335 -0.02508519 0.28498989 11840675
0.77263892 -0.015124624 0.28484362 11644583
0.77206653 -0.0051724133 0.28463116 11907499
0.77238876 0.0047714775 0.2847504 12038827
0.77303344 0.014728581 0.28498834 11775652
0.77361131 0.024699856 0.28520194 11644834
0.77370012 0.034663741 0.28523505 11579302
0.7735002 0.044615053 0.28516072 11710639
0.77433336 0.05463345 0.28546765 11842227
0.77461123 0.064625524 0.28556952 11907756
0.77406257 0.074886627 0.28559402 11710117
0.7762143 0.083972931 0.28512159 14867923
0.78150004 0.08959458 0.28475818 15393753
0.787 0.095669813 0.28533459 13289149
0.79168969 0.10558199 0.28480536 11316903
0.78876919 -0.16195491 0.2949824 9736073
0.79061538 -0.16674815 0.2953873 9473671
0.78640002 -0.15439123 0.29488951 11644583
0.78328001 -0.14460921 0.29518807 11974320
0.77900004 -0.13105069 0.2917493 11513251
0.78136009 -0.13510813 0.2947562 12171698
0.77895659 -0.12493862 0.29482496 12039855
0.78000003 -0.12878425 0.29881915 11842217
0.77758622 -0.11518437 0.29498595 12171699
0.77644014 -0.10517389 0.29442614 12499377
0.77600038 -0.094873995 0.29475451 12564142
0.77499998 -0.08514712 0.29494363 11908522
0.77383345 -0.074930206 0.29524925 11973802
0.77276009 -0.064876348 0.29483932 12629422
0.77122217 -0.054817494 0.29515529 12827315
0.77050012 -0.044844199 0.29487815 12893107
0.77113879 -0.034952167 0.29512277 12827571
0.77136654 -0.025031496 0.2952092 11973291
0.77072233 -0.015087658 0.29496247 11645101
0.77070004 -0.005162477 0.29495522 11974065
0.77102935 0.0045500631 0.29481676 12104364
0.77183998 0.014705989 0.29448861 11841190
0.77286685 0.02467645 0.29487997 11842472
0.77304006 0.034634899 0.29494631 11711145
0.7730335 0.044587489 0.29494378 11645360
0.77310365 0.055294946 0.29509479 11776432
0.77292597 0.065322168 0.29496902 11579049
0.77242863 0.075164787 0.2954866 11907498
0.77482158 0.085701898 0.29504028 14867670
0.78000003 0.089726366 0.29029784 15262169
0.77900004 0.091434985 0.29904392 15262171
0.78562975 0.095831938 0.29497701 13157565
0.79176003 0.10539205 0.29489666 11316390
0.78900003 -0.16105461 0.30319056 9867659
0.79105008 -0.16567302 0.30570695 9407622
0.78803992 -0.15471095 0.30472875 10986911
0.78568 -0.14505267 0.30528998 11118241
0.78312498 -0.13556576 0.30444983 10921119
0.77900004 -0.12071666 0.30147544 10000531
0.78152376 -0.12563889 0.30489376 11184547
0.77850008 -0.11456423 0.30158627 10657696
0.78220004 -0.11510731 0.30668229 12170417
0.77809101 -0.10489904 0.30151117 11249316
0.7833333 -0.10518882 0.30712727 11512746
0.77775002 -0.095791258 0.30152339 11972777
0.78300005 -0.095064662 0.30699664 11250083
0.77733332 -0.08487308 0.30285364 10066580
0.78200006 -0.08510372 0.30774769 11119522
0.77607691 -0.074659474 0.30470362 11382181
0.77424002 -0.065000683 0.30446929 11841706
0.77358341 -0.05498467 0.3051165 11446693
0.77315003 -0.044998631 0.3049472 12104109
0.77350014 -0.035059605 0.30508578 12236463
0.77280003 -0.025078204 0.30480877 11776429
0.77220845 -0.01511592 0.30457553 11513258
0.77344996 -0.0051796902 0.3050656 11381670
0.77519053 0.0049185315 0.30467236 11381669
0.7750001 0.015068771 0.30356064 11578790
0.78000003 0.012121618 0.30855778 11119265
0.77414304 0.024909621 0.30417368 11382181
0.77416009 0.034685079 0.30443889 11579563
0.77416688 0.044652853 0.30444148 11316396
0.77357149 0.055160407 0.30401212 11381675
0.7733463 0.064867735 0.30446461 11316136
0.77292007 0.075522333 0.30467311 11776427
0.77440017 0.085460052 0.30453092 14210253
0.77880007 0.091411516 0.30443624 14867670
0.78578264 0.0968768 0.30508375 12302514
0.79220009 -0.16480201 0.3152411 10527130
0.78890002 -0.15432444 0.31170911 10132117
0.79064286 -0.15588176 0.31647092 10592667
0.78850007 -0.14464733 0.31399789 10000530
0.79012501 -0.14517716 0.31834334 10592667
0.78752005 -0.13454933 0.31470722 10132373
0.79000002 -0.13752472 0.31991127 10592667
0.78712493 -0.12520088 0.31491351 9868946
0.79000002 -0.12180479 0.31991127 10197909
0.78727281 -0.11526751 0.31395137 9539984
0.79000002 -0.1155168 0.31917149 10066582
0.78799999 -0.10489392 0.31356871 9079434
0.79020005 -0.10518582 0.31814235 9671824
0.78805876 -0.095025957 0.31370062 9802894
0.79066664 -0.095070131 0.31833026 9079687
0.78694451 -0.084590606 0.3141745 10198421
0.79000002 -0.086049639 0.31867829 9145993
0.77900004 -0.070870131 0.31180951 8947848
0.78493756 -0.075662024 0.31568378 9474703
0.77775002 -0.064612418 0.311993 9211017
0.78299999 -0.064733252 0.31724536 8948360
0.77711123 -0.056146007 0.31166133 9144709
0.78266674 -0.054510698 0.31653661 9013641
0.77779996 -0.045266341 0.31132919 11314849
0.78433329 -0.044729184 0.31670061 10132377
0.77900004 -0.035308901 0.31180951 11776685
0.78530002 -0.034675259 0.31709078 10396060
0.77720004 -0.025222739 0.31108898 11909816
0.78359997 -0.025430422 0.31640473 9936284
0.77687502 -0.015206389 0.31141481 11119524
0.7827 -0.015319623 0.31622446 9607316
0.77866673 -0.0070384853 0.31167608 11973287
0.78491664 -0.0047980575 0.31647858 10131856
0.7859475 0.0047102794 0.31507972 10328463
0.79000002 0.0048794067 0.31991127 10394259
0.78637493 0.015211046 0.31499615 10066061
0.79000002 0.015975831 0.31991127 10329749
0.77900004 0.029430782 0.31180951 10065805
0.78494114 0.024572892 0.31603065 9671819
0.77900004 0.034901742 0.31180951 9803148
0.7845 0.035148162 0.31676748 9671822
0.77883339 0.044921245 0.31174281 10724513
0.78433341 0.04523848 0.31670022 9474193
0.77749997 0.055463195 0.31151304 11382704
0.78255558 0.054804407 0.31608403 9276817
0.7767334 0.065348133 0.31235927 10263707
0.78255558 0.064370848 0.3181189 10724257
0.77666676 0.074797392 0.31269684 10723481
0.78200006 0.075311027 0.31850234 9933964
0.77680004 0.08317633 0.31202167 13027008
0.78236371 0.085834235 0.31682166 11579564
0.78637499 0.095989197 0.31522346 11579305
0.79169571 0.10525813 0.31503668 11053218
0.79180008 -0.13505858 0.32527667 10592924
0.7916522 -0.12503994 0.32533717 10527131
0.78866673 -0.073904082 0.32183328 9737616
0.79126662 -0.075939149 0.32610616 10066580
0.78806674 -0.065790318 0.32318878 9737615
0.79114288 -0.064301655 0.3283121 10066580
0.78790003 -0.055078961 0.32219785 9277581
0.79133332 -0.054906119 0.32703882 9869201
0.78850007 -0.044967204 0.32114971 9936026
0.78900003 -0.034838628 0.32135338 11185833
0.78837502 -0.023737432 0.32156059 10330783
0.78822231 -0.014916819 0.32185748 9673108
0.78875005 -0.0062063038 0.32125154 9408134
0.78900003 0.02796152 0.32135338 8224377
0.78840005 0.035321485 0.321109 8882308
0.78800005 0.044528577 0.32094607 9934744
0.78792322 0.055022262 0.32205102 9474961
0.79120004 0.05508028 0.32768348 9408650
0.7876429 0.065449305 0.32449076 9145478
0.79033333 0.063470118 0.32868072 9474443
0.78700006 0.074671 0.32502872 9803150
0.79000002 0.079780273 0.32915828 10263702
0.78761542 0.084929571 0.3237699 10395546
0.79062504 0.08609128 0.32872516 10724511
0.78841668 0.094541244 0.32219288 10855840
0.79091662 0.094838969 0.32753572 10921890
0.79153854 0.074661791 0.3350051 10132373
