# .PCD v0.7 - Point Cloud Data file format
VERSION 0.7
FIELDS x y z rgb
SIZE 4 4 4 4
TYPE F F F U
COUNT 1 1 1 1
WIDTH 956
HEIGHT 1
VIEWPOINT 0 0 0 1 0 0 0
POINTS 956
DATA ascii
0.7882728 -0.16347907 0.10716217 13881807
0.7861923 -0.15491213 0.10677651 15724008
0.79119998 -0.15533035 0.10090897 13224385
0.78574067 -0.14505871 0.10664254 15855594
0.79099995 -0.14510578 0.10088324 13684678
0.78617853 -0.13501674 0.10670392 15921642
0.79088891 -0.13449021 0.10097194 13947849
0.78626931 -0.12512241 0.10685761 15856361
0.79133338 -0.1247876 0.10092574 13618886
0.7860713 -0.115086 0.1064913 15790569
0.79140002 -0.11461037 0.10093401 13487559
0.7858519 -0.10501479 0.10686295 15922154
0.79170007 -0.10538527 0.10097239 13224901
0.78642857 -0.094886579 0.10654036 15987947
0.79166669 -0.095190383 0.10096825 13487816
0.78723806 -0.085481666 0.10676259 16053740
0.79108328 -0.084469683 0.10135651 13816781
0.78872734 -0.075783126 0.10772805 15922154
0.79208696 -0.074639313 0.10275234 14540503
0.78900003 -0.065315165 0.10801756 16119276
0.79250002 -0.064677283 0.10292629 14540760
0.78900003 -0.055156328 0.10801758 15526883
0.79250002 -0.05540099 0.10292628 14277587
0.78900003 -0.045657147 0.10867723 15330018
0.79196554 -0.045007613 0.10365594 14212052
0.79153335 -0.034950331 0.10465334 14409431
0.78900003 -0.022832718 0.10894111 14540247
0.79200023 -0.025004797 0.10413464 14080466
0.78900003 -0.014520934 0.1089411 14737626
0.7926802 -0.014588378 0.10387518 13949392
0.78900003 -0.005747383 0.10894111 14342868
0.79311538 -0.0052418755 0.1041449 13421763
0.78900003 0.0021026351 0.10894111 14540247
0.79312122 0.005151479 0.10443743 13421251
0.79313338 0.015111137 0.10486051 13355459
0.78900003 0.027037989 0.10894111 13618632
0.79343331 0.024774563 0.10452881 13092800
0.78900003 0.035349771 0.1089411 13882317
0.79344457 0.035133842 0.10376717 12106162
0.78900003 0.043969397 0.10863326 14606040
0.79324991 0.044979468 0.10379409 12106163
0.78900003 0.054743942 0.1089411 14606298
0.79372406 0.054911312 0.10413724 12369333
0.78900003 0.063979253 0.10894111 15066591
0.78544831 -0.16511469 0.11472407 13947344
0.7782355 -0.15407196 0.11602715 15723242
0.78087509 -0.15627396 0.11238861 15394534
0.77795464 -0.14494675 0.11544387 15921130
0.78000003 -0.14491387 0.11135042 16118510
0.77875018 -0.13547435 0.11618479 15921130
0.78057152 -0.13418646 0.1119537 15986923
0.7789377 -0.125228 0.11655512 15724264
0.78091669 -0.12497591 0.11239447 15987436
0.77863652 -0.11508081 0.1158775 15592935
0.78080004 -0.11490176 0.11146462 15790314
0.77882624 -0.10478218 0.11585929 15658214
0.78057146 -0.10416659 0.11169285 15724776
0.77900016 -0.09483815 0.11680888 15460579
0.78063643 -0.09444344 0.11260348 15592933
0.78332359 -0.084795229 0.11484224 15460835
0.78663331 -0.075246848 0.1150569 15460835
0.78716671 -0.065162882 0.11513526 15329762
0.78740019 -0.055044398 0.11517039 15131613
0.78805721 -0.04507453 0.1151357 14934491
0.7889998 -0.034838632 0.1144823 14277075
0.78883308 -0.024675388 0.1144582 14277075
0.78833342 -0.014304217 0.11479516 14013903
0.78831041 -0.0054076542 0.11514474 14079953
0.78896528 0.0047139889 0.11460452 14211540
0.79000002 0.0095029166 0.11092858 14606042
0.78866655 0.01517877 0.11574063 14211541
0.79000002 0.015513481 0.11092858 14474456
0.78777784 0.025150012 0.11522516 14013904
0.78646672 0.035235334 0.11503208 13619146
0.78594291 0.045200523 0.11508601 14079697
0.78596771 0.055274624 0.11480891 14211028
0.78619993 0.064673632 0.11499026 14211284
0.7870909 0.074628673 0.11553995 14408663
0.79000002 0.077930875 0.11092857 14935007
0.78682148 0.085181817 0.11540978 14671833
0.79000002 0.082554385 0.11092858 14408663
0.78594434 0.09500891 0.11494976 15198178
0.78603441 0.10501589 0.11512168 15263972
0.78900003 -0.17152131 0.12925881 10065302
0.79281825 -0.17514087 0.1248209 10197655
0.7851482 -0.16517919 0.12494995 13683914
0.77732152 -0.15416762 0.12435565 15724011
0.78000003 -0.15860882 0.12869737 15789546
0.77683359 -0.14523405 0.12453751 15658730
0.77772224 -0.13538554 0.12467943 15461350
0.77861756 -0.12487445 0.12503763 15263971
0.77843738 -0.11489654 0.12456932 15263970
0.77869231 -0.10533695 0.12357453 15526629
0.78070009 -0.10282378 0.12844756 15592165
0.77900004 -0.094982885 0.12113644 15395556
0.78136837 -0.094961032 0.12656599 15592422
0.78276694 -0.08495374 0.12457354 15395299
0.78499991 -0.075090632 0.12492755 15263457
0.78643322 -0.065100551 0.12515683 15132127
0.78800005 -0.05508567 0.12540655 15066591
0.7887584 -0.045078721 0.12508136 14803419
0.79000002 -0.041355699 0.12942263 14803673
0.78899986 -0.035146471 0.12248622 14211282
0.79000002 -0.034420434 0.12803559 14474709
0.78899992 -0.025141547 0.12163965 13684938
0.79000002 -0.024341179 0.12720335 13553608
0.78899992 -0.014303632 0.1230657 13290180
0.79000002 -0.015379976 0.12807763 13224387
0.78891289 -0.0048833978 0.12482845 13553352
0.79000002 -0.007141721 0.12942263 12895422
0.78894418 0.0048725605 0.12463207 13684939
0.78814822 0.014810274 0.12501837 13750732
0.78733349 0.025135215 0.12529953 13487817
0.78576005 0.03520358 0.12504923 13684940
0.78503323 0.045279939 0.12493347 13750733
0.78476 0.055367287 0.12489009 13749707
0.78356701 0.065371655 0.12469952 13553099
0.78344023 0.075449705 0.12467807 13882319
0.78255898 0.085439213 0.12545411 14605785
0.78103226 0.095150538 0.1250623 14671582
0.78133339 0.10451586 0.12525779 15000801
0.78717387 0.11411171 0.12527303 14013905
0.79000002 0.11861777 0.1229497 11908781
0.78900003 -0.17152131 0.13479999 9933715
0.79175001 -0.17594463 0.13492073 10196627
0.7851429 -0.16517547 0.13505927 13881551
0.77805889 -0.15317966 0.13443184 15329508
0.78100008 -0.15812713 0.13594775 15000030
0.77765393 -0.14517699 0.13482381 15395557
0.77775872 -0.13523568 0.13457601 15658728
0.77866656 -0.12461373 0.13485843 15461349
0.7790001 -0.11615753 0.13354741 15263713
0.7806924 -0.11348044 0.13647455 15395299
0.78203326 -0.10501289 0.13544184 15526629
0.78300023 -0.094859503 0.13520119 15592422
0.78341699 -0.08502575 0.13476478 15460835
0.78516668 -0.075105764 0.13506603 15263455
0.78722584 -0.065314122 0.13467608 15197918
0.78882593 -0.055464678 0.13452984 15000284
0.79000002 -0.051527418 0.13774493 15065820
0.78900003 -0.048999444 0.13172156 15197920
0.79033357 -0.044626944 0.13537098 15000028
0.79140007 -0.034943949 0.13521145 14671318
0.79140002 -0.024754543 0.13521178 14408401
0.7912401 -0.014562625 0.13518457 13816009
0.78900003 -0.0015914912 0.13110587 13290180
0.7904169 -0.0054499079 0.13519733 13355717
0.78890896 0.005963583 0.13402916 13684681
0.79000002 0.0018741247 0.13705142 13618375
0.7880401 0.015013601 0.13463618 13553096
0.78724247 0.025383631 0.13500226 13487303
0.78553319 0.035193127 0.13512748 13421254
0.78508323 0.045283124 0.13505022 13618376
0.78556657 0.055425461 0.13513508 13421254
0.78462851 0.06532757 0.13484333 13618377
0.78319389 0.075247608 0.13487343 13289925
0.78222573 0.085255601 0.13529667 14474198
0.78143996 0.095378809 0.1353382 14671320
0.78132004 0.10451212 0.13531666 15065821
0.78603446 0.11422093 0.13505264 13882319
0.78900003 0.12093037 0.13633922 11842990
0.79145455 0.1257444 0.13445777 11777197
0.78900003 -0.17152131 0.14034118 9999762
0.7930001 -0.17518112 0.14523163 10065554
0.7863462 -0.16557032 0.14517929 13816016
0.77900016 -0.1525698 0.14512761 15789290
0.78114289 -0.15727508 0.14482141 15460069
0.77900016 -0.14616095 0.14351238 15395301
0.78073335 -0.14303865 0.14727859 15328994
0.77899998 -0.13391642 0.14090715 15263972
0.78133327 -0.13540606 0.14568594 15000029
0.77900004 -0.12776811 0.14111558 15461350
0.78108001 -0.12437878 0.14500503 15197407
0.78187996 -0.11506023 0.14456777 15131871
0.78343356 -0.10520081 0.14485523 15131871
0.78476012 -0.095276766 0.14509979 15066334
0.78543341 -0.085244544 0.14522438 15131614
0.78676009 -0.075258888 0.14546934 15197149
0.7880857 -0.065106884 0.14492302 15328991
0.7889998 -0.056331728 0.14462304 15526370
0.79000002 -0.051989768 0.14606726 15526113
0.79055589 -0.045084301 0.14524455 15263197
0.79181474 -0.034962397 0.1449604 15000026
0.79141682 -0.024755146 0.14540118 14605270
0.79167855 -0.01476838 0.14511868 14144718
0.79096448 -0.0052331449 0.14498925 13749961
0.78900003 0.0083364733 0.14241913 13420996
0.79021454 0.0038890578 0.14590943 13486789
0.78862059 0.015151269 0.144731 13420997
0.79000002 0.011352321 0.14976607 13420996
0.78787887 0.024902511 0.14517279 13355204
0.78692019 0.03525573 0.14550003 13618376
0.78665495 0.045215033 0.1453241 13486789
0.78753859 0.055351868 0.14575556 13355204
0.78707999 0.064743444 0.14552885 13355462
0.78453338 0.074632637 0.14505821 13157826
0.78217232 0.085239746 0.14449373 14276564
0.78196144 0.095231898 0.14472225 14671065
0.7810384 0.10447314 0.14462171 14868701
0.78546166 0.11440632 0.1450157 13619148
0.78874999 0.12150794 0.14368241 11843245
0.79072225 0.12623437 0.14517361 11777195
0.78567857 -0.1650922 0.15505321 14341847
0.77900004 -0.15293452 0.15132803 15855339
0.78071994 -0.15532178 0.1552441 15657449
0.78133333 -0.14515816 0.15544076 15921130
0.78296888 -0.13503909 0.15508036 15197407
0.783059 -0.1250474 0.1546533 15000028
0.78375769 -0.11483553 0.15525727 15131614
0.78496772 -0.10520067 0.15468109 15263199
0.78635699 -0.094877467 0.154797 15197406
0.78729635 -0.084934801 0.15457991 15065563
0.78784007 -0.075362593 0.1548903 15065818
0.78837931 -0.065357797 0.15512353 15460577
0.78899992 -0.056460135 0.15500905 15657701
0.79000002 -0.052452117 0.15554546 15920872
0.79050022 -0.045081332 0.15541235 15328735
0.79114294 -0.03493325 0.15494283 14868697
0.79073358 -0.024734313 0.15545788 14802904
0.79144448 -0.0143587 0.15518658 14342355
0.79196286 -0.0053743101 0.15528835 13815754
0.79146671 0.00488745 0.15560357 13421253
0.78900003 0.017617965 0.15253179 13224387
0.79030001 0.014408618 0.15602145 13290180
0.78876913 0.025680123 0.15457596 13224387
0.79000002 0.021986395 0.15855074 13355973
0.78860003 0.035331853 0.15504046 13487046
0.78855985 0.044560123 0.15503262 13750219
0.78849989 0.054708894 0.15502077 13618634
0.78796005 0.064817049 0.15491343 13421256
0.78574991 0.074977987 0.15482379 12960191
0.78263354 0.084532417 0.15478267 14276820
0.78358352 0.094725348 0.1549729 14539736
0.78265518 0.10468827 0.15494645 14802908
0.78592598 0.114128 0.1549224 13816526
0.78900003 0.12031468 0.15465592 11908525
0.79338109 0.12541048 0.15518281 11842988
0.78900003 -0.17152131 0.16897066 9736335
0.79347622 -0.17559646 0.16457517 9999761
0.78533334 -0.16542119 0.16501723 14210259
0.78132004 -0.15522029 0.16458316 15460839
0.78316671 -0.14549786 0.16497369 15855338
0.78586668 -0.13496462 0.16554256 15526373
0.78592008 -0.12485571 0.16555355 14934235
0.78530002 -0.11464597 0.16542189 14802649
0.78629631 -0.10446086 0.16522296 15065820
0.78783339 -0.094727188 0.16503285 15263455
0.78856653 -0.084661953 0.16518694 15263199
0.78893304 -0.075467415 0.16526298 14999770
0.78899974 -0.065447114 0.16514461 15394272
0.78900003 -0.058234766 0.16127455 15920617
0.7900455 -0.054808866 0.16499127 15657958
0.79076695 -0.045097243 0.16472168 15263457
0.79120016 -0.034935679 0.16481213 14868955
0.79140007 -0.024753992 0.16485427 14671577
0.79236001 -0.014582024 0.16505431 14473941
0.79239988 -0.0053092386 0.16506197 14079183
0.79189992 0.0048910244 0.16495706 13619145
0.79128003 0.015073926 0.16482849 13553352
0.79043365 0.025235396 0.16465235 13421766
0.78899997 0.037592638 0.16461687 13552838
0.79000002 0.033402912 0.16513035 13421766
0.78899974 0.04458509 0.16527654 13750217
0.78899974 0.054743938 0.16527651 13881549
0.78856653 0.06486588 0.16518633 13815755
0.78673536 0.074625611 0.1650731 13025982
0.78344017 0.084618546 0.16502918 14079696
0.78433335 0.094815597 0.16521573 14540249
0.78304017 0.10473993 0.16494323 14803421
0.78603584 0.11454485 0.16498287 13356232
0.78900003 0.12077644 0.16620007 11711405
0.79269999 0.12580088 0.16456214 11777195
0.78900003 -0.17204903 0.17622697 9802126
0.79147375 -0.17654677 0.17510556 10065297
0.78550011 -0.16510859 0.17486972 14144978
0.78288597 -0.15474302 0.17486303 15197924
0.78668004 -0.14523111 0.17492159 15723497
0.78796673 -0.13532592 0.17520577 15723495
0.78792 -0.12517345 0.17519563 15131614
0.78756678 -0.11497691 0.17511837 14934235
0.78816009 -0.10491447 0.1752499 14934235
0.78876656 -0.094839461 0.17538436 15065821
0.78887987 -0.084696159 0.17540896 15328993
0.78900009 -0.077992745 0.17509954 15197407
0.79000002 -0.072958738 0.17620169 15000028
0.78900003 -0.066649161 0.17256217 15131358
0.79000002 -0.063791901 0.17643644 15131358
0.79080021 -0.055280436 0.17491081 15525859
0.7919721 -0.04516682 0.17516939 15131614
0.79196656 -0.034969546 0.17516826 14934235
0.79211098 -0.024776448 0.17519978 14802906
0.79296148 -0.014736463 0.17467381 14473941
0.79280007 -0.0053118235 0.17442493 14144976
0.79214692 0.0051102112 0.17493537 13750218
0.79143339 0.015077035 0.17504925 13618632
0.790667 0.025243029 0.1748797 13552582
0.78899992 0.037073694 0.17592791 13684168
0.79000002 0.032976128 0.17380832 13618375
0.78851992 0.044557396 0.17532752 13815754
0.78829992 0.054695483 0.1752786 13947340
0.78820008 0.064836882 0.17525665 13881548
0.78680003 0.074848212 0.17494603 12894653
0.783059 0.085222542 0.17524517 14079441
0.77900004 0.098729603 0.177771 14474455
0.78183353 0.094816953 0.17426585 14408663
0.77900004 0.10201218 0.17795336 14803420
0.78131986 0.10495081 0.17387277 14803677
0.78596157 0.11419661 0.17497189 13290181
0.78900003 0.12031468 0.17451185 11777196
0.79113638 0.12502028 0.17498463 11711402
0.78871429 -0.17317434 0.18434028 9867663
0.79036367 -0.17804185 0.18532611 9933200
0.78658623 -0.1656027 0.18518639 14474456
0.78390342 -0.15466587 0.18513586 15066080
0.78670001 -0.14523514 0.18505177 15065823
0.78805566 -0.13534132 0.18537191 15328995
0.78846419 -0.125193 0.18540223 15328994
0.788903 -0.11532023 0.18482687 15394786
0.7889998 -0.10502703 0.18467072 15328993
0.78899974 -0.094868191 0.18467072 15263200
0.7889998 -0.084709339 0.1846707 15394786
0.78900003 -0.079168148 0.18467069 15328993
0.79014307 -0.074327536 0.18493854 15065821
0.79052019 -0.064515606 0.18502785 15065821
0.79100013 -0.05529613 0.18513878 15131614
0.79136682 -0.045132644 0.18522327 15065821
0.7916801 -0.034956124 0.18529713 14802649
0.79199988 -0.024773624 0.18537284 14605270
0.79237926 -0.014454856 0.18469295 14605270
0.79246652 -0.0053090756 0.18455286 14276305
0.79150015 0.0046546417 0.18490702 13881547
0.79012018 0.015053136 0.18493241 13553095
0.78900003 0.029808585 0.18651776 13027008
0.79000026 0.02506342 0.18484101 13421510
0.7889998 0.035349771 0.18467067 13618889
0.78831995 0.044546191 0.18451266 13816267
0.78816676 0.054685917 0.18447638 13816011
0.78800005 0.064947747 0.18520001 13881548
0.7865833 0.074827723 0.18502586 13223619
0.78306681 0.085492529 0.18511581 13552841
0.77900016 0.097133905 0.1846097 14540248
0.78049999 0.092980735 0.18526959 14408663
0.7789287 0.10184665 0.18452784 14737627
0.7812143 0.10645785 0.18546046 14869212
0.78688467 0.11425851 0.18481268 13948365
0.79000002 0.11861777 0.18860355 11579816
0.79292303 0.1247023 0.18501833 11645609
0.78900003 -0.17198306 0.19390601 9867407
0.7911765 -0.17646316 0.19476852 9933200
0.78751999 -0.16567187 0.19538628 14736602
0.78509992 -0.15505123 0.19478644 15921387
0.78636003 -0.14517373 0.19509883 15921130
0.78756678 -0.13525628 0.19539677 15723751
0.78784013 -0.12516026 0.19546454 15526372
0.78831434 -0.11495332 0.19479068 15394786
0.78879988 -0.10499993 0.19477917 15328737
0.78883308 -0.094848663 0.1947875 15262688
0.78879982 -0.084687397 0.19477922 15328738
0.78899986 -0.076640584 0.19604471 15197152
0.79006255 -0.072454348 0.19335774 15065565
0.78900003 -0.068085767 0.1994472 15262687
0.79042876 -0.064309664 0.19485031 15262687
0.79036683 -0.055252325 0.1951655 15131358
0.78900003 -0.044381794 0.19821583 15065821
0.7900669 -0.045181684 0.19441444 15066078
0.7904669 -0.034902532 0.1951903 14736856
0.79165709 -0.024894463 0.195352 14605526
0.79199988 -0.014576148 0.19464329 14539734
0.79251993 -0.0053092926 0.19477157 14408404
0.79136664 0.0048854668 0.19448873 13882060
0.79036695 0.01505827 0.19516863 13421765
0.790528 0.025239799 0.19520855 13289923
0.78900003 0.037812524 0.19144326 13553352
0.79025012 0.03478853 0.19598691 13553095
0.7889998 0.04496989 0.19382906 13750474
0.79000002 0.043100428 0.19908351 13815754
0.78899974 0.054743942 0.19482949 13816011
0.78853834 0.064721391 0.19542572 14013133
0.78706664 0.074874274 0.1952737 13421254
0.78347063 0.085750639 0.19502693 13816270
0.77900004 0.097817779 0.19327204 14342870
0.78076202 0.094251461 0.19553584 13684683
0.77900004 0.10055325 0.19327205 14737628
0.78154176 0.10522985 0.19550292 14737627
0.78733337 0.11374502 0.19507572 14276561
0.79000002 0.11861777 0.19507647 11448232
0.792 -0.17500253 0.20506026 9933198
0.78732139 -0.16543318 0.20514326 14539735
0.78527761 -0.15508425 0.2049392 15789546
0.7876786 -0.14561495 0.20523724 15920873
0.78738719 -0.13507913 0.20474848 15789542
0.78708005 -0.12503941 0.20448993 15592163
0.78810006 -0.11505399 0.20475499 15460579
0.78879988 -0.10499992 0.20493703 15394786
0.7883333 -0.094789498 0.2048151 15262944
0.78812009 -0.084614381 0.2047593 15328737
0.78859991 -0.075435758 0.20488308 15328481
0.78865498 -0.065445527 0.20502491 15328480
0.79000002 -0.060774446 0.20154938 15393503
0.78891653 -0.054996278 0.20512031 15131615
0.79000002 -0.05892504 0.20154938 15919847
0.7889998 -0.045442145 0.2053304 15197408
0.79000002 -0.041047465 0.20216584 14736856
0.79000014 -0.034882784 0.20524821 14671063
0.79048407 -0.02457528 0.20519388 14671063
0.7917999 -0.014571763 0.2047886 14539990
0.79289991 -0.0053112758 0.20507391 14342868
0.79282838 0.0050286106 0.20492347 14079696
0.792 0.015088673 0.20576838 13750218
0.79153341 0.02527033 0.20564565 13487046
0.79040027 0.035411559 0.20535114 13749961
0.78899992 0.045345645 0.20618357 14013133
0.79000002 0.043023366 0.20270528 13881804
0.78869987 0.054722145 0.20490956 14013133
0.78803575 0.065020196 0.20532919 14078927
0.78622222 0.074794054 0.20518488 13420997
0.78231257 0.085180193 0.20473698 14145234
0.78048015 0.09526331 0.20460244 13948112
0.78204 0.10460907 0.20501149 14540248
0.78713632 0.11341733 0.20500603 14474198
0.79000002 0.11861776 0.20524819 11447976
0.78900003 -0.17152131 0.21514724 10459797
0.79250014 -0.17611134 0.21482679 9867405
0.78711104 -0.16579221 0.21514332 14605271
0.78337181 -0.15457845 0.21531424 15723754
0.78585714 -0.14501338 0.21500909 15855337
0.78771436 -0.1354132 0.21492761 15460578
0.78800005 -0.12518586 0.21487461 15394785
0.78858322 -0.11512346 0.21503395 15394785
0.78899974 -0.10502703 0.21514726 15328993
0.78836113 -0.094792508 0.21497388 15394273
0.78800005 -0.084601969 0.21487454 15328480
0.78800005 -0.075378366 0.21487458 15131101
0.78800005 -0.065232389 0.21487452 15394017
0.78846663 -0.055117626 0.21500158 15328737
0.78899974 -0.045129411 0.21527921 15460579
0.79000002 -0.040430997 0.21079642 14671063
0.78900003 -0.038532756 0.21422371 14868442
0.79000014 -0.034728669 0.21449524 14671063
0.79003358 -0.024711911 0.21450409 14276305
0.79140007 -0.01456379 0.2148744 14539477
0.79259992 -0.0053090788 0.21520004 14605784
0.79312891 0.0047484171 0.21516445 14013903
0.79263997 0.015100211 0.21521229 13487559
0.78900003 0.029808585 0.2197649 13355973
0.79060024 0.025239589 0.21465756 13355973
0.7889998 0.035965458 0.21599382 13553095
0.79000002 0.032928701 0.21202934 13618888
0.78879982 0.044572927 0.21509232 13618888
0.78802788 0.054676313 0.21488203 13947597
0.78729635 0.064556114 0.21519479 14144721
0.78533334 0.074709915 0.21506687 13618375
0.78245455 0.085288882 0.21483472 14276819
0.78231281 0.095143646 0.21538673 14079442
0.78344452 0.10459346 0.21495827 14343127
0.78790915 0.1138628 0.21526933 14013905
0.79000002 0.11861776 0.21449521 11514026
0.78900003 -0.17152131 0.22900021 11578794
0.7922858 -0.17515461 0.22509515 10130834
0.7868889 -0.16533604 0.22511186 14473943
0.78322613 -0.1548297 0.22531332 15460582
0.78496552 -0.14478865 0.22523168 15789544
0.78753346 -0.13524966 0.22488779 15592165
0.78800005 -0.12518586 0.22502054 15131614
0.78796673 -0.11503523 0.22501089 15197150
0.78753579 -0.10463522 0.22547838 15131614
0.78745735 -0.094814412 0.22565311 15197407
0.78712898 -0.084686525 0.22583909 15263200
0.78788012 -0.075366415 0.22498579 14999772
0.78800005 -0.065232396 0.22502057 15394273
0.78823996 -0.055102721 0.22508909 15262944
0.78899974 -0.044997476 0.22530611 15526370
0.78900003 -0.03691658 0.22738403 15065562
0.79000002 -0.034126207 0.22357415 15263199
0.78900003 -0.023756251 0.22900021 14934489
0.79000038 -0.024765454 0.22439502 14671062
0.79040027 -0.014545685 0.2247797 14342098
0.79156673 -0.0053016413 0.22511129 14473684
0.79244435 0.0048951549 0.22536066 14408148
0.79216659 0.015091161 0.22528149 13552839
0.78900003 0.028885052 0.22900021 13092801
0.79030329 0.024866758 0.22461276 13026751
0.7889998 0.035853516 0.22530609 13487560
0.79000002 0.031695768 0.22559166 13355973
0.78891981 0.044580191 0.22528322 13355974
0.78810012 0.054680981 0.22504891 13685196
0.78788 0.064810283 0.22498676 14013905
0.78573519 0.074964248 0.22502315 13816269
0.78361565 0.084497169 0.22539209 14145491
0.78326696 0.094685405 0.22550315 14079698
0.78375024 0.10503493 0.22505109 14408920
0.78804761 0.11358317 0.2252965 14013904
0.79000002 0.11861777 0.22466694 11447976
0.79228562 0.12432934 0.22498418 11579561
0.78883338 -0.17179292 0.23664558 11249829
0.79166669 -0.17622225 0.23492159 9802127
0.78678572 -0.16571589 0.23513159 14736600
0.78370017 -0.15477639 0.23480067 15526373
0.78548002 -0.14501078 0.23533331 15460579
0.78744453 -0.13523448 0.23499992 15197406
0.78786671 -0.12516522 0.23512617 15262943
0.78694457 -0.11488708 0.23484987 15328736
0.78537029 -0.10475005 0.23489073 15132127
0.78428018 -0.095218003 0.23497321 15197664
0.7857666 -0.085280024 0.23542036 15131615
0.78726685 -0.075307578 0.23494859 14934235
0.78763908 -0.065201491 0.23505889 15131358
0.78803343 -0.055088665 0.23517625 15000285
0.78838879 -0.044962231 0.23528136 15329249
0.78849989 -0.034816552 0.23531398 15000284
0.78868556 -0.024801182 0.23523794 15000027
0.78899992 -0.015382896 0.23601905 15065819
0.79000002 -0.013244756 0.2326194 14736855
0.79032022 -0.0052933372 0.23493332 14802648
0.79113346 0.0048865615 0.23517497 14868443
0.7907601 0.015064391 0.23506394 14079185
0.78899992 0.027615197 0.23511861 13487045
0.79000002 0.022448745 0.2341782 13223874
0.78877765 0.035544176 0.23488486 13684424
0.7881667 0.044537529 0.23521544 13552838
0.78791672 0.054668345 0.2351412 13750730
0.78756684 0.06478449 0.23503539 14013904
0.78574991 0.07451959 0.23506819 14145490
0.78321451 0.084986933 0.23524258 14211541
0.78282887 0.094763555 0.23532377 14474456
0.78246677 0.10466529 0.2353452 14474714
0.78725928 0.11438794 0.23504479 13421768
0.79000002 0.11861777 0.23298925 11776941
0.78900003 0.12031468 0.23823553 11316644
0.79161543 0.1247784 0.23474656 11514023
0.79272205 0.13480125 0.23471747 11448230
0.78854555 -0.17242995 0.24497852 11118499
0.79111773 -0.1774307 0.24508457 9671053
0.7860741 -0.16516407 0.24512103 14407890
0.78347254 -0.15473081 0.24481951 15658216
0.78506666 -0.14493398 0.24531716 15855338
0.7863124 -0.13527027 0.24513161 15723751
0.78700006 -0.12502699 0.24500114 15263200
0.78743351 -0.11495752 0.24513762 15065821
0.78691995 -0.10475043 0.24497944 15065821
0.78689659 -0.094773486 0.24509948 14934236
0.7878077 -0.084792465 0.24511243 15131615
0.7886399 -0.075439394 0.24551305 15131616
0.78879982 -0.065298617 0.2455624 15197152
0.78883982 -0.055144943 0.24557474 14670807
0.78810006 -0.044946656 0.245344 14210512
0.78800005 -0.034794472 0.24531247 14408404
0.78812909 -0.024503015 0.24517365 14276562
0.78896642 -0.014520164 0.2446897 14210512
0.78900009 -0.0071326811 0.24696712 14144719
0.79000002 -0.0042216093 0.24369633 14407891
0.79080576 0.0048852591 0.24525955 14605270
0.79056686 0.015060521 0.24518594 14079440
0.78899974 0.026378322 0.24496414 12763579
0.79000002 0.021061692 0.24408567 12697530
0.78871423 0.035138573 0.24494183 13092545
0.78803998 0.044530649 0.2453251 13027008
0.78756678 0.054642893 0.24517772 12829374
0.78599995 0.06504821 0.24527964 13420999
0.78371447 0.074686728 0.24476239 13684682
0.77900004 0.088699505 0.24889345 14408663
0.78164518 0.08483658 0.24439436 14013647
0.77873343 0.095049426 0.24789611 14737628
0.78093338 0.09531796 0.24311095 14079699
0.77893353 0.10309778 0.24686603 15001057
0.78076935 0.10528176 0.2432019 14079955
0.78532141 0.11417992 0.24467275 13421767
0.78880006 0.12102301 0.24537611 11448231
0.79050022 0.12666556 0.24488017 11448230
0.79111552 0.1353112 0.24464449 11448230
0.78871435 -0.17198692 0.25397623 12171704
0.79142863 -0.17641892 0.25511298 9408397
0.78592598 -0.16540654 0.25495493 14671064
0.78303361 -0.15464303 0.25476471 15395047
0.78408015 -0.14475207 0.25510484 15855852
0.78591168 -0.13475437 0.25505117 15592165
0.78744459 -0.12530127 0.25476661 15197407
0.78800005 -0.11503991 0.25453609 15000028
0.78820002 -0.10491978 0.25460079 14802649
0.78876656 -0.09484002 0.2547842 14671063
0.78855985 -0.084662095 0.25471634 14671064
0.78883988 -0.075458527 0.25480667 14868443
0.7889998 -0.065469094 0.25516692 15197407
0.79000002 -0.064781487 0.2539492 15328993
0.7889998 -0.055156317 0.25485912 15065565
0.78813338 -0.044948753 0.25457892 14276818
0.78750008 -0.034772709 0.2552945 14342868
0.78762865 -0.024768014 0.25520486 14408147
0.78807998 -0.014503721 0.25456154 14210767
0.7888748 -0.0054381173 0.25497231 14342352
0.79000002 -0.0015935082 0.25148329 14276559
0.78900003 0.0035802857 0.25762972 14408145
0.79009998 0.0055277837 0.25382683 14408145
0.78900003 0.015586196 0.25744501 14210766
0.79000002 0.01468125 0.25345597 14408145
0.78899974 0.025190925 0.25485906 13421508
0.7889598 0.035347793 0.25484592 13553352
0.78807157 0.045058344 0.25508505 13750731
0.78714716 0.054884702 0.25496325 13948112
0.78506052 0.065243796 0.25492206 13355974
0.78242868 0.075546868 0.25515598 13882317
0.77884632 0.088050537 0.25480515 14342357
0.78023809 0.082968928 0.25489813 13750476
0.77732015 0.094876021 0.25472581 14606042
0.7777335 0.102212 0.25486085 14869471
0.78127283 0.10716608 0.25469175 15000803
0.78656006 0.11442398 0.25480771 13027010
0.78900003 0.12068409 0.25338143 11382694
0.79090482 0.12536767 0.25565171 11382437
0.79299992 0.13501006 0.25500038 11448230
0.78900003 -0.17152131 0.26501796 13882325
0.79235303 -0.17596358 0.26521465 9343119
0.78578579 -0.16524442 0.26505318 14934237
0.78325039 -0.15468512 0.26492107 15460580
0.78357172 -0.14479057 0.26470238 15986923
0.78546661 -0.13489404 0.26475051 15789544
0.78760719 -0.12492456 0.2648789 15460579
0.78800005 -0.11503991 0.26468199 15263200
0.78800005 -0.10489392 0.26468208 15065821
0.78786123 -0.094731934 0.264635 15000028
0.78740013 -0.084537625 0.26447895 14868442
0.787 -0.075282939 0.26434323 14868442
0.78802782 -0.065232903 0.26468912 15262943
0.78866649 -0.055133402 0.26490471 15262943
0.7877779 -0.044928744 0.26460725 14605527
0.78716004 -0.034757577 0.26532239 14277075
0.78735501 -0.024478875 0.26520938 14342868
0.78800005 -0.014502531 0.26468208 14079696
0.78829998 -0.0052803038 0.26478168 14277075
0.78822213 0.0048673851 0.26475444 14408404
0.78786671 0.015010797 0.26463482 14276818
0.78799993 0.025158998 0.26468024 13816009
0.78763336 0.035287678 0.26455685 13684681
0.78619444 0.045343902 0.2646845 13684682
0.78413337 0.055322926 0.26521531 14277076
0.78341699 0.065358713 0.26497406 13947854
0.78233337 0.075137988 0.26511863 14079441
0.77885723 0.088813342 0.26304409 13816013
0.7804783 0.084061258 0.26529485 13882062
0.77824146 0.095114335 0.26489341 14276564
0.77806258 0.10202692 0.26453343 14935007
0.78241676 0.10725396 0.26540121 15066340
0.78747612 0.11367729 0.26472536 12763841
0.79016668 0.11833455 0.26541039 11645613
0.79239988 0.12454581 0.26523453 11316647
0.78871435 -0.17198692 0.27586773 12566722
0.79200011 -0.17614901 0.27476496 9539985
0.78474081 -0.16515781 0.27477649 14736861
0.78356683 -0.15474561 0.27511504 15263203
0.78492588 -0.1447738 0.27518532 15789544
0.78580546 -0.13495255 0.27498189 15723495
0.78726929 -0.12521031 0.27478483 15657701
0.78766668 -0.11499123 0.2747106 15723238
0.78784007 -0.10487234 0.27477157 15460066
0.78800005 -0.094747938 0.27482811 15065308
0.78788 -0.084589556 0.27478662 14934236
0.78672004 -0.075257324 0.27438298 14934236
0.78661287 -0.065145239 0.2745221 15065308
0.78780007 -0.055071879 0.27475753 15197149
0.7877667 -0.044926945 0.27474567 15328992
0.78800005 -0.034794472 0.27482808 14605269
0.78800005 -0.024648501 0.27482808 14276817
0.78796005 -0.014501886 0.27481389 14276818
0.78710359 -0.0051470636 0.2752752 14145489
0.78586113 0.004852836 0.27499956 14211282
0.78529996 0.014961822 0.2748042 14145489
0.78563869 0.025083844 0.27492175 13947340
0.78546661 0.035190843 0.27486202 13881547
0.78432357 0.045020241 0.2747333 13684425
0.78247994 0.055206057 0.27473438 14211284
0.78175741 0.065139078 0.27497903 14145234
0.78199983 0.075311035 0.27456605 14144721
0.77900004 0.089611337 0.27898374 14211284
0.78120011 0.085159965 0.27506799 14079698
0.77900016 0.096369572 0.27576557 14342614
0.78011119 0.092376962 0.27430865 14013648
0.77900004 0.10055325 0.27260095 14407638
0.78252381 0.10493935 0.27527231 14934751
0.78800011 0.11265304 0.27456552 12961219
0.79127276 0.11763132 0.27546442 11250599
0.7882309 -0.17249037 0.28541124 11710900
0.79138464 -0.17717193 0.28527081 9605776
0.78346664 -0.16482092 0.28479999 14606043
0.78244442 -0.15452477 0.28479549 15197410
0.78413349 -0.14476317 0.28540853 15723751
0.78471416 -0.13489777 0.28548864 15657958
0.78577429 -0.12500875 0.28472936 15592165
0.78563148 -0.11459751 0.284453 15789544
0.78577781 -0.10474983 0.28523722 15855337
0.78747225 -0.094683334 0.28478068 15592165
0.78796673 -0.084598228 0.28496179 15263200
0.78793341 -0.075372227 0.28495032 15131614
0.78671426 -0.065101914 0.28463942 14999773
0.78541189 -0.054797731 0.28479019 15131615
0.78591877 -0.044944856 0.28439257 15526885
0.78716677 -0.034756746 0.28467038 15197664
0.78762871 -0.024768753 0.28470647 14868442
0.78630298 -0.014472934 0.28488573 14605784
0.78500003 -0.0053786659 0.28551665 14408661
0.78394461 0.0048407689 0.28534037 14408661
0.78386682 0.014934666 0.28531119 14211282
0.78487873 0.025142945 0.28526434 14013903
0.78440011 0.035143293 0.28550565 13947853
0.78327781 0.045176815 0.28509617 13815755
0.77900004 0.058001351 0.28931776 14342868
0.78155172 0.055014256 0.28431162 14211284
0.77900004 0.064992018 0.28992566 14211026
0.78087896 0.065232292 0.28464034 14276563
0.77900004 0.075629987 0.28962174 14144719
0.78137928 0.075124197 0.2842491 14210513
0.77717638 0.085331343 0.28522974 13882062
0.78033334 0.081239499 0.28189668 14276307
0.77579409 0.094585299 0.28493398 14408665
0.77770007 0.10111421 0.28561544 14868959
0.78439999 0.10621325 0.28431362 14868445
0.78850001 0.11193251 0.28515482 14671321
0.79206246 0.11719216 0.28516796 11250596
0.78800005 -0.17315023 0.29511997 10921384
0.79066664 -0.17836277 0.29519245 9539725
0.78346163 -0.16495922 0.29504287 15000545
0.78178561 -0.15511611 0.29520988 15460580
0.77900004 -0.14235732 0.29867917 15789545
0.78158075 -0.14559089 0.29477838 15723751
0.77872735 -0.1343199 0.29777873 15657959
0.78152627 -0.13532726 0.2934632 15723751
0.77899998 -0.1263613 0.29852289 15592166
0.78254563 -0.12465054 0.2941817 15592165
0.78313351 -0.11561377 0.29494268 15855081
0.78205562 -0.10501835 0.29563686 15921131
0.78341931 -0.095230557 0.29452342 15855337
0.78586102 -0.085289359 0.29523501 15855337
0.78683347 -0.075266927 0.29560116 15723751
0.78516674 -0.065001875 0.29497486 15197408
0.78288484 -0.054870185 0.29482386 14934238
0.78397149 -0.044578154 0.29465723 15066078
0.78463352 -0.034646049 0.29477313 15065821
0.78391165 -0.025330791 0.29525417 15000541
0.78287512 -0.015509948 0.29530239 14803420
0.78183347 -0.0052376073 0.29555169 14342870
0.78197068 0.0046150251 0.29533589 14540249
0.78216672 0.014902201 0.29567945 14277076
0.77900004 0.029430782 0.29904392 13948112
0.78250009 0.024789428 0.29517585 14013904
0.7790001 0.03599593 0.29776734 14013905
0.78149998 0.03446443 0.29378086 14013903
0.77900016 0.045235772 0.29669929 13816525
0.78073341 0.044604108 0.29203218 13882317
0.7790001 0.055199794 0.29571381 14277075
0.7802 0.052854933 0.29110268 14211282
0.77818739 0.065149993 0.29542714 14211283
0.77648383 0.074953698 0.29549316 14013648
0.77476478 0.084587589 0.29469523 13618636
0.77390009 0.095305838 0.29521322 14606046
0.77675009 0.10238653 0.29484656 14540254
0.78399998 0.10723229 0.29427585 14408665
0.78850007 0.1119325 0.29530722 14408920
0.79225004 0.11698857 0.29520467 11184803
0.78773916 -0.17389539 0.30496296 10592417
0.7902 -0.17918165 0.30519232 9144967
0.77900004 -0.16022913 0.30907401 14211031
0.78275001 -0.16466875 0.304735 15000804
0.77795666 -0.1539976 0.30608374 15592424
0.78088892 -0.15716571 0.3020021 15723499
0.77686667 -0.14524248 0.30458602 15658217
0.77560532 -0.13530648 0.30485502 15460838
0.77608597 -0.12505636 0.30487475 15526887
0.77716124 -0.11536292 0.30543578 15789545
0.78085715 -0.11360481 0.30080026 15789544
0.77852392 -0.10519396 0.30693096 15789545
0.78000003 -0.10439085 0.30251795 15789544
0.77809542 -0.095161505 0.30719504 15592167
0.78079993 -0.094307818 0.30192676 15723752
0.77841669 -0.085850306 0.308386 15657960
0.78224146 -0.084487036 0.30388388 15657960
0.77900004 -0.075429268 0.30998585 15789546
0.78326666 -0.074925184 0.30525953 15724009
0.77900004 -0.065399177 0.30998585 15526373
0.78224999 -0.064758383 0.30486485 15526887
0.77900004 -0.055824999 0.30952993 15197407
0.78160709 -0.054443706 0.30429006 15197407
0.7786364 -0.043993022 0.30818352 14802651
0.78151995 -0.045851327 0.30359516 14802907
0.77724999 -0.034971274 0.30590707 14342614
0.78092313 -0.035606582 0.30118716 14540247
0.77646434 -0.025132317 0.30514097 14408663
0.78049999 -0.025786325 0.30098924 14605784
0.77617943 -0.014983328 0.3056415 14671837
0.78000003 -0.018007284 0.3012538 15065823
0.77641171 -0.0053075287 0.30515289 14474458
0.77757138 0.0042184745 0.3059034 14342870
0.78070009 0.0071989177 0.30188864 14671835
0.77881265 0.015066673 0.3078596 14145491
0.78042871 0.014608085 0.3031151 14211284
0.77832156 0.025434108 0.30620018 14145491
0.78025007 0.022856144 0.30226338 14079698
0.77719998 0.034820475 0.30471754 14211284
0.77702796 0.044818558 0.30465075 14013905
0.77703339 0.054823007 0.30465215 14277077
0.77572984 0.064741388 0.30490142 14145492
0.77383339 0.075428292 0.30521086 14079700
0.7725001 0.085245796 0.30468416 13487308
0.77297151 0.095124274 0.30474234 14540253
0.77709097 0.10311988 0.30509233 14474462
0.78345454 0.10746601 0.30492184 14145496
0.7883637 0.11182936 0.30498713 14013910
0.78733337 -0.17405926 0.31488118 10066072
0.79000002 -0.17913629 0.31528774 9079433
0.77850008 -0.16172139 0.3150264 14144982
0.78194118 -0.16622064 0.31427759 14867931
0.77560622 -0.15458171 0.31507102 15132388
0.77426666 -0.14475553 0.31444481 15526887
0.77353358 -0.13465802 0.31505355 15263716
0.77400011 -0.12463343 0.31503499 15395559
0.77537143 -0.11513898 0.31476545 15527145
0.77644014 -0.10517211 0.31441903 15658473
0.77594459 -0.095116131 0.31512669 15263715
0.77556652 -0.085082456 0.31497207 15329507
0.77572227 -0.075111695 0.31503266 15461093
0.77596682 -0.065144047 0.31513193 15526631
0.77661121 -0.055198114 0.31539464 15197664
0.77656692 -0.045198068 0.31537777 15000285
0.77519435 -0.035138324 0.31482145 14408405
0.77413797 -0.025246158 0.31454945 14277332
0.77350026 -0.015142266 0.31503972 14540250
0.77342319 -0.0050410754 0.31479886 14474459
0.77511436 0.0046608159 0.31465954 14277335
0.77692002 0.014803239 0.31461307 14145491
0.77602804 0.024774963 0.31515944 13948113
0.77469999 0.034708932 0.31461951 14145492
0.77466667 0.044681568 0.31460634 14079699
0.77443326 0.054639492 0.31451231 14211285
0.77421218 0.064345099 0.31483603 13948113
0.77306682 0.075353548 0.31486478 13947859
0.77118522 0.085300721 0.31449905 14079702
0.77218521 0.094053939 0.31490663 14671840
0.77630007 0.10111469 0.31436551 14671841
0.78438467 0.10690276 0.31509387 13684946
0.78871435 0.11156686 0.31437948 12369084
0.79305005 0.11648212 0.31538627 10987683
0.78786677 -0.17324403 0.32408974 9539214
0.79090005 -0.17823052 0.3265712 9342603
0.77833343 -0.16130699 0.32247519 13289672
0.78284216 -0.16546069 0.32559803 12170678
0.77629405 -0.15486425 0.32312828 15198180
0.78039998 -0.1550363 0.32881224 15658474
0.7753334 -0.1449544 0.32304963 15592937
0.7815001 -0.14519079 0.32927573 15527401
0.77594447 -0.135076 0.32330498 15461352
0.78250003 -0.13621794 0.32969707 15527401
0.77663636 -0.12469962 0.3227649 15330025
0.78166676 -0.12509115 0.32751608 15658733
0.77750003 -0.11509802 0.3221305 15526891
0.7827 -0.11426345 0.32721791 15658734
0.77790004 -0.105371 0.32138619 15395561
0.78245455 -0.10465672 0.32684869 15461610
0.77720004 -0.094542854 0.32273412 15132900
0.78133339 -0.095472306 0.32707205 15265000
0.77635711 -0.084910735 0.32334629 15329510
0.78183341 -0.084854849 0.32911184 14672097
0.77545011 -0.075085826 0.32346219 15395043
0.78000003 -0.074004434 0.32864371 14605272
0.77564293 -0.065115996 0.32304856 15263458
0.78066665 -0.064622581 0.3289246 12959931
0.77726674 -0.055790484 0.32349077 15066337
0.78166676 -0.054644067 0.32843179 13880778
0.77766675 -0.044653893 0.32250294 15132385
0.78170013 -0.045310963 0.3267996 14868442
0.77725005 -0.035230849 0.32293776 14606040
0.78240001 -0.034548141 0.32782334 14276818
0.77649999 -0.025197685 0.32262629 14211282
0.78200006 -0.025376162 0.32765573 13816524
0.77561545 -0.014833203 0.32246849 14145490
0.78116673 -0.015290544 0.32761204 13947340
0.77570009 -0.005196753 0.32265866 14212056
0.78225005 -0.0043274015 0.32913524 12764096
0.77720004 0.0044391281 0.32237011 14475230
0.78222227 0.0057495669 0.32713941 12765639
0.77800006 0.014822504 0.32142764 14211802
0.78360003 0.014928964 0.32741052 13423570
0.77689999 0.025529962 0.3226096 13882839
0.78140002 0.024031298 0.32667345 13028300
0.77627277 0.034779552 0.32277983 13685974
0.78166676 0.035021212 0.32853442 10462631
0.77583337 0.044748399 0.32234848 13488337
0.78000003 0.044989511 0.32681772 13554390
0.77649993 0.055046063 0.32340649 13159371
0.78250003 0.054600198 0.32939276 8686220
0.77646154 0.064431779 0.32281977 12764096
0.78185719 0.064837933 0.32811958 11251628
0.77650005 0.075536124 0.32277808 12171192
0.78220004 0.075330287 0.32810614 12040115
0.77489483 0.084840737 0.32391804 13223881
0.78100002 0.081612721 0.32906505 11119015
0.7750625 0.09460403 0.32384399 14474462
0.78100002 0.098070085 0.32906505 13158603
0.77750003 0.10035963 0.32122046 14606305
0.78550005 0.10572128 0.32479927 12566721
0.78900003 0.11107937 0.32135338 10921891
0.79192317 0.11548737 0.32517955 10790303
0.79256243 0.12491402 0.32477382 10921889
0.78875005 -0.17192873 0.33186924 9868435
0.78750008 -0.1654609 0.33487856 10066327
0.79000002 -0.16988929 0.33840528 10527133
0.7860589 -0.15496671 0.33477235 11579310
0.78691667 -0.14573957 0.33478451 10197659
0.79000002 -0.14307293 0.33840528 10066072
0.78707141 -0.1346457 0.33399484 10724260
0.79079998 -0.13488613 0.33874798 10131865
0.78718191 -0.12539086 0.33284405 12566465
0.79120004 -0.12476812 0.33817962 9934742
0.78791672 -0.11502722 0.33290264 12961222
0.79118192 -0.11508333 0.33790281 9868950
0.78780013 -0.10486801 0.3328532 13093063
0.79100001 -0.10529326 0.33790895 9803668
0.78747058 -0.094955228 0.33374611 10988202
0.7911666 -0.095129676 0.33890507 9738387
0.78691673 -0.084638022 0.33432388 9869466
0.79025 -0.085769415 0.33851236 10001302
0.78633338 -0.0752194 0.33499786 9474191
0.78666669 -0.065121233 0.3360621 9999761
0.78715783 -0.055027794 0.33534911 10460313
0.78744447 -0.044907596 0.33362624 11184295
0.79083341 -0.045098718 0.33876225 9869203
0.78718185 -0.035094175 0.33284405 11514027
0.79111111 -0.034520864 0.33805931 9408653
0.78718191 -0.025040995 0.33267614 11382441
0.79127276 -0.024835788 0.33794177 9277323
0.78726655 -0.015102535 0.33355156 10789790
0.79079998 -0.014556402 0.33874798 9409165
0.78746158 -0.0052753109 0.33519301 9211272
0.79000002 -0.0052923164 0.33840528 9408651
0.78761113 0.004866017 0.33369672 9079945
0.79083329 0.0048870896 0.33876228 9474443
0.78750008 0.0150035 0.33272615 9409426
0.79100001 0.015070182 0.33790898 9145479
0.78808337 0.025162341 0.33451077 9013894
0.79085714 0.024587044 0.33850831 9145479
0.78754556 0.035284605 0.33484092 9145478
0.79000002 0.035394575 0.33840528 9277064
0.78652948 0.045095049 0.33313128 9277326
0.79039997 0.044665605 0.33857661 9343113
0.78781819 0.055079494 0.33478919 9079943
0.79016668 0.054823909 0.33847666 9212041
0.78730774 0.065188564 0.33385217 8817029
0.79039997 0.065019347 0.33857661 9080455
0.78738892 0.074908413 0.33391041 9342859
0.7906 0.074287042 0.3386623 9146249
0.77900004 0.089611337 0.33004603 14211033
0.78600001 0.085123964 0.33508685 10000791
0.78610528 0.094885491 0.33538622 11185068
0.78818184 0.10425609 0.33293039 11579568
0.79066676 0.10730463 0.33653226 10658974
0.79240733 0.11547726 0.33531401 10790303
0.79194999 -0.064633213 0.34573087 10132116
0.79195654 -0.055120453 0.34513006 10066581
0.79203993 -0.0053063575 0.34484532 9540236
