# .PCD v0.7 - Point Cloud Data file format
VERSION 0.7
FIELDS x y z rgb
SIZE 4 4 4 4
TYPE F F F U
COUNT 1 1 1 1
WIDTH 587
HEIGHT 1
VIEWPOINT 0 0 0 1 0 0 0
POINTS 587
DATA ascii
0.79517657 -0.47497541 -0.39490116 14605539
0.79452634 -0.46493664 -0.39534026 14802916
0.79205555 -0.45495266 -0.39406052 14737123
0.78900003 -0.44211608 -0.39161301 14803172
0.79133338 -0.44558391 -0.39493442 15000294
0.7913 -0.43506664 -0.3942394 14934758
0.79150009 -0.42498696 -0.39378306 15000551
0.79204345 -0.41483691 -0.39409521 15066089
0.79359096 -0.40516412 -0.39491016 15197161
0.79242849 -0.60509831 -0.38384202 14078682
0.79262954 -0.59496504 -0.38434511 14210012
0.79243982 -0.5851438 -0.38419515 14275805
0.79190481 -0.57470548 -0.38458189 14210011
0.79222214 -0.56498581 -0.38462776 14275804
0.79231232 -0.55491328 -0.38439012 14341597
0.79276919 -0.54515845 -0.38434812 14538974
0.79317224 -0.53527856 -0.38427261 14473438
0.7930401 -0.5251388 -0.38433588 14341595
0.79299992 -0.5149017 -0.38431627 14078424
0.79236656 -0.50428933 -0.38493717 14276060
0.79125005 -0.49477971 -0.38501182 14473440
0.79029655 -0.48488045 -0.3849251 14802404
0.79074097 -0.47507474 -0.3850739 14802404
0.78900003 -0.46151021 -0.38422477 14670816
0.79012513 -0.46525121 -0.38477325 14671073
0.78878254 -0.45520177 -0.38419911 14539743
0.79000002 -0.45839635 -0.38841054 14408414
0.7879715 -0.44509774 -0.38451555 14671330
0.78845453 -0.43478975 -0.38463101 14802916
0.78896135 -0.42476115 -0.38420609 14868708
0.7889998 -0.4153336 -0.3842248 15065574
0.79000002 -0.41031185 -0.38841054 15132137
0.7889998 -0.40517476 -0.38330117 15065574
0.79000002 -0.40476364 -0.38841054 15131369
0.78899986 -0.39501595 -0.38330132 15131365
0.79016668 -0.39467418 -0.38849249 15262951
0.78900003 -0.38947475 -0.38053063 15197156
0.79146677 -0.63526821 -0.37523469 14144220
0.79100019 -0.62470782 -0.37501419 14078940
0.79178572 -0.61480105 -0.37459189 14013147
0.79271418 -0.60531574 -0.37496495 14078940
0.7927199 -0.59544677 -0.37490094 14275806
0.79206443 -0.58466595 -0.37477076 14275806
0.79167747 -0.57445532 -0.37548321 14210013
0.79237926 -0.56506193 -0.37473899 14275804
0.79262948 -0.55496818 -0.37506396 14341853
0.79287994 -0.54544961 -0.37497714 14473437
0.79303324 -0.53534472 -0.37504965 14539230
0.79377437 -0.5247246 -0.374919 14275803
0.79319221 -0.5143131 -0.37526733 14144218
0.79247993 -0.50436187 -0.37478793 14342110
0.79158628 -0.4943988 -0.37513086 14473696
0.7912001 -0.48502341 -0.37510756 14934247
0.79100019 -0.4747164 -0.37501425 14934760
0.79096687 -0.46451291 -0.37499627 15000294
0.78900009 -0.45328239 -0.37734029 14605536
0.79079998 -0.45534259 -0.37288108 14802916
0.78874993 -0.44451508 -0.37648562 14671329
0.79042864 -0.44529533 -0.37183461 14802916
0.7888999 -0.43504167 -0.37641907 14671329
0.79000002 -0.43453902 -0.37250564 14737122
0.78899986 -0.42405587 -0.37611821 14802659
0.79000002 -0.42642805 -0.3725585 14802916
0.7889998 -0.41558549 -0.37549323 14999781
0.79000002 -0.41308594 -0.37176591 14868965
0.7889998 -0.40529519 -0.37603346 15131367
0.79000002 -0.40445542 -0.37207413 14934757
0.78899992 -0.39555919 -0.37629321 15197159
0.79011112 -0.39392754 -0.37243438 15197416
0.78900003 -0.38947475 -0.3786836 15197156
0.79297572 -0.38508734 -0.37483692 14934499
0.79140741 -0.64489448 -0.36481273 14342113
0.79189283 -0.63501298 -0.36504284 14341856
0.79163325 -0.62446594 -0.3647486 14276063
0.79259992 -0.61496967 -0.3645049 14210013
0.79306442 -0.60516721 -0.36500224 14210526
0.7929998 -0.59472817 -0.36482382 14210526
0.79263312 -0.58424795 -0.36465386 14210783
0.79277408 -0.57489157 -0.36456874 14276575
0.79325706 -0.56507576 -0.36507335 14407391
0.79365605 -0.55492413 -0.36489117 14538974
0.7939688 -0.54526931 -0.36526659 14605023
0.79318738 -0.53486866 -0.36514211 14473183
0.79375011 -0.52508563 -0.36511239 14275804
0.79328126 -0.51450491 -0.3647216 14275804
0.79286653 -0.50460708 -0.36476192 14604769
0.79207683 -0.49497551 -0.36511186 14408159
0.79167998 -0.48531789 -0.36514273 14803174
0.79193747 -0.47504672 -0.36491323 15066344
0.79267627 -0.46486092 -0.36445525 15131881
0.7934857 -0.45468405 -0.36501703 15066088
0.79372424 -0.44492328 -0.36518472 14934501
0.79193944 -0.43519631 -0.36553931 14737379
0.7909413 -0.42517892 -0.36528972 14737379
0.79045492 -0.41475323 -0.36575365 14868965
0.7905336 -0.40503684 -0.36553797 15066343
0.79068595 -0.39506498 -0.36547595 15066087
0.7947318 -0.3848992 -0.36495972 14606048
0.79051644 -0.64453274 -0.35517505 14473186
0.79150003 -0.63436532 -0.3548691 14407650
0.79324991 -0.62485695 -0.35507262 14341599
0.7949667 -0.61481309 -0.35549268 14341600
0.79449993 -0.60473102 -0.35502958 14275806
0.79303563 -0.59442347 -0.35482815 14407392
0.79333335 -0.5843491 -0.35455516 14538977
0.79446441 -0.57503492 -0.35546604 14473184
0.79420006 -0.56495142 -0.35514966 14538976
0.79453349 -0.5549559 -0.35529944 14604768
0.79500002 -0.54504752 -0.35550782 14605023
0.79312003 -0.53447771 -0.35466602 14473438
0.79203987 -0.52447653 -0.35418388 14276316
0.79249984 -0.51490748 -0.35432386 14407904
0.79292589 -0.50505626 -0.35464895 14736868
0.792862 -0.49519521 -0.35531858 14539744
0.79248458 -0.48530474 -0.35505599 14802917
0.79274988 -0.47535959 -0.35525399 15000296
0.79299992 -0.46461818 -0.35474145 14934503
0.79367846 -0.45435736 -0.35511753 15000295
0.79466671 -0.44477409 -0.35515332 15066087
0.79329163 -0.43446258 -0.35489896 15000294
0.79161286 -0.4243623 -0.35477054 14802915
0.79100019 -0.41453475 -0.35464498 15066087
0.79139405 -0.40497154 -0.35456869 15197673
0.79197055 -0.39497387 -0.35524201 15131368
0.79561132 -0.38507414 -0.35500255 14606306
0.79020029 -0.64455587 -0.34490424 14473699
0.79156673 -0.63441902 -0.34470689 14473956
0.79285705 -0.6246475 -0.34546867 14342369
0.79472983 -0.61485481 -0.34518021 14276063
0.7949667 -0.6045779 -0.34525698 14210528
0.79436678 -0.59482402 -0.34499434 14539233
0.79419446 -0.58446646 -0.34492022 14605026
0.79500002 -0.57482517 -0.34527168 14407648
0.79500002 -0.56551963 -0.34527174 14670820
0.79440635 -0.5554508 -0.34524611 14604769
0.7950834 -0.54541254 -0.34489357 14604769
0.79503232 -0.53498405 -0.34525198 14473183
0.79332125 -0.52472848 -0.3446717 14341597
0.79283857 -0.5147661 -0.34508067 14604769
0.79403025 -0.50455642 -0.34476376 14933991
0.79451621 -0.49497682 -0.34515077 14605539
0.79315382 -0.48457882 -0.34554121 14934504
0.79396975 -0.47438532 -0.34524679 15066088
0.79353845 -0.46430877 -0.3453508 14868965
0.79307997 -0.45461404 -0.34536597 14868709
0.79308009 -0.44533047 -0.34536648 15066087
0.79292589 -0.43555063 -0.34509265 15000037
0.79153579 -0.42467737 -0.34489134 14999780
0.79140002 -0.41474435 -0.34463307 14999780
0.79173332 -0.40472418 -0.34477875 15262952
0.79211992 -0.39472318 -0.34494853 15131369
0.79124254 -0.64485341 -0.33462885 14538978
0.79194432 -0.63472301 -0.33467457 14539235
0.79287487 -0.62491101 -0.33483505 14276575
0.79434294 -0.61520457 -0.33523527 14210782
0.79520005 -0.60475421 -0.33511981 14342368
0.79500002 -0.58472908 -0.33510199 14473440
0.79500002 -0.57482523 -0.33503556 14210525
0.79487997 -0.56543475 -0.33498546 14539747
0.79412001 -0.55559897 -0.33466494 14605539
0.79511434 -0.54512173 -0.33508408 14539746
0.79560006 -0.52497333 -0.33528781 14407390
0.7935518 -0.51433265 -0.33519301 14736610
0.7938928 -0.50499183 -0.33496872 15131625
0.79375005 -0.49533638 -0.3344332 14868198
0.79242855 -0.48531318 -0.33521241 15000551
0.79235715 -0.47519884 -0.33491704 15197930
0.79297042 -0.46454239 -0.33483562 15263723
0.79303324 -0.45458707 -0.3351348 15197930
0.79312891 -0.445178 -0.33502504 15131366
0.79368556 -0.43531799 -0.33554062 15065573
0.79350007 -0.42513397 -0.33532915 15000036
0.79311407 -0.41484675 -0.33503464 15000293
0.79287088 -0.40455848 -0.33521485 15263208
0.79206657 -0.39469734 -0.33472627 15197159
0.79199988 -0.64496553 -0.32450089 14408162
0.79219991 -0.63492745 -0.32458219 14408161
0.79368746 -0.62473738 -0.32484281 14210781
0.79522222 -0.61501044 -0.32488918 14210781
0.79564518 -0.60491204 -0.32509187 14473953
0.79500002 -0.58492035 -0.32482761 14407646
0.79444003 -0.57442069 -0.32550198 14210524
0.79415387 -0.56477511 -0.32516903 14539746
0.79389298 -0.55563962 -0.32467815 14605539
0.79372418 -0.54526031 -0.32533717 14671075
0.79451716 -0.53503084 -0.32559943 14539746
0.79430765 -0.52468991 -0.32537699 14342367
0.79346168 -0.5144881 -0.32495767 14605539
0.79300004 -0.5046913 -0.32491061 15066090
0.79263997 -0.49518543 -0.32476342 14999784
0.79122233 -0.4848325 -0.32459387 15131367
0.79056686 -0.47445509 -0.32514796 15197673
0.7923333 -0.46438551 -0.32463846 15197930
0.79307997 -0.45461327 -0.3249431 15395309
0.79365516 -0.44488451 -0.3251797 15394795
0.79488468 -0.43539289 -0.32568291 15197416
0.79497147 -0.42485756 -0.3249208 14868964
0.79490006 -0.41471788 -0.32475796 14868963
0.79396302 -0.40514407 -0.32489058 14868962
0.79288 -0.39510262 -0.32486084 15065315
0.79207397 -0.64461327 -0.31512243 14539234
0.79294103 -0.63524818 -0.31473103 14539233
0.7945295 -0.62585223 -0.31503281 14210524
0.79491669 -0.58577585 -0.31445307 14342110
0.79400015 -0.57530493 -0.31531584 14079194
0.79393554 -0.56524169 -0.3146821 14473953
0.794074 -0.55536079 -0.31461075 14539746
0.79282749 -0.5455429 -0.3147921 14605539
0.7921111 -0.53523779 -0.3154819 14605539
0.79171431 -0.52485591 -0.3149204 14670818
0.79196161 -0.51494002 -0.31535989 14802405
0.7918275 -0.50471199 -0.31503469 15131369
0.792 -0.49478516 -0.31523108 14933988
0.79088014 -0.4848288 -0.31478491 14934246
0.79018778 -0.47474819 -0.31514433 14934501
0.79153341 -0.46465674 -0.31529248 15000551
0.792862 -0.45467961 -0.31499857 15197930
0.79273075 -0.44492048 -0.31566536 15460587
0.79299992 -0.43507403 -0.31563058 15592173
0.79415631 -0.42490041 -0.31434658 15263208
0.79500002 -0.41476977 -0.3145633 15066085
0.79417861 -0.40484777 -0.31483501 14934498
0.79344428 -0.39445388 -0.31487682 14933984
0.79217124 -0.64430946 -0.30496612 14604769
0.79327989 -0.63486493 -0.30459785 14473696
0.79475003 -0.62539983 -0.30533653 14276318
0.79512501 -0.59523666 -0.3051517 14408161
0.79396009 -0.58522594 -0.3048597 14276574
0.79386204 -0.5750919 -0.30494973 14079195
0.79342306 -0.56461239 -0.30451086 14473953
0.79372007 -0.555318 -0.30476776 14605540
0.79307687 -0.54544348 -0.30473381 14671332
0.79170007 -0.53537351 -0.30491701 14671076
0.79078805 -0.52482563 -0.30470666 14605539
0.79115641 -0.51497692 -0.3047069 14736869
0.79151511 -0.50509387 -0.30476046 15197162
0.79142433 -0.49493051 -0.30489522 14934501
0.79100019 -0.48490104 -0.30464751 15066344
0.79136121 -0.47493261 -0.30478546 15065831
0.7917999 -0.46500126 -0.30495489 14868709
0.79211754 -0.45520678 -0.3048059 14868966
0.79199988 -0.44472444 -0.30503306 15000551
0.79150003 -0.43517905 -0.30484107 15329259
0.79327774 -0.42516288 -0.30475092 15460843
0.79500002 -0.41476977 -0.3052578 15263464
0.79416007 -0.40503722 -0.30493569 14868706
0.79253322 -0.64447057 -0.29503426 14670819
0.79320002 -0.63480049 -0.29528236 14407904
0.79448587 -0.62546647 -0.29496428 14210781
0.79512912 -0.6150887 -0.29431966 14342111
0.79511541 -0.6045478 -0.29434916 14538976
0.7945863 -0.59511733 -0.29502866 14539233
0.79308009 -0.58457702 -0.29523784 14341853
0.79267997 -0.57500374 -0.29508987 14144474
0.79248154 -0.56517106 -0.29522228 14407903
0.79264271 -0.55516016 -0.29487681 14605283
0.79300004 -0.54553276 -0.2952078 14736868
0.79220682 -0.53494799 -0.29478449 14736868
0.79162967 -0.52447844 -0.29503867 14605283
0.7930302 -0.51477951 -0.29471081 14737125
0.79349977 -0.50500995 -0.29446277 15065833
0.79296428 -0.49518761 -0.29459572 14867941
0.79287505 -0.48500526 -0.29452109 15131369
0.7926923 -0.4750188 -0.29523507 15328747
0.79199988 -0.46511912 -0.29483542 15394540
0.79199988 -0.45492169 -0.29483548 15131369
0.79207993 -0.44476873 -0.29486498 14868454
0.79303014 -0.43523172 -0.2942037 14934501
0.79353124 -0.42514703 -0.2954053 15263207
0.79448277 -0.41494906 -0.29518417 15394535
0.79335994 -0.40462917 -0.29534233 15000548
0.79191166 -0.64494681 -0.28466105 14605282
0.7928822 -0.63520151 -0.28495517 14473953
0.7931785 -0.62523407 -0.28453168 14342367
0.79383343 -0.61505002 -0.28424552 14342110
0.79467863 -0.60495627 -0.28460395 14473696
0.7937693 -0.5942347 -0.28455883 14473697
0.79233325 -0.58402705 -0.28475896 14144732
0.79173332 -0.57431751 -0.28454253 14145245
0.79189986 -0.56516802 -0.28460217 14539490
0.79269427 -0.55552757 -0.28488719 14736868
0.79276657 -0.54537237 -0.28491345 14737125
0.79308301 -0.53537828 -0.28502634 14671332
0.79354286 -0.52467459 -0.28505865 14540002
0.79446429 -0.51518697 -0.28518981 14803174
0.79460001 -0.50571102 -0.28464234 14934501
0.79320693 -0.49534598 -0.28472024 14670818
0.79329979 -0.48550573 -0.28467277 15000295
0.79251599 -0.47487906 -0.28467533 15066087
0.79199988 -0.46511915 -0.28463805 15329515
0.79222208 -0.4550485 -0.28471744 15460844
0.79294103 -0.44459602 -0.28481162 15329001
0.79425931 -0.43525004 -0.28479603 15065829
0.79335701 -0.42485866 -0.28479382 15000292
0.79358822 -0.4149619 -0.28493378 15263207
0.79416674 -0.40503904 -0.28541407 15328486
0.79214275 -0.64502609 -0.27496573 14539491
0.7930401 -0.63467318 -0.27480072 14342624
0.7938621 -0.6252687 -0.27495608 14342367
0.79426676 -0.61464208 -0.27522421 14408159
0.79520684 -0.60514581 -0.27510101 14408416
0.79395229 -0.59522301 -0.27494025 14342366
0.79199988 -0.58454782 -0.27456838 14144731
0.79199988 -0.57451022 -0.27444053 14210782
0.79224133 -0.56464338 -0.27465245 14474210
0.79296148 -0.55500185 -0.27463108 14737125
0.79343331 -0.54483795 -0.27462617 14737382
0.79499996 -0.53523374 -0.27497089 14671589
0.79383332 -0.52434772 -0.27546361 14539744
0.79437035 -0.51527321 -0.27505717 14868709
0.79436004 -0.50555861 -0.27525926 15066087
0.79287994 -0.49533463 -0.27474517 14605538
0.79219991 -0.48563749 -0.27450955 14934502
0.79199988 -0.47531661 -0.27444056 14934757
0.79199988 -0.46511918 -0.27444053 15000293
0.7924 -0.45514974 -0.27457941 15263207
0.79333329 -0.4445428 -0.27490181 15394793
0.7943334 -0.43453228 -0.27483332 15526122
0.79523546 -0.42512995 -0.27462667 14934498
0.79517859 -0.41526237 -0.27527469 14934753
0.79484004 -0.40538314 -0.27542534 15132132
0.79216665 -0.65452909 -0.26538065 14539749
0.79248387 -0.64463943 -0.2652128 14605541
0.79440004 -0.63469625 -0.26517546 14473953
0.79552943 -0.62483341 -0.26519999 14342367
0.79518753 -0.61440253 -0.26553929 14276574
0.79511112 -0.60448098 -0.26476443 14473953
0.79470968 -0.59490043 -0.26499474 14210781
0.7932142 -0.58467704 -0.26497608 14144731
0.79207993 -0.57456851 -0.2651965 14342110
0.79253328 -0.56469113 -0.26534837 14605794
0.79400003 -0.55500603 -0.26465386 14605795
0.7948947 -0.54467887 -0.26530513 14803173
0.79548162 -0.53399879 -0.2648873 14737379
0.7937727 -0.52486521 -0.265257 14408414
0.79316658 -0.51500922 -0.26556104 14803172
0.79315996 -0.50479352 -0.26555917 15000551
0.79331023 -0.49547493 -0.26483902 14474465
0.79279989 -0.4860056 -0.26543757 15066344
0.79199988 -0.47531661 -0.26517013 15197930
0.79222214 -0.46483666 -0.26503766 15197672
0.79274994 -0.45502001 -0.26561925 15197928
0.79381824 -0.44455996 -0.26527187 15329514
0.79460013 -0.40526104 -0.26510957 14933985
0.7922222 -0.65483314 -0.25473419 14670563
0.79223061 -0.64472365 -0.25526068 14736612
0.7944839 -0.63504493 -0.25502285 14539746
0.79552007 -0.62548429 -0.25517604 14342367
0.79500002 -0.61483902 -0.25500783 14408160
0.79539293 -0.60436791 -0.25460017 14342367
0.79543489 -0.58485746 -0.25514609 14144731
0.79303569 -0.57499778 -0.25557014 14473953
0.79255539 -0.56470686 -0.25515175 14802918
0.79542863 -0.55470115 -0.25466505 14737379
0.79552388 -0.535299 -0.25490987 14605536
0.79340744 -0.5251767 -0.25491002 14539743
0.7929998 -0.51490164 -0.25529459 14671330
0.79299992 -0.50469136 -0.25529459 14868708
0.79369229 -0.49598378 -0.25480303 14671329
0.79253328 -0.48584229 -0.25514486 14868965
0.79127789 -0.47488287 -0.25474146 15132136
0.79261088 -0.46454871 -0.25516936 15395306
0.79299992 -0.45456782 -0.25529459 15197928
0.79328126 -0.44491985 -0.25509539 15461100
0.79531038 -0.43502367 -0.25517437 15395307
0.79423994 -0.4143759 -0.25476626 15460328
0.79251999 -0.6546675 -0.2449362 14605027
0.79276651 -0.64466083 -0.24501179 14671331
0.79462856 -0.63487977 -0.24478936 14540001
0.79500002 -0.62507522 -0.24477175 14408415
0.79508334 -0.61490303 -0.2447971 14342623
0.79454166 -0.58550024 -0.24540751 14144731
0.79276001 -0.57506257 -0.24501131 14539489
0.79246652 -0.56464362 -0.24491902 14802917
0.79555017 -0.55496466 -0.24470758 14802917
0.79503131 -0.52488542 -0.24471869 14605537
0.79484385 -0.51487672 -0.24477737 14539743
0.79456264 -0.5047552 -0.24463427 14605535
0.79382616 -0.4955225 -0.24533845 14473949
0.79251999 -0.48583454 -0.24493557 14868964
0.79140002 -0.47495663 -0.24458836 14868964
0.79269987 -0.46460038 -0.2449913 15000807
0.79346144 -0.45490453 -0.24501091 14868964
0.79300004 -0.44528568 -0.2450842 15197928
0.79306662 -0.43511155 -0.2451051 15263720
0.79320002 -0.42497212 -0.24514697 15328998
0.79306656 -0.41468975 -0.2451051 15460328
0.79376924 -0.40469107 -0.24510735 15329000
0.79223067 -0.65457022 -0.23535912 14539490
0.79268742 -0.64436322 -0.23536138 14605794
0.79522592 -0.63563997 -0.23478226 14540000
0.79500002 -0.62507516 -0.23453568 14408414
0.79516673 -0.61496711 -0.2345847 14408414
0.79520005 -0.5954482 -0.2345947 14079449
0.7935999 -0.58496189 -0.23505072 14013656
0.7925998 -0.57494551 -0.23475419 14540000
0.79374999 -0.56555688 -0.2350941 14868710
0.79525012 -0.55504912 -0.23478523 14803173
0.79448283 -0.4943485 -0.2351518 14276827
0.79313332 -0.48435268 -0.23491326 14803171
0.79251838 -0.47490755 -0.23524593 14737378
0.79308563 -0.46469444 -0.23503192 14934757
0.79400009 -0.45507675 -0.23501021 14868963
0.79364508 -0.44546857 -0.23491371 14803170
0.79322845 -0.43506783 -0.23507302 15000547
0.79329991 -0.42502555 -0.23496126 15066083
0.79358321 -0.41495842 -0.23504438 15197414
0.7940346 -0.40509948 -0.23501994 15329255
0.79147828 -0.65461195 -0.22495878 14539744
0.79056281 -0.64529824 -0.22501585 14736866
0.7919119 -0.63507372 -0.22430445 14540001
0.7941379 -0.62516427 -0.22485942 14408414
0.79533333 -0.61509538 -0.22532462 14408414
0.79508001 -0.59535772 -0.22525293 14145499
0.79463995 -0.58572787 -0.2251275 13947864
0.79360002 -0.57474136 -0.22483271 14276829
0.7944001 -0.56509238 -0.22506151 14671843
0.79342312 -0.55489731 -0.22492845 14803172
0.79481816 -0.54491848 -0.22518077 15000807
0.79521435 -0.50483757 -0.22509232 14802657
0.79470831 -0.49477175 -0.22530331 14539487
0.79281825 -0.48508847 -0.22461319 15197928
0.79184371 -0.47481728 -0.22474246 15329514
0.79234469 -0.46487272 -0.22460555 15329771
0.79381239 -0.45450693 -0.2249516 15395307
0.79496002 -0.44452536 -0.22521865 15066342
0.79436004 -0.43489212 -0.22504765 14803170
0.79458624 -0.42494342 -0.22498462 14803169
0.79480773 -0.4148843 -0.22531822 15066340
0.79380012 -0.40485355 -0.22488964 15066594
0.79155004 -0.65479243 -0.21498673 14605282
0.78900003 -0.64129102 -0.21583419 14670562
0.79000002 -0.64615953 -0.21407983 14670818
0.78900003 -0.63682729 -0.21491064 14670562
0.79005551 -0.63331205 -0.21417087 14539745
0.7928378 -0.62497389 -0.21503583 14539745
0.79524994 -0.61503166 -0.21506253 14474208
0.79520005 -0.60475558 -0.21504907 14474207
0.79483336 -0.5951733 -0.21494965 14342621
0.79417866 -0.58558649 -0.2151051 14145242
0.79307997 -0.57529396 -0.21540333 13947609
0.79270369 -0.56532949 -0.21550849 14342367
0.7917999 -0.55508834 -0.21505675 14671586
0.79196548 -0.54520237 -0.21503906 15000551
0.79455882 -0.53527534 -0.21515018 15197671
0.79471433 -0.51528627 -0.21525069 14803171
0.79381472 -0.50479633 -0.2158116 14606049
0.79365224 -0.49549434 -0.21531767 14671587
0.79192007 -0.4854674 -0.21508849 15132137
0.79056698 -0.47445542 -0.21472181 15395306
0.79233325 -0.46438429 -0.21520075 15526892
0.79462862 -0.45443678 -0.21502557 15461099
0.79520005 -0.44465908 -0.2150486 15329512
0.7942223 -0.43502429 -0.21530081 15131876
0.79355556 -0.42474923 -0.21574031 14934753
0.7946471 -0.41524148 -0.21468106 14934752
0.79476672 -0.40534598 -0.21493007 14935008
0.79427773 -0.39486897 -0.21479629 14869216
0.79187495 -0.65506119 -0.20488016 14474207
0.79040015 -0.64551407 -0.20542331 14539487
0.79026693 -0.63522756 -0.20538852 14605280
0.79224324 -0.6254608 -0.20495133 14605536
0.79406446 -0.61504328 -0.20451947 14671329
0.79466665 -0.6047616 -0.20446652 14605793
0.79460007 -0.59499931 -0.20465487 14408414
0.79307401 -0.58436638 -0.20467444 14211035
0.79229999 -0.57472873 -0.20499055 14079449
0.79176658 -0.56507373 -0.20485298 14013657
0.79082161 -0.5553416 -0.20493852 14408157
0.7900387 -0.54513121 -0.20547198 15065829
0.79125011 -0.53490943 -0.20497705 15262952
0.79285187 -0.52501249 -0.2042077 14999779
0.79233325 -0.51470935 -0.2044857 14671328
0.79208821 -0.50476414 -0.20471822 14737378
0.79306656 -0.49545094 -0.20518787 14605534
0.79175872 -0.4854961 -0.20500991 15197929
0.79000014 -0.475041 -0.20531954 15329771
0.79067767 -0.46505657 -0.205617 15461100
0.79256248 -0.45477766 -0.20459686 15329513
0.79365385 -0.44472238 -0.20441398 15263206
0.79282141 -0.43451387 -0.20479478 15394532
0.79265606 -0.42502829 -0.20485169 15394788
0.79360008 -0.4149684 -0.20439938 15263202
0.79384005 -0.40487218 -0.20446117 15000289
0.7942667 -0.39486229 -0.20457053 14934752
0.78900003 -0.65175772 -0.19028313 14408414
0.79061908 -0.65521187 -0.1946405 14474208
0.78899992 -0.64502138 -0.19202155 14407902
0.79000002 -0.64518619 -0.19792195 14473695
0.78899986 -0.63544202 -0.19274586 14407901
0.79000002 -0.63445961 -0.19829181 14407901
0.78900003 -0.62574494 -0.19136058 14408414
0.79044449 -0.62437069 -0.19608085 14408414
0.78900003 -0.6185106 -0.19028313 14342621
0.79114294 -0.61483055 -0.19457269 14540000
0.79246652 -0.60508609 -0.19483121 14737379
0.79344809 -0.59490371 -0.19494407 14540000
0.79304004 -0.58454734 -0.19497067 14276829
0.79211992 -0.57459772 -0.19474444 14474207
0.79108018 -0.56458348 -0.19448894 14276828
0.79022247 -0.55451626 -0.19468914 14013657
0.79003263 -0.54516137 -0.19500643 14605535
0.79046899 -0.53557837 -0.19497375 15262951
0.79077798 -0.52508104 -0.19462062 15065059
0.79021448 -0.5146125 -0.19407858 14736352
0.79124147 -0.50465566 -0.19465791 14605279
0.79187512 -0.49524751 -0.19476396 14802655
0.78900003 -0.4833056 -0.19102195 15526632
0.79035008 -0.48552093 -0.19532754 15394792
0.7889998 -0.47484115 -0.19301358 15460843
0.79000002 -0.47578073 -0.19866167 15461100
0.7889998 -0.46520436 -0.19382332 15263463
0.79000002 -0.46440691 -0.19930896 15395307
0.78899986 -0.45541492 -0.19249961 15066340
0.79000002 -0.45469755 -0.19736709 15197926
0.78900003 -0.44562548 -0.19139138 15592684
0.79064709 -0.4447256 -0.1962342 15263720
0.78900003 -0.43749842 -0.19028313 15592684
0.79048002 -0.43484023 -0.19456482 15395304
0.78900003 -0.42364544 -0.19028313 15328995
0.79058355 -0.42488039 -0.1952161 15394532
0.78900003 -0.41533366 -0.19028313 14999772
0.79090917 -0.41457111 -0.19503771 15197408
0.79111135 -0.40492001 -0.19470493 15000028
0.7915864 -0.39483875 -0.19455276 15066079
0.78900003 -0.65237337 -0.18566549 14145242
0.79046667 -0.65630132 -0.18446827 14079451
0.78899974 -0.64513379 -0.18486933 14211035
0.78879976 -0.63497347 -0.18469477 14145243
0.7887665 -0.62479019 -0.18468711 14144987
0.78899997 -0.61666358 -0.18502611 14342621
0.79005879 -0.61259508 -0.18477201 14540256
0.79120696 -0.60465479 -0.18532281 14540514
0.79209995 -0.59448439 -0.18503502 14474463
0.79258817 -0.58454055 -0.18459706 14210779
0.79263318 -0.57466018 -0.18466192 14342622
0.7914139 -0.56469434 -0.18453777 14342621
0.79012018 -0.55464983 -0.18500362 14276826
0.79017878 -0.544846 -0.1850843 14211034
0.79059285 -0.5350334 -0.18504669 15000292
0.79012018 -0.52505511 -0.18500464 14737117
0.78900003 -0.51138097 -0.18381841 14539998
0.79000014 -0.51557994 -0.18527201 14408154
0.78899986 -0.50491613 -0.18289492 14737121
0.79000002 -0.50463146 -0.18775021 14539229
0.78899992 -0.49452651 -0.18312578 14737376
0.79000002 -0.4957954 -0.18785295 14868962
0.7889998 -0.48552203 -0.18474197 14868959
0.78899974 -0.47536317 -0.18474194 15131875
0.78899986 -0.46502843 -0.18544559 15131359
0.79000002 -0.46671867 -0.18127728 14671063
0.78884596 -0.45566764 -0.18456382 15526375
0.7882759 -0.44524148 -0.18469927 15263717
0.7889331 -0.4346908 -0.18472628 15132130
0.7889998 -0.42456898 -0.18474191 14934492
0.7889998 -0.41533363 -0.18474197 14802649
0.7889998 -0.40548268 -0.18433151 15000026
0.79000002 -0.4029142 -0.18867488 14999769
0.78899986 -0.39527982 -0.18412629 15066076
0.79000002 -0.39412957 -0.18821254 15197663
0.79370022 -0.64497733 -0.17604564 11579316
0.7937097 -0.63514191 -0.1757628 11448244
0.79380012 -0.62486553 -0.17528728 11185072
0.79426491 -0.61502832 -0.17595634 11447987
0.79200011 -0.52506614 -0.17524181 12698306
0.79080015 -0.51507682 -0.17516281 12435136
0.78899992 -0.50436205 -0.17772309 12763587
0.79094434 -0.505234 -0.17254259 12501185
0.78900003 -0.49475735 -0.17827722 12500670
0.79090488 -0.49524513 -0.17310651 12567234
0.78900003 -0.48593247 -0.17837985 11842737
0.79131997 -0.48509589 -0.17364787 12435391
0.78900003 -0.4781338 -0.17920075 12895167
0.79162502 -0.47479936 -0.17463699 12435133
0.79194146 -0.46480858 -0.17517126 12369597
0.78900003 -0.45104352 -0.17858507 14605529
0.79203576 -0.45553628 -0.17458482 12566719
0.78900003 -0.44488668 -0.17827724 13619147
0.79185706 -0.44534916 -0.17340183 11974582
0.78900003 -0.43712902 -0.17883135 13816524
0.7911725 -0.4348065 -0.17445269 12369338
0.78900003 -0.42179835 -0.17920075 14408145
0.7911002 -0.42520401 -0.17461166 12172216
0.78900003 -0.41533366 -0.17920075 13420994
0.79117864 -0.41482571 -0.17420126 12105910
0.78900003 -0.40425131 -0.17889291 13486785
0.79108012 -0.40516809 -0.17418772 12105910
