# .PCD v0.7 - Point Cloud Data file format
VERSION 0.7
FIELDS x y z rgb
SIZE 4 4 4 4
TYPE F F F U
COUNT 1 1 1 1
WIDTH 779
HEIGHT 1
VIEWPOINT 0 0 0 1 0 0 0
POINTS 779
DATA ascii
0.43305266 -0.043629613 -0.061428647 13419965
0.42840743 -0.034779251 -0.061866097 15590878
0.43000001 -0.038867924 -0.062682614 14341069
0.42826092 -0.026492702 -0.061568566 16183531
0.43013328 -0.022348488 -0.062651798 15789030
0.43194124 -0.017640807 -0.061701328 15065308
0.43900007 -0.050329618 -0.055858567 12828342
0.44000003 -0.05135987 -0.053582359 11775140
0.42899999 -0.040233769 -0.053046238 13946308
0.43392071 -0.044504784 -0.055859242 13156792
0.42584088 -0.034758553 -0.055034187 15591391
0.42624974 -0.025528727 -0.054970175 16117995
0.42999998 -0.021000108 -0.058404401 15854824
0.42888886 -0.019049101 -0.051225487 15591911
0.43170369 -0.017034784 -0.055999786 14671322
0.49900001 -0.071096607 -0.042076577 11644839
0.50314283 -0.07202632 -0.0405735 11447460
0.47833338 -0.060687337 -0.046678867 11315620
0.4840526 -0.062769771 -0.043674938 11644585
0.49293751 -0.066630885 -0.042067233 11578791
0.44100001 -0.050444208 -0.04854219 11906724
0.47825003 -0.058623366 -0.044804096 11315620
0.48066673 -0.059107173 -0.043155741 11775914
0.42732146 -0.042451147 -0.043430716 13354171
0.43210348 -0.04538694 -0.046658967 12893621
0.42253551 -0.034941401 -0.044987954 15393755
0.42317173 -0.025160676 -0.045056041 16118251
0.42720464 -0.017883254 -0.04459504 15263458
0.43000001 -0.01496028 -0.044009484 13947856
0.52412504 -0.082194559 -0.031616874 11710373
0.50693333 -0.072543599 -0.037678633 11249824
0.51389468 -0.074679941 -0.033699919 11578787
0.52200007 -0.078347489 -0.030879358 11710117
0.49739999 -0.063415781 -0.038212888 11249568
0.50509095 -0.067988746 -0.035490718 11578533
0.5115 -0.069285296 -0.031754423 11381665
0.4250527 -0.042652063 -0.038146365 13222329
0.41858834 -0.031914052 -0.037545007 16052200
0.42104357 -0.03689374 -0.038117658 14867156
0.41858339 -0.028036421 -0.037337843 16184556
0.42107153 -0.023623267 -0.038146175 15987179
0.42570841 -0.016629256 -0.038014818 14540248
0.43000001 -0.012947005 -0.039278284 11842736
0.52753854 -0.082383677 -0.028141428 11578531
0.53125012 -0.083029576 -0.023775723 11710116
0.51824999 -0.071717188 -0.028534073 11710373
0.52488887 -0.074871182 -0.025358349 11775910
0.53042859 -0.078413144 -0.022197405 11775909
0.51800001 -0.067740455 -0.026095305 11710373
0.52079999 -0.068595432 -0.024408495 11710117
0.41763043 -0.044498365 -0.022633959 12433327
0.41595092 -0.035324562 -0.022943873 14933974
0.41547704 -0.025073862 -0.02284052 15856107
0.41775003 -0.018689005 -0.023165485 15198179
0.42000002 -0.016578821 -0.023616426 14474456
0.53230774 -0.081881694 -0.017757425 11776680
0.52665001 -0.072881922 -0.0164802 11841960
0.53095835 -0.077567756 -0.015975768 11842216
0.51800001 -0.065315165 -0.019425746 11710117
0.52361548 -0.068947688 -0.016805502 11776166
0.41627586 -0.04311911 -0.017300112 12630706
0.41281596 -0.035619274 -0.014701395 14670802
0.41268224 -0.024850287 -0.014949891 15855849
0.41723818 -0.017745659 -0.014764913 15066592
0.42105418 -0.013821204 -0.015283586 12895423
0.41133329 -0.042493414 -0.0035693771 12499635
0.40851003 -0.032890167 -0.0031893309 15131097
0.41061005 -0.036591381 -0.0062277522 14210251
0.40840873 -0.026381651 -0.0036164518 15790055
0.41114002 -0.022520058 -0.0065257973 15658727
0.414224 -0.016737189 -0.0048449379 14474455
0.40879998 -0.043507081 0.0080675352 12039082
0.41103131 -0.042475287 0.0037974468 12302254
0.40642869 -0.034201078 0.0053071319 14605010
0.4103334 -0.038931653 0.0020622478 13552321
0.40609008 -0.02505517 0.005203119 15658471
0.41000003 -0.020023359 0.00094130525 15527142
0.40834621 -0.018728862 0.0067816777 15263972
0.41166669 -0.016194213 0.0035121879 14079696
0.40620762 -0.043467723 0.01646477 11973290
0.40357509 -0.035168201 0.01499141 14079179
0.40242133 -0.02530749 0.015228923 15592676
0.40523079 -0.018401798 0.014736599 15000798
0.40475613 -0.044487894 0.024440827 11775912
0.39831433 -0.03232171 0.027101047 14671316
0.40113324 -0.036272738 0.024418522 13618372
0.39818338 -0.026715707 0.026871812 15460833
0.40054086 -0.023524402 0.023591349 15592933
0.40222228 -0.018464612 0.024768088 14934750
0.39900002 -0.040035602 0.037811667 12499121
0.40050006 -0.041437909 0.035868552 12170925
0.39693204 -0.034475561 0.035387579 13947592
0.40000001 -0.03863769 0.031632502 12894391
0.3963998 -0.024960356 0.035201613 15329761
0.39860007 -0.01842102 0.036334738 14803164
0.40000007 -0.017590137 0.033116348 14540248
0.39812005 -0.041438814 0.045346834 12236461
0.40000007 -0.042519525 0.042971544 11907496
0.39438015 -0.034943286 0.045191396 13815494
0.39339823 -0.024803475 0.044986293 15263713
0.39581087 -0.01777539 0.045226339 14737627
0.4974167 0.0077317799 0.047425102 14211539
0.50100005 0.0089598298 0.043372832 14540504
0.49866667 0.011446795 0.048618376 14540504
0.50260615 0.014676904 0.046361666 13750988
0.39439288 -0.041256603 0.055637889 12236461
0.38895234 -0.032003373 0.057519868 14473680
0.39171565 -0.035526883 0.054267071 13749957
0.38891488 -0.026974298 0.057573125 15066076
0.39125299 -0.023816038 0.053622141 15263970
0.39290479 -0.017871927 0.055342879 14869215
0.477 0.0061069378 0.059157837 13685196
0.484 0.0076174052 0.057658877 13750988
0.49341178 0.0081110243 0.052834056 14079697
0.48785719 0.011906927 0.058549237 13882574
0.49526784 0.014490006 0.055079054 14343126
0.50066674 0.017223775 0.05115699 13619146
0.49766669 0.021132043 0.058229078 14343125
0.39517647 -0.042079657 0.064686649 12104363
0.40000001 -0.044817977 0.067871466 11446690
0.3878572 -0.033921219 0.065490849 14276303
0.39103705 -0.038221207 0.063416563 13354944
0.38727567 -0.025192892 0.064993449 15066075
0.39000002 -0.020872602 0.06024019 15395556
0.38819233 -0.018993082 0.066527352 15395558
0.392625 -0.017289115 0.061753545 14737630
0.43850002 -0.001397181 0.069784671 14145748
0.44200003 0.00014317216 0.069306947 13882576
0.45000002 0.0033061379 0.067400999 13355722
0.477 0.0085306717 0.06083791 13619147
0.48000002 0.0091449898 0.060657516 13750733
0.48675016 0.016293719 0.064645208 13882575
0.49114284 0.017080303 0.061406467 14474455
0.48714286 0.021743819 0.067586266 14342613
0.38590485 -0.041345458 0.077066392 12564658
0.39533338 -0.042454284 0.070933722 12038827
0.3846164 -0.0350224 0.07511165 11972778
0.3843407 -0.025066985 0.075104654 12367538
0.38649997 -0.017417153 0.075559631 14671578
0.39166671 -0.012156142 0.078590892 13750990
0.39900002 -0.0092114182 0.078443542 13750990
0.40100002 -0.0083188424 0.07977549 13750990
0.43700001 0.00014155256 0.073638059 14079955
0.44662502 0.0036837042 0.074349508 13816783
0.45221058 0.0080063865 0.076310813 13684940
0.45665222 0.012327117 0.077594303 13422025
0.46426082 0.015372088 0.076150067 13421768
0.47425005 0.017731739 0.074817225 13553354
0.48388889 0.018279603 0.071840636 13684939
0.47600001 0.020212026 0.076866895 13619404
0.48676482 0.024965169 0.075095952 14276821
0.49000001 0.028836191 0.075686395 14079698
0.48750001 0.030971559 0.079294026 14145491
0.49000001 0.031130387 0.076833494 14211284
0.79393774 -0.15493545 0.084521636 12631989
0.38258135 -0.041430555 0.08447475 10921632
0.3784256 -0.033278212 0.0870637 2765098
0.38094991 -0.035618003 0.083486721 2830635
0.37848276 -0.026335061 0.087286584 2764591
0.38088599 -0.023961376 0.083344504 3224625
0.38522023 -0.015573367 0.085241802 14671835
0.39076921 -0.011553843 0.082171902 14145492
0.38900003 -0.009891212 0.087860741 14474201
0.39378181 -0.0069340211 0.086533025 13948114
0.40426663 -0.0026422984 0.085648797 13619148
0.41169235 -0.0029058268 0.081753358 13685197
0.40742856 0.00040520405 0.084590673 13685197
0.41100001 0.00061420986 0.08272706 13619404
0.44900003 0.0054010251 0.081441298 13685197
0.45175004 0.0080807712 0.081939958 13619404
0.45482871 0.014148355 0.083822757 13355975
0.46244442 0.019396603 0.085856251 13619147
0.47000003 0.019957254 0.081399389 13619404
0.46637502 0.021990133 0.087317057 14013905
0.47459376 0.024358174 0.084793583 14079955
0.48273912 0.027771525 0.082519047 14540506
0.47866669 0.030784151 0.089249991 14671582
0.48247057 0.031580318 0.085472487 14277079
0.78850007 -0.17256674 0.097564943 14013647
0.79165006 -0.17599109 0.094571456 11052704
0.787 -0.16482313 0.095025308 14934749
0.79000002 -0.16711518 0.090585135 12104880
0.78593957 -0.15479741 0.094961733 15987436
0.78631252 -0.14481993 0.094525479 16052969
0.78625 -0.13502933 0.09567032 16316142
0.79000002 -0.1347506 0.090585135 15591904
0.78657687 -0.12517047 0.095852137 16184556
0.79000002 -0.12550358 0.090585135 15460319
0.78703451 -0.11499346 0.095894463 16184556
0.79071426 -0.115039 0.090931237 15987177
0.78678262 -0.10465267 0.096056856 16052970
0.79071426 -0.10551942 0.091195442 16250349
0.78583336 -0.098781057 0.096231468 16316399
0.79000002 -0.099611931 0.090585135 15789798
0.38123399 -0.042014334 0.095173582 11250598
0.37664855 -0.034719396 0.095346645 2764845
0.38000005 -0.039145816 0.092499875 3159088
0.37671316 -0.025142685 0.095075957 2634031
0.38000003 -0.020337408 0.090720698 3422008
0.37844449 -0.018924976 0.096795321 13818326
0.3834728 -0.01462456 0.094566271 14606041
0.38858068 -0.0090288734 0.095673211 14606041
0.39225313 -0.0045633051 0.094698712 14277077
0.39611113 0.00064541271 0.096835494 13948112
0.40133333 0.0035775388 0.098946072 13750733
0.42650005 0.011624356 0.099572331 13158853
0.43115383 0.013960668 0.098193973 13158853
0.44300002 0.017516192 0.097463503 13553611
0.45100003 0.019150471 0.097641066 13619404
0.45700005 0.022956571 0.098870546 13882576
0.46538234 0.0264233 0.096318699 14342870
0.47221059 0.02767507 0.092482902 14408920
0.46657139 0.032661624 0.098381609 14277334
0.47488892 0.033346929 0.09446127 14474713
0.48137498 0.036712684 0.092315473 14211284
0.4749091 0.041491743 0.098418787 14935780
0.48133335 0.040721074 0.095754772 15132902
0.79389656 -0.1854717 0.10512917 10592668
0.78721064 -0.17375474 0.10520121 12500666
0.79016668 -0.17886586 0.10478535 10527132
0.78183335 -0.16447562 0.10520338 15394786
0.77900004 -0.15111086 0.10938401 15921130
0.78103459 -0.15528812 0.10493793 16052973
0.78127778 -0.145151 0.10512938 15987179
0.7814666 -0.13512413 0.10515534 15986923
0.78238893 -0.12520888 0.10527973 15658215
0.78365541 -0.11513074 0.10510369 15658212
0.7831431 -0.10483839 0.10426954 15658213
0.78181821 -0.097748995 0.10478974 15592420
0.37823814 -0.041073047 0.10598187 11249572
0.38182345 -0.044980206 0.10577382 12301743
0.36877775 -0.032303385 0.10885657 2436138
0.37295967 -0.035073869 0.10457579 2567467
0.36864531 -0.025158523 0.1087769 2698279
0.37231702 -0.024690662 0.10392635 2764330
0.37656415 -0.018294211 0.10449198 13816267
0.38320246 -0.013356046 0.10471346 14540247
0.38752705 -0.0074216295 0.10549548 14408661
0.39166078 -0.0026531764 0.10434077 14408662
0.39618742 0.0032415348 0.10570224 14079954
0.40200004 0.0053108879 0.10238811 13619147
0.41466671 0.0085502779 0.10180047 13421513
0.42100003 0.0099920565 0.10050899 13553611
0.41716668 0.011203461 0.10349708 13421513
0.4234167 0.012450517 0.10091367 13093060
0.43366668 0.017406261 0.10218224 13750990
0.44900003 0.022218898 0.10614255 13948369
0.45531031 0.025772911 0.10393351 14145748
0.4605 0.028717779 0.10023682 14540506
0.45865005 0.031286679 0.10681202 14277077
0.46447453 0.035637666 0.1052047 14408663
0.47050002 0.039254427 0.10158595 14145748
0.46723256 0.044660844 0.10732137 12435129
0.47155571 0.042409554 0.10233062 13356231
0.46500003 0.050224997 0.10774777 11711405
0.79404545 -0.18512823 0.11496348 10394263
0.78695828 -0.17392211 0.11472332 12565432
0.79000002 -0.17913631 0.11555209 10196884
0.77900004 -0.16083701 0.11789439 15328995
0.78131825 -0.16478324 0.11478186 15131359
0.77900016 -0.15453024 0.11553884 15723751
0.78000009 -0.15536261 0.11378508 15657958
0.78126663 -0.14514726 0.11519016 15657957
0.78183991 -0.13518944 0.11527415 15592164
0.78219998 -0.12517837 0.11532739 15328992
0.78382367 -0.11421142 0.11491706 15131869
0.78503323 -0.10449877 0.11482643 15395041
0.7855556 -0.098233983 0.11623196 15395041
0.38700002 -0.050609186 0.11730616 11315361
0.3773714 -0.042286236 0.11467686 10723740
0.38183668 -0.046199176 0.11469126 12302256
0.36720929 -0.033799786 0.11521515 2370343
0.37136364 -0.038449045 0.11394515 2698284
0.36696044 -0.025126563 0.11515794 2632742
0.36900002 -0.019748693 0.11595327 13354941
0.37366664 -0.018424248 0.11690761 13026234
0.38229623 -0.013318642 0.11519586 14408661
0.38668752 -0.0058047511 0.11521136 14277075
0.39053336 -0.0011530992 0.11328452 14277075
0.39548615 0.0046950034 0.11548124 14277075
0.40000004 0.0090254359 0.11281902 14014160
0.39880005 0.010772384 0.11873529 14277076
0.40350005 0.013775892 0.11629299 13684940
0.41376472 0.017004231 0.11444622 13619404
0.42425001 0.018759051 0.11220925 14013905
0.41800004 0.021175299 0.11887558 14343127
0.42699996 0.024133675 0.11657918 14342870
0.43195999 0.025829131 0.11452499 14211284
0.44225001 0.028615884 0.11334617 14145748
0.44625005 0.03192367 0.11654538 14013905
0.45566669 0.035430677 0.11495563 14145491
0.46166667 0.038193583 0.11244728 14211284
0.45700002 0.040802151 0.11980204 14408663
0.4661139 0.045310728 0.11465978 13619146
0.46799996 0.051308598 0.11527219 11711148
0.78721058 -0.17375483 0.12508546 12893626
0.79074997 -0.178844 0.1249176 10393492
0.7790001 -0.16095859 0.12452034 15263201
0.78168422 -0.16579174 0.12526609 15262430
0.7790001 -0.15694657 0.12287904 15789546
0.78079998 -0.15401784 0.1261805 15921131
0.78189975 -0.145266 0.12443531 15526373
0.78234619 -0.13534628 0.1247177 15658213
0.78336686 -0.12536544 0.12466946 15592162
0.78406906 -0.11462302 0.12484474 15263454
0.78480774 -0.10468055 0.12482575 15328991
0.7849285 -0.097266033 0.12517774 15460833
0.37885714 -0.050811473 0.12807772 11841704
0.37736177 -0.044941358 0.12567365 11775913
0.38013342 -0.047753341 0.12195768 12368049
0.36396813 -0.034276698 0.1250508 2502186
0.37100002 -0.039583828 0.12256797 2631718
0.36359194 -0.025053566 0.12489207 2567980
0.36705005 -0.019170742 0.12611714 13422795
0.37637499 -0.01636529 0.12547277 14277330
0.38124236 -0.01278761 0.1244711 14277331
0.38611868 -0.0052597476 0.12520587 14211281
0.389 0.00023983644 0.12679128 14211282
0.39312705 0.0050159222 0.12490343 14277076
0.39794743 0.011481543 0.12493658 14342869
0.40219226 0.016019575 0.12619968 14277077
0.40825 0.020561133 0.12828574 14211284
0.41530302 0.023621464 0.1272777 14211284
0.42490566 0.027183546 0.12505363 14408663
0.43020004 0.029345423 0.12183945 14277076
0.42754546 0.03116677 0.12772772 14277077
0.43378568 0.033837922 0.12563834 14079697
0.44418752 0.037223779 0.12342197 14013904
0.45200002 0.038506918 0.12034187 14145491
0.43833336 0.040504254 0.12961563 14277075
0.44718188 0.042871837 0.1278792 14277075
0.45557898 0.044890419 0.12527658 14342869
0.46212503 0.047166009 0.12217832 14343127
0.45880002 0.051059198 0.12800676 14342868
0.46406254 0.051346775 0.12273092 13027009
0.78713632 -0.17371649 0.13498341 12828348
0.79039997 -0.17922699 0.13503778 10393750
0.77900004 -0.16114096 0.13126785 15460581
0.7817083 -0.16483001 0.13546069 15065310
0.78267753 -0.15442161 0.13537632 16184302
0.78363347 -0.14467125 0.13480312 15789544
0.78448576 -0.13464761 0.13508184 15592165
0.78539997 -0.12477282 0.13510676 15592164
0.78533316 -0.11465017 0.13509436 15592420
0.78536659 -0.10454354 0.13510081 15394784
0.78494453 -0.097137153 0.13502842 15263198
0.37800002 -0.050513778 0.13281542 12236462
0.37543556 -0.045308355 0.13481314 11381668
0.36554539 -0.034894656 0.1328619 1843745
0.37090904 -0.034650892 0.13851775 1186325
0.36502823 -0.023831856 0.13379081 1712418
0.37081817 -0.027423881 0.13872027 1119505
0.36617243 -0.018886017 0.13482708 12435132
0.3770715 -0.014582966 0.13531645 14145234
0.38060522 -0.01164637 0.13433476 14145490
0.38441125 -0.0052182502 0.13476676 14014161
0.38856414 0.0012462504 0.13544653 14013905
0.3923333 0.0062366119 0.13468774 14079955
0.39722228 0.012220935 0.13533372 14342870
0.40162688 0.017282907 0.1348902 14540249
0.40668759 0.022489041 0.13592012 14540248
0.41333875 0.026686655 0.13409758 14408663
0.42050004 0.029668152 0.13139758 14342870
0.41713333 0.031254582 0.13760181 14342869
0.42419517 0.034149308 0.1354374 14277333
0.43230772 0.037900534 0.13348559 14211284
0.43597725 0.042502578 0.13524491 14145492
0.44271043 0.047111187 0.13423745 14211285
0.44492605 0.052647255 0.13757859 14145492
0.78731823 -0.17409174 0.14506777 13354435
0.79000002 -0.17913629 0.14514257 10262421
0.78237039 -0.16438396 0.14506297 15131361
0.78287107 -0.15475565 0.14492449 16184560
0.78499991 -0.14492254 0.14514232 16118510
0.78716671 -0.13518643 0.14554439 15723495
0.78752005 -0.12511016 0.14561024 15460578
0.78693348 -0.11488401 0.14550273 15592164
0.78747994 -0.10482422 0.14560293 15658213
0.78746676 -0.097449027 0.14560057 15658213
0.36284617 -0.040782575 0.14731038 5790805
0.37345839 -0.043744531 0.14102967 9933966
0.36432818 -0.035304256 0.14664096 1120531
0.37151468 -0.034411542 0.14217964 1120789
0.36395848 -0.024507141 0.14646409 1579025
0.37130237 -0.027474336 0.14291705 988431
0.36150002 -0.018924745 0.14743562 4921369
0.37877777 -0.013374316 0.14077485 13026501
0.38000003 -0.010996746 0.14053756 11250603
0.38400003 -0.0051999157 0.14074312 11382189
0.38860002 0.0016735221 0.14117067 10592417
0.39250001 0.0065215118 0.14129888 12040376
0.39760867 0.012799502 0.14186911 12961221
0.4005385 0.018163502 0.14120868 14211543
0.40664515 0.02477116 0.14228451 14342872
0.41108337 0.028523663 0.14208767 14211286
0.41576475 0.032633994 0.14325483 13948114
0.42238471 0.037639447 0.14348033 13816527
0.42699999 0.040922359 0.14401841 13684941
0.43537506 0.045507833 0.1452482 13882319
0.44105884 0.049218453 0.14404276 14342613
0.44395065 0.054744374 0.14508003 14211285
0.79277283 -0.18440995 0.15492819 10000532
0.78692305 -0.17461735 0.15492143 13026240
0.78175014 -0.16465412 0.15493333 14934239
0.78199989 -0.15430607 0.15478727 15986924
0.78446668 -0.14482242 0.15514396 16052717
0.78720015 -0.13519178 0.15476324 15789544
0.78800005 -0.12518588 0.1549211 15394528
0.78800005 -0.11503991 0.15492108 15394528
0.78800005 -0.10489392 0.1549211 15526114
0.78800005 -0.097646795 0.15465757 15591907
0.35900003 -0.041004531 0.15618287 1580823
0.36055562 -0.041101772 0.15322612 2173217
0.35869309 -0.034571543 0.15718733 1448983
0.36091268 -0.035040945 0.15283442 1777947
0.35856092 -0.026907429 0.15752329 1383446
0.36065757 -0.024156084 0.15384883 1645847
0.36100003 -0.01862241 0.15353607 3613730
0.43875 0.048417419 0.15045321 13027010
0.43900001 0.050499838 0.15105309 11119013
0.44185716 0.054237366 0.15099947 11842737
0.79366672 -0.18475121 0.16506009 10065556
0.78734612 -0.17456841 0.16485967 13289157
0.79000002 -0.17913631 0.16641071 10262423
0.7822001 -0.16455233 0.16476898 14868446
0.78206652 -0.15444991 0.16474 15592166
0.78460008 -0.14484785 0.16527304 15921130
0.78619432 -0.13502093 0.16468807 15789544
0.78693348 -0.12501688 0.16484176 15526372
0.78582364 -0.11499349 0.16439055 15460579
0.78538716 -0.10495941 0.16478069 15395043
0.78633338 -0.098228998 0.16471402 15461093
0.34478569 -0.041052949 0.16719691 1778203
0.35533333 -0.040713228 0.16440262 527883
0.35999998 -0.040938158 0.16083173 1383444
0.34453464 -0.034790415 0.16700713 1580567
0.35528919 -0.035046156 0.16317391 1383448
0.36000001 -0.039493412 0.16095214 1186066
0.34503734 -0.02564591 0.1668957 1646105
0.355463 -0.027367501 0.1619563 1778206
0.36033335 -0.02350259 0.16278905 2370601
0.34250003 -0.019934025 0.16956437 2171678
0.79385722 -0.18452999 0.17492148 10131094
0.78760004 -0.17398544 0.17512444 13749708
0.79000002 -0.17913629 0.17473303 10262168
0.78342867 -0.16461512 0.17478667 15197670
0.78214276 -0.15459698 0.17469525 15855338
0.78380018 -0.14500548 0.17519467 15855337
0.7858665 -0.13496436 0.17473856 15789544
0.78608 -0.12488348 0.17478582 15592165
0.77900004 -0.1109905 0.17503552 15526372
0.78234494 -0.11525927 0.17483832 15526116
0.77900004 -0.10916685 0.17503552 15460579
0.78191429 -0.1048651 0.17474785 15394786
0.78455555 -0.098108679 0.17403825 15395043
0.33667573 -0.041173212 0.17650001 1646362
0.34055561 -0.041434828 0.17196621 1712154
0.33730322 -0.035666715 0.1753539 1646361
0.34052104 -0.03520178 0.1715755 1843225
0.33772463 -0.025511755 0.17443359 1843227
0.34066001 -0.025694322 0.17129964 1909019
0.33700001 -0.019219454 0.17591463 2435881
0.34200001 -0.019904923 0.17051835 2039836
0.79376006 -0.18512155 0.18519028 9934227
0.78795451 -0.17389566 0.1849288 13815759
0.7906 -0.17927235 0.18504658 10197146
0.78381497 -0.1650975 0.18488276 15197413
0.78195989 -0.15534574 0.18485336 16184048
0.78329051 -0.14537382 0.18499024 16250096
0.78547215 -0.13489628 0.18476313 15920874
0.78543323 -0.12477974 0.18475261 15723239
0.78407145 -0.11479335 0.18555214 15657445
0.78463995 -0.10517976 0.18505064 15460066
0.7856667 -0.099065535 0.18327872 15460066
0.33313164 -0.041430939 0.18376178 1712158
0.33193547 -0.0355663 0.18624 1909540
0.33103231 -0.026691388 0.18627353 1909536
0.78781819 -0.1742014 0.1949555 13552328
0.79049999 -0.17924969 0.19519818 9671570
0.7824139 -0.16447181 0.19487558 14999773
0.78200006 -0.1547046 0.19493175 15986924
0.78488457 -0.14511155 0.19459301 16118509
0.78543323 -0.13489403 0.19486858 15921130
0.78328019 -0.12443705 0.19433314 15789544
0.78586674 -0.11472429 0.19497623 15789287
0.78752381 -0.10553183 0.19556241 15657445
0.78800005 -0.099359751 0.19919443 15460066
0.7938183 -0.18448323 0.20488752 9803410
0.78740907 -0.17377578 0.20507722 13618892
0.79000002 -0.17913631 0.20524819 9539985
0.78273082 -0.16480578 0.20498082 14999773
0.78200012 -0.15443523 0.20469445 15921387
0.78525811 -0.14514619 0.20508057 15986923
0.78583318 -0.13496114 0.20508501 15789544
0.78556663 -0.12479866 0.20501862 15789544
0.7868287 -0.11484101 0.20521469 15789288
0.78708339 -0.10553917 0.20479721 15723238
0.78700006 -0.099233665 0.20078401 15526372
0.79336363 -0.18471569 0.2148993 9803153
0.78751999 -0.17466933 0.21544336 12960964
0.79000002 -0.17913632 0.21264581 9539730
0.78268981 -0.16452876 0.21510091 15000029
0.78139997 -0.15523404 0.21490453 15395301
0.78306073 -0.14572909 0.21494333 15723752
0.78499991 -0.13481584 0.21497488 15657958
0.78612006 -0.12488607 0.21528129 15789288
0.78680664 -0.11489596 0.21529076 15723495
0.78626674 -0.10650401 0.21532112 15723237
0.79259092 -0.18419887 0.22498189 9737362
0.78738463 -0.1747193 0.22505791 12500411
0.78369242 -0.16500726 0.22541435 15525859
0.78210336 -0.15461616 0.22529425 15986667
0.78389668 -0.14471766 0.22498718 15986924
0.78497213 -0.1348117 0.22507466 15789545
0.78573322 -0.12482491 0.22529282 15395043
0.78588867 -0.11473187 0.22533754 15526372
0.78533334 -0.10699051 0.22303417 15526114
0.78777272 -0.17402285 0.23509885 13684684
0.79000002 -0.17913631 0.23483865 9473935
0.78376931 -0.16474207 0.23503166 14933979
0.78190303 -0.15515809 0.23502897 15526116
0.78200024 -0.1451536 0.23533407 15723751
0.78317654 -0.13471654 0.23528855 15592165
0.78568 -0.12481551 0.23539406 15460579
0.78625005 -0.1147088 0.23625593 15263200
0.78700006 -0.10844556 0.23947401 15328993
0.78900003 0.17203246 0.23823553 11382440
0.79122233 0.175604 0.23409946 11447976
0.78785717 -0.17417371 0.24500322 13684942
0.79049999 -0.17924969 0.24516487 9474192
0.78300017 -0.1648477 0.24482881 14999773
0.77890003 -0.15291514 0.24794957 15789544
0.7806316 -0.15585299 0.24407588 15328994
0.77886385 -0.14561409 0.24686027 15592166
0.78021431 -0.14351787 0.24301878 15526372
0.78254843 -0.134304 0.24526979 15526372
0.78577775 -0.12517026 0.24468978 15394786
0.78760004 -0.1159034 0.24518937 15263200
0.78900003 0.17480305 0.24211438 11382440
0.79000002 0.17927822 0.24260616 11513769
0.78900003 0.18126777 0.24931791 11447976
0.7911036 0.18558514 0.24519059 11513769
0.78691673 -0.17391236 0.25502872 13816529
0.79000002 -0.17913631 0.25425741 9408399
0.77900004 -0.16022913 0.25892356 14868444
0.78148282 -0.16452821 0.25501627 15131360
0.77858335 -0.15452489 0.25529167 15657959
0.78000003 -0.15860882 0.25103897 14473173
0.7784 -0.14461513 0.2550801 15921130
0.77900004 -0.1383453 0.2534526 15657958
0.78187108 -0.13465908 0.25491714 15592164
0.78593552 -0.12509145 0.255173 15394529
0.78753334 -0.11589365 0.25530484 15394786
0.78733343 0.17842837 0.25462428 11382440
0.78852636 0.18388008 0.25499672 11382440
0.79000002 0.18827866 0.25425741 11447976
0.79231036 0.19488758 0.2548393 11447976
0.7860834 -0.1740371 0.26472604 13290187
0.79000002 -0.17913631 0.26627854 9276814
0.77900004 -0.16022913 0.26074719 14934237
0.78120828 -0.1644956 0.2652961 15000543
0.77900016 -0.15512294 0.26393861 15526629
0.78000009 -0.15469597 0.26760334 15395300
0.7790001 -0.14670371 0.2624189 15921130
0.78022218 -0.14363508 0.26612839 15921130
0.78218764 -0.13410036 0.26513222 15723494
0.78592002 -0.12485327 0.26490396 15394529
0.78579992 -0.11563998 0.26486295 15263456
0.78700006 0.17896591 0.26342496 11448233
0.78863645 0.18420583 0.26279834 11316647
0.79055554 0.18800025 0.26564434 11316647
0.7863462 -0.17456219 0.27481577 12895428
0.77900004 -0.16144492 0.27776796 14276051
0.7807501 -0.16485587 0.27420327 15066081
0.77900016 -0.15567002 0.27636227 15329250
0.78008342 -0.15329917 0.27298012 15592935
0.78044462 -0.14499663 0.27493319 15855850
0.77900004 -0.13652165 0.27716008 15724521
0.78100014 -0.13464995 0.27466962 15724008
0.78480005 -0.12546048 0.27501848 15460579
0.77900004 -0.1109905 0.27898374 15263200
0.78453141 -0.11539757 0.2749311 15263200
0.77800006 -0.10902671 0.27862561 15394786
0.7665 0.12495665 0.27540606 11119268
0.77200007 0.12766348 0.27828407 11053218
0.77250004 0.13045765 0.27756187 11119011
0.79079998 0.15576434 0.2795071 11250597
0.79081815 0.16586508 0.27816701 11250597
0.79153329 0.17443921 0.2779133 11382183
0.79315794 0.18583952 0.27555391 11382184
0.78900003 -0.18075661 0.28995332 9605778
0.78640747 -0.17505465 0.28470281 12632257
0.77900016 -0.16215412 0.28536651 14473686
0.78069234 -0.16760784 0.2854946 15263720
0.77889991 -0.15473832 0.28533003 15394787
0.77900004 -0.14928721 0.28536654 15657958
0.78064001 -0.14411856 0.28505424 15789544
0.78056002 -0.13496915 0.28502536 15723751
0.7790001 -0.12433635 0.28660992 15592165
0.78087497 -0.12542315 0.2818242 15526372
0.77776933 -0.11508867 0.2858949 15328993
0.78100002 -0.11712708 0.28079608 15263455
0.77600002 -0.10829227 0.28744665 15263457
0.77300006 0.087111525 0.2895022 14276824
0.77366668 0.092620932 0.28975189 14606047
0.77800006 0.10042418 0.28955349 14539226
0.78850007 0.11746901 0.28976959 11053479
0.77483344 0.12450363 0.28111932 11185061
0.78350002 0.12497152 0.2879321 11184804
0.77700001 0.1312176 0.28190541 11250854
0.78679997 0.1358225 0.28730291 11119268
0.78850007 0.14054325 0.28330952 11184805
0.79090482 0.14529239 0.28554145 11184805
0.79100013 0.15487687 0.28513446 11250597
0.79136008 0.16513714 0.28526402 11184804
0.7924 0.17463012 0.2856392 11316391
0.78871435 -0.18121889 0.29617807 9342606
0.79284221 -0.18613456 0.29517272 9408142
0.78470844 -0.1751858 0.29526067 13553102
0.77895659 -0.16355036 0.29561782 15065568
0.78060007 -0.16859964 0.29380956 15657706
0.77800006 -0.15436523 0.29559919 15789803
0.77796149 -0.14558485 0.29647037 15724267
0.78041673 -0.14331579 0.29197496 15723753
0.77833343 -0.13473392 0.29772422 15592937
0.7808947 -0.13521942 0.29322729 15723752
0.77829623 -0.12465657 0.29553154 15658216
0.78000003 -0.12939292 0.29212382 15723751
0.77676469 -0.1149525 0.29566917 15395558
0.77505559 -0.10619672 0.29601586 15198179
0.77300006 0.078968287 0.29855025 13882576
0.77336365 0.085835986 0.29515144 13750735
0.77465379 0.094624475 0.29500401 14540254
0.7786001 0.10050162 0.29524636 14803170
0.78531241 0.10551123 0.29595175 12500156
0.78900003 0.11846761 0.29180035 11448233
0.79116672 0.11519337 0.29620424 10921635
0.78822225 0.1251169 0.29212841 11053475
0.78866673 0.13318861 0.29167709 11185061
0.78807145 -0.18186271 0.30555606 9145227
0.79166669 -0.18730001 0.30464602 9276554
0.77900004 -0.17117105 0.30633852 15525610
0.78261912 -0.17484953 0.30488172 13026501
0.778 -0.16511235 0.3045626 15131106
0.77603137 -0.15519236 0.30482939 15723754
0.77526909 -0.1448025 0.30466068 15855596
0.77583337 -0.13505758 0.30418319 15724010
0.77628583 -0.12527211 0.30468726 15723753
0.77543336 -0.11502228 0.30493629 15723753
0.77476186 -0.10555001 0.30510473 15395044
0.77500004 -0.097720563 0.30839413 15066591
0.77333337 0.079605937 0.30441371 13224392
0.77329642 0.085133456 0.30449921 14013650
0.77568191 0.094268672 0.30437371 14737632
0.78100002 0.098983079 0.30804038 14868961
0.78616673 0.1053204 0.30486095 11776944
0.79242313 0.11527611 0.30512431 10921889
0.78850013 -0.18235688 0.31482163 9539725
0.79083329 -0.187195 0.31546521 9868688
0.78589481 -0.17510876 0.31544492 10000534
0.77866673 -0.16198424 0.31167611 13158088
0.7826668 -0.16599122 0.31486887 11644849
0.7771818 -0.15406688 0.31224093 15724269
0.78255564 -0.15587343 0.31791577 14737633
0.77687508 -0.14490096 0.31289452 15856110
0.78250003 -0.14537738 0.31870598 13355210
0.7766 -0.1359168 0.31157643 15855596
0.78254545 -0.13480942 0.31706089 15000545
0.77900004 -0.12557973 0.31180951 15789293
0.78292859 -0.12477215 0.3154802 15920879
0.77750003 -0.11373641 0.31189239 15921390
0.78269994 -0.11518301 0.31714007 14605276
0.77642858 -0.10543275 0.31247026 15461098
0.78200006 -0.10775814 0.31850234 12302779
0.77654552 -0.097749643 0.3133094 13882322
0.77684623 0.085446686 0.31304762 11776690
0.78200006 0.087209836 0.31804523 9605778
0.77766675 0.091885589 0.31188369 13224396
0.78412503 0.096054599 0.31592882 11711155
0.78799999 0.10402292 0.31437573 10790047
0.79044449 0.10819909 0.31618562 10855839
0.79265219 -0.18530545 0.32534596 10329753
0.78880006 -0.17517194 0.3212719 10263961
0.7923125 -0.1750237 0.32641524 10395547
0.78814286 -0.16461425 0.32258695 10395294
0.79157144 -0.16546325 0.3274312 10461340
0.78745461 -0.15425955 0.32374191 9934743
0.79100001 -0.1552892 0.32865024 10461338
0.7874667 -0.14537887 0.32441857 10197913
0.79171425 -0.14457631 0.32960835 10527388
0.78780007 -0.13474275 0.32307905 10461086
0.79085714 -0.13542555 0.32819372 10395545
0.78840005 -0.12524989 0.32203251 10986920
0.79100001 -0.12452202 0.32729715 10263961
0.78773677 -0.11475942 0.3241412 10329243
0.79020005 -0.11591659 0.32887173 10395288
0.78619993 -0.1046556 0.32482034 10132119
0.78628576 -0.09835434 0.32524994 10066582
0.78900003 0.077832229 0.32874164 9474443
0.7874167 0.085356325 0.32424399 10198168
0.79033333 0.085982136 0.32898894 10395546
0.78825015 0.094828166 0.32274029 10592925
0.79099995 0.094863564 0.32806113 10592925
0.78900003 0.10184405 0.32135338 10658717
0.79223824 0.10509131 0.32514694 10790303
0.79275995 0.19512367 0.32474175 11184804
0.79275 -0.11480647 0.33494678 10395546
0.7924763 -0.10522422 0.33496556 10330010
0.792 -0.098803975 0.33423355 10264217
0.78900003 0.076908693 0.3305887 10000787
0.79000002 0.078752831 0.33552846 10263959
0.79056013 0.085390262 0.33494374 10461338
0.79223073 0.094986632 0.33543667 10658718
0.79028577 0.078355685 0.34460783 10263960
0.79088002 0.08542493 0.34433818 10527131
0.79199988 0.094816267 0.3448256 10592924
0.79293531 0.10522728 0.34505183 10724510
0.78650004 0.078967981 0.35761586 10263959
0.78775007 0.084012307 0.35833898 10461338
0.79139131 0.085720599 0.35349843 10461338
0.79206663 0.094823629 0.35504803 10592924
0.79244435 0.10507168 0.35521856 10658717
0.77900004 0.078669414 0.36104813 10264729
0.78100002 0.078871384 0.36014673 10132373
0.77800006 0.080389738 0.36240599 10198936
0.78510523 0.085581213 0.36281154 10395802
0.7888332 0.092692174 0.36498994 10592924
0.79000002 0.097195506 0.3647593 10592924
0.78900003 0.1092323 0.36752996 10592924
0.79017687 0.10471621 0.36508462 10658717
0.78900003 0.11477349 0.36845356 10658717
0.79061919 0.11518648 0.36343464 10724510
0.78900003 0.12216174 0.3684535 10790303
0.79140633 0.12525517 0.36441952 10790303
0.78850007 0.088858262 0.37191236 10527131
0.79049999 0.088621289 0.37748215 10527131
0.78900003 0.090761669 0.37122408 10395545
0.7911579 0.09491016 0.37516561 10527132
0.79156005 0.10484129 0.37502497 10592925
0.78900003 0.11609282 0.37201568 10527131
0.79037505 0.11474233 0.37638202 10593181
0.78900003 0.12268948 0.37201568 10790303
0.79030454 0.12582262 0.37642381 10724510
0.79257703 0.13584992 0.37454766 10790304
0.8070001 0.211852 0.37780228 2563356
0.79022223 0.088024892 0.38556978 10330006
0.79203331 0.094821043 0.3847028 10396059
0.79289997 0.12462107 0.38512656 10593694
0.80622232 0.21311821 0.38393998 3023903
0.78900003 -0.11272311 0.39831436 10790303
0.79153579 -0.11535863 0.39418456 10658975
0.78900003 -0.10650468 0.39708298 10790304
0.79046673 -0.10633267 0.3930088 10658976
0.79220009 0.088904873 0.39350384 10198935
0.80680001 0.21255514 0.39395502 2628630
0.79250008 -0.12463896 0.40491554 10658717
0.78884202 -0.11317074 0.40419614 10724510
0.79000002 -0.11866079 0.40498382 10724510
0.7881667 -0.10706905 0.40342951 10724510
0.79193109 0.15496188 0.40456805 10593694
0.79185176 0.16517176 0.40483513 10593694
0.80700004 0.21185198 0.40047428 2694941
0.78900003 0.090761669 0.4155536 10198938
0.79118508 0.095472589 0.41457295 10395802
0.79181826 0.097153135 0.42479089 10396058
0.79268581 0.13492642 0.43498725 10461852
0.79216677 0.14490514 0.43483576 10462108
0.79155552 0.15498534 0.43449929 10527901
0.79126668 0.1651171 0.43434033 10527902
0.79208326 0.10811412 0.44421884 10396058
0.79247987 0.11528037 0.44521341 10330522
0.79150003 0.12532598 0.44466344 10396315
0.79096013 0.13542734 0.44436017 10396315
0.79092008 0.14467722 0.44433784 10461851
0.78900003 0.1563324 0.4451066 10527901
0.79011559 0.1544185 0.44360173 10527388
0.78900003 0.16187359 0.4451066 10462108
0.79000008 0.16509409 0.4436605 10527644
0.79204351 0.17431287 0.44464692 10527645
