# .PCD v0.7 - Point Cloud Data file format
VERSION 0.7
FIELDS x y z rgb
SIZE 4 4 4 4
TYPE F F F U
COUNT 1 1 1 1
WIDTH 736
HEIGHT 1
VIEWPOINT 0 0 0 1 0 0 0
POINTS 736
DATA ascii
0.43900001 -0.050215434 -0.060654528 13025207
0.43440747 -0.044584438 -0.061560389 13287866
0.42829409 -0.034366496 -0.06129865 15656671
0.43000004 -0.038448494 -0.061759859 14406605
0.42836368 -0.025475282 -0.061418604 16118250
0.42999998 -0.021000108 -0.061424315 15592164
0.43150002 -0.017594758 -0.061384439 15065564
0.43900001 -0.050215434 -0.059112966 13354173
0.44000003 -0.050844844 -0.057187527 13091259
0.42900002 -0.040032905 -0.051740654 13880003
0.43465215 -0.044498503 -0.055807583 13156280
0.42589393 -0.03464549 -0.054988828 15656927
0.43000001 -0.039119583 -0.059411038 14340556
0.42618275 -0.02552809 -0.055090588 16118250
0.43000001 -0.021000106 -0.058907717 15526627
0.42845452 -0.019009255 -0.051447894 15657959
0.43191314 -0.016886929 -0.05587513 14671065
0.44180003 -0.012268034 -0.053590398 13552587
0.49900001 -0.071096607 -0.042076577 11579046
0.50350004 -0.072331205 -0.040686216 11315874
0.48714286 -0.063380443 -0.043519784 11644326
0.49375004 -0.066885211 -0.042642426 11513253
0.42747626 -0.042227823 -0.043005407 13288123
0.43235138 -0.045249324 -0.046607673 12959159
0.42305109 -0.034948543 -0.044996947 15328219
0.42266029 -0.025087133 -0.045045305 16118508
0.42699996 -0.017531689 -0.043843247 15131871
0.43072727 -0.014523979 -0.045028072 13684941
0.44000003 -0.012218051 -0.048432119 12960964
0.51900005 -0.080021128 -0.032828122 11710630
0.50654548 -0.071849674 -0.037964389 11184287
0.51431811 -0.075008281 -0.033972666 11578788
0.52200001 -0.078854322 -0.03098041 11579044
0.49733338 -0.064261772 -0.038051121 11578789
0.50430769 -0.068041481 -0.035980083 11447459
0.51133341 -0.06886474 -0.03194287 11315871
0.42533335 -0.041682955 -0.039847724 13485758
0.42109999 -0.034866031 -0.039451122 15262426
0.42120004 -0.025002118 -0.039460488 16052715
0.42500004 -0.018764494 -0.039816495 15526372
0.51811111 -0.071393713 -0.027514488 11710116
0.51678574 -0.068188325 -0.02395907 11644837
0.41788885 -0.043866102 -0.022999085 12499633
0.41610962 -0.035205323 -0.023480568 14999767
0.41621622 -0.024995472 -0.02332806 15987435
0.4183636 -0.019006988 -0.022814019 15263972
0.42050004 -0.016843636 -0.024198189 14606043
0.51800001 -0.068347953 -0.019425746 11644837
0.52000004 -0.069219336 -0.018283419 11118493
0.41558063 -0.042519711 -0.016568707 12762804
0.41258889 -0.035481386 -0.014740507 14670802
0.40900001 -0.028113067 -0.010550707 15922152
0.41283956 -0.024831535 -0.015051289 15856105
0.41728204 -0.017871527 -0.014548342 15066591
0.42097157 -0.01444691 -0.015956253 13355973
0.41090325 -0.041759122 -0.0034606806 12565426
0.40838915 -0.033330888 -0.0040707737 15000024
0.4102895 -0.03765532 -0.0062129204 14012872
0.4082596 -0.026261235 -0.0041152132 15855591
0.41122502 -0.021741387 -0.0062296977 15789798
0.41437107 -0.016978545 -0.0048622382 14737370
0.42000002 -0.012645912 -0.0098512396 11053218
0.40873918 -0.042302419 0.0068862252 12368047
0.41016665 -0.041635972 0.0030214877 12433840
0.40645456 -0.034582935 0.0053104428 14539216
0.41000003 -0.039219707 0.001421214 13223356
0.40611994 -0.025056219 0.005203818 15724006
0.41000003 -0.020023359 0.001421214 15527142
0.40838096 -0.018760404 0.0074004689 15329249
0.41187096 -0.016441222 0.0037413051 14276819
0.40596229 -0.043603353 0.016708737 12039083
0.40369898 -0.03517903 0.01499644 14144459
0.40272048 -0.025196807 0.015154431 15527141
0.40565854 -0.018303204 0.014586268 14935005
0.40455234 -0.044241942 0.023937127 11776425
0.39833337 -0.032820933 0.027644789 14473681
0.40112156 -0.036078189 0.024113357 13749701
0.39832705 -0.026911579 0.02712941 15460833
0.4004347 -0.023765268 0.023796283 15461604
0.40218183 -0.018555375 0.024680434 14935006
0.39900002 -0.040035602 0.037811667 12696242
0.40025005 -0.041392114 0.036760345 12235948
0.39689705 -0.034612279 0.035241269 13947337
0.40000001 -0.039199535 0.030883376 12564656
0.39646602 -0.025044115 0.035276882 15329761
0.40000001 -0.02047139 0.031351581 15264226
0.39841184 -0.018579122 0.037123229 14803419
0.40022728 -0.017713917 0.033839755 14606041
0.39800009 -0.041073903 0.045423526 12367534
0.40023535 -0.042695973 0.043467022 11907240
0.39447117 -0.034950923 0.045202244 13815751
0.3935537 -0.024742199 0.045121398 15329504
0.39615393 -0.017727464 0.045440584 14868955
0.49720007 0.0072629987 0.047929086 14079953
0.50100005 0.0095450841 0.043958083 14606297
0.49900001 0.011259232 0.049040522 14343125
0.5028621 0.014495165 0.046659127 13816782
0.39431998 -0.041191805 0.056105569 12301999
0.38899997 -0.031807669 0.057657316 14473682
0.39180988 -0.035412997 0.054417171 13815751
0.38899997 -0.027244266 0.057480235 15066075
0.39137065 -0.023772651 0.053942546 15329761
0.39367998 -0.017509289 0.055256952 14737884
0.47720003 0.0061883139 0.058738939 13816526
0.48420006 0.0060505886 0.056417979 13882319
0.4939445 0.0081281718 0.052712243 13948367
0.48525003 0.011236635 0.059331089 14013905
0.49591377 0.014833168 0.055811528 14343125
0.5013333 0.016517678 0.051459782 14079953
0.49720001 0.021578088 0.05840702 14277590
0.50300002 0.020180976 0.052377466 10856097
0.3935 -0.041422803 0.063162908 12367535
0.38792312 -0.034429576 0.065563604 14210253
0.39094448 -0.038059533 0.062012434 13485759
0.38730788 -0.02532219 0.064878412 15066076
0.39000002 -0.021329101 0.06024019 15461346
0.3880417 -0.019026661 0.066859901 15395813
0.39327031 -0.016706429 0.062483937 14606298
0.47587505 0.0082321204 0.061387222 13684941
0.47900003 0.010247285 0.062773839 13422025
0.48719454 0.015943686 0.065689996 13750733
0.49140003 0.017492851 0.062325362 14211797
0.4886111 0.022908673 0.068353869 14211028
0.49200001 0.02127379 0.063694052 14540249
0.38550007 -0.041252501 0.077138573 12434100
0.3845681 -0.034990381 0.07514675 11973034
0.38412857 -0.025052601 0.075062476 12367538
0.38592857 -0.017794935 0.075679891 14934751
0.3938182 -0.012015721 0.079015419 13619150
0.40575001 -0.007576664 0.079051897 13685200
0.4145 -0.0044661285 0.078942649 13816530
0.42411777 -0.0032217056 0.075053789 14145494
0.42379999 0.00033532694 0.076955415 13684941
0.43800002 0.0021926083 0.074831933 13750990
0.45304766 0.0081288414 0.077301703 13619405
0.45700005 0.012017418 0.078368567 13422025
0.46493751 0.016211156 0.078409404 13487564
0.4738 0.018344354 0.077169701 13684685
0.48476472 0.018315749 0.07320103 13619147
0.47600001 0.020212028 0.0779742 13816273
0.48698267 0.024444539 0.075237326 14277077
0.48999992 0.029122964 0.075495213 14145492
0.49000001 0.031130387 0.076833494 14342870
0.79200006 -0.099864118 0.088960387 15393755
0.38255259 -0.041284688 0.08507695 10725025
0.3786512 -0.032737233 0.087016337 2634026
0.38101172 -0.035746288 0.083781615 2765100
0.37837842 -0.025863525 0.086633168 2830639
0.3806935 -0.023751294 0.08284872 3290160
0.3853932 -0.015582293 0.08523915 14737370
0.39212507 -0.011402059 0.081905633 14079955
0.38900003 -0.009891212 0.088316076 14606042
0.39372727 -0.0075132833 0.086570673 14079699
0.40364709 -0.0055872556 0.083352163 13619405
0.41407695 -0.002771796 0.08147376 13619664
0.45375001 0.0084687127 0.08212623 13619404
0.45500016 0.014852997 0.084857553 13421768
0.46300003 0.017857825 0.080547184 13487308
0.47000003 0.019957254 0.080299109 14145238
0.46466669 0.021179879 0.085895948 13684940
0.4756 0.024438607 0.085495442 14145491
0.48300001 0.027586164 0.084682345 14606042
0.47900003 0.030431543 0.089686185 14671835
0.48278573 0.031396262 0.086423464 14408407
0.78850007 -0.17264359 0.09841162 14736858
0.79309529 -0.17542021 0.094383135 11249829
0.78720003 -0.16493885 0.095861733 15066336
0.79066676 -0.16509818 0.090969808 13618890
0.78623319 -0.15472095 0.095484123 16052970
0.79000002 -0.15694346 0.090585135 15264224
0.78622597 -0.14497186 0.094596758 16053226
0.78591186 -0.13497172 0.094707228 16118764
0.78657162 -0.12535162 0.095445655 16118507
0.79025006 -0.12276745 0.090613797 15131866
0.78724986 -0.1149298 0.09671659 16250349
0.79081821 -0.11502962 0.091687709 15855846
0.78647614 -0.10451672 0.096400827 16184813
0.7906667 -0.10566038 0.091483526 16118761
0.7856667 -0.098760426 0.096210413 16250349
0.79000002 -0.099611931 0.090585135 16579312
0.37900001 -0.040690541 0.098910794 11579821
0.38158968 -0.042071138 0.095199838 11513770
0.37622139 -0.034757935 0.095185921 2699309
0.38000003 -0.039315265 0.092055082 3356727
0.37585059 -0.025006853 0.094929017 2634031
0.37830776 -0.018952074 0.096582688 13686996
0.38391072 -0.014705951 0.094611622 14474713
0.38853127 -0.0089974608 0.095711648 14540506
0.3927792 -0.0046886113 0.094930232 14277077
0.39814287 0.00052928011 0.098116159 14013907
0.4012 0.0032320395 0.098787829 13750737
0.45571429 0.018589485 0.092325568 13421514
0.45683336 0.021899156 0.099436752 13816781
0.46682355 0.025741162 0.096371293 14277077
0.47227585 0.027641132 0.093373597 14474456
0.46900001 0.030894168 0.099891134 14540506
0.47534382 0.034097716 0.095649049 14342873
0.48019999 0.036129504 0.091934904 14210774
0.47666672 0.041442152 0.098174818 15133162
0.78715795 -0.17374316 0.10519384 12828347
0.79071426 -0.17903408 0.10415096 10656921
0.78236669 -0.16458623 0.10527606 15394788
0.78224987 -0.1550598 0.10503125 16118509
0.7820881 -0.14503267 0.10545503 15987179
0.78231031 -0.13539624 0.10511366 15855593
0.78293353 -0.12529588 0.10443942 15723751
0.78407705 -0.11517154 0.10473299 15657957
0.78275865 -0.10495665 0.10428858 15657958
0.77900004 -0.096401282 0.1020894 15657958
0.78140008 -0.097796448 0.10496757 15592165
0.37820008 -0.041136533 0.10537481 11185063
0.38177583 -0.044952553 0.10578472 12105391
0.36855 -0.032537818 0.10873642 2501676
0.37268573 -0.035033833 0.10446171 2567724
0.36868972 -0.025327038 0.10885353 2435622
0.37192699 -0.024649579 0.10402586 2764331
0.37641937 -0.01843532 0.10500847 13750475
0.38307872 -0.013530999 0.10469224 14474455
0.38734782 -0.007623435 0.10546743 14474455
0.39239684 -0.002871739 0.10437725 14408663
0.39691669 0.0023475809 0.10582836 14211285
0.40219513 0.0061552599 0.10446542 13750736
0.41050002 0.0097428476 0.10520905 13355979
0.40700001 0.010612573 0.1090754 13619406
0.41233337 0.0117177 0.10744972 13290440
0.44220003 0.01815737 0.1037068 13685197
0.44822222 0.023191728 0.10677136 13948369
0.45350003 0.025396606 0.10449667 14014162
0.46320006 0.028201522 0.10168772 14342870
0.45746157 0.032030866 0.10838703 14211541
0.46524996 0.034522522 0.1056791 14277591
0.47186956 0.03670723 0.10170001 14146264
0.46858817 0.043386806 0.10851395 13290181
0.47400004 0.042008471 0.1027964 13882836
0.78691316 -0.173715 0.11490072 12696504
0.79040003 -0.17922702 0.11468683 10328211
0.77900004 -0.16022913 0.11850227 15789546
0.78145838 -0.16454907 0.11506448 15131359
0.77899998 -0.15553974 0.11798123 15723753
0.78027773 -0.1547077 0.11382473 15657959
0.77900004 -0.14928721 0.11759044 15131616
0.78117859 -0.14480387 0.11497943 15723751
0.78496885 -0.13457662 0.11539218 15592419
0.78703696 -0.12523769 0.11461019 15328991
0.78717661 -0.11470237 0.1148712 15197406
0.78666675 -0.1047169 0.11506946 15394785
0.78700012 -0.09841457 0.11644701 15526372
0.38733336 -0.050652772 0.11740562 11315104
0.37692681 -0.042107821 0.11479975 10591897
0.38228574 -0.046466473 0.11488443 12302255
0.36708421 -0.033767551 0.11524944 2435880
0.37148148 -0.038435284 0.11383829 2567209
0.36696759 -0.0251584 0.11514308 2566951
0.36900002 -0.019748693 0.11876074 12631478
0.37308335 -0.018640656 0.11614603 13354943
0.38263756 -0.013441469 0.11501686 14474198
0.38678077 -0.0057024518 0.11532225 14277075
0.39107147 -0.0013765926 0.11206359 14277075
0.39513972 0.0038103643 0.1153201 14277076
0.40095833 0.0085794898 0.1135555 14014161
0.40591183 0.012409021 0.11626816 13816526
0.41329417 0.01656699 0.11603769 13487819
0.42266667 0.018771803 0.11393113 14079955
0.42690006 0.022378067 0.11620571 14211541
0.43200004 0.026090819 0.11549078 14211541
0.44649997 0.026685918 0.11147043 14014162
0.45125002 0.029461566 0.11089823 14014162
0.43466666 0.031007901 0.11937385 13948369
0.44647372 0.032879818 0.11604974 14079698
0.45476741 0.03580324 0.11492389 14145748
0.46218753 0.03781845 0.11229971 14277077
0.45757145 0.04146618 0.11872547 14342870
0.46470848 0.044393167 0.11469408 13948111
0.78742862 -0.17407997 0.12505105 12564919
0.79066664 -0.17928748 0.12490285 10328214
0.77900004 -0.16022913 0.12214958 15329507
0.78142315 -0.16467141 0.1254131 15196894
0.77900016 -0.15572368 0.12311505 15790059
0.78000003 -0.15369268 0.12736297 15790059
0.77900004 -0.14928721 0.12123775 15526373
0.7810294 -0.14483392 0.12542659 15526372
0.78503346 -0.13481593 0.12493253 15723751
0.78857136 -0.12507768 0.12490215 15460579
0.78878111 -0.11538559 0.12518369 15263199
0.78800005 -0.10489392 0.12540554 15263199
0.78800005 -0.097515024 0.12540552 15460577
0.37900001 -0.050450243 0.12818991 12302254
0.38000003 -0.050583363 0.1254146 11906726
0.3774792 -0.04493716 0.12566425 11841448
0.38025007 -0.047445729 0.12165767 12564657
0.36336207 -0.034236215 0.12494185 2567722
0.37080002 -0.039289992 0.12133554 2631716
0.36345732 -0.025033774 0.12487891 2699053
0.36700001 -0.019313799 0.12569687 12699074
0.37616283 -0.01617142 0.12573689 14342611
0.38120958 -0.01268419 0.12430073 14342868
0.38615656 -0.0051492923 0.12533318 14211282
0.389 0.00023983646 0.12690511 14211283
0.39354154 0.0050956239 0.1249152 14211540
0.39805558 0.011001277 0.12717706 14211541
0.40287507 0.015032806 0.12459278 14211284
0.41075003 0.019124558 0.12113851 13882320
0.40695837 0.02141119 0.1276789 14277077
0.41359997 0.022502985 0.12454257 14211541
0.42510009 0.027131801 0.12525846 14408663
0.43036366 0.028441461 0.12188566 14343127
0.42773333 0.031247716 0.12801549 14277077
0.43351024 0.033883858 0.1256699 14014162
0.44442305 0.037202541 0.12342282 13948369
0.45100001 0.038859501 0.12069267 14211284
0.43900001 0.040222771 0.12947124 13882319
0.44900003 0.041139007 0.12690213 14079698
0.45570835 0.045122504 0.12529187 14342870
0.46131244 0.048072409 0.12180765 14408150
0.45716667 0.050449148 0.12786566 14342616
0.46250001 0.050676003 0.1223219 12632251
0.78727263 -0.17374612 0.13500674 13024956
0.79000002 -0.17913631 0.13497083 10393751
0.78226936 -0.16470887 0.13527021 14999774
0.77900004 -0.15840548 0.13217968 16185074
0.78082615 -0.15480256 0.13546969 16250352
0.78203326 -0.14529011 0.13544121 15986666
0.78502792 -0.13481669 0.13504219 15592163
0.78780007 -0.12515326 0.13459507 15658212
0.78800005 -0.11503989 0.13462916 15592164
0.78843993 -0.10495146 0.13470495 15394784
0.78884608 -0.097903721 0.13520068 15263198
0.37822223 -0.050543357 0.1328937 12433584
0.37535483 -0.045137167 0.13468355 11380898
0.36551017 -0.035004854 0.13330032 1778208
0.37071419 -0.034884602 0.13871564 1317141
0.36475646 -0.023866929 0.13406493 2040867
0.37071434 -0.027774824 0.13896348 922896
0.36519995 -0.018962689 0.13465321 12632769
0.37771422 -0.014626934 0.13514274 14079698
0.38061899 -0.011734805 0.13482413 14145490
0.38414505 -0.0052742003 0.13484827 14079698
0.38835564 0.001480673 0.13552433 13948369
0.39258751 0.0064422376 0.13455258 14145748
0.39715096 0.012130777 0.13545901 14277334
0.40172854 0.01719849 0.13479969 14474713
0.40700009 0.022868186 0.1355855 14474714
0.4126744 0.027322149 0.13504398 14343126
0.42166671 0.029586203 0.13110138 14277333
0.41674998 0.031479176 0.13796695 14277334
0.42479071 0.034347162 0.13556127 14277333
0.43212509 0.03785079 0.13383505 14211284
0.43591672 0.042183671 0.13569081 14211284
0.44405776 0.046545736 0.13444665 14211284
0.45170003 0.048154272 0.13141747 14277333
0.44533345 0.053119842 0.13820826 14145491
0.45362079 0.053172939 0.13396253 14342870
0.79319054 -0.18437426 0.14506339 10196885
0.7874167 -0.17448331 0.14535806 13091008
0.79000002 -0.17913631 0.14329316 10327448
0.78257692 -0.16449124 0.14490555 15131361
0.78112006 -0.1551796 0.14442688 16118510
0.78296673 -0.1454614 0.14476787 16184303
0.78673351 -0.13511071 0.14546429 15723752
0.78800005 -0.12518586 0.14477512 15526372
0.78794456 -0.11503205 0.14476463 15592165
0.78803343 -0.10489804 0.14478074 15658214
0.7884444 -0.097569764 0.14485519 15723750
0.36407691 -0.040724192 0.14715114 6645603
0.37348008 -0.043952152 0.14109623 10131087
0.36465222 -0.035511829 0.1471182 1186067
0.3714304 -0.034207035 0.14281334 1186067
0.36415666 -0.024211146 0.14668439 1513489
0.37142551 -0.027521133 0.14346907 988432
0.36240003 -0.019226443 0.14639373 4331798
0.3786 -0.013436775 0.14090563 13289928
0.38000003 -0.010907787 0.14124924 11908786
0.38317654 -0.0059815324 0.14075816 11185321
0.388625 0.0019469025 0.14099777 11053223
0.3926875 0.0068573323 0.14114815 12435130
0.39766669 0.012766852 0.14188361 13027010
0.40106669 0.018346936 0.1415053 14079956
0.40685719 0.024394518 0.14210083 14342874
0.41099998 0.028449085 0.14244762 14211288
0.41558334 0.032653626 0.1429386 13948116
0.42224252 0.037732314 0.14321469 13882322
0.42669231 0.040938735 0.14389014 13619406
0.43568894 0.046027575 0.14485791 13882577
0.44108334 0.049019631 0.14264603 14211541
0.43900001 0.050499838 0.14899768 13553611
0.44409871 0.055007029 0.1448326 14211285
0.78900003 -0.18075661 0.15881181 10262932
0.79250014 -0.18468362 0.15470816 10196883
0.78596437 -0.17435026 0.1551089 13223363
0.78220683 -0.16467886 0.15485534 14868962
0.78217643 -0.15474202 0.15490766 15921131
0.78432262 -0.14526922 0.15473261 16184046
0.78733343 -0.1352146 0.15479001 15854824
0.78800005 -0.12518588 0.15492107 15394273
0.78780007 -0.11501156 0.15488227 15328738
0.78720009 -0.10478809 0.15476352 15460580
0.78723085 -0.097703286 0.15434361 15592165
0.36059383 -0.041141149 0.15509267 1975582
0.35871437 -0.033135522 0.15789731 1514774
0.36090356 -0.035471424 0.15388758 1580823
0.35864297 -0.027139548 0.15815568 1449238
0.36077511 -0.024452258 0.15421662 1646102
0.36100003 -0.018786786 0.15348192 3876130
0.43900001 0.050842408 0.15071052 11514028
0.44150001 0.054928683 0.15087622 11842736
0.78900003 -0.18075661 0.164353 10131348
0.79322737 -0.18654181 0.16472608 10065809
0.78566664 -0.17468536 0.16509014 12763069
0.78239995 -0.16459303 0.16481018 14803424
0.78270024 -0.15457556 0.16487336 15592679
0.78538471 -0.14485186 0.16522725 15855337
0.78686118 -0.13513477 0.16482852 15855081
0.78793341 -0.12517519 0.16505286 15591652
0.787889 -0.11502413 0.16504319 15525859
0.7871725 -0.10491211 0.16486052 15525859
0.78666681 -0.098270632 0.16478638 15394273
0.3444483 -0.041067574 0.16741763 1844253
0.35607693 -0.040728942 0.16470443 528139
0.36000001 -0.040898021 0.16067122 988429
0.34467465 -0.03479455 0.1671515 1646615
0.35549632 -0.034993652 0.16340303 1449494
0.36000001 -0.038931567 0.16067123 1251857
0.34503073 -0.025575675 0.1669139 1646359
0.35574603 -0.027175652 0.162259 1712411
0.36050004 -0.02309091 0.16413006 1317910
0.34300002 -0.019963127 0.16941102 2039836
0.79299998 -0.18454799 0.17455359 10197140
0.78726089 -0.17451258 0.17480877 13354690
0.79000002 -0.17913631 0.17843184 10197141
0.7835716 -0.16464339 0.17481916 15197668
0.78362525 -0.1549875 0.17458576 15658730
0.78551996 -0.14501864 0.17466125 15855337
0.78653342 -0.135079 0.17488584 15789544
0.78704011 -0.12503356 0.17499872 15592165
0.78640002 -0.11480779 0.17485656 15460579
0.7854799 -0.10455866 0.17465149 15526115
0.78590012 -0.09817493 0.17474586 15394530
0.336842 -0.041227471 0.17652574 1646362
0.34052947 -0.041342933 0.1719868 1712412
0.33722684 -0.03550129 0.17548701 1646362
0.34059709 -0.035205945 0.17164388 1777946
0.33741972 -0.025460802 0.17475522 1712412
0.34098083 -0.025474174 0.17128092 1909019
0.33700001 -0.01935094 0.17644055 2041381
0.78789997 -0.17358972 0.18469007 14341843
0.79057139 -0.17873748 0.18583177 9999763
0.78466672 -0.16527481 0.18508427 15262949
0.78458828 -0.15473203 0.18482552 16184304
0.78519994 -0.1449604 0.1846994 16184302
0.78572202 -0.13493994 0.18482228 15920874
0.7863335 -0.12492054 0.18496524 15723496
0.78672242 -0.11485296 0.18505858 15657447
0.78685719 -0.1050048 0.18482938 15394531
0.78650004 -0.09917061 0.18224551 15262944
0.33305129 -0.041435707 0.18380395 1777693
0.33200002 -0.035573162 0.18627636 2040611
0.33100006 -0.026601825 0.18627031 2105634
0.78806257 -0.17327929 0.19517417 15000031
0.79054546 -0.17825121 0.19479062 9802388
0.78366673 -0.16465779 0.19483644 15197152
0.78317159 -0.15479816 0.19509117 16052716
0.78532004 -0.144982 0.19484112 16118509
0.78583324 -0.1349607 0.19496804 15986411
0.78403455 -0.1244305 0.19527708 15854825
0.78463644 -0.11479623 0.19516753 15723239
0.78618181 -0.10515361 0.19530278 15657445
0.78788233 -0.17323311 0.20523976 14539996
0.79079998 -0.17857796 0.20452876 9737108
0.78407156 -0.16514356 0.20495309 15000029
0.78256679 -0.15454912 0.20484257 15921131
0.78496778 -0.14509305 0.20500463 15921130
0.78583318 -0.13496192 0.20508401 15855337
0.78250003 -0.12445481 0.20491964 15789288
0.78337508 -0.11424604 0.20501779 15855079
0.7853334 -0.10561065 0.20411348 15789031
0.78773081 -0.17465283 0.21529704 13026500
0.79000002 -0.17913632 0.21264581 9605523
0.78324997 -0.16457753 0.21508436 14934236
0.78206432 -0.15518977 0.2152345 15526374
0.78288257 -0.14544737 0.215042 15723752
0.78473336 -0.13477018 0.21490218 15723495
0.7835201 -0.12447459 0.21457139 15657702
0.78463334 -0.11454669 0.21487588 15855078
0.78506666 -0.10634115 0.21499284 15657700
0.79240918 -0.18415608 0.22492981 9802899
0.78754169 -0.17443408 0.22488904 12828864
0.79000002 -0.17913631 0.22836575 9671315
0.78366673 -0.16506574 0.22520959 15394530
0.78217846 -0.15480013 0.22499268 15789802
0.78332156 -0.14487433 0.22551648 16052717
0.78438884 -0.13471101 0.22490525 15789545
0.78489995 -0.12469299 0.22505361 15394785
0.78499991 -0.11473323 0.22495125 15525857
0.7845 -0.10718398 0.22310367 15460063
0.79323816 -0.18456194 0.23509239 9802897
0.78745455 -0.17395304 0.23500276 13684684
0.79000002 -0.17913631 0.23483868 9473934
0.78346157 -0.16467762 0.23494008 14933723
0.78183323 -0.15532161 0.23515582 15329508
0.78149986 -0.14519091 0.23505412 15658472
0.78249991 -0.13549824 0.23502901 15592166
0.78413337 -0.12548739 0.23493107 15460579
0.78436011 -0.1154278 0.23499939 15328480
0.78383332 -0.10923278 0.23636959 15394273
0.78900003 0.17572658 0.23731199 11448488
0.79006249 0.17700367 0.2338167 11448487
0.79096013 0.18542312 0.23512393 11514025
0.78763634 -0.17432915 0.24469551 13553356
0.79000002 -0.17913631 0.24593508 9473936
0.78334498 -0.16491912 0.24493763 14999517
0.78259283 -0.1550643 0.24566625 15460581
0.78289276 -0.14512229 0.24536189 15526373
0.784091 -0.13440917 0.24543341 15460836
0.78496003 -0.12470198 0.24436705 15329764
0.78547996 -0.11559176 0.24452911 15263457
0.78400004 -0.10986753 0.24039651 15328993
0.78781819 0.17730616 0.24424115 11382440
0.79000002 0.1796481 0.24131158 11448233
0.78824997 0.18374927 0.24711825 11448233
0.79073334 0.18623362 0.24283028 11448233
0.78711098 -0.1744592 0.25499827 13290444
0.79000002 -0.17913631 0.25148329 9539987
0.78268969 -0.16452742 0.25540969 15065566
0.78354859 -0.15488915 0.25510952 15723496
0.78543997 -0.14500405 0.2555483 15855338
0.78553325 -0.13490914 0.25557804 15592165
0.78526664 -0.12475171 0.2545701 15394786
0.78518742 -0.1153768 0.25494337 15394786
0.77900004 0.17714667 0.25436443 11382440
0.78162509 0.1788875 0.25499171 11382440
0.78554541 0.18507548 0.25457683 11448233
0.78900003 0.19050308 0.25485912 11382440
0.79152381 0.19579147 0.25496823 11447976
0.7925927 -0.18522845 0.26495185 9671314
0.78682148 -0.1748033 0.26500818 12895429
0.78203827 -0.16465701 0.26521394 15131615
0.7822814 -0.1547793 0.26447609 15592165
0.78312123 -0.14507522 0.26512268 15986923
0.78411138 -0.13466297 0.26520854 15723751
0.78340024 -0.12445743 0.26496965 15328994
0.77887511 -0.11188451 0.26708671 15263200
0.78150004 -0.11600532 0.26399395 15328995
0.77800006 0.17509797 0.26041248 11382440
0.78250003 0.1788591 0.26100224 11382440
0.7879231 0.18556301 0.26359275 11447720
0.79066664 0.18843806 0.26773775 11644585
0.78900003 0.19050308 0.2604003 11513769
0.78653854 -0.17460442 0.27488282 13092807
0.78073353 -0.16424295 0.27503374 14934239
0.78093129 -0.15513948 0.27488506 15526374
0.7824139 -0.14520404 0.27458644 15855337
0.78251994 -0.13530637 0.27474812 15855337
0.78250009 -0.12522861 0.27474049 15460579
0.77887499 -0.11165656 0.27483693 15263200
0.78065002 -0.11634399 0.27528018 15263200
0.77900004 -0.10916685 0.27716008 15197407
0.78300005 0.13956293 0.27858326 11382437
0.78488892 0.14623076 0.27782595 11119266
0.78825003 0.15434057 0.27768317 11316390
0.79000002 0.15930465 0.27829966 11184804
0.79154551 0.16534732 0.2782532 11316390
0.78900003 -0.18075661 0.28810623 9408913
0.78623998 -0.1753436 0.28466564 12632257
0.77900004 -0.16448432 0.28536654 14999776
0.78050011 -0.16518438 0.28477386 14933983
0.78178132 -0.15427847 0.28484049 15263459
0.78348404 -0.14482211 0.28532138 15592679
0.78186667 -0.13519564 0.28458449 15789544
0.77900004 -0.12922704 0.28992566 15526372
0.78105563 -0.1249953 0.28428856 15526372
0.77900004 -0.11159838 0.28567049 15263714
0.78068423 -0.11584892 0.28554973 15263457
0.77875006 -0.10822058 0.28800896 15000800
0.78000003 -0.10930698 0.28573287 15132384
0.77400005 0.087224215 0.28987673 14539996
0.79185712 0.12710187 0.2886208 11250853
0.78725004 0.13479155 0.28286183 11250851
0.79028571 0.1345177 0.28804731 11250596
0.78799999 0.14568059 0.2841562 11185315
0.79000002 0.14635883 0.28847137 10724510
0.78864706 0.15479748 0.2829822 11185061
0.79000002 0.15601683 0.28764942 11119268
0.79173076 0.16536036 0.28518331 11250854
0.78837508 -0.18130609 0.29595187 9276814
0.79271424 -0.18656036 0.29502624 9342606
0.77900004 -0.17117105 0.29904392 15526891
0.78387505 -0.17507516 0.29494613 13487565
0.77886373 -0.16459411 0.29600745 15131363
0.78028584 -0.16532193 0.2924915 15066081
0.77773696 -0.15402931 0.2971189 15855340
0.78064293 -0.1553454 0.29223332 15724009
0.77731836 -0.14524224 0.29707149 15855339
0.78118753 -0.14513455 0.29233861 15592679
0.77758068 -0.13498004 0.29644006 15658217
0.78037506 -0.13562137 0.29112217 15724264
0.77833349 -0.1253957 0.29559726 15658216
0.78010011 -0.12283476 0.29161322 15592678
0.77830446 -0.11445615 0.29568523 15395301
0.7801429 -0.11637179 0.29139444 15527142
0.77749997 -0.10683373 0.29603988 15197666
0.77400005 0.079070449 0.29893649 13948116
0.77400005 0.08601626 0.29565766 13684688
0.77542305 0.094719812 0.29529637 14605789
0.7846843 0.10371127 0.29561597 13750224
0.79000002 0.10937075 0.2967937 11841971
0.79186684 0.15504532 0.29471761 11053476
0.78760016 -0.18384895 0.30510968 9276554
0.79049999 -0.18819432 0.30314836 9276553
0.77881831 -0.17212583 0.30543792 14341846
0.78200001 -0.17698167 0.30442786 10723489
0.77722597 -0.16514783 0.30458236 15065827
0.77546883 -0.1550796 0.3046073 15658474
0.77471983 -0.14483935 0.30465335 15855596
0.77513349 -0.13493578 0.30481637 15789802
0.77586681 -0.12507424 0.30419636 15592937
0.7762503 -0.11514124 0.30434743 15592680
0.77751625 -0.10502207 0.3051677 15329251
0.77883339 -0.097291701 0.30931166 15197922
0.78100002 -0.097107038 0.30712384 15066336
0.77360004 0.079935089 0.3053022 12895429
0.77340746 0.085146062 0.30454201 14013654
0.77605003 0.093909182 0.30472487 14803170
0.78150004 0.099046446 0.30640984 14868963
0.78655005 0.10447866 0.3050721 11842739
0.79000002 0.10937075 0.305116 10921890
0.78786367 -0.18435532 0.31510642 9671566
0.79000002 -0.18838333 0.31898654 9934737
0.78383338 -0.17539518 0.31456321 9868946
0.77814293 -0.16343693 0.31250817 11908277
0.78209096 -0.16585743 0.31637755 10263708
0.77631581 -0.15451212 0.31284171 15526889
0.78100008 -0.1569854 0.31809506 14211031
0.77638888 -0.14525253 0.31319091 15461095
0.78033334 -0.14345217 0.3178235 13158343
0.77676481 -0.13548641 0.31262842 15790317
0.78271431 -0.13402927 0.31853205 13224136
0.77800006 -0.12492075 0.31240395 15724523
0.78290915 -0.12487806 0.31787446 14079701
0.77760011 -0.11418863 0.31294978 15527144
0.78116673 -0.11648145 0.31755427 13158598
0.77792007 -0.10471673 0.31494892 13684684
0.78100002 -0.10761879 0.31992337 9803157
0.7782222 -0.096709505 0.31423137 13816527
0.77700001 0.077557951 0.3146469 8882051
0.78000003 0.077857405 0.31768772 9671824
0.77649993 0.085039012 0.31288782 11776947
0.78083342 0.085252166 0.3177228 9934741
0.77766675 0.091885589 0.31188369 12698053
0.78420001 0.09596701 0.31621665 11513777
0.78824997 0.10343999 0.31428257 10790050
0.79075003 0.1077789 0.315896 10790305
0.79283875 -0.19469258 0.32512832 10658716
0.78900003 -0.18214191 0.32181513 10000787
0.79066676 -0.18528116 0.32635218 10395800
0.78840005 -0.17508265 0.32203251 10263958
0.79083329 -0.17546882 0.32703805 10527386
0.7876876 -0.16501325 0.32381701 10395291
0.79057139 -0.16525422 0.32886797 10527131
0.7862857 -0.1546274 0.3247242 10263706
0.78642112 -0.14518556 0.3246685 10198168
0.79000002 -0.14214824 0.32915828 10527131
0.78742844 -0.13549472 0.32387522 9934997
0.7911666 -0.13495 0.32871887 10395545
0.78800011 -0.12518752 0.32371408 9868948
0.79114288 -0.12436382 0.32831177 10263959
0.78642106 -0.11485953 0.32466733 10263961
0.79000002 -0.11718126 0.32915828 10263959
0.78399998 -0.10501074 0.32450324 10198167
0.77900004 -0.09822493 0.32092774 10132373
0.78300005 -0.097629957 0.32477903 10329752
0.78575003 0.078892246 0.32325208 9934994
0.79000002 0.077930875 0.32915828 9869201
0.78666681 0.084969081 0.32408994 10263959
0.79000002 0.08532849 0.32915828 10461338
0.78783339 0.094932348 0.3234413 10592925
0.79042858 0.095420413 0.32880846 10724510
0.78900003 0.10184405 0.32135338 10592924
0.79184008 0.10532832 0.32525384 10856096
0.79170972 -0.19536884 0.33525178 10724510
0.79251993 -0.18519823 0.33570108 10592923
0.79236376 -0.1550516 0.33495256 10527130
0.78900003 -0.11056822 0.3305887 10527131
0.78850001 -0.10434595 0.33068705 10395288
0.79150009 -0.10562502 0.33547664 10461338
0.78850007 -0.098499849 0.33130273 10329495
0.79166669 -0.098895431 0.33726826 10527131
0.79066664 0.078459568 0.33499029 10198166
0.79155993 0.085498102 0.33536929 10527131
0.79234785 0.094615459 0.33538046 10592924
0.79158068 0.15483949 0.33519685 10791073
0.79187995 0.16524696 0.33550411 10856866
0.79099995 0.078646757 0.34454322 10329753
0.79150009 0.085293353 0.34520164 10461339
0.78900003 0.077832229 0.35829464 10198166
0.79050004 0.078906067 0.35527346 10132375
0.78900003 0.082449883 0.35829464 10263959
0.79084009 0.085864469 0.35468495 10461338
0.79170012 0.094779879 0.35488352 10658716
0.79113322 0.16508961 0.35462898 10922146
0.79253858 -0.098790139 0.36418122 10790303
0.78729159 0.085423984 0.36381164 10330009
0.78900003 0.091025531 0.36489132 10527131
0.79045004 0.095555961 0.36469012 10527387
0.78900003 0.15910301 0.3629123 10725282
0.79078585 0.15450166 0.36472556 10725024
0.78900003 0.16302802 0.36221963 10791075
0.79029411 0.16567631 0.36519539 10790818
0.78850007 0.087320603 0.37252727 10395803
0.79025 0.088593125 0.37736276 10330524
0.79187101 0.12535408 0.37514555 10659232
0.79150009 0.088887714 0.38537154 10264731
0.79127592 0.13503283 0.38526216 10659489
0.7917999 0.14484002 0.38458917 10593696
0.79148 0.14478026 0.39462593 10593694
0.79200006 0.089252681 0.41156906 10198937
0.79070592 0.096620835 0.41459835 10330523
0.79058337 0.097267479 0.42517939 10264731
0.79088914 0.10486594 0.42487934 10396317
0.79137939 0.11499367 0.42498142 10396317
0.79055005 0.10629972 0.4341352 10396060
0.79111546 0.11522419 0.43497366 10461597
0.79132366 0.12502685 0.43459198 10461853
0.78900009 0.13710617 0.43704671 10527390
0.79061908 0.1337804 0.43315002 10461854
0.78899974 0.14525004 0.43613514 10527390
0.79000002 0.14389296 0.43118373 10527903
0.78900003 0.15250635 0.43719062 10527389
0.7912001 0.15621573 0.43389952 10593183
0.79014289 0.10727692 0.44284484 10461339
0.79112005 0.1150828 0.44445026 10461339
0.79080021 0.12521549 0.44427052 10527132
0.78899997 0.1362786 0.44431499 10592925
0.79000002 0.1324883 0.44335902 10527132
0.78879148 0.14521144 0.4440656 10527132
0.78881818 0.15335873 0.44433239 10592925
0.79049999 0.15801843 0.44363916 10592925
