# .PCD v0.7 - Point Cloud Data file format
VERSION 0.7
FIELDS x y z rgb
SIZE 4 4 4 4
TYPE F F F U
COUNT 1 1 1 1
WIDTH 998
HEIGHT 1
VIEWPOINT 0 0 0 1 0 0 0
POINTS 998
DATA ascii
0.78900003 -0.16320953 0.1495765 15395040
0.79257149 -0.16500616 0.14494446 12960700
0.78900003 -0.15859187 0.1495765 15855591
0.79163647 -0.17504582 0.15513022 10262935
0.78848273 -0.16479048 0.15514265 14670037
0.79000002 -0.16988929 0.15161547 13287616
0.78827995 -0.15475646 0.15497445 15262685
0.78799993 -0.14539427 0.15550579 15131356
0.79000002 -0.14399764 0.15161547 15658210
0.78799993 -0.13513051 0.15596184 15131612
0.79000002 -0.1347506 0.15161547 15658210
0.78823537 -0.12554878 0.15637687 15000540
0.79069233 -0.12390374 0.15160465 14277331
0.78864288 -0.11566037 0.15742077 15065821
0.79120004 -0.11467235 0.15267685 14079952
0.78900003 -0.10502703 0.15881181 15000028
0.79180002 -0.10539965 0.15381022 14013388
0.78900003 -0.095791712 0.15881181 15000028
0.79187113 -0.095063932 0.15400308 13947594
0.78900003 -0.087479934 0.15881181 15000028
0.79196447 -0.08482945 0.15443587 13684938
0.78900003 -0.075474016 0.15881181 14736856
0.7920295 -0.07478223 0.15450667 13422022
0.79234999 -0.17503616 0.16505165 9999763
0.78837496 -0.16435052 0.16514531 14867928
0.79000002 -0.16988929 0.16548601 13881036
0.78716677 -0.15453844 0.16489284 14999256
0.78626657 -0.14515834 0.16470428 14802135
0.78641677 -0.13505903 0.1647366 14670550
0.78680021 -0.12499491 0.16481629 14670550
0.78675008 -0.11485711 0.16480203 14736342
0.78696656 -0.10475668 0.16484477 14670550
0.78719997 -0.094782054 0.16476281 14604757
0.78812903 -0.084793366 0.16524062 14538964
0.78863317 -0.075439103 0.16519861 14341585
0.78854823 -0.065664768 0.16586521 14341584
0.79000002 -0.062993728 0.16123238 14670550
0.78841174 -0.055441156 0.16748659 14275534
0.79053843 -0.054836545 0.16253701 14275791
0.7884286 -0.045096822 0.16739704 14802390
0.79100001 -0.044927608 0.16254625 14736854
0.78864694 -0.035148308 0.16753685 13815752
0.79053849 -0.034479052 0.16253719 14014158
0.78900003 -0.026394913 0.16936646 13685192
0.7922501 -0.024314625 0.1640963 12171954
0.78900003 -0.17152131 0.17820597 13881034
0.79154545 -0.17511001 0.17473647 10065298
0.78826672 -0.16490451 0.17527209 14868184
0.78784007 -0.15467046 0.17517813 14999769
0.78711998 -0.14531563 0.17501795 14868183
0.78696686 -0.13515456 0.17498311 14736342
0.78612 -0.12488859 0.17479406 14670806
0.784069 -0.11525968 0.17509602 14670549
0.78330338 -0.10543488 0.17466883 14604756
0.78523076 -0.09512008 0.17474057 14604757
0.78737938 -0.085295446 0.17494842 14538964
0.78808004 -0.075386398 0.17523016 14341841
0.78720003 -0.065167412 0.17503275 13947083
0.7857241 -0.054801796 0.17546332 14539218
0.78625816 -0.044987228 0.17500146 14868183
0.78780007 -0.034784801 0.17516819 14078410
0.78833336 -0.024658618 0.17528588 13486531
0.79000002 -0.020087549 0.17010953 13158594
0.7884782 -0.01475205 0.17563906 13684425
0.79028571 -0.013750991 0.17069946 14277075
0.78862488 -0.005513696 0.17696655 13882317
0.79085714 -0.0050326884 0.17201173 12500921
0.78900003 0.0031580999 0.17860177 14211539
0.79179323 0.0053077484 0.17413443 11645355
0.79241931 0.0353215 0.1751145 10263958
0.7919333 0.044751242 0.17515616 10329751
0.78900003 -0.17152131 0.18467069 14406866
0.79152387 -0.17683782 0.18499622 10130835
0.78808826 -0.16465025 0.18510799 15065307
0.78753352 -0.1546101 0.18524732 15065563
0.78750008 -0.14538519 0.18523934 14868440
0.78647232 -0.13507132 0.18499817 14736597
0.78423339 -0.12458925 0.18447042 14736597
0.78416687 -0.11478368 0.18531623 14736598
0.78665388 -0.10478351 0.18476272 14736854
0.78790003 -0.094735414 0.18441536 14670804
0.78807151 -0.084412239 0.18504667 14539218
0.78626674 -0.075215273 0.18494824 14144461
0.78295135 -0.064704329 0.18494573 13815241
0.78257149 -0.055033244 0.18519081 14604756
0.78474277 -0.044619922 0.18472263 14868183
0.7871334 -0.034753863 0.1851542 14473425
0.78800005 -0.024648501 0.18535906 13420482
0.78800005 -0.014502529 0.18535903 13223103
0.78796673 -0.0052788509 0.18535092 13486787
0.78772223 0.0048653381 0.1852911 13816266
0.78787488 0.014626715 0.18632585 13882315
0.79033333 0.016599821 0.18189888 13816524
0.78823799 0.02477158 0.18765429 14079695
0.79115796 0.02569833 0.18224902 11119011
0.78872228 0.035645168 0.18768215 12435129
0.79008335 0.034935568 0.18261212 10395545
0.78879988 0.044573788 0.18646955 10658717
0.79000002 0.044641595 0.18120594 10592924
0.78900003 0.050741967 0.1862099 10658460
0.79070848 0.055867206 0.18468459 10527131
0.78900003 -0.17152131 0.19482954 14210513
0.79140913 -0.17651126 0.19500278 10789021
0.78799999 -0.16577201 0.1949774 14934235
0.78551716 -0.15497619 0.19501483 15065821
0.78547996 -0.1450121 0.19487844 14934235
0.78513324 -0.13484105 0.19479315 14802393
0.78412026 -0.124569 0.19454402 14867929
0.7865333 -0.11482155 0.19514233 14867929
0.78885168 -0.10480147 0.19530609 14867929
0.78899974 -0.094868183 0.19482954 14736343
0.78807402 -0.084817499 0.19511193 14341585
0.77875006 -0.071303301 0.19731149 13552069
0.78311998 -0.075282551 0.19451149 13815241
0.77732152 -0.064999066 0.19558144 13749704
0.78050005 -0.069179431 0.19090286 13815241
0.77778572 -0.056061592 0.19621865 14605270
0.78100008 -0.052970584 0.19173598 14802393
0.77900004 -0.048378412 0.19813512 14868442
0.7827577 -0.044276655 0.19475752 14802392
0.78623998 -0.034714803 0.19506747 14538963
0.78786671 -0.024643712 0.19547158 13683912
0.78800005 -0.014502528 0.19550499 13289153
0.78736001 -0.0052760351 0.19534545 13223617
0.78613317 0.0048547443 0.19504075 13420996
0.78531998 0.01496206 0.19483885 13289410
0.78589988 0.025093468 0.19498178 13421253
0.7871201 0.035265729 0.19528408 13948110
0.78756011 0.044504471 0.19539422 14013903
0.7886399 0.053279892 0.19551554 12960959
0.79036367 0.058118954 0.19339943 11052962
0.78872734 -0.17280512 0.20575604 14078927
0.79143757 -0.17772698 0.20434625 10460313
0.78686678 -0.16553359 0.20535308 15000028
0.78536099 -0.15510373 0.20496228 15065821
0.78563327 -0.14504032 0.20503527 14868442
0.78583324 -0.13496 0.2050882 14868442
0.78642863 -0.12513244 0.20491436 14868186
0.78783333 -0.1150149 0.20468587 14868186
0.78847998 -0.10495687 0.20485236 14933722
0.78873318 -0.094836816 0.2049184 14605014
0.78590006 -0.084381662 0.20510006 13947083
0.77756536 -0.073432796 0.20526098 13618374
0.78175002 -0.077983595 0.20355864 13815497
0.77542299 -0.065240331 0.20488094 13815754
0.77556252 -0.054894675 0.20478663 14802649
0.7782858 -0.047638774 0.20493722 14736856
0.78173679 -0.042606141 0.20512377 14605270
0.78536665 -0.034675702 0.20496286 14539477
0.78686136 -0.024612326 0.20535296 13815754
0.78736681 -0.014491111 0.20548412 13420740
0.78686678 -0.0052719512 0.20535545 13354946
0.78602761 0.0048547103 0.20513637 13355203
0.78553319 0.014965018 0.20500784 13092030
0.78452778 0.025046416 0.204743 12763066
0.78383356 0.035118375 0.20456034 13092032
0.78455573 0.045253441 0.20474797 13618888
0.78593338 0.055452745 0.20510599 14079439
0.787 0.064384684 0.2060224 14342612
0.79039997 0.06760899 0.2016505 13355973
0.78799987 0.073828347 0.20787355 14606041
0.79220003 0.075274184 0.20312619 12303285
0.78900003 0.085220478 0.20868251 14211282
0.7923668 0.094857596 0.20492904 11250852
0.7914722 0.10494234 0.20469953 11119011
0.79259992 0.11529818 0.20499079 11053218
0.78780758 -0.17438585 0.21510434 13026239
0.79000002 -0.17913631 0.21357051 9868176
0.78417259 -0.16483989 0.21550468 14934235
0.78429425 -0.15510587 0.21542718 15065308
0.78636003 -0.14517361 0.21534722 14933979
0.78726679 -0.13520497 0.21559668 14868185
0.78796303 -0.12497484 0.21537696 14868185
0.78800005 -0.11503989 0.21487457 14868442
0.78813344 -0.10491214 0.21491113 14802649
0.78763652 -0.095124051 0.21452244 14407891
0.77900004 -0.082723886 0.2188032 13618375
0.78334492 -0.085308462 0.21508814 13749704
0.77599996 -0.074729882 0.21531548 13552582
0.77406675 -0.064985864 0.21469741 13749705
0.77452779 -0.055048451 0.21482557 14736856
0.77735299 -0.047061279 0.21576917 14671063
0.78183323 -0.041943602 0.21461523 14671063
0.78534615 -0.034815863 0.2152814 14605270
0.78696567 -0.024774769 0.21564083 13947340
0.78665388 -0.014690881 0.21528655 13552325
0.78660005 -0.0052686972 0.21541275 13420995
0.78690016 0.0048603769 0.21549612 13355202
0.78628004 0.014978664 0.21532652 13092286
0.78406674 0.025029827 0.21472053 12894651
0.7830373 0.03528646 0.21484558 12960445
0.78308612 0.045141004 0.21523707 13091774
0.7820667 0.055177204 0.21508504 13289410
0.77899998 0.065122277 0.21828213 13223617
0.78179324 0.065194376 0.21402997 13684169
0.77900004 0.072286628 0.2188032 13420996
0.78300005 0.075775333 0.21460216 14210770
0.78471434 0.084760062 0.21488629 14737113
0.78808814 0.095000826 0.2148964 13618887
0.78900003 0.10184405 0.2142237 10987425
0.79017401 0.10593693 0.21438232 10921632
0.79056013 0.1150006 0.21464838 10987425
0.79160005 0.12441914 0.21493094 10987425
0.79273921 -0.18436171 0.22475782 9934225
0.78741664 -0.17471407 0.22470099 13092032
0.79000002 -0.17913631 0.22929044 9999762
0.78342313 -0.16495112 0.22533743 14999770
0.78284401 -0.15437424 0.22503676 14933978
0.78543317 -0.1450018 0.22520623 14868441
0.78735501 -0.13536777 0.22501384 14868442
0.78800005 -0.12518588 0.22502053 14868442
0.78800005 -0.1150399 0.22502054 14868185
0.78672421 -0.10459961 0.22541384 14605013
0.77788895 -0.092825599 0.22800033 13947081
0.78343993 -0.095559232 0.22385904 14210254
0.77625924 -0.084823497 0.22482708 13618117
0.78099996 -0.088725984 0.22180195 13881290
0.77405888 -0.074847065 0.22498071 13486532
0.76900005 -0.060959164 0.22859614 14342098
0.77165526 -0.064908572 0.2247099 13881547
0.76900005 -0.058258802 0.22859614 15131614
0.77214724 -0.054665897 0.22474298 14802649
0.77548283 -0.045067929 0.22469722 14736857
0.77825004 -0.039146073 0.22656167 14736856
0.78371423 -0.034403238 0.2245156 14671063
0.78690338 -0.02476221 0.22488515 14144719
0.78676003 -0.014480647 0.22466689 13749961
0.78672004 -0.0052695004 0.22465555 13684168
0.78693354 0.0048605432 0.22471616 13486788
0.7863462 0.014980794 0.2247611 13158079
0.78572714 0.025335964 0.22487482 12894907
0.78528565 0.034986712 0.22549513 13092286
0.78380656 0.045235414 0.22548057 13223871
0.78120005 0.055114716 0.22490744 13223872
0.77884364 0.065434128 0.224685 13289409
0.78000003 0.061423458 0.22821404 13355457
0.7785517 0.074854054 0.22521274 13618375
0.78000003 0.078770399 0.22091007 13486789
0.7790001 0.081819355 0.22692674 13815754
0.78147066 0.085593857 0.2242326 14210512
0.78715384 0.093885414 0.22506133 14079439
0.79000002 0.09827432 0.22929044 10461081
0.79206669 0.10446908 0.22451496 10790302
0.7882778 -0.17351845 0.23432724 14342099
0.79037499 -0.1785278 0.23564453 12433847
0.78661531 -0.16526741 0.23581888 14999770
0.78520697 -0.15491362 0.23512807 14934233
0.78543997 -0.14500433 0.23532201 14868696
0.78660017 -0.13495825 0.23487923 14868441
0.78740007 -0.12509046 0.23498577 14868185
0.78702784 -0.11490032 0.23487371 14736855
0.77900004 -0.10096041 0.23795155 14078925
0.78333336 -0.10461745 0.23475511 14342097
0.77633327 -0.094317771 0.235257 13881545
0.78100002 -0.09847711 0.23033494 14341585
0.77410001 -0.084922992 0.23464082 13552580
0.76900005 -0.071760617 0.23849747 13552324
0.77228135 -0.075234056 0.23442715 13486530
0.76757151 -0.064376928 0.23516418 14012619
0.77025002 -0.067820288 0.23212281 13552323
0.76786959 -0.056491442 0.23474619 14868442
0.77058333 -0.051462889 0.23462807 15000028
0.77358627 -0.044896357 0.23464124 14736856
0.77684218 -0.037649076 0.23542427 14736856
0.78223538 -0.032706365 0.23457573 14671063
0.78677154 -0.024475796 0.2349298 14276305
0.7870335 -0.014484898 0.23487793 13881547
0.78673333 -0.0052709016 0.23478733 13947340
0.78661132 0.0048591904 0.23475072 13618375
0.78686225 0.014991584 0.23498641 13355202
0.78718197 0.024881639 0.23534229 13026492
0.78656006 0.035239697 0.23565823 13026492
0.78426671 0.045231242 0.23497081 13223871
0.78120691 0.055240981 0.23481114 13355201
0.77900016 0.067446932 0.23409384 13420483
0.77999991 0.063009195 0.23571025 13420738
0.77900016 0.074240543 0.2335227 13617605
0.78000009 0.076114416 0.23767601 13618119
0.77900004 0.082316719 0.2324806 13815754
0.78131598 0.084970824 0.23581861 14078926
0.78711998 0.094088018 0.23508711 12434358
0.79000002 0.09827432 0.23113987 10461083
0.78868413 -0.17378567 0.24523361 14605527
0.79030001 -0.17846456 0.24436262 13947341
0.78796673 -0.16484059 0.24530198 14868440
0.78673077 -0.15431248 0.24512865 14868440
0.78480011 -0.14488897 0.24523202 14802903
0.78414708 -0.13493884 0.24481089 14802903
0.78450012 -0.12497461 0.24536632 14802648
0.77828568 -0.11219101 0.24801378 14342098
0.78288472 -0.11563435 0.24406743 14605270
0.77713048 -0.10487148 0.24580099 14078926
0.78155559 -0.10749349 0.24167845 14276305
0.77518749 -0.095251754 0.24461117 13749961
0.77327597 -0.084708132 0.24509762 13486789
0.76770008 -0.072358936 0.24528201 13552582
0.77100009 -0.077173397 0.24438803 13486789
0.76558346 -0.065171696 0.24460475 13947340
0.76719058 -0.056708131 0.24490416 14605783
0.77115381 -0.05154667 0.24520551 14868955
0.77344447 -0.045214899 0.24480532 14737113
0.77666664 -0.036487091 0.24488993 14736856
0.78125006 -0.031523332 0.2448118 14671063
0.7857188 -0.024801986 0.24494599 14407891
0.78656006 -0.014477152 0.24486351 13947340
0.78600001 -0.0052655195 0.24468987 13815754
0.7863332 0.0048580081 0.24479386 13815754
0.78756011 0.015006048 0.2451755 13420996
0.78800005 0.025158999 0.24531248 13157824
0.78692001 0.035254795 0.24497645 13223617
0.78445721 0.045374285 0.24499708 13355203
0.78223073 0.055047434 0.24513675 13355203
0.78063339 0.065126516 0.24484746 13355203
0.77900004 0.071374804 0.24068701 13355203
0.78070837 0.075340942 0.24502242 13421509
0.78368002 0.084650733 0.24507006 14013905
0.78823531 0.093063191 0.24451816 10921634
0.79044443 0.097301908 0.2460745 10658717
0.78900003 -0.18181208 0.25670618 11052964
0.79104769 -0.18607752 0.25410733 9802642
0.78843993 -0.17509249 0.25467801 14605526
0.78783339 -0.16481349 0.25448221 14868697
0.78610349 -0.15445806 0.25500196 14868441
0.78300017 -0.14455669 0.25475445 14802648
0.78196412 -0.13501425 0.25500554 14802648
0.78254569 -0.12498659 0.25510523 14671062
0.77823079 -0.11242363 0.2546044 14342353
0.78114283 -0.11730538 0.25558668 14473683
0.77568972 -0.10494739 0.25494364 13947339
0.77427781 -0.094912142 0.2546345 13618631
0.77250022 -0.08468426 0.25514609 13486789
0.76781827 -0.07402169 0.25561282 13486789
0.77044445 -0.078308761 0.25387514 13420996
0.76377785 -0.065019988 0.25475538 14013133
0.76509094 -0.05488975 0.25510889 14737369
0.77060002 -0.050622582 0.2528832 14803419
0.76750004 -0.04915975 0.25959128 14934235
0.77296668 -0.044864073 0.25492367 14671577
0.77625918 -0.036493089 0.25538567 14671062
0.78100008 -0.031437382 0.2541028 14736856
0.78540003 -0.024482658 0.25505966 14539220
0.78693354 -0.014483135 0.25511304 14144719
0.78673339 -0.0052706674 0.25504905 13816011
0.78683352 0.0048601083 0.25508091 13816011
0.78751862 0.014800445 0.2547898 13487046
0.78779429 0.025368795 0.2551195 13223874
0.7865001 0.035236355 0.25497147 13289667
0.78431261 0.045234445 0.25517902 13421253
0.78216654 0.055184651 0.25539795 13355460
0.78125 0.065177545 0.25510007 13223874
0.78103334 0.075219795 0.2550281 13355973
0.78616005 0.084919244 0.2550455 12961217
0.78900003 0.091069512 0.2542434 10592668
0.79150003 0.095962234 0.25557393 10592667
0.78899997 -0.18189326 0.26523107 12631738
0.79031253 -0.18660843 0.26499605 9605261
0.78853327 -0.17511298 0.26486075 14671063
0.787889 -0.16482425 0.26464406 14933979
0.78736007 -0.15457717 0.26538885 14802649
0.78507996 -0.14494041 0.26462147 14802649
0.78296322 -0.1355883 0.26533183 14802649
0.77899998 -0.12245347 0.26856288 14407891
0.78186214 -0.12585349 0.2643536 14539477
0.77808714 -0.11402933 0.26622114 14078926
0.78050011 -0.11691454 0.2628476 14210513
0.77553576 -0.10498791 0.26522645 13750216
0.77330315 -0.095205016 0.26492742 13552837
0.76596302 -0.083965845 0.26640463 13552837
0.77115381 -0.086820759 0.2627016 13552837
0.76273537 -0.075064994 0.26469401 13618373
0.75900012 -0.06295862 0.2677598 14210766
0.76075864 -0.065157987 0.26348287 14013389
0.75900006 -0.055230811 0.26747775 14540245
0.76076204 -0.054792687 0.26286706 14671319
0.76421219 -0.045934856 0.2654396 14802905
0.771375 -0.042411096 0.26225635 14671063
0.77445942 -0.035022333 0.26510191 14605270
0.77840006 -0.028174376 0.26819915 14671063
0.78330773 -0.02492068 0.26465484 14736599
0.78619355 -0.015536487 0.26517192 14407892
0.78700006 -0.0052722199 0.26526737 13947340
0.78696686 0.0048604761 0.26525593 13684168
0.78707159 0.015193149 0.26469767 13552582
0.78696889 0.024895662 0.26491049 13289410
0.78563994 0.035197645 0.26480874 13420996
0.78320026 0.045040905 0.26503384 13421252
0.78199983 0.055173211 0.26541302 13420995
0.77900004 0.068639323 0.26804185 13421766
0.78051859 0.064744912 0.26457086 13158594
0.77900004 0.071374804 0.26713002 13421766
0.78143495 0.075578734 0.26498362 13290180
0.78719234 0.085101143 0.26476508 11447976
0.79000002 0.0890273 0.26997736 10658714
0.78900003 0.090761669 0.26224735 10658460
0.79163641 0.095280163 0.26523006 10592667
0.78900003 -0.18157753 0.27517679 14144463
0.790353 -0.18650928 0.27532184 9868176
0.78733337 -0.17464302 0.27500328 14736600
0.78577411 -0.16512367 0.27482063 14999515
0.78551441 -0.15500246 0.27500916 14868442
0.78380638 -0.14458723 0.27448496 14802649
0.78207684 -0.13537139 0.27480298 14605270
0.77880013 -0.1229953 0.27453673 14276561
0.78060001 -0.12754411 0.27517125 14473684
0.77632362 -0.11494239 0.27503055 13881803
0.77403581 -0.10504257 0.27480975 13684167
0.76686668 -0.092627592 0.27559075 13486788
0.77147067 -0.097170755 0.27447924 13486788
0.75900006 -0.081488453 0.27892849 13618375
0.76151609 -0.085615307 0.27484572 13684168
0.75900006 -0.074381121 0.27544063 13749961
0.76011121 -0.078049138 0.27202109 13683911
0.75833344 -0.064552762 0.27424419 14013133
0.75819993 -0.05477684 0.27419582 14605270
0.75900006 -0.049505461 0.27448639 14934235
0.76189655 -0.044398841 0.27500898 14736857
0.76830006 -0.038600329 0.27497053 14473685
0.77283341 -0.033593174 0.27473828 14605270
0.77700007 -0.026575094 0.27544606 14736856
0.78110009 -0.022603516 0.27388257 14539477
0.78457147 -0.015222399 0.27468005 14539477
0.7868399 -0.0052700238 0.27442366 14276305
0.78683352 0.0048588733 0.27442116 13815754
0.78599989 0.014974921 0.27505049 13618375
0.78599977 0.025095142 0.27505049 13355203
0.78578568 0.035270724 0.27464768 13420996
0.7850666 0.045281049 0.27564538 13486788
0.78352022 0.055278484 0.27510196 13420996
0.77900004 0.068639323 0.27260095 13158594
0.78104001 0.064392477 0.27452305 13158081
0.78299999 0.075260438 0.27476621 13224131
0.7881875 0.083519757 0.27466354 10592410
0.79044443 0.088255428 0.27609205 10461081
0.78891677 -0.18166105 0.28530565 14210003
0.79046667 -0.18664521 0.28494066 9933970
0.78771436 -0.17512821 0.2852008 14802393
0.78674078 -0.16509587 0.2856468 14868442
0.78557146 -0.15481773 0.28482017 14802649
0.7831201 -0.14457856 0.28449458 14802649
0.78322226 -0.13501875 0.2847091 14539477
0.77900004 -0.12041271 0.28536654 13947340
0.78240907 -0.12596446 0.28495193 14144719
0.77575868 -0.11429045 0.28508475 13684168
0.76900005 -0.10056451 0.2898044 13618629
0.77253342 -0.10464688 0.28480378 13487043
0.76537943 -0.094600119 0.2848531 13552836
0.77000004 -0.098892696 0.28116831 13487043
0.75900006 -0.081784591 0.28633192 13618629
0.76049995 -0.085858755 0.28498235 13815752
0.75888908 -0.075258903 0.28510511 13815754
0.75777775 -0.064555876 0.28473526 13947340
0.75674999 -0.055065192 0.28528127 14342098
0.75853848 -0.04797224 0.28640711 14802649
0.76154166 -0.043502465 0.28461358 14736856
0.76693332 -0.038051564 0.28542969 14407892
0.77236372 -0.032950453 0.28474241 14539477
0.77673918 -0.02607101 0.28520873 14802906
0.78140002 -0.021698145 0.28533247 14539477
0.78548402 -0.015517612 0.28516251 14276305
0.78776681 -0.0052766534 0.28489056 14342098
0.78761125 0.0048634801 0.28483444 13947340
0.78680003 0.014989601 0.28546172 13618375
0.78676683 0.02511942 0.28544965 13420996
0.78640747 0.035164505 0.28490871 13355203
0.7856999 0.045318391 0.28506067 13420996
0.7854799 0.055418462 0.28498304 13420996
0.78407407 0.064904489 0.28427178 13223619
0.78617245 0.075272501 0.28523532 12105395
0.78872216 0.08334472 0.28523549 10263959
0.79009998 0.088113859 0.28480816 10395545
0.79217863 0.095037654 0.28496072 10461338
0.78899997 -0.18247172 0.2957584 14012878
0.79042858 -0.18716452 0.2945759 10328472
0.78859991 -0.17512596 0.29534575 14802650
0.78859997 -0.1649733 0.29534605 14868186
0.78780007 -0.15466279 0.29504594 14736600
0.78649992 -0.14535566 0.29471406 14736599
0.78561747 -0.13492359 0.29514724 14407634
0.778 -0.12200356 0.29638019 13683911
0.78257895 -0.12615915 0.29462934 14012876
0.7747274 -0.11500233 0.29509315 13552325
0.76800007 -0.10133314 0.29679635 13618118
0.77154547 -0.10590758 0.29494917 13618116
0.7636773 -0.094511986 0.29494473 13749703
0.75891662 -0.082515992 0.29562733 13552581
0.76037502 -0.08719936 0.29456347 13815496
0.75708103 -0.074962564 0.2952241 13749960
0.75344127 -0.065124668 0.29467094 13881803
0.74900001 -0.053723827 0.29863247 13881804
0.75165629 -0.055238951 0.29387486 14144976
0.75565797 -0.045183171 0.29510328 14605528
0.76050007 -0.040701576 0.29105136 14736856
0.75875008 -0.03883167 0.29748631 14539736
0.76390618 -0.034785092 0.29503199 14342099
0.77100003 -0.031464361 0.292362 14604757
0.77462065 -0.025443856 0.29548195 14736857
0.78133339 -0.021696297 0.29262164 14671320
0.77900004 -0.019807851 0.29904392 14736856
0.78627282 -0.015468086 0.29525062 14342098
0.78816003 -0.0052802712 0.29517999 14342098
0.78800005 0.0048670536 0.29511991 14013133
0.78752005 0.015002569 0.29494053 13684168
0.78667647 0.025332283 0.2952733 13486789
0.78536642 0.035185967 0.29505214 13355203
0.78488886 0.045271754 0.29487342 13355460
0.78556657 0.055426639 0.29512829 13421253
0.78668004 0.064714096 0.29462734 13223618
0.78830761 0.07442943 0.29481035 11250342
0.79025006 0.078880817 0.29873791 10132373
0.78900003 0.082911648 0.29226214 10263702
0.79065001 0.085862331 0.2956509 10263959
0.7887646 -0.18244098 0.3052896 14145234
0.79049999 -0.18757786 0.30530915 10855585
0.78783339 -0.17495672 0.30519846 14802649
0.78724319 -0.1651115 0.30528936 14802649
0.78693759 -0.15483776 0.30508015 14670807
0.78557152 -0.1450312 0.30523711 14605014
0.77754551 -0.13312444 0.30775109 13815754
0.78299999 -0.13600279 0.30431709 14210255
0.77525002 -0.12486483 0.30502802 13552582
0.78166676 -0.12905918 0.30067706 13815241
0.76716679 -0.11274891 0.307668 13420996
0.77229172 -0.11606196 0.30377218 13420996
0.76416659 -0.10500301 0.30566162 13618375
0.77050006 -0.10842691 0.30164284 13486789
0.75900006 -0.091557175 0.30795005 13816010
0.76106256 -0.095798284 0.30451494 13947339
0.75817871 -0.084698498 0.30499464 13881546
0.76000005 -0.088712506 0.30153561 14013133
0.75448656 -0.074755557 0.30509683 13749960
0.7507 -0.064783201 0.30487454 13881547
0.74900001 -0.052165233 0.30369791 13881548
0.75000006 -0.05639952 0.30554536 13815754
0.74900001 -0.048853211 0.30506167 14407891
0.75275767 -0.044124201 0.30477184 14539734
0.75817651 -0.037025899 0.3056654 14473942
0.76189995 -0.032122932 0.30442655 14210769
0.76727277 -0.027836448 0.30564272 14671833
0.77295005 -0.02363164 0.30468115 14540248
0.77733344 -0.018550677 0.30598509 14474198
0.78444445 -0.013887734 0.30459821 14342098
0.78776675 -0.0052770432 0.30517423 14276305
0.78775007 0.0048651518 0.30516791 14013133
0.78689998 0.01499074 0.30483851 13749961
0.78590614 0.024860643 0.30502909 13486789
0.78483999 0.035163201 0.30496007 13420996
0.78499991 0.045277897 0.3050226 13290180
0.78575999 0.055440176 0.30531839 13158595
0.78779328 0.064678229 0.3050271 13092546
0.78900003 0.071470119 0.30370367 10592669
0.79084212 0.076456808 0.30563617 10066323
0.79277766 0.085216582 0.30536512 10263959
0.78805274 -0.18306567 0.31543174 14276563
0.79033333 -0.18784636 0.31449491 11908015
0.78392005 -0.17482473 0.31450894 14736856
0.77900016 -0.16323282 0.31631503 14605272
0.78123808 -0.16626111 0.31339827 14736856
0.77893353 -0.15510954 0.31713158 14539479
0.78222728 -0.15464912 0.31209877 14605271
0.77844459 -0.14452471 0.31614196 14473685
0.78100002 -0.14629582 0.31260893 14605271
0.7754001 -0.13485667 0.31503382 13684168
0.76820004 -0.12096159 0.31755671 13289410
0.77242315 -0.12500905 0.31459898 13355203
0.76357573 -0.11437855 0.31516293 13486789
0.77050006 -0.11879821 0.31111225 13289410
0.759 -0.10316582 0.31819648 14013133
0.760158 -0.10530929 0.31410149 13881547
0.75881827 -0.094442785 0.31562722 13881547
0.76000005 -0.09879449 0.31191415 14078926
0.75686675 -0.084805965 0.31481969 13815498
0.74900001 -0.071647704 0.31821236 13617862
0.75241941 -0.075501882 0.31469068 13683911
0.74819237 -0.064902499 0.31699133 13552326
0.75000006 -0.065800779 0.31208688 13683912
0.74792302 -0.054798726 0.31552881 13618121
0.75000006 -0.05652675 0.3107363 13618375
0.74792582 -0.045799825 0.31635895 13882063
0.75150013 -0.042086717 0.31333432 14342870
0.75629032 -0.035558704 0.31544891 14211284
0.76083344 -0.030625725 0.31255242 14277075
0.75900006 -0.029960301 0.31979564 13684940
0.76440001 -0.027036373 0.3156203 14342869
0.77185714 -0.022722054 0.31475696 14474454
0.77614284 -0.017395744 0.3153365 14408661
0.78193343 -0.01219235 0.31444472 14276561
0.78503335 -0.0052570938 0.31514025 14210512
0.78597063 0.004638216 0.31524691 13947597
0.78627998 0.014980536 0.31472394 13750218
0.7864002 0.02510697 0.31477275 13486789
0.7849285 0.035363086 0.31477338 13486789
0.78416681 0.045230106 0.31479383 13355716
0.78531027 0.055282094 0.31509462 13355718
0.78776926 0.064945526 0.31510556 11710893
0.78900003 0.071675353 0.31612003 9934996
0.79077268 0.076662511 0.31492209 9869203
0.78724009 -0.18485357 0.32498398 13947085
0.78280008 -0.17567368 0.32524061 14671063
0.77899998 -0.16127123 0.32275137 14605270
0.78082615 -0.16624954 0.3258926 14539478
0.77853554 -0.1544718 0.3249658 14539220
0.7767002 -0.1452117 0.32452381 14473428
0.77412504 -0.13504715 0.32486451 13026238
0.76720005 -0.12332042 0.32612133 13026238
0.7711429 -0.12766661 0.32465217 12960445
0.76135296 -0.11524283 0.32482111 13618375
0.75865519 -0.10496987 0.32534495 14078927
0.76000005 -0.10828342 0.32021695 13947340
0.75727779 -0.094601184 0.32527229 14013132
0.75484377 -0.084524624 0.32494202 13947339
0.74864286 -0.072866 0.32557151 13947081
0.75131255 -0.077366956 0.32446876 14012874
0.74693751 -0.065550752 0.32487565 13749703
0.74572241 -0.054750256 0.32554632 13354947
0.74554867 -0.044967487 0.32527295 13618379
0.74695456 -0.037430879 0.32608381 14211027
0.75320005 -0.033518653 0.32369435 14276564
0.7578125 -0.028248815 0.3258343 14079441
0.76347816 -0.023759836 0.32431763 14145491
0.77050006 -0.021395473 0.32193479 14277077
0.76850003 -0.019540865 0.32829541 14013903
0.77518177 -0.015414286 0.32512495 14342868
0.78075004 -0.0107136 0.32256055 14211282
0.78317255 -0.0053699254 0.3252365 14145489
0.7855311 0.0050831633 0.32511297 13947597
0.7863999 0.014983711 0.32489613 13684425
0.78680569 0.025120696 0.32506332 13421509
0.78577769 0.035 0.32515082 13487302
0.78460008 0.045253895 0.32507259 13487047
0.78499997 0.055528685 0.32502562 13289925
0.78718531 0.064551048 0.32470953 10658204
0.78862494 0.073950313 0.32504669 9934994
0.79014289 0.0795305 0.32419631 10000788
0.78900003 -0.19183901 0.33890048 9736334
0.79161906 -0.1955674 0.3346841 9539211
0.7864483 -0.18570168 0.33503991 13815499
0.77900004 -0.17208287 0.33916429 14342098
0.78165382 -0.17541572 0.33503947 14539477
0.77899998 -0.16205278 0.33760116 14342100
0.78055179 -0.16577932 0.3345457 14407892
0.77814811 -0.15479401 0.33474457 14407893
0.77575868 -0.1449104 0.33487198 14341842
0.77329636 -0.13552493 0.33486956 13025469
0.7661429 -0.12419568 0.33518645 12499896
0.77085716 -0.12942329 0.33433047 12499895
0.75889999 -0.1125683 0.33609778 14341842
0.76057905 -0.11670756 0.33470452 13618377
0.75671434 -0.10499357 0.33510637 14473428
0.74849999 -0.090874642 0.33902636 14473171
0.75355887 -0.095122859 0.33497965 14407891
0.74811107 -0.083920129 0.33777916 14473428
0.75174075 -0.085925728 0.33309293 14342097
0.74751711 -0.0748863 0.33523026 14276305
0.75000006 -0.07818117 0.33063492 14210767
0.74594605 -0.065127894 0.33454075 14210512
0.74447221 -0.054658577 0.3354581 14210769
0.74413329 -0.045051571 0.33530465 13882061
0.74551362 -0.035555907 0.33491111 13947854
0.75000006 -0.031360805 0.33004969 14210514
0.74800009 -0.028942009 0.33763194 13816011
0.75493109 -0.026197581 0.33440611 13948112
0.76077789 -0.021520875 0.33419594 13882319
0.76558334 -0.018717965 0.33510926 13948111
0.77372009 -0.013654275 0.33461666 14473941
0.77857155 -0.0083400114 0.33611327 14473684
0.78200006 -0.0042770114 0.33436719 14211025
0.78497136 0.0047186553 0.33520028 13947853
0.78585708 0.015103296 0.3353816 13619145
0.78519434 0.025068806 0.3354255 13421766
0.78493351 0.035167109 0.33531305 13553354
0.78499991 0.04514724 0.33521321 13487563
0.78652 0.055495024 0.33507514 12960964
0.7884444 0.064926453 0.33514237 9802896
0.78900003 0.072291039 0.33197397 9934737
0.79054546 0.076219767 0.33577961 10066323
0.79254168 0.14512828 0.33562958 10658717
0.78900003 -0.19236673 0.34615681 11183782
0.79105556 -0.19666146 0.34513319 9407629
0.78532153 -0.18537012 0.34506431 14144720
0.77873689 -0.17322433 0.34586093 14407891
0.78090918 -0.1779066 0.34365043 14539477
0.77885705 -0.16488814 0.34535265 14210512
0.77826661 -0.15461469 0.34522107 14210513
0.77599996 -0.14522085 0.34491459 14276305
0.77313799 -0.13562177 0.34491214 13223361
0.7649644 -0.12460332 0.34519973 12170929
0.77025002 -0.12957868 0.34346804 12368309
0.75817645 -0.11324517 0.34492233 13486533
0.76054555 -0.11823512 0.34488723 12170930
0.74842864 -0.10187946 0.34712783 13815754
0.75334615 -0.10618829 0.34427056 14012877
0.74697506 -0.095062949 0.34471446 14276305
0.75000006 -0.099835582 0.34058428 14473171
0.74578154 -0.084979884 0.34455758 14276305
0.74442506 -0.075349644 0.34523639 14276305
0.7383334 -0.061986659 0.34911275 13881547
0.7431429 -0.065372549 0.34475294 14013390
0.7367 -0.054605801 0.34738886 14079697
0.7420454 -0.055190686 0.3429704 14079697
0.73635489 -0.04541488 0.34628156 14277077
0.741 -0.045208499 0.34169981 14079698
0.73785716 -0.038995784 0.3474052 14408663
0.74378788 -0.03494741 0.34440902 14079440
0.74763644 -0.028715372 0.34523913 13815754
0.75504547 -0.023609549 0.34463722 13881804
0.76399994 -0.018144231 0.34527853 14013648
0.77352381 -0.013196249 0.34471279 14408663
0.77825004 -0.0088573964 0.34339339 14408148
0.78252381 -0.0045410418 0.34506088 14276562
0.78483874 0.0049965219 0.3452034 13947597
0.78399998 0.01499817 0.34500787 13618633
0.78247231 0.024981629 0.34525371 13355462
0.78213316 0.035042591 0.34510475 13355461
0.78371882 0.045208864 0.3448866 13224135
0.78772002 0.055580068 0.34480587 11776434
0.78900003 0.062132191 0.34421077 9934996
0.79022229 0.066442654 0.34610629 9869202
0.79180002 0.074403539 0.34473839 9934996
0.79145181 0.14465396 0.34529853 10527388
0.79225004 0.15399863 0.34552741 10592925
0.78863645 -0.19259015 0.35493955 11381418
0.79100007 -0.19788209 0.35488135 9210506
0.78407151 -0.18520774 0.35474151 14079441
0.7781601 -0.17455934 0.35453725 14473685
0.78000003 -0.17869475 0.35785961 14408663
0.77733344 -0.16494067 0.35447788 14276305
0.77639401 -0.15479273 0.3551569 14276307
0.77499998 -0.14489381 0.3546569 14079441
0.76880008 -0.13113451 0.35631973 13025982
0.77215993 -0.13575977 0.35469449 13618633
0.76351845 -0.12501101 0.35453075 12236722
0.75819999 -0.11335324 0.35436624 12828860
0.76050001 -0.1178504 0.35514435 11841964
0.74816674 -0.10221972 0.35288718 13684168
0.75358826 -0.10675268 0.35507771 13355461
0.7457099 -0.094537519 0.35457307 13881547
0.75000006 -0.099835582 0.35989767 13749963
0.73840004 -0.081697389 0.35813349 14473939
0.74313331 -0.085122705 0.3540487 14078926
0.73564881 -0.074003674 0.35570145 14276048
0.7412501 -0.076402687 0.35164905 14210256
0.73390013 -0.065050393 0.35473654 13947083
0.73223829 -0.055474758 0.35479775 14210513
0.73214293 -0.045182042 0.35475364 14408663
0.73534781 -0.037330773 0.35533002 14079698
0.74336845 -0.032912213 0.354514 13816526
0.74763644 -0.028714944 0.35557902 13750475
0.75564003 -0.023876149 0.35516846 13815754
0.76336843 -0.017618025 0.3550171 13947340
0.7738235 -0.012426507 0.35502189 14342869
0.77875006 -0.0088630877 0.35637373 14342870
0.78339994 -0.0048034028 0.35494313 14277077
0.7844243 0.0050929738 0.35488063 13948112
0.78267866 0.014714408 0.35483548 13487561
0.78277779 0.024687545 0.35506368 13289669
0.78344995 0.035101231 0.35485971 13486791
0.78475869 0.045426566 0.35466042 13223622
0.78823996 0.0550991 0.35448036 10460571
0.79000002 0.059436832 0.35782403 9934737
0.79092008 0.06506297 0.35546434 9934737
0.79135299 0.13434759 0.35500336 10461852
0.78900003 0.14740494 0.35767892 10592924
0.79000002 0.1440891 0.35462961 10527389
0.79100013 0.15485056 0.35525894 10592668
0.78888893 -0.1926329 0.36440057 10723746
0.79058331 -0.19638921 0.36533713 9473935
0.78618187 -0.18588851 0.36488068 13026757
0.77875006 -0.17248385 0.36138818 14342613
0.782875 -0.17626151 0.36571085 12632511
0.77814293 -0.16434674 0.36221355 14079185
0.78144455 -0.16621903 0.3670603 12171447
0.77735716 -0.15469316 0.36301801 14145491
0.78175008 -0.15576217 0.36827064 14013652
0.77555561 -0.14469461 0.3636913 13882063
0.78100002 -0.14875749 0.36928841 13816273
0.77363157 -0.13539131 0.36466402 13158340
0.76671427 -0.1246279 0.3625339 12105136
0.77185714 -0.12597768 0.3670314 12499894
0.75900006 -0.1116946 0.36066279 12500666
0.76354545 -0.11545431 0.36396188 11973550
0.77000004 -0.11511595 0.36949494 12434101
0.75763643 -0.10504591 0.3635627 12828861
0.76220006 -0.10645717 0.36789355 12039860
0.74720001 -0.092818111 0.36170179 13749961
0.7535556 -0.095414326 0.36630744 13157824
0.73714292 -0.081608228 0.36284956 13420739
0.74368757 -0.08615993 0.36491939 13355203
0.73337936 -0.074361652 0.36411628 13552836
0.72900003 -0.061201539 0.36859313 13749961
0.73072428 -0.064886786 0.36504111 13223872
0.72896302 -0.055004623 0.3657932 14013391
0.73000002 -0.055475086 0.3614085 14473685
0.72900003 -0.048523922 0.36639896 14276820
0.7308622 -0.044246878 0.3647553 14408663
0.7348789 -0.035256326 0.36525464 14079698
0.74183339 -0.031308435 0.3626323 13750733
0.74511534 -0.027059773 0.36559671 13750733
0.75468427 -0.022534018 0.36455458 13684939
0.75862497 -0.018845562 0.36581096 13750475
0.76426327 -0.015283741 0.36494693 14079183
0.7722308 -0.01156894 0.36416593 14276562
0.776389 -0.0070158136 0.36558986 14342869
0.78212506 -0.0030644629 0.36409384 14276820
0.78350019 0.0043815253 0.36496493 14013648
0.78408015 0.014939279 0.36523968 13487561
0.7853635 0.025327122 0.36533496 13224389
0.78610706 0.035088811 0.36493495 13355719
0.78712004 0.044480734 0.36481339 13224136
0.78859997 0.052963234 0.36466712 9737107
0.79000002 0.058049783 0.36583814 9868946
0.79176003 0.065132536 0.36510941 10000532
0.79167736 0.10481824 0.36489138 10395802
0.79174078 0.1153788 0.36468586 10461338
0.79143262 0.1249906 0.36525401 10527130
0.79139286 0.13497241 0.36493811 10593178
0.79088014 0.14466909 0.36470354 10527130
0.7904669 0.15477352 0.36451313 10592924
0.7924763 -0.19498341 0.37533656 9935253
0.78838468 -0.18373998 0.37249708 9606291
0.7907778 -0.18589535 0.37679225 9869460
0.78736836 -0.17466064 0.37492251 9671824
0.79000002 -0.17913631 0.37909219 9803410
0.78622723 -0.16489287 0.37469357 9474191
0.78635001 -0.15520433 0.37467688 9671571
0.77900004 -0.14016895 0.37016639 12829378
0.78550011 -0.14528032 0.37522957 9605522
0.77800006 -0.13407326 0.37105659 12632253
0.78516668 -0.13545896 0.37723503 9144968
0.77649999 -0.12495109 0.37284258 11315877
0.78225005 -0.12427297 0.37812042 8947075
0.76800001 -0.11122113 0.37033308 11842736
0.7746923 -0.11539896 0.37467971 11447464
0.76733333 -0.10394078 0.37360349 12105909
0.77262509 -0.10601322 0.3773129 11316138
0.75900006 -0.093926281 0.37310061 11907757
0.76350003 -0.096275203 0.37575802 12236725
0.74633336 -0.08362443 0.37298879 13025982
0.75250006 -0.084319673 0.37782976 12367796
0.73566675 -0.073827617 0.37023625 12894138
0.74440008 -0.076433763 0.37498766 12696760
0.75000006 -0.077010661 0.37921107 12565176
0.73100001 -0.061369441 0.37131563 13946827
0.72900003 -0.054375134 0.37115309 13947597
0.73000002 -0.059576549 0.37080771 14078413
0.72900003 -0.047890041 0.37098241 13750218
0.73077774 -0.043102037 0.3727237 13355204
0.7350834 -0.035459101 0.37209663 13619147
0.741 -0.032717604 0.37639523 12106165
0.73900002 -0.029170832 0.3719193 13684940
0.74486214 -0.024523953 0.37444618 13618891
0.75200003 -0.020881759 0.37053865 13553354
0.75518757 -0.01809345 0.37497333 13553354
0.76358831 -0.013838013 0.37419295 13816525
0.77040005 -0.010571575 0.37509602 14211283
0.77555174 -0.0052515487 0.37472218 14342612
0.77900004 0.00025233286 0.37472552 14211283
0.78173339 0.0055634282 0.37463576 13948112
0.78414291 0.014745401 0.37503478 13487560
0.78556663 0.025082905 0.37512609 13158596
0.78674078 0.035386577 0.37527749 13158596
0.78833336 0.044343833 0.37501189 12171448
0.78900003 0.050588042 0.37260938 9803157
0.79075009 0.055407312 0.37544164 9737618
0.7924 0.065184057 0.3746804 9869202
0.79243994 0.11527287 0.37470073 10330522
0.79116672 0.12488797 0.37471482 10461596
0.79100013 0.13535982 0.37431362 10461852
0.79184008 0.1448473 0.37441617 10396059
0.78900003 -0.17152131 0.3804594 9804178
0.79200006 -0.17540148 0.38596025 9869459
0.78900003 -0.16967425 0.3804594 9541006
0.79156005 -0.16503531 0.38518116 9672080
0.78900003 -0.14196829 0.3804594 8947844
0.78866673 -0.13267767 0.38214493 8816258
0.79258341 -0.13565613 0.38636506 8948101
0.78775007 -0.12491556 0.38308522 8618623
0.79128569 -0.12544265 0.38738436 8816259
0.78591663 -0.11488858 0.38526273 8816002
0.79000002 -0.11810596 0.38833919 8882308
0.77725005 -0.10437301 0.38252762 11381932
0.78400004 -0.10583255 0.38722515 9079175
0.76900005 -0.093363538 0.38341701 12368310
0.77480006 -0.095884338 0.38630602 10328731
0.75700003 -0.08304587 0.38216043 10196628
0.7626667 -0.086644523 0.38502243 9473676
0.7561667 -0.074989527 0.38380542 11841709
0.74516678 -0.035518851 0.38054681 12434101
0.75260007 -0.03499322 0.38581121 12631480
0.74720007 -0.025641669 0.38094309 12434872
0.75387502 -0.024460275 0.38602504 12369080
0.75733334 -0.017284488 0.38331166 13224388
0.76290911 -0.014197597 0.38475525 14013904
0.7705 -0.010572947 0.38506734 14211284
0.7758078 -0.0051205275 0.38478264 14342869
0.78203142 0.0047192457 0.38505119 14211026
0.78407407 0.015144845 0.38501784 13684426
0.78631246 0.024877965 0.38503042 13224388
0.78780007 0.035296943 0.38541448 13027010
0.78884983 0.043838371 0.38445011 10790051
0.79020005 0.047612883 0.38695797 9737617
0.79233336 0.054979127 0.38484988 9803409
0.79254556 -0.11486123 0.39532804 8948099
0.78842866 -0.1041607 0.39231333 8815748
0.79100001 -0.10555895 0.39703208 9013894
0.77525002 -0.091855064 0.39197782 8882055
0.78440005 -0.096340775 0.39568323 8947591
0.79000002 -0.099611931 0.39943561 9079687
0.77477777 -0.084594816 0.3957729 9145225
0.77500004 -0.076725312 0.39600006 8881796
0.78000003 -0.07096111 0.3980315 9013637
0.75900006 -0.031737134 0.3908689 12697273
0.7665 -0.032051913 0.39652565 10460311
0.77250004 -0.036823303 0.39962956 10789276
0.75900006 -0.027295053 0.3908689 12368308
0.76466674 -0.023620939 0.39498377 11513000
0.76583338 -0.016481629 0.392894 12895424
0.77245468 -0.013393667 0.39681304 13026754
0.77599996 -0.0051274318 0.39450815 14342870
0.77825016 0.0031000846 0.39668187 14211284
0.78143483 0.0063787517 0.39359063 14211284
0.78238702 0.01478919 0.39487454 13816269
0.78460532 0.025055079 0.39486656 13290181
0.78814811 0.035108894 0.39521804 12763839
0.78900003 0.040890962 0.39154175 10855588
0.79152185 0.044972483 0.39529145 9671825
0.7881251 -0.093840756 0.40356207 9211274
0.79166675 -0.096424878 0.40707469 9408396
0.78588897 -0.084781617 0.404719 9342859
0.79033333 -0.086703449 0.40885508 9474445
0.78678566 -0.074996829 0.40531307 9276810
0.79000002 -0.070021458 0.40868264 9408395
0.78800005 -0.069844194 0.40396094 9276555
0.7918182 -0.065460786 0.40743226 9802387
0.79240006 -0.055580817 0.40843931 10855841
0.77900004 -0.041691687 0.40299216 11776171
0.78600001 -0.044829894 0.40753376 10592669
0.79100001 -0.049740899 0.40919995 11316649
0.77587509 -0.034259088 0.40342072 10131861
0.78200001 -0.037276141 0.40774897 8816772
0.77520013 -0.025155032 0.40375084 11512487
0.77640003 -0.014833093 0.40310279 11578794
0.78220004 -0.014393444 0.40830988 11447208
0.77777779 -0.0041985977 0.4019562 13618890
0.78122228 -0.0056408504 0.40698764 11973808
0.77850014 0.0043543661 0.4025062 14145489
0.78025007 0.005733354 0.40683547 12960701
0.78195834 0.015053014 0.40467715 13750733
0.78433335 0.025148187 0.40466461 13290439
0.78803986 0.035161618 0.40479034 11711406
0.79000002 0.039093386 0.40868264 9408652
0.79217249 0.044896267 0.40532747 9672337
0.79073089 0.064900823 0.40514442 9869459
0.79029065 0.075335093 0.40495336 10000789
0.79277772 -0.06435705 0.41493145 9408909
0.79169232 -0.055488862 0.41490385 9408909
0.78820002 -0.044031598 0.41107249 9343116
0.7909525 -0.045682259 0.41596502 9409422
0.78840005 -0.034813542 0.41339192 9211787
0.79079998 -0.034918811 0.41742748 9343373
0.7876364 -0.025055742 0.41399899 9868692
0.79000002 -0.024711059 0.41792968 8948103
0.78743756 -0.014376003 0.41473341 11711150
0.79000002 -0.01546404 0.41931674 9671568
0.78634995 -0.0052706744 0.41508317 11908015
0.78441668 0.0048449212 0.41406277 12302772
0.78645003 0.014986305 0.41513449 11710123
0.78807414 0.025059655 0.41493165 12040116
0.79000002 0.02892166 0.41977909 9210763
0.78879994 0.034849044 0.41323251 9803667
0.79000002 0.036403343 0.41776159 9541008
0.79046178 0.044526856 0.41468588 9606545
0.79150003 0.054918688 0.4150168 9738387
0.79186964 0.064897098 0.41489071 9804180
0.7916522 0.075112611 0.41405183 9869973
0.79191995 -0.05536129 0.42450801 9540751
0.79199988 -0.045167562 0.42455074 9540495
0.79227996 -0.034983926 0.42470235 9540238
0.79196656 -0.024772774 0.42453477 9408652
0.79142863 -0.0147431 0.4249514 9079689
0.78900003 -0.0029767887 0.42155653 11842740
0.79081243 -0.0058770156 0.42541885 9606036
0.78852946 0.0051413998 0.42258176 10461085
0.79041666 0.0048824684 0.42801949 9737618
0.78880006 0.01392073 0.42228103 9342860
0.79046667 0.015800249 0.42718321 9409165
0.79129177 0.025266187 0.42509827 9408909
0.79185724 0.035565514 0.42518133 9672336
0.79150003 0.044880282 0.42443785 9672594
0.79210001 0.054961648 0.42460486 9738130
0.79143345 -0.055327903 0.43443432 9804180
0.79127789 -0.045125816 0.43434918 9869716
0.79148 -0.064595811 0.44465226 9869973
0.79024011 -0.055243753 0.44395545 9869973
0.79090017 -0.045103531 0.44432703 9869973
0.79236001 -0.014581927 0.44514665 9475215
0.79263318 0.025304548 0.44529966 9475215
0.79171997 0.035471916 0.44478685 9672337
0.7924 0.04477853 0.44516876 9803410
