# .PCD v0.7 - Point Cloud Data file format
VERSION 0.7
FIELDS x y z rgb
SIZE 4 4 4 4
TYPE F F F U
COUNT 1 1 1 1
WIDTH 1005
HEIGHT 1
VIEWPOINT 0 0 0 1 0 0 0
POINTS 1005
DATA ascii
0.78900003 -0.162286 0.1495765 15198430
0.79122734 -0.17495495 0.15504883 10328727
0.78857136 -0.1646385 0.15523054 14604757
0.79000002 -0.16988929 0.15254018 12828350
0.78827989 -0.15475647 0.15497445 15197147
0.78821737 -0.14551763 0.15536322 15197403
0.79000002 -0.14307293 0.15161547 15592930
0.78817391 -0.13516007 0.15599661 15197404
0.79000002 -0.1347506 0.15161547 15592160
0.78849995 -0.1252653 0.15594119 15197916
0.79000002 -0.1255036 0.15161547 15132382
0.788652 -0.11517567 0.1560919 15197917
0.79000002 -0.11519975 0.15187968 14408917
0.78855008 -0.10496736 0.15595108 15329246
0.79033333 -0.10582254 0.15137045 12368306
0.78854162 -0.094812818 0.15594946 15263454
0.79000002 -0.094988413 0.15161549 11644582
0.78899992 -0.085035287 0.15653016 15066332
0.79033333 -0.083823472 0.15208991 12500921
0.78900003 -0.075474016 0.15788829 14934234
0.79084015 -0.074538693 0.15288518 13027263
0.78900003 -0.067162231 0.15881181 14802136
0.79162967 -0.064398773 0.15418844 13158334
0.79160005 -0.1748694 0.1648948 10065297
0.78832251 -0.16417247 0.16498518 14802393
0.79000002 -0.16988929 0.16548601 13881036
0.78666669 -0.15444106 0.16478534 14933721
0.78623348 -0.14515142 0.16469407 14736599
0.78716683 -0.13518728 0.164891 14670550
0.78786671 -0.12516423 0.16503911 14670806
0.7876668 -0.1149924 0.16499729 14670806
0.7875334 -0.10483212 0.1649708 14670550
0.787889 -0.094734125 0.16504413 14604756
0.78806674 -0.084608816 0.16508105 14473170
0.78833324 -0.075410567 0.16513675 14407121
0.78847218 -0.065270931 0.1651644 14407378
0.78827989 -0.055106267 0.16604644 14144462
0.79000002 -0.055226229 0.16086249 14276048
0.7882334 -0.044953562 0.16603638 14736853
0.79000002 -0.04505451 0.16086249 14868696
0.78851998 -0.034816965 0.16609764 14013130
0.79000002 -0.034882784 0.16086249 13684168
0.78899992 -0.026146566 0.16761255 13882057
0.7903685 -0.023406873 0.16346876 11776940
0.79155993 -0.014566643 0.16488336 10987425
0.78900003 -0.17152131 0.17820597 13946827
0.791381 -0.17495325 0.17446387 10131090
0.78773063 -0.16550341 0.17501029 14867929
0.79000002 -0.16988929 0.17010953 14275792
0.78421891 -0.15516627 0.17517273 14999515
0.78224242 -0.14491455 0.17509463 14867929
0.78367656 -0.13485608 0.17494814 14736343
0.78535497 -0.12523815 0.17562883 14670550
0.78599989 -0.11471821 0.17494361 14670550
0.78748 -0.10482329 0.17509632 14604757
0.78806669 -0.094755642 0.17522772 14604757
0.78839993 -0.084644154 0.17530094 14604757
0.78843993 -0.075420924 0.17530972 14472915
0.78776681 -0.065214127 0.17516038 14012364
0.78604007 -0.0549509 0.17477518 14407377
0.7865333 -0.044854537 0.17488739 14933719
0.78812003 -0.034799308 0.17524 14143947
0.78899974 -0.024679782 0.17543538 13486787
0.78895438 -0.014939884 0.17584482 13684424
0.79000002 -0.01338346 0.17103422 14276562
0.78900003 -0.0057473839 0.17774421 13881804
0.79044455 -0.0049864105 0.17267135 12895165
0.78900003 0.0024720477 0.17876008 14145489
0.79200011 0.005282559 0.17448251 11842734
0.78900003 -0.17152131 0.1846707 14275795
0.79142112 -0.17643824 0.18523738 10065558
0.78649998 -0.16545801 0.18500519 14933723
0.7826156 -0.15526599 0.18514974 15065308
0.78231055 -0.14518468 0.18481232 14867929
0.78350008 -0.13488458 0.18541756 14802136
0.7844286 -0.1248795 0.18504478 14670550
0.78485709 -0.11460607 0.18475178 14736343
0.78720009 -0.10478541 0.1851719 14802136
0.78800005 -0.094747931 0.185359 14736343
0.78790003 -0.084591471 0.18533485 14538964
0.78756684 -0.075337306 0.18525521 14144206
0.78627783 -0.065093011 0.18495129 13815241
0.78420007 -0.054821089 0.18446161 14736086
0.78575003 -0.044807274 0.18482657 14868184
0.78793347 -0.034791064 0.18534261 14407632
0.78819442 -0.024654681 0.18540421 13355201
0.78803343 -0.014503145 0.18536669 13158078
0.78763348 -0.005277087 0.18527099 13421251
0.7873612 0.0048629451 0.18520485 13750475
0.78743476 0.014601738 0.18638432 13882317
0.79100001 0.016717218 0.18163925 13290180
0.78808326 0.025163122 0.18722157 13816524
0.79161119 0.025274096 0.18157303 10921376
0.78871429 0.034282342 0.18763645 12369078
0.79035711 0.036071073 0.1831373 10461082
0.78900003 0.040890962 0.18836482 10461081
0.79126936 0.045071855 0.18462917 10527131
0.78900003 -0.17152131 0.19482954 14604759
0.79088241 -0.17552604 0.19502136 11051939
0.78660005 -0.1654785 0.19515839 14999514
0.78443342 -0.1549188 0.19462314 15131100
0.78643996 -0.1451885 0.19512185 14933722
0.7870999 -0.13517801 0.19528392 14867929
0.78604007 -0.12487523 0.19501953 14802136
0.78623331 -0.11477981 0.19506736 14867929
0.78796005 -0.10488841 0.19549522 14867929
0.78793341 -0.094740316 0.1954882 14736343
0.78696007 -0.084491529 0.19524573 14275792
0.78551841 -0.074938871 0.19529492 13749448
0.778 -0.062714353 0.19770564 14012620
0.78303713 -0.065673158 0.19413429 13749448
0.7772072 -0.055084817 0.19658799 14736343
0.78120011 -0.054611761 0.19107373 14802136
0.77791673 -0.047095492 0.1967953 14933979
0.78248006 -0.043486401 0.19391352 14802392
0.78642309 -0.034862604 0.1953238 14473427
0.78800005 -0.024648501 0.19550499 13684166
0.78764009 -0.014497212 0.19541545 13289407
0.78632003 -0.005268787 0.1950877 13158078
0.78516662 0.00484811 0.1948009 13289923
0.78375024 0.015127783 0.19503795 13158081
0.78435308 0.024829039 0.19524437 13421253
0.78692591 0.035463635 0.1948248 13947853
0.78814805 0.044195939 0.19506067 13882317
0.79000002 0.047723938 0.19106944 10592668
0.78855556 0.054200545 0.19738545 14013903
0.79083341 0.05538623 0.19260655 10592667
0.78890002 0.064895019 0.1984984 11842478
0.79175007 0.065129928 0.19365209 10790303
0.78900003 0.070443973 0.1994472 10658460
0.78870004 -0.17256431 0.20564857 14275794
0.79141182 -0.17760591 0.20452392 10657437
0.78663331 -0.16548425 0.20529327 14999770
0.78681827 -0.15563905 0.20492497 15131355
0.78800005 -0.14547782 0.2047286 14999513
0.78796673 -0.13532633 0.20472006 14933976
0.78673071 -0.12491418 0.2046122 14868184
0.78676665 -0.11485846 0.20440951 14933721
0.78796005 -0.10488841 0.20471831 14933721
0.78793341 -0.094740316 0.20471153 14670550
0.78603327 -0.084393091 0.20513684 14012620
0.77822226 -0.072217256 0.20745033 13617862
0.78273916 -0.075833417 0.20407525 13683655
0.77607149 -0.065155901 0.20467529 13815241
0.78000003 -0.069135115 0.20082413 13617862
0.77483338 -0.055072259 0.20493346 14802393
0.77642864 -0.045186821 0.20477037 14605270
0.78100002 -0.040883385 0.2010816 14539477
0.77820003 -0.039098099 0.20801115 14605270
0.78396773 -0.034787547 0.20480065 14539220
0.78758347 -0.02463459 0.20554037 13815753
0.78740013 -0.014492814 0.20549344 13420994
0.78599989 -0.0052655195 0.20512897 13355458
0.78499991 0.0048479387 0.20486851 13355203
0.78470373 0.014746211 0.20530227 13026238
0.78421897 0.0252659 0.20523958 12763066
0.78373355 0.035114516 0.20453694 13092031
0.78524995 0.045293391 0.20493139 13618632
0.78600007 0.055456355 0.20512506 14013647
0.7870999 0.064747661 0.20541197 14211282
0.78818518 0.073994003 0.20627782 14013904
0.79050004 0.077980489 0.2023699 11119012
0.78900003 0.083681263 0.20806684 14474711
0.78821748 -0.17408039 0.21545494 13420485
0.79028571 -0.17867267 0.2137792 9736590
0.78607684 -0.16515334 0.2151994 15065564
0.78725004 -0.15507044 0.21512967 15065563
0.78800005 -0.1454778 0.21487457 14933977
0.78786111 -0.1353077 0.214836 14933976
0.78800005 -0.12524948 0.21503356 14868184
0.78825003 -0.11507538 0.21494344 14933720
0.78836662 -0.10494366 0.2149753 14868183
0.78748488 -0.095105782 0.21448058 14342097
0.78369701 -0.084922388 0.21561523 13684168
0.77657139 -0.07409399 0.21558699 13617862
0.78099996 -0.078365423 0.21205004 13617862
0.77390009 -0.064972654 0.21465129 13815242
0.77341676 -0.05497181 0.21451753 14671320
0.77443337 -0.045071721 0.21479896 14671320
0.77695006 -0.037486475 0.21540646 14671319
0.78226674 -0.032342009 0.21459231 14473684
0.78640008 -0.024595955 0.21535847 13947340
0.78652006 -0.014476698 0.21539134 13486789
0.78600001 -0.0052655195 0.21524921 13420996
0.78563327 0.0048530991 0.21514791 13355202
0.78576005 0.014969507 0.21518396 13026494
0.78536659 0.025074333 0.21507652 12829115
0.78539985 0.03518885 0.21508607 12960445
0.78539985 0.045300111 0.21508595 13092031
0.78389299 0.055501688 0.21525978 13355203
0.77900004 0.066815667 0.2188032 13157824
0.78245181 0.064895757 0.21474554 13552838
0.77900004 0.075022116 0.2188032 13618630
0.78339297 0.075446591 0.21400313 14210769
0.77900004 0.080493063 0.2188032 14210766
0.78458834 0.084854141 0.21468887 14737368
0.78786659 0.094753131 0.21563509 13881803
0.79000002 0.096887268 0.21125875 11776686
0.78900003 0.10424523 0.21791784 10921632
0.79060006 0.10566008 0.2133611 10987168
0.79137063 0.11532561 0.21445143 10987425
0.79235715 -0.18504278 0.22500403 10065297
0.78784007 -0.17496035 0.22497448 13025726
0.78486663 -0.16511248 0.22504164 14999515
0.78527772 -0.1550836 0.2251579 14933979
0.78640014 -0.14518203 0.22548072 14868186
0.78688252 -0.13535535 0.22535011 14933722
0.78800005 -0.12518588 0.22502054 14933722
0.78823334 -0.11507338 0.2250866 14933722
0.78725004 -0.10459954 0.22539581 14670550
0.77866673 -0.091499291 0.22903891 13684168
0.78337938 -0.095239371 0.22445455 14144462
0.77759111 -0.084726334 0.2260171 13552582
0.78087509 -0.08726573 0.2222997 13684168
0.77536368 -0.075164042 0.22487466 13486789
0.77260005 -0.064863987 0.22514197 13881548
0.77150011 -0.054834574 0.22482045 14802906
0.77331048 -0.045131195 0.22519436 14671320
0.77645451 -0.036842346 0.22486091 14737112
0.78210008 -0.031786773 0.22516546 14539477
0.78630316 -0.024843493 0.22503696 14144974
0.78671992 -0.014479816 0.22465578 13750216
0.78596544 -0.0051385504 0.22520113 13750216
0.78549981 0.0048513524 0.22522776 13487045
0.78559995 0.01496777 0.2252562 13157823
0.78582841 0.025221238 0.22518958 12960444
0.78619987 0.035225023 0.22542605 12961214
0.78566658 0.045313563 0.2252716 13092800
0.77900004 0.058609232 0.22792147 13289666
0.7821601 0.054668542 0.22452226 13158080
0.77800006 0.065036282 0.22502577 13289410
0.78000003 0.06051046 0.22091007 13026238
0.77713358 0.074842416 0.22464496 13552582
0.77789485 0.082392633 0.22510441 13947340
0.78130001 0.087133408 0.22493491 14473427
0.78703701 0.094362736 0.22460841 13816011
0.79000002 0.09827432 0.22929044 10657690
0.79084623 0.10514565 0.22505204 10855839
0.79187989 0.11519262 0.22427912 10921632
0.7919631 0.12488617 0.22409526 10987425
0.78900003 -0.18075661 0.23269433 9605002
0.79219246 -0.18555865 0.23513255 9867919
0.78789294 -0.1747739 0.23480524 14012620
0.78428018 -0.1649901 0.23497561 14999772
0.78280026 -0.15459666 0.23453103 14934235
0.78356028 -0.14465661 0.23475751 14868186
0.7859686 -0.13474965 0.23513448 14868185
0.78786671 -0.12516406 0.23512687 14868185
0.78761125 -0.11498436 0.23504888 14802136
0.78496444 -0.10456073 0.23497912 14342098
0.77768761 -0.092599593 0.23561455 13749961
0.78115392 -0.097231463 0.23403628 14013133
0.77570015 -0.08509858 0.23512593 13552582
0.77377152 -0.075054899 0.23467086 13420996
0.76846159 -0.062715821 0.23659915 14210512
0.77082366 -0.066094212 0.23401989 13749961
0.76880002 -0.056191415 0.23523083 14802649
0.77036363 -0.051230088 0.23441114 14934235
0.77246159 -0.044816993 0.23484038 14736856
0.77566671 -0.035564829 0.23519851 14736856
0.78075004 -0.031275343 0.23163129 14605269
0.77900004 -0.028926115 0.23886338 14473684
0.78423339 -0.024953034 0.23446563 14210768
0.78667641 -0.015126981 0.23498715 14013132
0.78688467 -0.0054134387 0.23554267 13947340
0.78689992 0.0048608449 0.23576032 13618375
0.78728002 0.014999025 0.23587456 13355203
0.78687114 0.024973614 0.23557352 13092030
0.78627992 0.03522715 0.23557439 12960956
0.78469998 0.045257363 0.23510043 13224128
0.77900004 0.058609232 0.23248059 13223616
0.78167999 0.054928895 0.2350744 13289664
0.77817863 0.065180793 0.23470812 13355202
0.78000003 0.061423458 0.23917 13355457
0.77672011 0.074801967 0.2345275 13552838
0.77750009 0.082387492 0.23453636 13947596
0.7816667 0.087275863 0.23541157 14210511
0.78733325 0.093294218 0.23474738 13223103
0.79000002 0.09827432 0.23483868 10789534
0.79181492 -0.18490773 0.24505721 9867662
0.78837037 -0.17528249 0.24501742 14473427
0.78652018 -0.16545951 0.24485284 14868697
0.78476655 -0.15498753 0.24430872 14868442
0.78381491 -0.14463657 0.24442013 14802649
0.78556645 -0.13491167 0.24455485 14802649
0.78707999 -0.12503991 0.24502529 14802649
0.78503227 -0.1153504 0.24515599 14539477
0.77887511 -0.10231179 0.24771361 14013133
0.78239292 -0.10578549 0.24408729 14210512
0.77680004 -0.094677262 0.24509683 13749961
0.78000003 -0.098351024 0.24099599 14078926
0.77417856 -0.084737964 0.24521466 13552582
0.76850003 -0.072164021 0.24823612 13486789
0.77193344 -0.075410813 0.24416408 13486790
0.76638252 -0.064976715 0.24506976 13947340
0.76731044 -0.055556968 0.2450016 14736856
0.77000004 -0.050222926 0.24511664 14934235
0.77216667 -0.044938866 0.24490258 14736856
0.77496874 -0.035120219 0.24488263 14671063
0.77900004 -0.028926117 0.24524616 14539477
0.78326094 -0.024377054 0.24495204 14342098
0.78630006 -0.015390174 0.24478325 14013133
0.78692001 -0.0052719652 0.24497619 13816010
0.78706682 0.0048616794 0.24502164 13815754
0.78788012 0.015011208 0.24527462 13486788
0.78796673 0.02515774 0.24530225 13158078
0.78768003 0.035290159 0.24521418 13223871
0.78629994 0.045350663 0.2447855 13355457
0.78373086 0.055222314 0.24525498 13355457
0.77831835 0.066920996 0.24445195 13355203
0.78109097 0.061923727 0.24582122 13289665
0.77703351 0.074833632 0.24462825 13552582
0.77828568 0.081200495 0.24281003 13881549
0.78311777 0.085668601 0.24540949 14078928
0.78826672 0.092647046 0.24428849 11052706
0.79058337 0.096959449 0.24580882 10658461
0.79218519 -0.18526943 0.25513121 10262934
0.78836 -0.17507491 0.25465259 14605525
0.78773338 -0.16479191 0.2544511 14933976
0.78732008 -0.15456885 0.25431836 14933976
0.78653836 -0.14520834 0.25498608 14868185
0.78588867 -0.13496979 0.25477374 14802392
0.78540003 -0.1247739 0.25461286 14736599
0.78275007 -0.11499695 0.25525954 14342097
0.77768189 -0.10451642 0.25525686 13947338
0.78016669 -0.10902601 0.25322273 14013389
0.77502775 -0.095005356 0.25487989 13618630
0.76875007 -0.081185639 0.2577658 13487045
0.77219236 -0.085202083 0.25443274 13486788
0.7659356 -0.074890576 0.25521052 13486789
0.77033335 -0.078497641 0.2512337 13420996
0.76288897 -0.064941652 0.25445735 14013133
0.76491427 -0.054540414 0.2545417 14737113
0.76699996 -0.047814999 0.25755551 14737626
0.77127272 -0.043984562 0.25454769 14671320
0.77457154 -0.034973729 0.25485957 14671063
0.77866673 -0.028609797 0.2554698 14671063
0.78276187 -0.024524232 0.25502425 14407891
0.78670597 -0.015613833 0.25476816 14210512
0.78776002 -0.0052778726 0.25445935 13881547
0.78700012 0.0048597069 0.25421402 13881547
0.78756005 0.015005766 0.25439465 13552581
0.78806674 0.025161441 0.25455794 13223873
0.78824008 0.035315346 0.2546142 13289664
0.78739405 0.045664847 0.25484279 13421250
0.78450006 0.055205006 0.25502926 13421250
0.77883339 0.068320498 0.2527909 13289410
0.78130764 0.064268306 0.25582224 13289410
0.77846676 0.074120633 0.25364459 13486789
0.78088897 0.07621976 0.25792727 13420997
0.78556007 0.084856227 0.25485155 13157824
0.78900003 0.090761669 0.25301203 10395035
0.79219055 0.095283426 0.25553671 10592924
0.78900003 -0.18075661 0.26963562 14342100
0.79192597 -0.18520845 0.26507145 10920866
0.78827584 -0.17492895 0.26486927 14671320
0.79000002 -0.17913631 0.26257974 14736858
0.78757155 -0.16488932 0.26440427 14868697
0.78745168 -0.15477233 0.26464444 14802904
0.78692603 -0.14534827 0.26483127 14737112
0.78463334 -0.13512357 0.26483449 14736856
0.77900004 -0.12010878 0.26986548 14276559
0.78217673 -0.12490825 0.26476884 14539477
0.77866679 -0.11352632 0.26807854 14013388
0.78144991 -0.11591496 0.26376048 14210512
0.77680016 -0.10522489 0.26491752 13816008
0.77352953 -0.095088154 0.26503921 13552837
0.76592308 -0.083131924 0.26588064 13618374
0.77099997 -0.08769954 0.26364598 13487043
0.75900006 -0.070827454 0.26826745 13881547
0.76141369 -0.074743114 0.26450774 13618375
0.75882345 -0.063705727 0.26747301 14144719
0.76054555 -0.065063581 0.26233828 14078669
0.75889999 -0.056072056 0.26752111 14605271
0.76071435 -0.054535527 0.2629357 14737113
0.764 -0.04558029 0.26507249 14671835
0.77000004 -0.041210011 0.26224118 14474454
0.77334297 -0.035175327 0.26505911 14539734
0.7779091 -0.028056884 0.26534823 14671319
0.78255564 -0.02366171 0.26478609 14605527
0.7864688 -0.015160779 0.26474175 14342354
0.78810006 -0.0052791978 0.26471612 13947852
0.7882778 0.0048684441 0.26477671 13684679
0.78800005 0.015013025 0.26468208 13618374
0.78825003 0.025168117 0.26476562 13355202
0.78793341 0.03530151 0.26465905 13355203
0.78666657 0.045120504 0.26465082 13355716
0.78414828 0.055526908 0.26471436 13289923
0.78312916 0.065188073 0.26562029 13224130
0.78342849 0.075625405 0.26476479 13420998
0.78769571 0.084682129 0.26486143 11447977
0.79000002 0.0890273 0.26720324 10527131
0.78866673 -0.18150117 0.27547023 14013393
0.79121053 -0.18662643 0.2748743 9802386
0.7856667 -0.17461497 0.27448723 14671577
0.7829687 -0.16505475 0.27421376 14868442
0.78394473 -0.15482226 0.27432686 14802905
0.78446674 -0.14482497 0.27451101 14802648
0.78362989 -0.1357041 0.27473074 14671063
0.77900004 -0.12124856 0.27465257 14210512
0.7810455 -0.12649387 0.27431491 14407891
0.77665627 -0.11463682 0.27552739 13881547
0.77424139 -0.10500192 0.2747139 13749961
0.76692319 -0.092836939 0.27658796 13486789
0.7715264 -0.096618712 0.27411857 13486789
0.76284844 -0.085641146 0.27492192 13749961
0.75889468 -0.073249087 0.27571028 13749961
0.76029426 -0.077649452 0.27354032 13684168
0.75764859 -0.064519227 0.27502626 14013134
0.75796884 -0.054814924 0.2748321 14605271
0.75900006 -0.049505461 0.27537483 14868443
0.76282758 -0.044696979 0.27472848 14802650
0.76900005 -0.03935625 0.2772027 14539477
0.77266663 -0.034653984 0.27472493 14539734
0.77695 -0.026573589 0.27542818 14737113
0.78120005 -0.022606293 0.27391768 14408405
0.78461123 -0.015354655 0.2745617 14408662
0.78737044 -0.0054782829 0.27501598 14145490
0.78793335 0.00486633 0.27480364 13684681
0.7876001 0.015005406 0.27468711 13553095
0.78776681 0.025151428 0.27474564 13289924
0.78723079 0.035410602 0.27477124 13289923
0.785972 0.045333818 0.27504095 13421253
0.78507137 0.05519272 0.27505428 13290179
0.7838279 0.065236285 0.2752704 13092800
0.78589648 0.075309381 0.27466509 13289925
0.78853339 0.083324887 0.27501446 10526620
0.79000002 0.088102594 0.27552557 10395546
0.78853858 -0.18178752 0.28552392 14144721
0.79100007 -0.18677159 0.28513303 9999507
0.78496164 -0.17446454 0.28493503 14736857
0.78203207 -0.16469166 0.28449908 14868442
0.78251445 -0.15467022 0.28468883 14736856
0.78375876 -0.14507225 0.28511629 14802648
0.78482139 -0.13511451 0.28513712 14539732
0.77833337 -0.1227399 0.28512153 14079180
0.78219998 -0.12756139 0.28415802 14276559
0.77463639 -0.11509869 0.28489223 13750215
0.76754552 -0.10217177 0.28712931 13486788
0.77172011 -0.10569073 0.28403345 13486789
0.76332426 -0.094756387 0.28499943 13552582
0.7589286 -0.083638363 0.28702387 13618375
0.7604118 -0.086562485 0.28373942 13749961
0.75819439 -0.075191632 0.28484312 13815754
0.7561667 -0.065255187 0.28514132 13881804
0.75605398 -0.055432603 0.28535128 14342355
0.75850004 -0.048288483 0.28614235 14671578
0.76234621 -0.043540992 0.28447759 14737113
0.76810002 -0.038410299 0.2862269 14473684
0.77251858 -0.033705357 0.28469923 14539477
0.77651727 -0.025130598 0.28498775 14802649
0.78378797 -0.015586864 0.28486785 14145489
0.78632164 -0.0050697736 0.28469491 14211282
0.78691685 0.0048607849 0.28458193 13881804
0.78726673 0.014999053 0.2847102 13618375
0.7869724 0.025126018 0.28460214 13420996
0.78686219 0.035126675 0.28472137 13420995
0.78613317 0.045342728 0.28521967 13421251
0.78515989 0.055395413 0.28486589 13486788
0.78407156 0.065087058 0.28427619 13158080
0.78613794 0.075522497 0.28503123 11974064
0.78854162 0.084249102 0.28516966 10329754
0.79000002 0.0890273 0.28477257 10395547
0.7918148 0.095002443 0.28501377 10461339
0.78866667 -0.18252729 0.29536965 13750218
0.79091674 -0.1876768 0.2952849 9802127
0.785923 -0.17446396 0.29490817 14802649
0.78196001 -0.16450158 0.29468811 14868442
0.7790001 -0.15494056 0.29393765 14736856
0.78042114 -0.15513681 0.29507065 14736856
0.78306264 -0.14524889 0.29475856 14736856
0.78436667 -0.13562775 0.29467475 14407891
0.77711117 -0.12366071 0.29579011 13749961
0.78141671 -0.12840924 0.29417685 13947340
0.76900005 -0.11136596 0.29880559 13420996
0.77313793 -0.11571439 0.2949805 13486789
0.76425797 -0.10514569 0.29516694 13486789
0.77033335 -0.10915483 0.29090771 13486789
0.75899994 -0.092623278 0.29586759 13881546
0.76042116 -0.09710072 0.29359686 13684167
0.75860721 -0.084809057 0.29533738 13684167
0.75686103 -0.075060599 0.29497257 13749704
0.75293767 -0.065143228 0.29481786 13947083
0.74900001 -0.054990195 0.29980141 13882317
0.75156772 -0.055057094 0.29449883 14144720
0.756706 -0.04559876 0.2956391 14605785
0.76066667 -0.041303944 0.29230148 14540249
0.76403326 -0.036056165 0.29543674 14276564
0.77141672 -0.031653512 0.29402396 14539477
0.77510333 -0.025272083 0.29504091 14802649
0.77900004 -0.019807851 0.29904392 14473684
0.78387874 -0.015086284 0.29491007 14342098
0.78642303 -0.0054089054 0.29474255 14276562
0.78726679 0.0048638508 0.29484567 13947596
0.78796005 0.015012451 0.2951048 13684168
0.78783339 0.025152935 0.29505795 13486789
0.78728014 0.035272516 0.29485092 13355457
0.78626466 0.045565233 0.29511863 13486787
0.78463328 0.055358831 0.29477578 13486787
0.78560716 0.064429469 0.294815 13223618
0.78803706 0.074527793 0.29479358 11184548
0.79000002 0.079163812 0.29895136 10132116
0.78888893 0.083567157 0.2931959 10263959
0.79037499 0.086294428 0.29670414 10329752
0.79212004 0.09483166 0.29480979 10461339
0.78859997 -0.18297358 0.30540556 14078929
0.79000002 -0.18785493 0.30432343 10197145
0.78660715 -0.17488453 0.30505458 14868442
0.78304011 -0.16472763 0.30426276 14802649
0.78268969 -0.15460618 0.30576885 14671063
0.78250021 -0.1448061 0.30473799 14605270
0.77792865 -0.13295345 0.30695659 13816008
0.78170002 -0.13608113 0.30328095 14210512
0.77493751 -0.12498476 0.30490682 13552580
0.76652944 -0.11259442 0.30586329 13486786
0.77175003 -0.11729927 0.30405009 13420994
0.76153123 -0.10510659 0.30531499 13749448
0.75900012 -0.093672447 0.30481943 13946827
0.76000011 -0.098942749 0.3046492 13946827
0.75778568 -0.084971264 0.30490011 13881034
0.75457895 -0.074650176 0.30500564 13815241
0.75080007 -0.064791918 0.30491403 13947082
0.748941 -0.052459225 0.30514053 13750219
0.75000006 -0.057209544 0.30449358 13815754
0.74883336 -0.047381546 0.30820724 14079698
0.75282347 -0.044171385 0.30433267 14474200
0.75821048 -0.036653895 0.30591512 14342614
0.76223809 -0.032123577 0.30390421 14342100
0.76670003 -0.027570203 0.30652288 14671063
0.77320838 -0.024030976 0.30428335 14736856
0.77772731 -0.018781407 0.30600086 14539477
0.78353858 -0.014133914 0.30487555 14276818
0.78675878 -0.0051426538 0.30494329 14145233
0.78769457 0.00486637 0.30514795 13947853
0.78793341 0.015011599 0.30524027 13684681
0.78716683 0.025132323 0.30494225 13355716
0.78716683 0.035267476 0.30494246 13290180
0.7859062 0.045097504 0.30502927 13355460
0.78404015 0.055316959 0.30465093 13289410
0.78633338 0.06489256 0.30513206 12960447
0.78883332 0.071814388 0.30420423 10395290
0.7910555 0.077419192 0.3058331 10000787
0.79207677 0.085695714 0.3057057 10329752
0.79142326 -0.19421336 0.31514189 9539211
0.78837037 -0.18444194 0.31542277 13815756
0.79000002 -0.18838333 0.31158894 9407627
0.78615379 -0.17444453 0.31488422 14736857
0.78410012 -0.16495134 0.31476778 14671064
0.78225005 -0.15494652 0.31528136 14605015
0.77890915 -0.14379968 0.31740904 14473429
0.78138107 -0.14565018 0.31397995 14539478
0.776182 -0.13470969 0.31546861 13618374
0.78000003 -0.13852289 0.31038377 14078926
0.76820004 -0.12096159 0.31755668 13289664
0.77257693 -0.12503438 0.31466144 13355201
0.76342422 -0.11435591 0.31509992 13487043
0.77050006 -0.11879821 0.31111225 13355457
0.75900006 -0.10300787 0.31841367 14144973
0.76025009 -0.10529421 0.31427062 13881802
0.75876492 -0.094525121 0.3154642 13881547
0.76000005 -0.099387549 0.31221068 13815754
0.7566129 -0.084720351 0.3149018 13749705
0.74880004 -0.072329946 0.31760111 13552582
0.7523334 -0.075949341 0.31430951 13684168
0.74785286 -0.065153815 0.31597155 13552582
0.75000006 -0.066225246 0.31098714 13684168
0.74773669 -0.054805849 0.31559956 13618376
0.75000006 -0.057697255 0.3107363 13749961
0.74776459 -0.045115903 0.31562582 14013648
0.75085723 -0.040687144 0.3125957 14540248
0.75563633 -0.035288624 0.31488663 14211284
0.75900006 -0.029960301 0.31713039 13948112
0.76350009 -0.026212765 0.31481221 14474199
0.77133334 -0.022019736 0.31415609 14605527
0.77591318 -0.017039528 0.31523064 14473684
0.78214282 -0.011908571 0.31450254 14210512
0.78499991 -0.0052570263 0.31512681 14210768
0.78656262 0.0046304376 0.31517923 14013133
0.78796005 0.015012449 0.31539565 13749961
0.78793341 0.025156403 0.31538585 13486789
0.78756005 0.035284787 0.31523716 13420996
0.78636664 0.045355137 0.31475821 13420996
0.78557682 0.055425778 0.31465533 13420997
0.78688002 0.064731203 0.31496355 11776430
0.78892857 0.072020791 0.3160471 9934737
0.79081821 0.077171594 0.31485569 10000787
0.78900003 -0.19183901 0.32689455 9209993
0.7915715 -0.19537881 0.32504734 9538955
0.78725803 -0.18517694 0.32468471 13552328
0.78442132 -0.17487562 0.32542792 14671063
0.78286672 -0.16469188 0.3252683 14605013
0.77900004 -0.15192139 0.32416978 14670551
0.78100002 -0.15687779 0.32530054 14604758
0.77750003 -0.14516719 0.32453361 14473172
0.77432263 -0.13500348 0.32478818 12960445
0.76714289 -0.1232857 0.32579044 13026239
0.77114296 -0.12766695 0.32465267 12960445
0.76122856 -0.11482736 0.32475546 13618376
0.759 -0.10451325 0.32549629 14144719
0.76000005 -0.10828342 0.32199612 13815753
0.75779408 -0.094457656 0.32523406 14013133
0.75506663 -0.084605306 0.32502875 13881547
0.748375 -0.073121727 0.32539213 13881801
0.75128573 -0.077646658 0.32420659 13947594
0.74664509 -0.065447494 0.32490766 13684166
0.74594468 -0.054765996 0.32564342 13420995
0.74580652 -0.04498326 0.32538489 13618377
0.7473684 -0.03778664 0.32603493 14342098
0.75340903 -0.033584204 0.32424858 14342612
0.75800008 -0.028500298 0.32576028 14144720
0.76260871 -0.023655077 0.32449332 14276563
0.77000004 -0.021381589 0.32082516 14211284
0.76799995 -0.019528151 0.32718191 14079441
0.77466667 -0.014953529 0.32467777 14473941
0.77900004 -0.0088659329 0.32822239 14342098
0.78275013 -0.0052406541 0.32489294 14210513
0.78541166 0.0050691259 0.32475826 14013133
0.78706676 0.014996726 0.3251701 13684168
0.78797233 0.025158854 0.32554454 13486789
0.78768969 0.035354026 0.32526943 13552584
0.78613883 0.045341615 0.32478806 13487047
0.78527576 0.055404715 0.32458997 13289925
0.78651857 0.064496107 0.32443434 10723996
0.78848147 0.074569471 0.32517555 10000531
0.79000002 0.079163812 0.32237712 10132118
0.79216671 0.085566878 0.32505122 10329495
0.79210007 -0.19537865 0.33513168 9407884
0.78631037 -0.18566984 0.3349815 13815755
0.78211528 -0.1753068 0.33488613 14605270
0.78231031 -0.16533011 0.33523771 14407636
0.77900004 -0.15111086 0.33004603 14604757
0.78191668 -0.15549162 0.33509693 14539221
0.77766675 -0.1449392 0.33441004 14341587
0.78025001 -0.14907026 0.33788136 14407893
0.77385187 -0.13582335 0.33470821 12960189
0.76655555 -0.12357648 0.3352392 12499896
0.77072734 -0.12883963 0.33506915 12565687
0.75900006 -0.1116946 0.33667555 14473684
0.76108003 -0.11606591 0.33492458 13749963
0.75782055 -0.10511001 0.33485213 14407891
0.75500005 -0.095105909 0.33510637 14407891
0.74799997 -0.083919927 0.3380332 14539221
0.75231028 -0.085691854 0.33361232 14407891
0.74710345 -0.07484477 0.33504453 14341841
0.75000006 -0.07818117 0.33063492 14276559
0.74545014 -0.06502787 0.33476305 14276304
0.74402708 -0.05450882 0.33542022 14210512
0.74328583 -0.045000214 0.33578944 14013134
0.74520528 -0.035630397 0.33504745 14013391
0.75050008 -0.031381711 0.33114761 14276305
0.74722224 -0.028134482 0.33737823 13816269
0.75513798 -0.025900289 0.33443698 14013391
0.76087505 -0.021572996 0.3334969 14078926
0.76584613 -0.018643763 0.33480823 14144720
0.77408689 -0.013295713 0.33497301 14473942
0.77900004 -0.0088659329 0.33460513 14408148
0.78323817 -0.0041961237 0.33524698 14276562
0.78589988 0.0048552146 0.33481029 14013133
0.78596002 0.014974065 0.33483508 13749961
0.78530544 0.025073392 0.33547333 13552582
0.78574181 0.035144672 0.33545086 13618377
0.7853142 0.045163598 0.33534691 13618634
0.78636003 0.05548355 0.33500716 13026754
0.78826094 0.064521767 0.33453271 9803408
0.79000002 0.068683848 0.3374806 9869202
0.78883332 0.07335341 0.3320581 10000530
0.79038888 0.076324798 0.33631119 10000531
0.79173082 0.085660659 0.33522624 10395545
0.79012018 0.18522398 0.33475682 10790303
0.78900003 -0.19183901 0.34813577 12697022
0.79209518 -0.19559792 0.3446877 9671314
0.78540754 -0.18532069 0.34494606 14144721
0.77850008 -0.17303604 0.34745017 14342098
0.78104764 -0.17597561 0.34327635 14473684
0.77800018 -0.16479389 0.34687933 14276305
0.78136843 -0.16552855 0.3422159 14276305
0.77743495 -0.15476307 0.34663001 14210512
0.78149998 -0.15551686 0.34195083 14342100
0.77636665 -0.14515063 0.34473813 14276050
0.77316678 -0.13550192 0.34476805 13288898
0.76604176 -0.12446794 0.34554863 12170930
0.7705 -0.12932031 0.34388027 12368308
0.75846153 -0.11270861 0.34551823 13421510
0.76093757 -0.11754769 0.34465948 12631482
0.74820006 -0.1016982 0.34782276 13815754
0.75415146 -0.10563727 0.34417543 13947854
0.74705726 -0.094548039 0.34533936 14276048
0.75057143 -0.097903728 0.34159523 14342355
0.74500012 -0.084911272 0.34482267 14341585
0.74345469 -0.075193115 0.3451595 14341585
0.73874992 -0.063750386 0.34887841 14012621
0.74255562 -0.065335482 0.34444147 14013134
0.7377001 -0.054679811 0.34760275 14145490
0.74119991 -0.055199552 0.34248596 14145234
0.73744118 -0.045509234 0.34635198 14277077
0.74014282 -0.045056939 0.34180102 14145491
0.73842859 -0.038284935 0.34767643 14277076
0.74242425 -0.034832083 0.34435734 14079441
0.74592316 -0.026484974 0.34497812 13881805
0.75471431 -0.02196377 0.34398037 13750220
0.75866669 -0.019290829 0.34807122 13881549
0.76417649 -0.017426329 0.34470129 14144720
0.77383339 -0.012728725 0.34466371 14605271
0.77850008 -0.0088602416 0.34532431 14473685
0.7830953 -0.0044564679 0.34487471 14276562
0.78608322 0.0048554437 0.34500757 13947853
0.78563339 0.014966844 0.344809 13553353
0.78426677 0.025038784 0.34512851 13290182
0.78460002 0.035154037 0.34527597 13355462
0.78516126 0.045436729 0.34534475 13355462
0.78787512 0.055436805 0.34471989 11842482
0.79000002 0.059436832 0.3495017 10000789
0.78900003 0.06182434 0.34228674 9869203
0.79052186 0.065431222 0.34538844 9869202
0.79188883 0.074822269 0.3445709 9934995
0.79068011 0.18535602 0.34425133 10724511
0.79100019 0.19481719 0.34515518 10658975
0.78900003 -0.19183901 0.35460049 13289159
0.79200006 -0.19627909 0.35501945 9210250
0.78416669 -0.1851659 0.35480893 14079440
0.77742314 -0.17453776 0.35464662 14277075
0.78000003 -0.17869475 0.35055563 14473684
0.77572423 -0.16487907 0.35483298 14210769
0.77499986 -0.15487176 0.35465765 14276305
0.77410352 -0.14485039 0.35440278 14209999
0.76828575 -0.13156115 0.35633749 13025984
0.77179176 -0.13601343 0.35439274 13815242
0.76349986 -0.12505357 0.35433495 12170930
0.75811118 -0.11383328 0.35471857 12631483
0.76050007 -0.11832482 0.3547886 11973553
0.74800009 -0.10219685 0.35368413 13684168
0.75312507 -0.10730828 0.35456324 13223363
0.74484861 -0.094556354 0.35441324 13947340
0.73824996 -0.082069591 0.35749897 14342098
0.74170375 -0.085550174 0.35404876 14078670
0.73625654 -0.074452467 0.3551515 14079183
0.74059999 -0.078125678 0.3508786 14210256
0.73461902 -0.064867415 0.35483918 14012877
0.73323834 -0.055509102 0.35523894 14210512
0.73384625 -0.045483336 0.35518086 14408663
0.73757899 -0.037836626 0.35511723 14145491
0.74225008 -0.032880884 0.35476723 13816525
0.74608696 -0.026788639 0.35475469 13750475
0.75255561 -0.021678306 0.35524958 13684169
0.75757152 -0.019009145 0.35592961 13552583
0.76330769 -0.016104581 0.35528418 14210512
0.77350003 -0.012195031 0.35464877 14539477
0.77800006 -0.0085506095 0.35572782 14473684
0.78247839 -0.0042032278 0.35461456 14342099
0.78478789 0.0047634337 0.35504463 14013390
0.78376687 0.014931046 0.3550002 13618633
0.78363919 0.025020504 0.35494322 13289926
0.78453577 0.035215642 0.35502023 13355718
0.7852813 0.045068551 0.35511199 13223876
0.78827775 0.054079764 0.35427606 10723742
0.79025 0.058762107 0.35585669 9803410
0.79162967 0.0653264 0.35537088 9803410
0.79218173 0.07494323 0.35535505 10000789
0.78900003 0.13799372 0.35591987 10527133
0.79144007 0.13335645 0.35451096 10592926
0.78851849 0.14505789 0.35479343 10527133
0.79000002 0.14450943 0.35135114 10592926
0.78885716 0.15472174 0.35638288 10527133
0.79093754 0.1562546 0.35222885 10592926
0.78900003 0.16095006 0.35737109 10592926
0.79103583 0.16533338 0.35432076 10658719
0.79148281 0.17429993 0.35462952 10724512
0.79223317 0.18479258 0.35420001 10658719
0.78900003 -0.19183901 0.36383587 12500154
0.79105562 -0.19583902 0.36509025 9276811
0.78627276 -0.18582591 0.36517379 12895426
0.77800006 -0.1727742 0.36058465 14145489
0.78249997 -0.17494881 0.36555195 12961218
0.77809089 -0.16500978 0.36311167 14079186
0.78166676 -0.16535042 0.36746943 12105399
0.77684623 -0.15433136 0.36312926 14145235
0.78175008 -0.15576217 0.36827064 14013653
0.77525002 -0.144577 0.3639423 13881549
0.78000003 -0.14947885 0.36881557 14210514
0.76900005 -0.13206875 0.36091399 12499896
0.77322227 -0.13571261 0.36521164 13224132
0.76600009 -0.12451208 0.36245298 12105394
0.77150005 -0.12647955 0.3672061 12434360
0.75800002 -0.11154743 0.36018759 12433850
0.76416677 -0.11469215 0.36505958 11973555
0.77100003 -0.11707038 0.36997479 12237241
0.75640011 -0.10458554 0.36350161 12763068
0.76133341 -0.10787954 0.36652532 11776173
0.74655557 -0.093360916 0.36212805 13223618
0.75380003 -0.097872116 0.36595932 13026239
0.73728567 -0.081623904 0.36292049 13553094
0.74330777 -0.085964158 0.36565417 13092543
0.73380649 -0.07418932 0.36409566 13553096
0.72900003 -0.061628193 0.36731321 13552326
0.73096174 -0.065250412 0.36484557 13223362
0.72817242 -0.055019267 0.36658546 14013647
0.73038453 -0.055662058 0.36179563 14341843
0.72855562 -0.048087817 0.36760917 13948112
0.73174214 -0.044353548 0.36434093 14474455
0.73649997 -0.038182888 0.36523867 14079697
0.74300003 -0.033300657 0.36523405 13816526
0.74644446 -0.027520478 0.36537501 13750733
0.75325006 -0.022564987 0.36520135 13684939
0.75845456 -0.018316254 0.36524612 13750475
0.76435292 -0.014273194 0.36551845 14144976
0.77200001 -0.011135007 0.36448646 14407891
0.77636373 -0.0065190638 0.36577016 14473684
0.7819168 -0.0031015966 0.36346626 14342098
0.78397149 0.0047141844 0.36502704 14144719
0.78468001 0.014948744 0.36551788 13552840
0.78350031 0.025014035 0.36496726 13290182
0.78362989 0.035041802 0.36461928 13355976
0.78565395 0.044399064 0.36505178 13158599
0.78852934 0.052268986 0.36481327 9737361
0.79053336 0.057627089 0.36515987 9803410
0.79183996 0.065137155 0.36514539 9803410
0.79078144 0.075460404 0.3650032 10000789
0.79027611 0.085230991 0.36518839 10263704
0.79175007 0.094986513 0.36450675 10395546
0.78900003 0.13878532 0.36014169 10658719
0.78899997 0.14617357 0.36142045 10527133
0.79073334 0.14414947 0.36636421 10527133
0.78899997 0.15498264 0.36170462 10592926
0.79042858 0.15529346 0.36687446 10527132
0.78900003 0.16187359 0.36014169 10592926
0.79108697 0.16532244 0.36512277 10592926
0.78871435 -0.18359336 0.37161738 9474192
0.78800011 -0.17499407 0.37278348 9539726
0.79087508 -0.17563327 0.37742975 9803153
0.78723526 -0.16495878 0.37419069 9473934
0.79000002 -0.16434109 0.37909219 9671824
0.78642112 -0.15497309 0.37476358 9737107
0.78486663 -0.14490013 0.37553146 9473419
0.77716666 -0.13286673 0.37172207 11315877
0.78433335 -0.13664113 0.37719208 8947332
0.77616668 -0.12391267 0.37306118 11447979
0.78240001 -0.12539323 0.37801054 8684419
0.77490908 -0.1153559 0.37482136 11381418
0.76625007 -0.10424373 0.37307861 12105138
0.77240002 -0.10607041 0.37715787 11249829
0.75700003 -0.09367878 0.37211743 11973552
0.76300001 -0.096212156 0.37566069 11973295
0.74620003 -0.082909383 0.37344766 12631480
0.75400001 -0.085664101 0.37770018 12170930
0.73200005 -0.070021525 0.37010998 11644587
0.74471432 -0.076461889 0.37479979 12828860
0.75000006 -0.077010661 0.37921107 12499896
0.72900003 -0.061201539 0.37029976 13486276
0.72700006 -0.053374998 0.37098578 13684938
0.72840005 -0.046826005 0.3717002 14013649
0.73100007 -0.042543758 0.37245572 13355461
0.73633331 -0.037679993 0.37229708 13750731
0.74373341 -0.032954413 0.37476638 13421766
0.74672008 -0.026325589 0.3750352 13684938
0.75220001 -0.02159079 0.3734518 13487561
0.75758332 -0.018375257 0.37506163 13684939
0.76413631 -0.013322935 0.37529346 13947855
0.77000004 -0.010566086 0.37129751 14408661
0.77429038 -0.005064059 0.37476507 14342612
0.77833337 0.0010626293 0.37571955 14211025
0.78203708 0.0060871332 0.3741177 14013390
0.78363359 0.01493061 0.3751193 13421767
0.78347266 0.025013234 0.37504348 13158596
0.78408003 0.035131872 0.37441713 13092803
0.78719234 0.044556595 0.37533575 11842483
0.78892314 0.051684286 0.37445575 9803667
0.79042107 0.05732685 0.37530071 9738130
0.79174072 0.064923264 0.37477839 9803923
0.79139292 0.075024545 0.37446833 9935508
0.79157138 0.085675023 0.37499434 10264216
0.7924583 -0.15534416 0.38545373 9606031
0.78900003 -0.14443104 0.38107505 9145223
0.79237509 -0.145357 0.38556838 9211273
0.78820002 -0.13444594 0.38191882 8947589
0.79150009 -0.13500787 0.38629875 8948102
0.78775007 -0.12583762 0.38285458 8553091
0.79166669 -0.12484211 0.38761464 8816259
0.78633338 -0.11479677 0.38500598 9012870
0.79150003 -0.11740435 0.38907653 8882051
0.77650005 -0.10472675 0.38170362 11513002
0.78420007 -0.10549305 0.38732442 9342348
0.77328575 -0.095437959 0.38529497 11117988
0.75766665 -0.083119012 0.38249671 10460315
0.76550007 -0.086670525 0.38704807 8749442
0.75666666 -0.075036578 0.3840594 11579051
0.7475 -0.035628118 0.38144687 11776941
0.75540006 -0.03371178 0.38689548 12565689
0.74900001 -0.024305301 0.38045886 13355973
0.75478572 -0.024869453 0.385295 12434615
0.76000005 -0.021103906 0.38960475 12237492
0.75740004 -0.018548358 0.38259864 13487559
0.76346666 -0.014518123 0.38434383 13816524
0.77033335 -0.01057066 0.38588595 14408147
0.77460015 -0.005184188 0.38512093 14408405
0.77825004 0.00093595969 0.38370186 14342870
0.78191668 0.0061288425 0.3852044 14145490
0.78408015 0.014939652 0.3854301 13618888
0.78503996 0.02488189 0.38516697 13224387
0.7863999 0.035234965 0.38473129 13027010
0.78856516 0.044320926 0.38514647 10592927
0.79000002 0.048340406 0.38833919 9869203
0.78900003 0.050126277 0.38138294 9803410
0.79057169 0.055184811 0.38511738 9803410
0.79150003 0.065308176 0.38477489 9804179
0.79212487 0.074779898 0.38451654 9935765
0.79203039 0.17505123 0.38495025 10592925
0.78900003 0.18717837 0.38895589 10527133
0.79153138 0.18468356 0.38370115 10592924
0.78900003 0.19450505 0.38723195 10592924
0.79016012 0.19536977 0.38375571 10461594
0.79137939 0.20602852 0.38454431 9671052
0.78840005 -0.10383986 0.39198285 8420990
0.79118747 -0.10555158 0.39679518 9013639
0.77625 -0.091974713 0.39248288 9013384
0.78510004 -0.096425757 0.39603716 8947847
0.79000002 -0.099611931 0.39943561 9145223
0.77500004 -0.083509415 0.39608672 9145484
0.78000003 -0.087395057 0.3989445 9145740
0.77528572 -0.076750301 0.39614519 8947849
0.78000003 -0.076439098 0.39985749 9145229
0.76500005 -0.03109258 0.3948589 11579308
0.77200007 -0.034992792 0.39937091 10329497
0.76500005 -0.026615387 0.39485893 11645358
0.77100003 -0.022310648 0.39885357 11776943
0.76666671 -0.017097434 0.39272308 12763837
0.77228588 -0.013178756 0.39564633 13355974
0.77580017 -0.0051943804 0.39479828 14408148
0.77813339 0.001831615 0.39513418 14407892
0.78161901 0.0069643217 0.39449805 14342100
0.7839312 0.014811027 0.39528868 13881805
0.78623527 0.025104716 0.39477104 13289926
0.78833336 0.035167444 0.39474881 12961219
0.79000002 0.039093386 0.39943561 10592675
0.78900003 0.040890962 0.39246529 11052450
0.79072738 0.045020547 0.39534539 9606032
0.79229999 0.054973722 0.39503714 9803923
0.7918787 0.13457313 0.39532888 10461340
0.79116684 0.17527975 0.39447102 10461853
0.78900003 0.18680896 0.39154175 10395804
0.79033333 0.18501061 0.39537644 10461853
0.7904616 0.19477095 0.39397672 10527132
0.79175985 0.20451616 0.39476627 10460567
0.7919628 -0.10549089 0.40523469 9211787
0.78833342 -0.093865275 0.40320715 9146250
0.79083329 -0.097558595 0.40587476 9277836
0.7858572 -0.085687228 0.40417501 9277070
0.79124999 -0.084026784 0.4093293 9343116
0.78577781 -0.074141979 0.40363848 9211020
0.79016668 -0.074659742 0.40876886 9408654
0.78875005 -0.069448903 0.40388191 9934743
0.79200011 -0.065560982 0.40724537 10066071
0.79199994 -0.055779621 0.40889275 10263448
0.78483337 -0.042927414 0.40692905 10658208
0.79050004 -0.048784755 0.4089413 11842483
0.77557147 -0.035546288 0.40251574 10526364
0.78250003 -0.033640377 0.40846646 9144970
0.77633351 -0.025597012 0.40424061 11250341
0.78000003 -0.021659272 0.40716147 10658462
0.77600002 -0.014774145 0.40243208 11711150
0.78183341 -0.015305155 0.40811846 11119014
0.77785724 -0.0045606685 0.40292296 12961216
0.78050005 -0.0061428426 0.40742248 11842735
0.77850002 0.0024400861 0.40255183 14013647
0.78106254 0.0067690783 0.40508741 13487303
0.78336012 0.014926684 0.40488258 13750732
0.7862258 0.02525508 0.4047116 13421513
0.78864706 0.033597201 0.40439853 12895171
0.79033333 0.038287923 0.40556702 9671570
0.79203022 0.075209565 0.40518174 9869973
0.79203707 0.13478835 0.40458676 10330011
0.78880006 -0.04406371 0.41101629 9276811
0.79100001 -0.045701265 0.41585061 9540238
0.78816676 -0.035417132 0.41296253 9276813
0.79030001 -0.034897201 0.41716343 9474192
0.78809094 -0.023224922 0.41440526 10197656
0.79000002 -0.025803894 0.41809785 9145482
0.78715795 -0.014295438 0.41536278 11250343
0.79000002 -0.018238146 0.41977909 8750465
0.78485 -0.0052595716 0.41429186 11974321
0.78500003 0.0048509631 0.41437057 12237236
0.78728575 0.015176331 0.41535562 11776941
0.78811109 0.024856089 0.41467768 12106164
0.79000002 0.027996957 0.41977909 10197914
0.78900003 0.032579176 0.41185945 11645615
0.79135007 0.035829388 0.4155868 9540237
0.79165393 -0.024906989 0.42493674 9408909
0.78900003 -0.012212104 0.42155653 8881798
0.7904737 -0.014742977 0.42587557 9211531
0.78880006 -0.0052849799 0.42191157 10986918
0.79028577 -0.005558766 0.42719978 9343118
0.78858346 0.0048711444 0.42179587 10856358
0.79041666 0.0048824679 0.42647731 9277582
0.78900003 0.013554427 0.42146415 9408910
0.79066664 0.015557943 0.42556399 9212043
0.79125005 0.02526325 0.42507601 9343629
0.78866673 0.097902708 0.43794334 10198681
0.79185188 0.094451509 0.43421572 10263961
0.78840905 0.1055433 0.43604678 10198938
0.79038459 0.10358711 0.43165356 10264474
0.79200011 0.11558567 0.43463513 10264731
0.80427271 0.14549418 0.43541119 10395547
0.7909413 0.17496046 0.4343811 10330011
0.79121882 0.18513505 0.43408409 10329754
0.79000002 0.091339052 0.44150957 10001559
0.79110354 0.16431189 0.44405621 10198682
