# .PCD v0.7 - Point Cloud Data file format
VERSION 0.7
FIELDS x y z rgb
SIZE 4 4 4 4
TYPE F F F U
COUNT 1 1 1 1
WIDTH 1078
HEIGHT 1
VIEWPOINT 0 0 0 1 0 0 0
POINTS 1078
DATA ascii
0.79284626 -0.17428695 0.14501944 11710893
0.78900003 -0.1626554 0.14920709 15789799
0.79144448 -0.16532642 0.14488798 13421252
0.78900003 -0.15489773 0.1495765 16053740
0.79296434 -0.15507591 0.14455315 12631992
0.78900003 -0.14935654 0.1495765 16119790
0.79200006 -0.17512667 0.1552017 10526362
0.78857678 -0.16425923 0.15517594 15328479
0.79000002 -0.16988929 0.15438958 13090748
0.78776008 -0.15465465 0.15487157 15592419
0.78774083 -0.14501929 0.15466176 15658212
0.78786951 -0.13510816 0.15593606 15592162
0.79033333 -0.13418944 0.15137044 16118504
0.78824985 -0.12522557 0.15589088 15592675
0.79088891 -0.1256448 0.15096204 15198173
0.78844446 -0.11561693 0.15675068 15658211
0.7912941 -0.11470228 0.15207975 14474707
0.78887504 -0.10570245 0.158094 15723748
0.79221743 -0.10497061 0.15324499 14277070
0.78900003 -0.096253484 0.15881181 15591906
0.79174191 -0.094869375 0.15427685 14474194
0.79193342 -0.085023955 0.15476291 14342867
0.79213881 -0.074847296 0.15480478 14145231
0.79253322 -0.064678058 0.15487918 13816008
0.79160011 -0.1748693 0.16489424 10460314
0.7883333 -0.16449952 0.16538823 15328479
0.79000002 -0.16988929 0.16271189 13814985
0.78653336 -0.15441471 0.1647591 15328477
0.78593326 -0.14509602 0.16463375 15196635
0.78677785 -0.13512129 0.16481175 15065306
0.78646672 -0.12494306 0.1647471 15065562
0.78677773 -0.11486009 0.16481157 15065562
0.78800005 -0.10482737 0.16500136 15065562
0.78891641 -0.094857678 0.1652592 14999770
0.78900003 -0.088403463 0.16620007 14868184
0.79000002 -0.08411216 0.16438515 14933977
0.79023361 -0.074667059 0.16460888 14801878
0.78900009 -0.062376663 0.16737546 14603987
0.79000002 -0.065452345 0.16358219 14998745
0.78887486 -0.055263467 0.16778935 14735830
0.79035717 -0.055118423 0.16265249 14801877
0.7888332 -0.044987392 0.16801126 15328221
0.79094434 -0.045108046 0.16290483 15328735
0.78900003 -0.035577457 0.16878596 14341328
0.79150009 -0.034357812 0.16360588 14210768
0.78900003 -0.028373908 0.16989419 14079696
0.78900003 -0.17152131 0.17635892 13157826
0.79143488 -0.17592001 0.1748486 10328728
0.7878148 -0.1653239 0.17496637 15197408
0.78483862 -0.15443917 0.17521916 15394529
0.78417265 -0.14489628 0.17511906 15196894
0.78660005 -0.13508826 0.17490128 15065307
0.78788012 -0.12516709 0.17518693 14999771
0.78836668 -0.11509269 0.17529598 14999515
0.78879982 -0.10499985 0.17539163 14999514
0.78899974 -0.095027417 0.17543542 14933978
0.79000002 -0.090364903 0.17565773 14933722
0.78900003 -0.083785795 0.17912951 14999515
0.79000014 -0.084816694 0.17417824 14868184
0.78900003 -0.075063556 0.17830859 14802136
0.79000014 -0.075030267 0.1729607 14802391
0.78866655 -0.064843826 0.17570227 14407378
0.79000002 -0.067555599 0.17072599 14867672
0.78780007 -0.055073563 0.17516686 14933465
0.78766668 -0.0449205 0.17513768 15460064
0.78855997 -0.034817889 0.17533709 14472913
0.78899974 -0.024679778 0.17543538 13881548
0.79000002 -0.022861656 0.17010953 14211540
0.78899986 -0.014715361 0.17650473 14079439
0.79000002 -0.014203084 0.1712864 14737885
0.78899997 -0.0057118628 0.17756662 14343383
0.79029417 -0.004967371 0.17245755 13356231
0.78900003 0.0033340107 0.17882167 14738141
0.79146671 0.0051996647 0.17418875 12106165
0.78900003 -0.17152131 0.18467069 14735831
0.79128575 -0.17678471 0.18493994 10525594
0.78782767 -0.16560845 0.1851598 15394530
0.78496963 -0.15527891 0.18506449 15460323
0.78396171 -0.14459047 0.18511508 15328480
0.78613883 -0.13500905 0.18491986 15065308
0.78790009 -0.12516959 0.18533495 15065308
0.78878105 -0.11538384 0.18496494 15065563
0.78900009 -0.10620243 0.18618193 15131355
0.79000002 -0.10423543 0.18371587 15065563
0.7889998 -0.094355106 0.18487597 15065306
0.79000002 -0.099611931 0.18305534 14999770
0.78892571 -0.084496416 0.1850633 14933721
0.78833336 -0.075410716 0.18543601 14604757
0.78702784 -0.065154813 0.18512757 14275793
0.78393757 -0.054632626 0.18479753 15196894
0.78536111 -0.044785943 0.18473516 15394273
0.78786665 -0.034787491 0.18532684 14933209
0.78858328 -0.024666782 0.18549459 13815240
0.78796661 -0.01450293 0.18534838 13552326
0.78726655 -0.0052743172 0.18518211 13881804
0.78683341 0.0048593283 0.1850792 14277075
0.78737032 0.014797363 0.18571867 14408918
0.79000002 0.016900534 0.18120594 14211539
0.78847057 0.023600444 0.18747731 14672090
0.7912727 0.026358338 0.18267374 11974578
0.79126686 0.035451714 0.18427101 11448234
0.79203331 0.044757672 0.18445037 10856097
0.78900003 -0.17152131 0.19482954 14867930
0.79117393 -0.17650646 0.19516437 11117732
0.78792298 -0.16589771 0.19527248 15394529
0.78556651 -0.15514483 0.19490147 15460579
0.78483993 -0.14489459 0.19472171 15328737
0.78536659 -0.13487801 0.1948515 15197150
0.78683996 -0.1249999 0.19521606 15065564
0.78844112 -0.1148856 0.19496237 15131358
0.78899974 -0.10502703 0.1948296 15262943
0.78886086 -0.094852164 0.19479464 15131356
0.78751731 -0.084616169 0.19499998 14670806
0.77900004 -0.070870131 0.198743 14078413
0.78448278 -0.075170264 0.19538383 14275792
0.77730781 -0.0642782 0.19816878 14275792
0.78295845 -0.065428607 0.19348657 14209999
0.77748293 -0.054913841 0.1962807 15197407
0.78100002 -0.056686938 0.19141653 14999515
0.77900004 -0.048986297 0.198743 15723751
0.78324246 -0.044745486 0.19482331 15394529
0.78756005 -0.034773454 0.19539589 14999515
0.78780007 -0.024643261 0.19545497 14078670
0.78583997 -0.01446465 0.1949687 13684168
0.78463995 -0.0052571581 0.19467157 13618375
0.78483331 0.0048488597 0.19471985 13750218
0.78564 0.014969094 0.19492018 13619145
0.7872811 0.025368065 0.19497851 14013903
0.78786671 0.035299148 0.19454554 14474712
0.78819036 0.044100683 0.19616526 14738141
0.79011112 0.045675844 0.19150718 12500924
0.78878564 0.054202087 0.19807371 14869470
0.7913183 0.055243433 0.19329454 11579562
0.78900003 0.064902782 0.1994472 13422025
0.79196006 0.065146454 0.19462867 11185062
0.79250002 0.074269585 0.19535886 11119269
0.79328001 0.094968647 0.19495744 11382697
0.78863645 -0.17261744 0.2052287 14604758
0.79133338 -0.17783505 0.20497563 10854815
0.78646666 -0.16544986 0.20524783 15460066
0.78558326 -0.15514593 0.20501851 15460322
0.78600001 -0.14510836 0.20513029 15328735
0.78588867 -0.13496926 0.20510112 15262941
0.78633332 -0.12491985 0.20521595 15262941
0.78800011 -0.11518677 0.20490675 15263199
0.7889998 -0.10502703 0.20498841 15328736
0.78854823 -0.094667047 0.20504908 14934235
0.78434479 -0.084342331 0.20485088 14341841
0.77703577 -0.074202634 0.20519193 14012876
0.78066665 -0.077723317 0.20160444 14144206
0.77457148 -0.064964764 0.2050581 14275793
0.77512509 -0.05508934 0.20501068 15328737
0.77883339 -0.048975814 0.20508093 15328994
0.78350008 -0.04369539 0.20519497 15131614
0.78726667 -0.0347603 0.20545827 15000028
0.78777432 -0.024493916 0.20484839 14210512
0.78660005 -0.014477233 0.20528729 13815754
0.7863667 -0.0052681328 0.20522718 13815754
0.78602767 0.0048552952 0.20513654 13749961
0.78616679 0.014977626 0.20517203 13486789
0.78499997 0.02506081 0.20486614 13223617
0.78350002 0.035102263 0.20447293 13487302
0.78318417 0.045366462 0.20472427 14079440
0.7845484 0.05523679 0.2049479 14540248
0.7865001 0.064698927 0.20525296 14803677
0.78804547 0.073714599 0.20691799 15066593
0.7907334 0.077140465 0.20259875 12237494
0.78900003 0.08337342 0.20868249 15329765
0.7917037 0.085718259 0.20424499 12105906
0.79196656 0.094812438 0.20482855 11645354
0.78795242 -0.17366725 0.21525612 14144464
0.79049999 -0.17855614 0.21393684 10065555
0.77900004 -0.16022913 0.2188032 15394273
0.78303581 -0.16472979 0.21502317 15394529
0.77900004 -0.15658183 0.21807373 15460066
0.78189296 -0.15441546 0.21405505 15525859
0.78460002 -0.14557955 0.21559589 15394273
0.78693348 -0.13514787 0.21550471 15262687
0.78751999 -0.12510924 0.21566682 15328480
0.78800005 -0.11490814 0.2150064 15262943
0.78869987 -0.10498686 0.21506403 15262943
0.78812909 -0.095509186 0.21481888 14802649
0.77875006 -0.082241714 0.21736525 13947340
0.78300011 -0.086268902 0.21501203 14144719
0.77585715 -0.07499972 0.21506357 13947340
0.7734288 -0.065127246 0.21484409 14210257
0.77365726 -0.054857288 0.21471313 15263201
0.77680957 -0.046335083 0.21619317 15197407
0.78218746 -0.042204067 0.21362999 15131615
0.78482145 -0.035043068 0.21551254 15065822
0.78737152 -0.024760475 0.2148335 14342098
0.78700006 -0.014484126 0.21552305 13881547
0.78631997 -0.0052686934 0.21533619 13749961
0.78559983 0.0048511382 0.21513882 13749961
0.78572005 0.014968557 0.21517289 13486789
0.78496659 0.025059927 0.21496762 13223617
0.78300017 0.035283327 0.21483625 13355202
0.78158826 0.044863954 0.21522707 13486788
0.78100008 0.055229701 0.21495165 13684168
0.78166664 0.065215141 0.21497451 13947596
0.77900004 0.07319846 0.21880321 13750215
0.78300011 0.075788833 0.21441893 14671576
0.78525722 0.084818617 0.21503413 15263970
0.78805006 0.092959806 0.21553192 15657959
0.7905556 0.097315989 0.21361756 12697273
0.79314828 -0.18521985 0.22504517 10262932
0.78740907 -0.17402755 0.22527032 13947085
0.79000002 -0.17913631 0.22374225 10131091
0.78269237 -0.16479841 0.22512737 15460322
0.77900004 -0.15658183 0.22062688 15525859
0.78242308 -0.15437919 0.22582689 15394273
0.78471422 -0.14499937 0.22506826 15328480
0.78716677 -0.1351866 0.22478294 15328480
0.78800005 -0.12518588 0.22502056 15262687
0.78796673 -0.11503522 0.22501089 15262943
0.78683341 -0.10474034 0.22560409 14933979
0.77833337 -0.092067875 0.22833312 14144719
0.78414816 -0.09554521 0.22438996 14539477
0.77650011 -0.08469753 0.22494902 14013133
0.78125 -0.088906944 0.22263475 14144718
0.7737779 -0.074926607 0.22518247 14012620
0.76783329 -0.062814794 0.22764786 14473429
0.77142859 -0.065453351 0.22346817 14276049
0.7679286 -0.056763906 0.22737648 15328995
0.77128005 -0.053915232 0.2234944 15394787
0.77417248 -0.045116954 0.22506821 15263200
0.7775715 -0.038363554 0.22568069 15328993
0.78331834 -0.033500232 0.22434837 15066078
0.78678131 -0.024839541 0.22501688 14539477
0.78700006 -0.014484126 0.22473504 14144719
0.78607136 -0.0050691022 0.22506149 14144719
0.78561091 0.0048517142 0.22525869 13881547
0.78589648 0.014846534 0.22518148 13618375
0.78619999 0.025101058 0.22450761 13355203
0.78533322 0.035116389 0.22534978 13487045
0.78333354 0.045180213 0.22552289 13618375
0.78195983 0.055170298 0.22512683 13618375
0.77900004 0.069551148 0.22153868 13749961
0.78100014 0.064831719 0.22504672 13684168
0.77888459 0.075501524 0.22466113 13947340
0.78000003 0.071466424 0.22730103 13815754
0.7788502 0.082757033 0.22578084 14210768
0.78144449 0.087047935 0.22396114 14736855
0.78653848 0.093812838 0.225168 14539477
0.79000002 0.09827432 0.22096813 11447207
0.79274088 -0.18539947 0.23489551 10262933
0.7877143 -0.17493252 0.23508115 14276050
0.78650004 -0.1648611 0.2358401 15394786
0.78714806 -0.15494229 0.23563176 15328993
0.78765392 -0.14527173 0.23577383 15263200
0.78788239 -0.13552818 0.23486072 15263200
0.78811115 -0.12499881 0.23468767 15262943
0.78752786 -0.11497307 0.2350253 15065565
0.78388894 -0.10414777 0.235263 14736856
0.77675009 -0.093550257 0.2355956 14210512
0.78066665 -0.097826421 0.23236775 14539477
0.7742334 -0.084938072 0.23468177 13947340
0.77187109 -0.074947402 0.2347528 13947083
0.76606262 -0.064654835 0.23522961 14407378
0.76602948 -0.054704439 0.23514609 15460322
0.77050006 -0.050255541 0.23174706 15657958
0.7725715 -0.044896871 0.23488763 15328993
0.77611542 -0.036641516 0.23539121 15328993
0.78200012 -0.031865463 0.23412441 15000028
0.78638244 -0.024377396 0.23495349 14671063
0.78746676 -0.014492637 0.23500903 14211282
0.78755569 -0.0054806503 0.23554756 14276819
0.78696686 0.0048596179 0.23578075 13948110
0.78665382 0.01512982 0.23547395 13684681
0.78700024 0.025126869 0.23486784 13355460
0.78600001 0.035072379 0.23527701 13486789
0.78334385 0.045407735 0.23503672 13684168
0.77900004 0.057879768 0.23740444 13684425
0.78112 0.054524474 0.23431936 13684168
0.7788825 0.065035284 0.23711096 13684682
0.78057891 0.065076135 0.23222949 13749961
0.77900016 0.07554315 0.23573714 13947598
0.78016669 0.072394691 0.23191516 13881547
0.7790001 0.081860803 0.23476017 14145490
0.78153843 0.086527064 0.23570126 14408662
0.78733325 0.094465919 0.23486497 12697530
0.79196882 0.10541689 0.23496002 11119011
0.79319984 0.11538523 0.2348593 11250597
0.78900003 -0.18075661 0.24839437 10131605
0.79238474 -0.18546224 0.24467836 10065555
0.78823084 -0.17518759 0.2451712 14802650
0.78826672 -0.164902 0.24539606 15328993
0.78867984 -0.15483516 0.24552536 15263200
0.78868955 -0.14484066 0.24565569 15197407
0.78892839 -0.13456744 0.24507414 15131614
0.78878552 -0.12550952 0.24496353 15197407
0.78703338 -0.11496379 0.24507223 14868699
0.77862501 -0.1022791 0.24717782 14407891
0.78282624 -0.10572267 0.24449702 14539733
0.77583337 -0.094922774 0.24497387 14144975
0.77350014 -0.084663354 0.24500096 13947340
0.76850003 -0.071713954 0.24913624 14013133
0.77142864 -0.075859703 0.24466653 13881547
0.76499981 -0.065128833 0.24531075 14342098
0.76328564 -0.054475062 0.2447598 15263457
0.76762503 -0.048493978 0.24705279 15329251
0.77187496 -0.044093538 0.24450809 15263458
0.77522594 -0.035570092 0.24531431 15263202
0.78033334 -0.030802399 0.24292497 15065822
0.7853334 -0.024808198 0.24498105 14737371
0.78796005 -0.0145017 0.24529986 14211283
0.78800005 -0.005278918 0.24531248 14211282
0.78796673 0.0048666527 0.24530229 14079696
0.78736001 0.014999802 0.24511394 13750731
0.78637511 0.025334848 0.2451508 13487559
0.78466678 0.035153832 0.2451902 13618632
0.78255886 0.044919763 0.24480216 13749961
0.77900004 0.05815332 0.24205476 13553095
0.78123808 0.054508157 0.24547209 13750218
0.778 0.065035276 0.2448009 13618889
0.77780014 0.074908718 0.24486694 13816525
0.77900004 0.080493063 0.24342251 14145491
0.78295243 0.085270584 0.24531247 14408662
0.78799999 0.092723563 0.24496703 11316391
0.79030001 0.097386941 0.24510379 10921889
0.78900003 -0.18075661 0.25208849 10658462
0.79188472 -0.18562889 0.25536057 10460569
0.78832 -0.17506538 0.25463995 15000284
0.78883308 -0.16502091 0.25480568 15328736
0.7889998 -0.15481377 0.25435534 15262943
0.79000002 -0.15571053 0.25888091 15263454
0.78899974 -0.1447389 0.25485909 15262943
0.78883982 -0.13455334 0.25480691 15131614
0.78830773 -0.12509391 0.25484687 15065821
0.78560001 -0.11561452 0.25504386 14736856
0.77691305 -0.10429046 0.25561792 14276561
0.78142864 -0.10898481 0.2534565 14473684
0.77441669 -0.094929866 0.25467885 14013132
0.76900005 -0.081361912 0.25860018 13947595
0.77210718 -0.085093215 0.25469282 13947339
0.76614285 -0.074699521 0.25573272 13947340
0.7701667 -0.07787966 0.25178036 13881547
0.75900006 -0.06075874 0.25879106 14736856
0.76197064 -0.065233596 0.25477964 14407891
0.75900006 -0.055502273 0.258717 15197407
0.76073915 -0.054573506 0.25393614 15263201
0.76490921 -0.046138722 0.25542733 15328995
0.77057141 -0.042528484 0.25225571 15131616
0.76900005 -0.03935625 0.25920027 15000030
0.77380008 -0.034937058 0.25491443 15197664
0.77840006 -0.028903836 0.2550773 15198177
0.78403461 -0.024042329 0.25457954 14737626
0.78684396 -0.014825529 0.2553122 14408661
0.78766686 -0.0052764518 0.25534895 14211025
0.78800005 0.0048670541 0.25453612 14210769
0.78772426 0.014880224 0.25520942 13882060
0.78652948 0.024892814 0.25525278 13553096
0.78352004 0.035101064 0.25492379 13619145
0.78199977 0.045188081 0.25492796 13816267
0.78189975 0.055166144 0.25531188 13815755
0.77829421 0.067021519 0.25429541 13684169
0.78100008 0.062284939 0.25645521 13749962
0.77741671 0.074719116 0.25460657 13881547
0.78000003 0.078770399 0.25925595 13881547
0.77900004 0.080493063 0.25254077 14079183
0.78383344 0.084821999 0.25494793 13092545
0.78847057 0.09298189 0.2550143 10725024
0.79044443 0.097713143 0.2540904 10856353
0.79225719 0.10491606 0.25511178 10856609
0.79258621 0.14510646 0.25492647 11250597
0.7889998 0.15582865 0.25527886 11184804
0.79033333 0.15094291 0.25364378 11250597
0.78900003 -0.18075661 0.26871207 14605272
0.79103851 -0.18500169 0.26506078 11184037
0.78876656 -0.17516401 0.26493841 15131356
0.78878111 -0.16541471 0.26528957 15328991
0.79000002 -0.16202933 0.26257974 15395040
0.78879988 -0.1542674 0.26557755 15328734
0.79000002 -0.15805312 0.26220983 15329247
0.78865612 -0.14525299 0.26467019 15262941
0.7877059 -0.13501133 0.2647981 15197148
0.78632247 -0.12486238 0.26467744 14934233
0.7786001 -0.11129824 0.26753902 14407633
0.78288466 -0.11577716 0.2646516 14605268
0.77585727 -0.10516263 0.264947 14210510
0.77303052 -0.095171422 0.26483506 14013131
0.76562077 -0.083995298 0.26559493 14078668
0.7705 -0.088134676 0.26331219 13947337
0.75900006 -0.07216008 0.26782325 14210255
0.76114279 -0.075292163 0.26424938 14078413
0.75809687 -0.064046502 0.26588541 14539477
0.76042861 -0.067909412 0.26165101 14276305
0.75773335 -0.054743037 0.26515654 15066335
0.75883341 -0.049198449 0.26672745 15394787
0.76249993 -0.044431258 0.2644448 15328994
0.76811117 -0.038710676 0.26549241 14934235
0.77304006 -0.033694919 0.26475999 15131614
0.77775002 -0.02796807 0.26487935 15131614
0.78331244 -0.023582665 0.26493949 15066078
0.78643322 -0.015392548 0.26507661 14737626
0.78700006 -0.0052722199 0.26526734 14276819
0.78730565 0.0048626019 0.26444763 14079183
0.78650004 0.015126527 0.26488462 14013134
0.78579992 0.025087357 0.26486161 13749961
0.78406912 0.035253409 0.26503906 13750474
0.7832337 0.045298167 0.26491553 13816267
0.78292012 0.055237938 0.26572552 13815754
0.77900004 0.068821684 0.26220614 13684170
0.78143996 0.064425491 0.26566222 13684169
0.77877784 0.073380463 0.26209122 13815756
0.78139997 0.075987384 0.26630718 13816269
0.78644007 0.085244372 0.26500687 11513770
0.78877783 0.092172712 0.26237896 10921632
0.79029417 0.095590651 0.26572537 10856096
0.79133344 0.10492558 0.26487678 10987425
0.79295999 0.1153517 0.26542085 11053475
0.78899997 0.15626137 0.26224735 11250854
0.79082352 0.15347922 0.26612219 11185063
0.78884608 -0.18228427 0.27554882 13486278
0.79064286 -0.1872153 0.27455837 9999763
0.787 -0.17457615 0.27506873 15197151
0.78531259 -0.16486019 0.274575 15394529
0.78632355 -0.15501978 0.27537581 15262943
0.78663337 -0.14522643 0.27526894 15262686
0.78540003 -0.13501798 0.27470651 15065307
0.77900004 -0.1210206 0.27807191 14407891
0.78300011 -0.12489977 0.27453318 14736856
0.77688897 -0.11406044 0.27586707 14276305
0.78116673 -0.11739522 0.27183416 14473684
0.77413338 -0.10486282 0.27488133 14144463
0.76594746 -0.092995264 0.27600002 13881547
0.77146679 -0.097155966 0.2738758 13947083
0.75900006 -0.082080729 0.2783362 14145232
0.76158613 -0.08582665 0.27458704 14144719
0.75862503 -0.074512176 0.27501574 14079439
0.76000005 -0.079104975 0.27182341 14013133
0.75666672 -0.065297782 0.27541202 14342612
0.75530553 -0.055451531 0.27491537 14869213
0.75833338 -0.048573565 0.27513137 15329508
0.76208693 -0.043496288 0.27494106 15328995
0.76809096 -0.038327768 0.27458587 14934237
0.77286363 -0.033217907 0.27497461 15131615
0.77700001 -0.027420321 0.27540824 15263200
0.78220004 -0.02318272 0.2742677 14934235
0.78599989 -0.015383661 0.27504963 15000028
0.78768003 -0.0052761198 0.2747165 14671063
0.78743351 0.0048626568 0.27463138 14079696
0.78625923 0.015183615 0.27463058 13948110
0.78552759 0.025078733 0.27488616 13750474
0.78507698 0.035032369 0.27543548 13750475
0.78503019 0.045084063 0.27512977 13750475
0.78300017 0.05524217 0.27491674 13816267
0.78158057 0.0651187 0.27459529 13618376
0.78432006 0.075539969 0.27501452 13749962
0.7882666 0.083420157 0.27443007 10921632
0.79030001 0.087951459 0.27637064 10790303
0.79207695 0.0947541 0.27496704 10856096
0.79233325 0.10480447 0.27499107 10921889
0.78852636 -0.18268922 0.28511515 13289412
0.79000002 -0.18756138 0.28477255 9933969
0.7863704 -0.17483874 0.28489497 15197408
0.78456002 -0.16504692 0.2846497 15263200
0.78519988 -0.15507016 0.28488201 15197151
0.78503996 -0.14493266 0.28482345 15197151
0.78341407 -0.13539945 0.28499067 14933722
0.77806675 -0.12324462 0.28556919 14473684
0.78149998 -0.12804212 0.28399384 14671063
0.77474999 -0.11512455 0.28501588 14079182
0.76684612 -0.10221779 0.286504 13947596
0.77166677 -0.10590428 0.28383899 13881804
0.75900006 -0.091557175 0.28840491 14078926
0.76232255 -0.095319621 0.28440273 13947340
0.75856012 -0.084424973 0.28558457 14013390
0.76000005 -0.088000841 0.28249848 14079439
0.7575143 -0.075250722 0.2847141 14144976
0.75503343 -0.065157779 0.28542247 14342354
0.75341666 -0.055313446 0.28481227 14802906
0.75782359 -0.047548328 0.28496507 15198178
0.76161116 -0.042541515 0.28493723 15198178
0.76800013 -0.038404945 0.28493276 15066080
0.77256525 -0.033087879 0.28501406 15065822
0.77645457 -0.026349479 0.28525814 15394787
0.78112507 -0.022147011 0.28385794 15000028
0.78500003 -0.015591634 0.28515089 14671063
0.78746676 -0.0052739414 0.28478113 14802649
0.78800005 0.0048670541 0.28497395 14276562
0.78753579 0.014805695 0.28513628 14013646
0.78676677 0.025119187 0.28544986 13816011
0.78619993 0.03522357 0.28524384 13815754
0.78529996 0.045293447 0.28491682 13881548
0.78303343 0.055244766 0.2850118 13881547
0.78254837 0.06484542 0.28457019 13618376
0.78625005 0.075462818 0.28526229 12368565
0.78890914 0.082356535 0.2848835 10527130
0.79046667 0.087230168 0.28494126 10658717
0.79262954 0.094960369 0.28496504 10790304
0.79327995 0.1051458 0.28432286 10921889
0.78847057 -0.18291645 0.29529607 13881292
0.7902 -0.18769126 0.2948336 10197142
0.78631997 -0.1746213 0.29449117 15263200
0.78649992 -0.16453198 0.29455951 15197407
0.78724015 -0.15455219 0.29483747 15065821
0.78667998 -0.14523542 0.29462817 15196894
0.78419995 -0.13552773 0.29516584 14736856
0.77690923 -0.12417112 0.29509833 14144719
0.78100008 -0.12929794 0.29458818 14342098
0.76900005 -0.11136596 0.29880559 13947340
0.77318525 -0.1156634 0.29499945 13947340
0.76427591 -0.10495131 0.29548341 13947340
0.77040005 -0.10904416 0.29177454 13947340
0.75858337 -0.093284018 0.29557151 14210512
0.7603001 -0.098536953 0.29346615 14013133
0.7573666 -0.084860198 0.29517129 14078926
0.75627798 -0.075001538 0.29474661 14078926
0.75353575 -0.064837895 0.29512686 14276305
0.75255561 -0.055251107 0.2950564 14473942
0.75676 -0.046733204 0.2954638 15000800
0.76099998 -0.041766774 0.29421052 15132386
0.76566672 -0.037589468 0.2961086 14869214
0.77204776 -0.032882903 0.29491043 14803421
0.7757858 -0.025169739 0.29508322 15197665
0.78000003 -0.021659272 0.29029784 15592935
0.77900004 -0.019807851 0.29813212 15132128
0.78415155 -0.01498177 0.29473388 14606040
0.78740007 -0.0052736825 0.29489473 14606040
0.78800005 0.0048670536 0.29511991 14342611
0.78763998 0.015005044 0.29498464 14078926
0.786879 0.025373932 0.29520178 13881547
0.78623325 0.035225034 0.29537791 13815754
0.78566647 0.045315638 0.29516694 13881548
0.78483993 0.055373024 0.29577503 13881549
0.78525001 0.064519703 0.29539371 13749963
0.78785187 0.074511699 0.29472426 11579051
0.79000002 0.079163812 0.29895136 10592667
0.78900003 0.081526354 0.29180035 10461338
0.79108012 0.085521735 0.29508907 10658717
0.78845447 -0.18323372 0.30502227 14276307
0.79000002 -0.18838333 0.30511603 9802130
0.78730011 -0.17483799 0.30499518 15263201
0.78775007 -0.16479473 0.30516919 15197151
0.78776675 -0.15465537 0.30517435 15065308
0.78736675 -0.14536174 0.30501831 14999771
0.77840006 -0.13167921 0.30828863 14078926
0.78400004 -0.13590789 0.3046985 14539221
0.77566665 -0.12492462 0.30520523 13947340
0.78000003 -0.12939292 0.3012538 14276305
0.76777774 -0.11178878 0.30551785 13816011
0.77252388 -0.1167875 0.30456534 13815754
0.76177412 -0.10503199 0.30525616 14013389
0.7588532 -0.095006235 0.30489466 14276562
0.75744003 -0.08486861 0.30495334 14210512
0.7554 -0.074789427 0.30488864 14078926
0.75283873 -0.065024331 0.30520079 14276561
0.74846661 -0.052907564 0.30717939 14079696
0.75050014 -0.056052919 0.30354866 14145233
0.74817646 -0.045295686 0.3081252 14606044
0.75406253 -0.043937046 0.30363917 14935009
0.75683331 -0.03686063 0.30676922 14934754
0.7631852 -0.03309929 0.3040812 14737628
0.77050006 -0.030414244 0.30209348 14737628
0.76666665 -0.02786885 0.30776593 15263972
0.7736429 -0.024647722 0.30448744 15132386
0.778 -0.019174539 0.30594403 14935007
0.78350008 -0.014343715 0.30472124 14671835
0.78713346 -0.0052718655 0.30493039 14540249
0.78800005 0.0048670536 0.30526587 14342613
0.78746676 0.015001458 0.30505905 14013648
0.78603017 0.024842959 0.30491975 13816269
0.78540003 0.035188198 0.30517676 13816013
0.78546673 0.04530482 0.30520254 13750220
0.78499991 0.055385064 0.305022 13619147
0.78666663 0.064918935 0.30526099 13289928
0.78860003 0.072378151 0.30408353 10592414
0.79046667 0.077854395 0.30579051 10395545
0.79228562 0.085775778 0.30540338 10658460
0.79260719 -0.19471002 0.3151975 9867922
0.78833336 -0.18443319 0.31540787 14144722
0.79000002 -0.18838333 0.31158894 9670544
0.78680778 -0.1746586 0.31514555 15197151
0.78682762 -0.16476075 0.31481484 15065308
0.78642875 -0.15439355 0.31530699 14999515
0.77900004 -0.14016895 0.31910411 14538964
0.78425807 -0.14473139 0.315034 14867929
0.77625006 -0.13346781 0.31570378 13947340
0.78144449 -0.13776419 0.3125819 14473684
0.77351725 -0.12469824 0.31504509 13750217
0.7664091 -0.11319704 0.31549251 13816268
0.77099997 -0.11789166 0.31385654 13684681
0.75900006 -0.1016259 0.31742653 14342612
0.76068187 -0.10554921 0.31459433 14145489
0.75841671 -0.094743617 0.31510961 14145232
0.75597149 -0.084503524 0.31502363 14079183
0.75280011 -0.075098023 0.31497294 14013390
0.74844992 -0.06397438 0.31701368 13881547
0.75056255 -0.066417076 0.313054 13882061
0.74743581 -0.055079039 0.31532472 13882060
0.7464 -0.045188952 0.31535879 14342870
0.74730432 -0.037483539 0.31608286 14803421
0.75442857 -0.033559818 0.31391025 14606044
0.75857151 -0.029435718 0.31682324 14671580
0.76366669 -0.026393197 0.31460562 15066339
0.77209097 -0.022588028 0.31413633 15066594
0.776375 -0.018148188 0.31530035 14935007
0.78335005 -0.012945737 0.31483144 14540249
0.78688002 -0.0052708536 0.31496352 14539993
0.78710014 0.0048616123 0.31505117 14342613
0.78692001 0.014991698 0.3149797 14013648
0.78596663 0.025092401 0.31459868 13816526
0.7851851 0.035382435 0.31469414 13816269
0.78405589 0.045221027 0.31474927 13684940
0.78333366 0.055268046 0.31445938 13619150
0.78589284 0.064453475 0.31515774 12171703
0.78866661 0.07236363 0.31526768 10198168
0.79038888 0.07786715 0.31492791 10395547
0.79223996 0.085572012 0.31525403 10527133
0.78875005 -0.19247088 0.32563627 9670800
0.79100001 -0.19660863 0.32471275 9802386
0.78667754 -0.18527727 0.32462275 13749708
0.7841028 -0.17488143 0.3252376 15065565
0.78411448 -0.16495287 0.32486379 14933979
0.77825004 -0.15142129 0.32790521 14868186
0.78324252 -0.15565737 0.32405746 14934236
0.77708358 -0.14490409 0.32566822 14802649
0.78150004 -0.14679381 0.32172796 14933979
0.77452642 -0.13502504 0.32509336 13486789
0.76785719 -0.12147252 0.32737747 13552583
0.77196002 -0.1252422 0.32445827 13487302
0.76333338 -0.11452207 0.3254858 14144720
0.77000004 -0.11872112 0.32082516 13684938
0.75887495 -0.10312696 0.32562745 14473428
0.76016682 -0.10712104 0.32354918 14342098
0.75651509 -0.094964288 0.32491696 14407634
0.74900001 -0.080765501 0.32645342 14407891
0.75193548 -0.085731074 0.3245385 14342098
0.74817228 -0.074951805 0.32501575 14276305
0.75000006 -0.07876642 0.32127085 14276305
0.74720573 -0.065560609 0.32470295 14013132
0.74656665 -0.054812595 0.32504237 13684168
0.74596179 -0.045028251 0.32498106 14078670
0.74661297 -0.03600746 0.32540044 14671322
0.75100005 -0.031402618 0.32257536 14540249
0.75604999 -0.027981102 0.32518476 14606042
0.7638889 -0.02329332 0.32502899 14737628
0.77150005 -0.021423241 0.32235026 14737628
0.77495831 -0.017205264 0.32522833 14869214
0.78238457 -0.011861518 0.32485598 14606042
0.78603327 -0.0052647283 0.32474482 14540248
0.78622222 0.0048554889 0.32482392 14277076
0.78596669 0.014973818 0.32471591 14013904
0.78577763 0.025087787 0.32463768 13882061
0.78473336 0.035156503 0.32493991 14013135
0.78297251 0.045160521 0.32531264 13881808
0.7835387 0.055142757 0.32484388 13618894
0.78569233 0.064703628 0.32495886 10724256
0.78810346 0.074820019 0.32480508 10329753
0.79000002 0.079780273 0.32176065 10395547
0.79141384 0.085356794 0.3249546 10527133
0.79268962 0.16522045 0.32509547 10987682
0.7926296 0.17447421 0.32509848 11119268
0.78877783 -0.19240063 0.33418947 9736337
0.79100001 -0.19714139 0.33513018 9736850
0.78633338 -0.18567266 0.33499408 14078929
0.78292876 -0.17511156 0.33544236 14933979
0.78166658 -0.16484587 0.33476767 14802649
0.77838105 -0.15359557 0.33455607 14868185
0.78012508 -0.15817775 0.3350876 14868442
0.77567863 -0.14482607 0.33467034 14736343
0.77342319 -0.13540715 0.33513391 13420483
0.76604348 -0.12411957 0.33546725 13025727
0.77088886 -0.12908477 0.33382609 13091519
0.75900006 -0.11213882 0.33800817 14802649
0.7606923 -0.11571268 0.33441132 14342098
0.7579475 -0.10500555 0.3350381 14868442
0.74849999 -0.090874642 0.33902636 14867929
0.75368756 -0.095147952 0.33502913 14868185
0.7481153 -0.08368893 0.33635867 14999514
0.7505334 -0.087023184 0.33262667 14933722
0.74679989 -0.074934892 0.33475849 14802135
0.74561548 -0.065014854 0.33469644 14671062
0.74537522 -0.054898076 0.33472979 14539734
0.74527299 -0.045121413 0.33494571 14342099
0.74570292 -0.035565212 0.33499703 14408150
0.74833328 -0.02953925 0.33807477 14276563
0.75517398 -0.026957914 0.33478114 14605272
0.76241666 -0.022061573 0.33551052 14539479
0.76850003 -0.019540865 0.33684012 14605272
0.77458334 -0.015457816 0.3347435 14934493
0.78157145 -0.010985726 0.33505401 14803163
0.78532141 -0.0054544425 0.33515161 14736856
0.7864334 0.0048557785 0.33503619 14408148
0.78515375 0.014816991 0.33470374 14079439
0.78499991 0.025279414 0.33507448 13882060
0.78389305 0.034922134 0.33519936 14013647
0.78290021 0.04515674 0.33536416 13882065
0.78520006 0.05540264 0.33488017 13289929
0.78807694 0.064970285 0.33552551 10197910
0.78862494 0.073796101 0.33381692 10329752
0.79014289 0.0787379 0.33661714 10395545
0.79172003 0.085517541 0.33506486 10592924
0.79299992 0.17495994 0.33538085 10987940
0.7929998 0.18497138 0.33504927 10922403
0.78900003 -0.19183901 0.3453652 12302008
0.79147059 -0.19603869 0.34524721 9670544
0.78655559 -0.18565644 0.34504339 14539222
0.78241396 -0.17546006 0.34506905 14802650
0.77875006 -0.16154546 0.34862611 14671065
0.78121209 -0.1655068 0.34428179 14605272
0.77816671 -0.15391062 0.34585884 14605014
0.78000003 -0.15769583 0.34325168 14671064
0.77625936 -0.14533179 0.34483579 14671063
0.77334487 -0.13565859 0.34500414 13618120
0.76486361 -0.12412043 0.34513342 12499896
0.77000004 -0.12953663 0.34516004 12697019
0.75872725 -0.11246211 0.34503075 14210513
0.76070589 -0.11739361 0.34481716 13026240
0.74849999 -0.10138816 0.34778762 14407892
0.75485289 -0.10558155 0.34460044 14539477
0.74694115 -0.094647638 0.34546602 14736858
0.7507143 -0.097922742 0.34166044 14736857
0.74511111 -0.08484339 0.34494773 14802905
0.74412507 -0.075318784 0.34509677 14802391
0.73816675 -0.061972667 0.34903392 14473686
0.74302548 -0.065368928 0.34481505 14539478
0.73684216 -0.054779436 0.34767848 14736857
0.74261534 -0.054586545 0.34304392 14671322
0.73633331 -0.045440998 0.34730235 14803163
0.74222732 -0.045331214 0.34305251 14671835
0.73799998 -0.038509142 0.34821418 14803421
0.74328578 -0.035004001 0.34439144 14540249
0.74721426 -0.028243976 0.34568968 14277077
0.75522226 -0.024698654 0.34462032 14277077
0.7610001 -0.021385843 0.344304 14276564
0.765625 -0.01924273 0.34610483 14342357
0.7743448 -0.014118344 0.34469625 14934237
0.77900004 -0.0088659329 0.34737074 15000030
0.78321427 -0.0049805674 0.34453112 14736857
0.78574973 0.0048535797 0.34486139 14407891
0.78586197 0.015099837 0.34506994 14013133
0.78562492 0.024851628 0.3453818 13815754
0.78357708 0.035245288 0.34503588 13750476
0.78316158 0.045025572 0.34482053 13553357
0.78696001 0.055527102 0.34484127 12105911
0.78891677 0.062895328 0.34425166 10198167
0.79000002 0.06683445 0.34679878 10132374
0.79084402 0.075007588 0.34501588 10329753
0.79307401 0.085593238 0.34522423 10592925
0.79342842 0.10506794 0.34464651 10790304
0.79309666 0.11518963 0.34421989 10856097
0.79310721 0.12445518 0.3447085 10856097
0.79307997 0.17477831 0.34529456 11053475
0.79279995 0.18492411 0.34517187 10987683
0.79223996 0.1949942 0.34492788 10922405
0.78900003 -0.19183901 0.35460049 13553101
0.79112506 -0.19617723 0.35520744 9473935
0.78524148 -0.18541759 0.35474598 14408151
0.77858835 -0.17311847 0.35560253 14802395
0.78107136 -0.17750487 0.35377836 14868444
0.77780652 -0.16527063 0.35403091 14539736
0.77670991 -0.15483239 0.35499999 14605529
0.77550012 -0.14498761 0.35488659 14473943
0.76900005 -0.13116863 0.35821363 13420998
0.77251858 -0.13532247 0.35482761 13881548
0.76465517 -0.1251885 0.35470259 12631481
0.75846666 -0.11327434 0.35449031 13158082
0.76046169 -0.11766192 0.35478419 12368823
0.7481429 -0.10184076 0.35350206 14013135
0.75388891 -0.10682927 0.35460341 13749962
0.74503225 -0.094452702 0.35425022 14211027
0.7379232 -0.082415834 0.35622695 14605784
0.74164999 -0.08587797 0.35345858 14474198
0.73597574 -0.074605159 0.35500872 14605269
0.74085724 -0.075823382 0.35055473 14670806
0.73425013 -0.065082006 0.35490677 14407636
0.74100006 -0.069147751 0.35037482 14604757
0.7322858 -0.055478029 0.35482082 14736857
0.73242861 -0.045198951 0.35489103 15000285
0.73585182 -0.036825512 0.35540003 14540249
0.74235719 -0.03228046 0.35411835 14211028
0.74650002 -0.027716974 0.35501245 14211284
0.75494742 -0.022818305 0.35472807 14145491
0.76364708 -0.017835215 0.35508132 14342869
0.77338099 -0.012935549 0.35430247 14868957
0.77818185 -0.0081934743 0.35553232 14934237
0.78205007 -0.0037725277 0.35458794 14802651
0.78548384 0.0047057653 0.35503653 14473686
0.78587997 0.014972073 0.35503769 14013134
0.78483874 0.025204796 0.35474482 13815755
0.7832762 0.034966581 0.35493773 13816013
0.78410023 0.04522923 0.35454148 13618892
0.78785175 0.055520996 0.35483596 10526877
0.78900003 0.061208658 0.35460049 10132373
0.79025006 0.065931477 0.35516229 10263959
0.79150003 0.074904017 0.35572389 10395545
0.79316127 0.084772654 0.3548525 10592925
0.7924332 0.10506876 0.35428911 10724511
0.79267991 0.11531012 0.35440078 10790304
0.79335707 0.1550063 0.35450366 10856354
0.79270363 0.17490087 0.35482097 10856610
0.79155564 0.18463361 0.35482112 10921890
0.79170001 0.19486254 0.35488638 10987427
0.78890002 -0.19255351 0.36397466 11250346
0.79091668 -0.19647183 0.36549065 9605776
0.78579164 -0.18562238 0.3647339 13224136
0.77866673 -0.17231359 0.36210904 14736601
0.78207153 -0.17655574 0.36587381 12566205
0.77766681 -0.16501148 0.36275807 14210516
0.78100002 -0.16521135 0.36837542 10394525
0.77740008 -0.15553279 0.36224884 14342616
0.78100002 -0.15515737 0.36746007 14605790
0.77650005 -0.14494704 0.3637549 14211031
0.78125006 -0.14697707 0.36940661 14539483
0.76900005 -0.13116863 0.36001384 13947342
0.77414292 -0.13567321 0.36484092 13553356
0.76700002 -0.12499601 0.36266869 12434102
0.77187496 -0.12578775 0.36768526 12829116
0.75900006 -0.1116946 0.36066279 12829631
0.76384616 -0.11502449 0.36434406 12434103
0.7574445 -0.1045706 0.36347103 13355205
0.76200002 -0.10643102 0.36743987 12368310
0.7470001 -0.092662208 0.36239213 14013135
0.75339997 -0.097465828 0.36470595 13618376
0.73711115 -0.081631839 0.36368394 13815753
0.74323082 -0.086490549 0.36494666 13749706
0.7332812 -0.074063383 0.36426702 13947594
0.72900003 -0.061201539 0.36773986 13749704
0.7310372 -0.064923182 0.36493221 13684168
0.7274285 -0.054843977 0.36531392 14539735
0.73014289 -0.056658596 0.36111286 14670550
0.72761542 -0.046473026 0.36585876 14737374
0.7306 -0.043091375 0.36335853 14802909
0.73335904 -0.034928381 0.3648918 14408666
0.74200004 -0.031026289 0.36126828 14145494
0.7373333 -0.028529152 0.36733839 14145495
0.74475998 -0.026255896 0.3652592 14145494
0.75426668 -0.022117862 0.36417577 14145491
0.75871426 -0.01903821 0.36560068 14211285
0.76425004 -0.015669731 0.36502936 14342869
0.77215385 -0.011706545 0.3639909 14737627
0.77618182 -0.0064351666 0.36560199 14803163
0.78130013 -0.002490127 0.36375755 14802651
0.78486103 0.0048515354 0.36498693 14539479
0.78573328 0.014968748 0.36508828 13882062
0.78499991 0.02493195 0.36487901 13684940
0.78503996 0.035173193 0.36568633 13750733
0.78639275 0.045031723 0.36460739 13224135
0.7885384 0.055068471 0.36490104 10066325
0.79000002 0.058820363 0.36922869 10198168
0.78900003 0.061208654 0.36198878 10198166
0.79026097 0.065329246 0.36489993 10198168
0.79120022 0.075271562 0.36485034 10395546
0.79210705 0.085754991 0.36467189 10592926
0.79275846 0.094779179 0.3644816 10658719
0.79270965 0.17505303 0.36482811 10856611
0.79103714 0.1850273 0.36498129 10791075
0.79132009 0.19476934 0.36490601 10791075
0.79271424 -0.19504175 0.37544942 10329754
0.78840005 -0.18505022 0.37223381 10000536
0.79144454 -0.185435 0.37711036 10132375
0.7865715 -0.17401913 0.37376803 9934484
0.79050004 -0.17647441 0.37840682 9935253
0.7867223 -0.16468316 0.3755787 9869462
0.78619057 -0.15504579 0.37446523 10197915
0.78556257 -0.14480074 0.37535805 10066071
0.77725005 -0.13212226 0.37161031 11908530
0.78418183 -0.13643037 0.37680447 9539985
0.77622229 -0.12473057 0.37328994 11250343
0.78220004 -0.12463339 0.37864539 8947332
0.77442855 -0.11487206 0.37434283 12104881
0.76725006 -0.10348315 0.37356254 12697531
0.77320004 -0.105822 0.37754697 11711151
0.75766677 -0.093169786 0.37362814 13355461
0.76300001 -0.096657537 0.37506685 12302774
0.74466676 -0.083439261 0.37302437 12697017
0.75266671 -0.087563492 0.37556949 12631224
0.73466676 -0.072575495 0.3708832 12828861
0.745 -0.07823696 0.3756907 12565945
0.72900003 -0.061201539 0.37029976 14342100
0.73200005 -0.068307899 0.37010998 12566457
0.72620004 -0.054167219 0.37057751 13750475
0.72787511 -0.044277806 0.37185803 13948112
0.73049998 -0.040806107 0.37191612 13290439
0.73346162 -0.035021931 0.37243456 13158599
0.74400002 -0.032851633 0.37966076 12698049
0.73725009 -0.028237334 0.37190181 14145495
0.74494451 -0.024167323 0.37471446 13948116
0.75100005 -0.020853991 0.37268251 14013909
0.75654548 -0.018430091 0.374145 14079701
0.76444447 -0.014062895 0.37487537 14277334
0.7713334 -0.010584381 0.37464902 14671834
0.77541399 -0.0051257443 0.37496847 14737626
0.77900004 0.00025233286 0.37928465 14671833
0.78300023 0.0048418869 0.37481469 14473941
0.78575999 0.01497044 0.37521827 13947854
0.78543323 0.025076933 0.37506348 13553354
0.78596008 0.035215069 0.37531489 13553354
0.78807998 0.044313326 0.37492454 12632252
0.79000002 0.048340406 0.37909219 9803408
0.78883338 0.051347066 0.37237704 9934996
0.79070002 0.055511288 0.37572691 10001302
0.7920416 0.065308571 0.37466606 10133145
0.79270387 0.074898228 0.37461874 10264475
0.79303569 0.085060097 0.37518099 10461853
0.79288 0.17473412 0.37490624 10987684
0.7926895 0.18473941 0.37469089 10921891
0.78900003 -0.16320953 0.3804594 9869971
0.79236859 -0.16473803 0.38540667 9869971
0.79187995 -0.15524001 0.38533688 9803921
0.78900003 -0.14529301 0.3808288 9342859
0.79225004 -0.14475568 0.38597021 9343630
0.78814298 -0.13364492 0.3824189 9079434
0.79200006 -0.13524608 0.38762453 9145738
0.78728575 -0.12507138 0.38332018 9013381
0.79170007 -0.12558731 0.38843513 9145480
0.78600001 -0.11474771 0.38484311 9342347
0.79050004 -0.11725602 0.38858497 8881796
0.77675003 -0.10476529 0.3813706 11908530
0.7840001 -0.10497987 0.38722479 10197656
0.77385718 -0.096029051 0.3860946 10592156
0.75900006 -0.085042112 0.38376158 8815235
0.7615 -0.086215325 0.38591522 8882053
0.75699997 -0.075072952 0.3845225 12105651
0.74900001 -0.037455969 0.3839657 13224646
0.75033337 -0.033130504 0.38464928 12106165
0.74633336 -0.027710786 0.38085151 12632509
0.75450003 -0.024127942 0.38502127 12829888
0.76000005 -0.02288308 0.38960475 12632509
0.75800002 -0.018563144 0.38219127 13948370
0.76450008 -0.015703866 0.38578987 13948113
0.77175003 -0.011266362 0.38546559 14672091
0.77530771 -0.0050500091 0.38488525 14803420
0.77844453 0.00085977715 0.38630176 14803421
0.7827037 0.0059586801 0.38481832 14606041
0.7862308 0.014839486 0.38485846 14013647
0.78733343 0.025137713 0.38518685 13618889
0.78764009 0.035289589 0.38533634 13487561
0.78877765 0.043239452 0.38507161 11250602
0.79000002 0.04764688 0.38533393 9869975
0.792606 0.055081543 0.38512221 9935766
0.7930553 0.15527911 0.38519952 10790560
0.79299992 0.1654789 0.38517278 10856096
0.79291677 -0.11498582 0.39549807 9145995
0.7881667 -0.10245686 0.39328119 8816260
0.79078573 -0.10632388 0.39599934 9211018
0.77625006 -0.092881858 0.39248401 9145226
0.7847501 -0.096428685 0.39678001 9211017
0.7753334 -0.084151529 0.39625719 9342859
0.77400005 -0.075844549 0.3949697 9079430
0.75900006 -0.031737134 0.3908689 12698302
0.76700002 -0.031173866 0.39678431 10855841
0.77150005 -0.034970716 0.39911225 10263704
0.75900006 -0.029960301 0.3908689 12698302
0.7654286 -0.024583576 0.39443868 12040372
0.77166671 -0.023232013 0.39919844 12434873
0.76800007 -0.01772791 0.39310578 12829888
0.77305555 -0.013421007 0.39539438 13882577
0.77541375 -0.0050677834 0.3949405 14803164
0.77752393 0.0031149192 0.39503375 14803163
0.78157151 0.0080957441 0.39399463 14606040
0.78493762 0.014900907 0.39486155 14211282
0.7868889 0.025125148 0.39509714 13619148
0.78832 0.035320524 0.39489558 13158599
0.78900003 0.041629784 0.39301941 10066586
0.79050004 0.045411259 0.39561775 9869974
0.79277402 0.055157367 0.39509124 10067095
0.79299998 0.065350682 0.39466184 10133402
0.7914359 0.074982867 0.39497778 10264730
0.78900003 0.085220478 0.39892998 10592924
0.79167747 0.085510798 0.39441869 10527388
0.79197156 0.094811395 0.39486176 10658718
0.79266661 0.10474486 0.39530504 10593181
0.79305685 0.13472477 0.39461508 10659231
0.79288 0.14503634 0.39532289 10659231
0.79197145 0.15519868 0.3956629 10659487
0.79169995 0.16520746 0.39565998 10725025
0.79248136 0.17485371 0.39471075 10790818
0.79312897 -0.13540442 0.40544638 9934995
0.78800005 -0.094287939 0.40211329 9408652
0.79133338 -0.095767744 0.40582287 9540495
0.78600001 -0.084620476 0.40408537 9474445
0.79100001 -0.084926873 0.40919995 9606031
0.78627276 -0.074874751 0.40374479 9342860
0.79025 -0.07351125 0.40811813 9540239
0.79250008 -0.066298731 0.40696248 10066073
0.79200006 -0.05165787 0.40971732 10658719
0.7858572 -0.042590421 0.40732771 11119013
0.79100001 -0.048816197 0.40919998 12237751
0.7753334 -0.034843836 0.40260801 10460830
0.78240001 -0.034553289 0.40841427 9539982
0.77480012 -0.025140177 0.40263325 11184806
0.78120005 -0.02534833 0.40778786 11842480
0.77633333 -0.015193786 0.40252247 11777199
0.78150004 -0.015299411 0.40794447 11447978
0.77786672 -0.0052105659 0.40422875 12697788
0.77820003 0.0026216523 0.40221471 14408662
0.78100002 0.0065926136 0.40549043 13816524
0.78329647 0.015130286 0.40480733 14211282
0.78574187 0.024941608 0.40481886 13816527
0.78847361 0.033967167 0.4042013 12960965
0.79028571 0.038579125 0.4059239 9737363
0.79282612 0.044885769 0.40530437 9935765
0.79181474 0.065200739 0.40481526 10133144
0.78899997 0.07704062 0.40341583 10264729
0.79006249 0.073428534 0.40594086 10264474
0.7889998 0.084979571 0.40414992 10461851
0.79000002 0.088102594 0.40868264 10462108
0.78900003 0.091817133 0.40341574 10527901
0.79005557 0.095609874 0.40542358 10527644
0.79100019 0.10503165 0.4053179 10527645
0.79285187 0.11512988 0.40500158 10593183
0.79322577 0.13503447 0.40496054 10724510
0.79163331 0.1448071 0.40489346 10790303
0.79041952 0.15461256 0.40501866 10724510
0.79075003 0.1648569 0.40521505 10724767
0.79337502 0.17469163 0.40470436 10790561
0.79299986 -0.15550663 0.41472256 10330010
0.79063362 -0.14503933 0.41456249 10198168
0.79167998 -0.13503537 0.41511276 10000789
0.79279304 -0.055550564 0.41492689 9672081
0.78850007 -0.043124437 0.41159847 9606031
0.79109526 -0.046044402 0.41586354 9737874
0.78850007 -0.034202036 0.4137522 9540238
0.79000002 -0.034728665 0.4177756 9737616
0.78831244 -0.024658496 0.41519287 9869204
0.79000002 -0.025371563 0.41951489 9540238
0.78680956 -0.014745379 0.41519397 11382441
0.78490007 -0.0052594389 0.41431865 12171956
0.78512508 0.0048512961 0.41443634 12500665
0.78670007 0.01498978 0.41526589 12105393
0.78786194 0.02531524 0.41508383 12040374
0.78885716 0.032441512 0.41336814 10987430
0.79084218 0.03640851 0.41554961 9935253
0.79336363 0.065006562 0.41464585 10132890
0.7916401 0.075422309 0.41435188 10264218
0.79134631 0.08525978 0.4150829 10396316
0.79152006 0.094757862 0.41503009 10396316
0.79183328 0.10499115 0.41519254 10462109
0.792 0.11540904 0.41468173 10527902
0.79206461 0.12466996 0.41453251 10593438
0.79232341 0.13473202 0.41451988 10658717
0.79144007 0.14477141 0.41498607 10724510
0.79050022 0.15477954 0.41449443 10724510
0.79184622 0.1653831 0.414985 10790303
0.79291296 -0.1451726 0.42415524 10132888
0.7924 -0.05539532 0.42476419 9804180
0.79163331 -0.045148864 0.42435399 9738387
0.79154563 -0.035203107 0.42481318 9803922
0.79220837 -0.024779893 0.4255909 9672337
0.78900003 -0.01267387 0.42109478 9079173
0.79123527 -0.014889952 0.42555866 9540495
0.78875005 -0.0045921719 0.42165405 12039860
0.79049999 -0.005758408 0.42606005 9408653
0.78850007 0.0048701419 0.42175141 11251116
0.79049999 0.0048824945 0.42652237 9672339
0.78887504 0.014337632 0.42172071 9671570
0.79066676 0.015526767 0.42615008 9606548
0.78900003 0.022420332 0.42109478 9672597
0.7908572 0.025646519 0.42526174 9803925
0.79217404 0.03573595 0.42496681 9869973
0.79236662 0.1050597 0.4247475 10462110
0.79124016 0.11509915 0.42414355 10462110
0.79100019 0.12538129 0.42480749 10462110
0.79086679 0.13541064 0.4248668 10527903
0.79066682 0.14463136 0.42475918 10527646
0.79123545 0.15470648 0.42479378 10658719
0.79255986 0.16538811 0.42485151 10658976
0.79338455 -0.055321302 0.4347946 9936278
0.79216647 -0.045178339 0.43483961 9936024
0.79300004 -0.035212729 0.43496612 9936280
0.7920689 0.1255116 0.43526584 10593183
0.79032016 0.13531609 0.43475053 10658719
0.7889998 0.14543474 0.43601903 10592926
0.79000002 0.14450943 0.43140391 10527133
0.78900003 0.15277021 0.43745449 10658719
0.79066676 0.15604733 0.43370566 10658719
0.79273325 0.16542558 0.43514875 10724512
0.79269987 -0.045208924 0.44533861 10198684
0.7918666 0.13465255 0.44487175 10462110
0.78900003 0.14822586 0.44325951 10461853
0.79017651 0.14345314 0.4447915 10527390
0.78899992 0.15486564 0.44456339 10461853
0.79000002 0.15807171 0.44135547 10527646
0.79116005 0.16509753 0.44447181 10658975
0.79333329 0.17483614 0.44476271 10593183
