# .PCD v0.7 - Point Cloud Data file format
VERSION 0.7
FIELDS x y z rgb
SIZE 4 4 4 4
TYPE F F F U
COUNT 1 1 1 1
WIDTH 926
HEIGHT 1
VIEWPOINT 0 0 0 1 0 0 0
POINTS 926
DATA ascii
0.79169565 -0.17501159 0.15492059 10197398
0.78864276 -0.16465305 0.15524437 14671062
0.79000002 -0.16988929 0.15254018 12828604
0.78820008 -0.1547409 0.15588193 15065562
0.79000002 -0.15509406 0.15161547 15197917
0.78790909 -0.1449578 0.15548773 15065818
0.79000002 -0.14584704 0.15161547 15395551
0.78765386 -0.13541281 0.15570071 15197404
0.79000002 -0.13290121 0.15161547 15657699
0.78847367 -0.12545505 0.1560816 15066075
0.79050004 -0.1244254 0.1514791 14540502
0.78866667 -0.11569095 0.15726709 15131611
0.79105002 -0.11483593 0.15246275 14079695
0.78900003 -0.10502703 0.15788828 15065818
0.79149997 -0.10535982 0.15282688 13749959
0.78900003 -0.094868183 0.15788829 15000026
0.79150009 -0.095168777 0.15282686 13422020
0.78900003 -0.086186983 0.15844241 15000025
0.79171997 -0.084704049 0.1538682 13553352
0.79152381 -0.17507327 0.16505574 9934482
0.7883333 -0.16491868 0.16513692 14670807
0.78716677 -0.15453888 0.16489264 14933720
0.78576654 -0.14506654 0.16459841 14802390
0.78594267 -0.13484585 0.16476724 14736340
0.78693348 -0.12501672 0.16484311 14736340
0.7862646 -0.11505806 0.16448274 14605268
0.7850607 -0.10472567 0.16486049 14605267
0.78556246 -0.095027596 0.16431966 14605268
0.78767645 -0.085214801 0.1652137 14407889
0.78889269 -0.075661175 0.16558354 14341839
0.79000002 -0.071870863 0.16086249 14539731
0.78892571 -0.065617234 0.16659456 14341839
0.79025 -0.063799247 0.16160692 14539731
0.78874987 -0.055138845 0.16706981 14210253
0.79049999 -0.055261187 0.16188899 13947340
0.78872716 -0.045317754 0.16731678 14802390
0.79042858 -0.044550546 0.16227074 14671317
0.78885704 -0.035095684 0.16814831 13881288
0.79111767 -0.034494363 0.16293931 13816265
0.78900003 -0.025603313 0.16943245 13750730
0.78900003 -0.17152131 0.17820597 13552071
0.79122233 -0.17584956 0.17455751 9999762
0.7883333 -0.16491868 0.1752871 14868186
0.78768015 -0.15463921 0.17514291 14934235
0.78619993 -0.145147 0.17481394 14802392
0.7858333 -0.13495906 0.17473115 14605270
0.78600001 -0.12486813 0.17476836 14539732
0.78357154 -0.11511708 0.1748171 14605268
0.78224987 -0.10544402 0.17456549 14605267
0.78415382 -0.094988517 0.17450334 14473938
0.78686208 -0.085237876 0.17483424 14473681
0.78816003 -0.075393483 0.17524806 14407631
0.78760016 -0.065200604 0.17512254 14077897
0.78772008 -0.055066094 0.17514992 14472913
0.78800005 -0.044940446 0.17521304 14868183
0.78800005 -0.034794476 0.17521301 14012617
0.78813344 -0.02465236 0.1752421 13421252
0.78839135 -0.014750144 0.17561983 13684681
0.79014289 -0.013748696 0.17066868 14079696
0.78860003 -0.005775176 0.17706865 13816779
0.79106677 -0.0048044156 0.17231283 12632250
0.78900003 0.0033340107 0.17882164 14211538
0.78900003 -0.17152131 0.18374717 14275794
0.79147619 -0.17647442 0.18498462 10328214
0.78822857 -0.16476505 0.18528032 14999772
0.78756672 -0.1546168 0.18525539 14999515
0.78680015 -0.14525674 0.18507585 14868185
0.78633326 -0.13504463 0.18496762 14670806
0.78663331 -0.12496892 0.18503912 14670805
0.78615618 -0.11500037 0.18550326 14802390
0.7871154 -0.10477526 0.18515454 14736597
0.78826654 -0.094779067 0.18450148 14670804
0.78822225 -0.084421389 0.18489942 14538962
0.7877667 -0.075356826 0.18530345 14209997
0.78594434 -0.065064766 0.1848734 13880775
0.78553337 -0.054912899 0.18477388 14604755
0.7871111 -0.04488793 0.18514645 14867928
0.78793341 -0.034791298 0.18534292 14407119
0.78800005 -0.024648502 0.18535905 13355201
0.78753334 -0.01449488 0.18524772 13157823
0.78653342 -0.0052703419 0.18501097 13421250
0.78669441 0.0048602582 0.18504721 13750474
0.78762501 0.014621953 0.18626605 13882318
0.79071432 0.016917152 0.18163298 13356232
0.78835285 0.024031291 0.18788356 14013904
0.78900003 -0.17178516 0.1954892 14473173
0.79131258 -0.17573102 0.19482034 10854561
0.78746152 -0.16580144 0.19515689 14933979
0.78513318 -0.15505831 0.1947916 15000028
0.78488457 -0.1450431 0.19494183 14868442
0.78593326 -0.13497519 0.19499162 14736855
0.78712004 -0.12504558 0.19528694 14737111
0.78776675 -0.1150051 0.19544762 14802647
0.78862953 -0.10477129 0.1952505 14802647
0.78891641 -0.094858579 0.19480854 14736598
0.78748274 -0.084612951 0.19499105 14275792
0.78420001 -0.075017355 0.19547293 13749191
0.778 -0.063900471 0.19787948 13815241
0.78236002 -0.065390602 0.1935163 13749447
0.77710736 -0.054974396 0.19669704 14736599
0.78127289 -0.054947495 0.19134082 14736597
0.77763635 -0.047078598 0.19756556 14868186
0.78307414 -0.04380725 0.19414417 14802391
0.78688002 -0.034742307 0.19522542 14539218
0.78796673 -0.024647655 0.19549654 13618373
0.78680009 -0.014482225 0.19520678 13289408
0.78539991 -0.005262624 0.19486058 13157822
0.78506655 0.0048489356 0.19477755 13421251
0.78543997 0.014964068 0.19486986 13223617
0.78632253 0.025255566 0.19490847 13355461
0.78757143 0.035088282 0.19480202 13947855
0.79000002 0.038168684 0.19045296 14277077
0.78780955 0.044430204 0.1964211 14211283
0.79120004 0.045451276 0.19185236 12237494
0.78849995 0.054445628 0.19773795 14211282
0.78885716 0.064100102 0.19888337 12368309
0.78900003 0.070443973 0.1994472 10461083
0.79137045 0.11491394 0.19490077 11053472
0.78874999 -0.17285223 0.2053846 14144208
0.79133338 -0.17795818 0.20448105 10328470
0.78682762 -0.1653987 0.20518577 14934235
0.78527755 -0.15508693 0.20494288 15065564
0.78531033 -0.1448537 0.2051103 14933978
0.78616673 -0.13501614 0.20517483 14867929
0.78693348 -0.12501608 0.20537287 14868185
0.7876876 -0.11522333 0.20499264 14868185
0.78812003 -0.10490933 0.20475948 14868184
0.78813338 -0.094764285 0.20476255 14670548
0.78496557 -0.084408171 0.20501623 14012619
0.77858829 -0.072548926 0.20528491 13552069
0.78066677 -0.077114455 0.20480208 13815241
0.77613795 -0.065286689 0.20452634 13815241
0.77463329 -0.055058207 0.20488146 14736856
0.77688891 -0.045145035 0.20507355 14605270
0.78133339 -0.040596113 0.20177765 14473938
0.77900004 -0.039868034 0.20968492 14671063
0.78436375 -0.035127651 0.2049486 14539475
0.78781825 -0.024893591 0.20518345 13750216
0.78724015 -0.014489296 0.20453261 13355201
0.78692329 -0.0051308828 0.20466307 13420994
0.78619426 0.0048549594 0.20518023 13355201
0.78573328 0.014968749 0.20505907 13026493
0.7842778 0.025036903 0.20467655 12697529
0.77900004 0.037637219 0.20968492 12894652
0.78265637 0.035007901 0.20465064 13092031
0.77900004 0.044425264 0.20907706 12960444
0.78296971 0.045299914 0.20391487 13750217
0.78445166 0.055231772 0.20492478 14079439
0.78696668 0.064737633 0.20537731 14277076
0.78849989 0.073950306 0.20585099 13816782
0.79042858 0.078766756 0.20245068 11053476
0.78900003 0.084758714 0.20868251 14079953
0.78900003 0.096713319 0.2078616 11053219
0.79116678 0.094559401 0.20354204 11184804
0.78900003 0.10461464 0.20720486 11053218
0.79000002 0.10556315 0.20361634 11052961
0.79135734 0.11531754 0.20500357 11053217
0.78831822 -0.17389075 0.21529646 13486791
0.79028571 -0.17867269 0.21377917 9802126
0.78630763 -0.16555698 0.21511981 14934235
0.78596658 -0.155222 0.2152399 14934235
0.78660011 -0.14521822 0.21541332 14999515
0.78723341 -0.13519934 0.21558748 14868186
0.78732008 -0.12507831 0.21561182 14867929
0.78767657 -0.11477471 0.21505725 14868185
0.78800005 -0.10489392 0.2148746 14802392
0.78782868 -0.094859965 0.21469577 14407377
0.78444839 -0.084225163 0.21551867 13683655
0.77747625 -0.073160373 0.21594542 13617862
0.78112507 -0.077693217 0.21391359 13617862
0.77466667 -0.065037325 0.21486391 13815240
0.77408338 -0.055018548 0.2147035 14736855
0.77624148 -0.045300812 0.21514501 14671063
0.77900004 -0.039564092 0.21576376 14736856
0.78303719 -0.034638189 0.2148446 14605270
0.78718191 -0.024369054 0.21506983 13881802
0.78800005 -0.01450253 0.21487457 13421251
0.78765529 -0.0054048798 0.21493864 13421250
0.78626668 0.0048547089 0.21532194 13355457
0.78491998 0.014953503 0.21495308 13026493
0.78306252 0.025226384 0.21478899 12828858
0.77873343 0.036104463 0.21423134 12894907
0.78081822 0.032988228 0.21632333 12960445
0.77766675 0.044855628 0.21478792 13092030
0.77900004 0.052125141 0.21556114 13157823
0.78130001 0.05658897 0.21450953 13223616
0.78336382 0.064940408 0.21569033 13486789
0.78494596 0.07524763 0.21495186 14144976
0.7859118 0.084780678 0.21505286 14671320
0.78811109 0.095274031 0.21490312 13421254
0.7889998 0.10529725 0.21390247 10921632
0.79000002 0.10844605 0.21819402 10987682
0.78900003 0.11107937 0.21330017 10921889
0.79013056 0.11526007 0.21461056 10921888
0.78800005 -0.17407276 0.22502053 13749450
0.79000002 -0.17913629 0.22466695 9801870
0.78566658 -0.16528001 0.22527355 14999771
0.78555542 -0.15514033 0.2252423 14934234
0.78586197 -0.14520967 0.22517125 14868441
0.78666675 -0.13510166 0.22463907 14868441
0.78784007 -0.12515998 0.2249742 14868440
0.78800005 -0.1150399 0.22502051 14802649
0.78759271 -0.10463611 0.22531195 14605270
0.77900004 -0.090930313 0.2297451 13552584
0.78499991 -0.095309742 0.22507624 14210256
0.77747071 -0.084543265 0.22682911 13617863
0.78247058 -0.086597472 0.22268447 13683655
0.77508581 -0.074925043 0.22511247 13486277
0.77196676 -0.064810351 0.22495553 13815241
0.7723335 -0.054891653 0.22506391 14868442
0.77511543 -0.044970825 0.224759 14671063
0.77793765 -0.038105007 0.22567356 14736856
0.78305012 -0.0331981 0.22461295 14605270
0.78690916 -0.024862316 0.22520983 14079182
0.78800005 -0.01450253 0.22502053 13750215
0.78760004 -0.0052772691 0.22490706 13684422
0.78643346 0.0048559336 0.2245746 13487043
0.78583992 0.014972061 0.22440617 13157823
0.78582144 0.024825199 0.22466354 12960444
0.78370839 0.035263781 0.22548155 13092031
0.77900004 0.044931829 0.22062685 13092285
0.78204155 0.04510586 0.22606784 13223617
0.77900004 0.051314622 0.22062686 13092285
0.78154153 0.055293415 0.22515945 13157824
0.77886683 0.067107871 0.22727427 13289154
0.78095001 0.063783154 0.22392008 13289153
0.77796006 0.074921668 0.22579344 13617862
0.78080004 0.075195923 0.22113664 13552069
0.77825004 0.081934489 0.22663765 13946827
0.78211772 0.085880205 0.22398607 14275793
0.78734618 0.094191618 0.22476198 13947341
0.79000002 0.09827432 0.22929044 10526106
0.79139298 0.10493436 0.22440396 10790046
0.78818184 -0.17394485 0.23480195 14473171
0.79000002 -0.17913631 0.23483865 11447207
0.78651839 -0.16504894 0.23585087 14999769
0.78667861 -0.15503275 0.23549648 14933977
0.78715384 -0.14517906 0.23562376 14868184
0.78730583 -0.13521254 0.23496056 14868183
0.78800005 -0.12518588 0.23516652 14867928
0.78769457 -0.11499637 0.23507397 14736599
0.78558618 -0.10464123 0.23498037 14407378
0.77700013 -0.092720278 0.2357218 13881034
0.78138459 -0.09697891 0.23354162 14078413
0.77486664 -0.08500763 0.234873 13552070
0.77330321 -0.075127244 0.23481172 13552069
0.76900005 -0.062759407 0.23489696 14078926
0.77045459 -0.067305833 0.23493108 13749704
0.76900005 -0.057849657 0.23661537 14671063
0.77100009 -0.053581052 0.23429103 14868442
0.7736668 -0.045027185 0.23450977 14736856
0.77630001 -0.035969477 0.23542859 14736856
0.78133339 -0.031451318 0.23256515 14539477
0.78451514 -0.024783283 0.23470521 14210768
0.78721893 -0.014832284 0.23516211 13947595
0.78800005 -0.0052789184 0.23516653 13947594
0.78758341 0.0048638619 0.23504336 13684166
0.78763348 0.015006351 0.23505864 13289664
0.78775007 0.025150463 0.23509304 13026236
0.7873078 0.035131145 0.23566976 13026236
0.78470004 0.045256194 0.23510116 13223872
0.78169996 0.055151027 0.23511709 13289410
0.7789287 0.066027723 0.23324096 13354947
0.78070593 0.064006388 0.23702326 13289667
0.77800012 0.075247489 0.23352328 13552582
0.78087503 0.074517049 0.23875356 13355973
0.77875006 0.082062632 0.23309016 13815499
0.78141177 0.085371301 0.23583758 14078928
0.78731585 0.092996061 0.2345251 13354692
0.79057151 0.097817004 0.23580278 10658204
0.78840905 -0.17433019 0.24493574 14670806
0.79000002 -0.17913629 0.24501038 13881548
0.78696561 -0.1647899 0.24486323 14933976
0.78635699 -0.15444519 0.24532497 14933977
0.7865001 -0.14534171 0.24505585 14868184
0.78720015 -0.13519366 0.24506214 14868183
0.78732008 -0.12507878 0.24509953 14802391
0.78512508 -0.1151973 0.24510235 14605012
0.77855563 -0.10343488 0.248042 14078413
0.78242308 -0.10563307 0.24399537 14275791
0.7765162 -0.094982959 0.24501915 13815241
0.77400011 -0.084717862 0.24515884 13552069
0.76800007 -0.072266601 0.2492736 13552069
0.7723825 -0.075003974 0.24470268 13552069
0.76641935 -0.064172558 0.24576433 14144206
0.77050006 -0.068293087 0.242569 13617862
0.76681817 -0.055124629 0.24556793 14802649
0.7705 -0.050856788 0.24196796 14934235
0.77243352 -0.044954468 0.24498548 14736856
0.77590626 -0.034934904 0.24483863 14671063
0.77900004 -0.028926115 0.24889345 14473684
0.78296292 -0.02506276 0.24482991 14342098
0.78638709 -0.015539596 0.24498755 14013132
0.78796005 -0.0052784635 0.24530022 13816011
0.78753346 0.0048626112 0.24516703 13750472
0.78780007 0.015009965 0.24524981 13421506
0.78800005 0.025158999 0.24531245 13158078
0.78752005 0.035282053 0.24516271 13158078
0.7852059 0.045502156 0.24509121 13355457
0.78316009 0.055254579 0.24564075 13289921
0.78310353 0.065176554 0.24549726 13224130
0.78376931 0.075269468 0.24597517 13355716
0.78500003 0.084792025 0.24530022 13882318
0.78853858 0.092271298 0.24462867 11052963
0.7913847 0.096880957 0.2453683 10592924
0.78839993 -0.17508359 0.25466526 14539476
0.78732151 -0.16503514 0.25451571 14933976
0.78624111 -0.1547371 0.2547949 14868184
0.78624141 -0.14502583 0.25504872 14868184
0.78652787 -0.13507876 0.25498089 14867928
0.78583336 -0.12484407 0.25475353 14671063
0.77900004 -0.1109905 0.25618809 14078926
0.78196007 -0.11551614 0.25485364 14407635
0.77660722 -0.10500286 0.25507444 13947082
0.78000003 -0.10930698 0.25012597 14275792
0.77461112 -0.094953984 0.25474319 13683910
0.76840001 -0.081418917 0.25755829 13618117
0.7720769 -0.085328087 0.25446445 13552068
0.76480001 -0.074834801 0.25503162 13552069
0.77033335 -0.078497641 0.2512337 13552069
0.75900006 -0.062831707 0.25938332 14013903
0.76119441 -0.06519302 0.25448564 13947340
0.76291174 -0.054691337 0.25472504 14671576
0.76741666 -0.048406165 0.25641626 14737626
0.77180952 -0.04388576 0.25506949 14605527
0.77534288 -0.035267841 0.25485435 14671063
0.77900004 -0.028926115 0.25527626 14736856
0.78240913 -0.024636589 0.25505984 14473684
0.78620589 -0.015386432 0.25487658 14078926
0.78808004 -0.0052791741 0.25456235 13881546
0.78806674 0.0048671528 0.25455794 13881546
0.78796005 0.015012451 0.25452325 13421764
0.78800005 0.025158998 0.25453609 13093055
0.78666681 0.035243895 0.25502497 13224385
0.78437513 0.045008998 0.25485489 13290434
0.78328025 0.055263806 0.25484407 13290178
0.78341973 0.065507837 0.25506631 13158592
0.78317261 0.075298414 0.25556594 13290180
0.78696156 0.08500462 0.25512069 12961217
0.78900003 0.090761669 0.25485912 10461083
0.79178578 -0.18504037 0.26522341 10921378
0.78866655 -0.17473209 0.26500821 14671318
0.79000002 -0.17913632 0.26442912 14145490
0.78788894 -0.1648244 0.26464412 14934232
0.78776932 -0.15479809 0.26531315 14802647
0.78720009 -0.14533105 0.26533443 14802646
0.78580636 -0.13486817 0.26504153 14802647
0.78380013 -0.12452135 0.26510403 14473684
0.77899998 -0.11125103 0.26595765 13947340
0.78147626 -0.11604997 0.26497218 14144719
0.77648151 -0.10538369 0.26495302 13749961
0.77364713 -0.095102504 0.26508033 13552582
0.76630449 -0.082665838 0.26546168 13618375
0.77081817 -0.088007122 0.26473284 13552581
0.76133323 -0.074612826 0.26463473 13618375
0.75862491 -0.064133503 0.26546952 14013390
0.76000005 -0.068252012 0.2615042 13947340
0.75854546 -0.055609714 0.26624891 14474198
0.76070011 -0.05299934 0.26210022 14606040
0.75900006 -0.049505461 0.26826745 14737626
0.76422578 -0.045971777 0.26520297 14671833
0.77114284 -0.041786533 0.26327285 14539990
0.77442867 -0.035173964 0.26511919 14539734
0.77844453 -0.028094973 0.26643199 14736856
0.78228569 -0.024161752 0.2648105 14736855
0.78603029 -0.015465469 0.26510587 14407891
0.78873318 -0.0052827387 0.2649284 13947597
0.78883308 0.0048713549 0.26496202 13749961
0.78796673 0.015012234 0.2646707 13618375
0.787889 0.025155582 0.26464441 13289665
0.78615999 0.03522009 0.2649844 13421250
0.78370023 0.045201171 0.26415649 13421250
0.7834003 0.055272643 0.26405561 13421251
0.78317684 0.065339848 0.26489651 13289665
0.78304356 0.075333454 0.26505128 13421511
0.78747994 0.084986351 0.26476601 11382183
0.79000002 0.0890273 0.26905262 10526874
0.78900003 0.090761669 0.2604003 10461338
0.78877783 -0.18173186 0.27612463 13683914
0.79089475 -0.18645442 0.27447194 10130837
0.78631032 -0.1744947 0.27499625 14737111
0.78410017 -0.16495021 0.27437994 14868696
0.78505564 -0.1550401 0.27471659 14802903
0.78606671 -0.14512095 0.27507308 14802903
0.78522855 -0.13493629 0.27491277 14605524
0.78273082 -0.12421091 0.275033 14342352
0.77718186 -0.11346278 0.27609703 13815754
0.78066671 -0.11711718 0.27247226 14078925
0.77493328 -0.10497065 0.27480373 13684168
0.7675001 -0.091984771 0.27755779 13486789
0.77216667 -0.096010484 0.27480224 13486789
0.75900006 -0.081488453 0.27892849 13881034
0.76339394 -0.085702762 0.27479273 13684168
0.77000004 -0.089879774 0.27035281 13552582
0.75861901 -0.073752739 0.27667287 13815498
0.76035297 -0.076818086 0.27282867 13684168
0.75732362 -0.065197766 0.27507675 14013133
0.75714707 -0.055325065 0.2754828 14408661
0.759 -0.048794728 0.27519715 14671835
0.76192307 -0.04379135 0.27444255 14606041
0.7676667 -0.03868819 0.27611986 14408148
0.77281487 -0.033918042 0.27442047 14539734
0.77695 -0.026573354 0.27542841 14605270
0.78088892 -0.022292878 0.27417415 14605270
0.78444123 -0.015134519 0.27477223 14473940
0.78726673 -0.0052734595 0.2754904 14145232
0.78688872 0.0048583704 0.27535731 13815754
0.78559983 0.014967456 0.2749072 13618375
0.78636116 0.025107285 0.27517521 13355203
0.78629643 0.03543178 0.27464288 13355203
0.78573334 0.045320511 0.27403948 13420996
0.78559262 0.055630818 0.27439883 13420996
0.78474075 0.064619869 0.27518895 13092546
0.78617859 0.074994341 0.27504799 13224133
0.78866673 0.082517795 0.27403566 10592411
0.78866661 -0.18252729 0.28521505 13157825
0.79049999 -0.18757786 0.28495279 9670284
0.78607696 -0.174711 0.28498808 14736856
0.78404015 -0.16493708 0.28446281 14802649
0.78496677 -0.15502279 0.28479829 14802649
0.78655982 -0.14521131 0.28537503 14736856
0.78609985 -0.13500689 0.28520772 14539476
0.77900004 -0.12102061 0.28536654 13947084
0.78250009 -0.12548059 0.28448251 14210255
0.77559364 -0.11465129 0.28519461 13618375
0.76833338 -0.10107741 0.28895307 13420996
0.77268976 -0.10479214 0.28470477 13486789
0.75900006 -0.090372615 0.28958946 13421766
0.76419348 -0.094229005 0.28509864 13552582
0.77075005 -0.098538369 0.281441 13486789
0.75856525 -0.08422219 0.28579369 13618375
0.76050007 -0.087881282 0.28259414 13749961
0.75648648 -0.074999206 0.28494072 13684425
0.75476676 -0.065132424 0.28531975 13750731
0.75602865 -0.055578139 0.2853677 14211284
0.7587142 -0.048217826 0.28554654 14671835
0.76113629 -0.043163165 0.28465247 14606042
0.76633334 -0.037322506 0.2854079 14277077
0.77189475 -0.032464217 0.28442645 14474199
0.77623338 -0.025183257 0.28507766 14605784
0.7840938 -0.015571886 0.28482288 14145232
0.78664011 -0.0052697142 0.28540418 14276818
0.78616685 0.004854599 0.28523305 13881547
0.7859199 0.014974241 0.28514382 13618375
0.78723341 0.02513596 0.28561977 13420996
0.78753585 0.035086762 0.285137 13355203
0.78762507 0.044852838 0.28460959 13420996
0.78756261 0.054700822 0.28533581 13420998
0.78607988 0.064661838 0.28520095 13158339
0.78755879 0.075144961 0.28508601 12105908
0.78900003 0.081526354 0.28533563 10132630
0.8036899 0.10575201 0.28516671 10593179
0.80348164 0.11478902 0.28545344 10658716
0.78866667 -0.18252732 0.29536963 13946827
0.79066664 -0.1876176 0.29519281 9999250
0.78748 -0.17487946 0.29492572 14802649
0.78622568 -0.16521867 0.29534599 14868442
0.78602839 -0.1551028 0.29532796 14736856
0.78681493 -0.14525883 0.29508474 14736856
0.78521204 -0.13527334 0.29474244 14407890
0.77783346 -0.12296499 0.29616585 13684423
0.78137505 -0.12733589 0.29492405 13947338
0.77466673 -0.11526818 0.29479599 13552581
0.76686668 -0.10292011 0.29534036 13552582
0.77135718 -0.10732276 0.29468966 13486789
0.75900006 -0.090372615 0.29491997 13815754
0.76131034 -0.096058853 0.29501617 13684425
0.75803459 -0.084813654 0.29527858 13618632
0.75488579 -0.074892052 0.29493472 13684168
0.75143331 -0.064845704 0.29461458 13881547
0.74900001 -0.057035852 0.29921696 13881547
0.75218934 -0.055006273 0.29445618 14013903
0.75693762 -0.045932926 0.29560903 14540249
0.76042861 -0.041206423 0.29293069 14605785
0.76424992 -0.036102772 0.29522875 14407893
0.77099997 -0.031155247 0.29434657 14605272
0.77521431 -0.025214741 0.2952539 14736858
0.78447062 -0.015401937 0.295037 14211026
0.78704 -0.0052723004 0.29476061 14211025
0.78773338 0.0048657972 0.29502112 14013133
0.78776008 0.015008078 0.29503018 13684168
0.78780001 0.025152845 0.29504421 13420996
0.78800005 0.035304971 0.29512 13355458
0.78800005 0.044528581 0.29512 13421251
0.78796673 0.05467204 0.29510733 13487044
0.78700006 0.06473846 0.29474583 13158338
0.78813797 0.074823014 0.29504508 11119013
0.79000002 0.079780273 0.29956782 10132373
0.78900003 0.081526354 0.29272389 10330009
0.7907601 0.085635126 0.29519024 10198423
0.78863156 -0.18281078 0.3054617 14013391
0.79012501 -0.18771961 0.30447018 10395034
0.78689998 -0.17475158 0.30483848 14802649
0.78460002 -0.16505535 0.30486593 14802649
0.78516662 -0.15506314 0.30508626 14671063
0.78506434 -0.14475948 0.30504292 14605270
0.77810013 -0.13272223 0.30780524 13815754
0.78245836 -0.13590884 0.30410787 14144719
0.77570975 -0.12487647 0.30503935 13486789
0.78000003 -0.12939292 0.3012538 13947340
0.76728576 -0.11214574 0.30814433 13486789
0.77266669 -0.11585233 0.30431408 13355203
0.76365721 -0.10508046 0.30524907 13618375
0.77050006 -0.10977943 0.30209348 13486789
0.75899994 -0.091876082 0.30612767 13881547
0.76021749 -0.096630976 0.30436814 13881547
0.75755554 -0.08488296 0.30499786 13815754
0.75330555 -0.074954502 0.30480298 13684168
0.74900001 -0.063318945 0.30703428 13815754
0.75004172 -0.065601982 0.30394939 13881547
0.74900001 -0.055574667 0.30623063 13684682
0.75004554 -0.05450803 0.30389106 13816269
0.74857146 -0.046571862 0.30914241 14211284
0.75340539 -0.044222772 0.30460754 14408664
0.7576924 -0.037275504 0.30696148 14342871
0.76275867 -0.033119857 0.30443883 14210772
0.77000004 -0.030394508 0.30099675 14342100
0.76700008 -0.028120479 0.30808032 14671320
0.77357149 -0.024580359 0.30478218 14671064
0.77810007 -0.019055739 0.30580014 14539479
0.7838462 -0.014068356 0.30457151 14342098
0.78703344 -0.0052713514 0.30489075 14210512
0.78763908 0.004864661 0.3051244 14013133
0.78676665 0.014988044 0.30478701 13749705
0.78611112 0.025098493 0.30453277 13420996
0.78639996 0.035233751 0.30464229 13420995
0.78647041 0.045091718 0.30488628 13355203
0.78653139 0.055147331 0.30446425 13289666
0.78727597 0.064635023 0.30482706 13158084
0.78855556 0.07286641 0.30435383 10263448
0.79016668 0.078410052 0.30548921 10000787
0.7884444 -0.18445908 0.31545237 13684170
0.79000002 -0.18838333 0.31158894 9276556
0.78582758 -0.17438619 0.31530184 14736856
0.78410017 -0.16494916 0.31476972 14736343
0.78416681 -0.15486711 0.31479487 14605013
0.77900004 -0.14108077 0.31636864 14473171
0.78250009 -0.14522792 0.31442896 14539220
0.77615631 -0.13455068 0.31532416 13618375
0.78100002 -0.13870049 0.31078169 14078926
0.76850003 -0.12028892 0.31930006 13289410
0.77289653 -0.12472402 0.31479093 13289410
0.76444823 -0.11392245 0.31523544 13486789
0.77060002 -0.1180926 0.31169376 13289410
0.759 -0.10297198 0.31785727 14013133
0.7604211 -0.10572097 0.31392848 13815754
0.75834298 -0.094606996 0.31520516 13815754
0.76000005 -0.099387549 0.31132108 13947340
0.75575757 -0.084682509 0.31488657 13749961
0.74880004 -0.07268063 0.31619862 13552581
0.75140917 -0.076758228 0.31443608 13684168
0.7476427 -0.065392837 0.31500682 13552581
0.74752378 -0.054882038 0.31495577 13552839
0.7471714 -0.044634551 0.31525847 14013905
0.75000006 -0.040139623 0.31161419 14474456
0.74800003 -0.038530651 0.3184112 14342870
0.75458074 -0.03479344 0.31450754 14211284
0.75880003 -0.02959704 0.31757918 14013905
0.76361912 -0.026816491 0.31484157 14474455
0.77207696 -0.022688825 0.31445965 14539734
0.77647066 -0.01792291 0.31549975 14539478
0.78263164 -0.012857424 0.31422552 14276306
0.78603697 -0.0054686558 0.31503356 14210514
0.78673351 0.004859542 0.31490415 13947342
0.78643996 0.014982554 0.31478795 13749962
0.78616655 0.025099643 0.3146795 13552582
0.78519225 0.035319999 0.31450084 13420996
0.78358352 0.045194857 0.31455955 13420996
0.78423333 0.055333659 0.31481975 13355203
0.78750002 0.064924002 0.31499767 11776173
0.78899992 0.071921617 0.31544274 9934737
0.79025006 0.077308841 0.31473991 10000787
0.78900003 -0.19183901 0.32597104 9209993
0.79170007 -0.19611225 0.32476681 9473420
0.78730005 -0.18534665 0.32471353 13289414
0.78385717 -0.17507039 0.32549426 14671063
0.7830646 -0.16490859 0.32549578 14539477
0.77875006 -0.15243012 0.32857239 14473684
0.78246439 -0.15544757 0.32444406 14539477
0.77733344 -0.14472374 0.32562208 14473428
0.78150004 -0.14816505 0.3224133 14670550
0.77419448 -0.13502799 0.32498723 13026238
0.76775008 -0.12241948 0.32602721 13092031
0.77147067 -0.12649214 0.32409167 13026238
0.76216668 -0.11469458 0.32524011 13684168
0.75854176 -0.10408167 0.32537317 14144719
0.76000005 -0.10828342 0.32199612 13881547
0.75663644 -0.094924159 0.32475641 14012876
0.75351512 -0.084911935 0.32517958 13947338
0.74847364 -0.073534861 0.32522771 13947337
0.75030005 -0.077920049 0.32491159 13947337
0.74650002 -0.065293826 0.32501426 13815495
0.74550027 -0.054733746 0.32545 13354945
0.74530023 -0.045122053 0.3253628 13552840
0.74688011 -0.036962368 0.32587692 14211284
0.75228566 -0.032586422 0.32387996 14013904
0.75706244 -0.028552512 0.3257308 14013904
0.76359087 -0.023717767 0.32489148 14145491
0.77033335 -0.021390846 0.32276666 14211283
0.76900005 -0.019553578 0.32940972 13882319
0.77516669 -0.016134785 0.32515085 14342612
0.78137499 -0.011407801 0.32304713 14276562
0.78450006 -0.0051945313 0.32519773 14145232
0.78672236 0.0048600719 0.32502973 13882060
0.78700012 0.014993969 0.32514474 13684424
0.7872501 0.024905115 0.32467294 13486789
0.78712493 0.035111945 0.32443091 13552582
0.78532141 0.045556169 0.32511076 13552582
0.78463995 0.055362478 0.32509077 13289410
0.78734612 0.064627454 0.32457954 10789789
0.78899997 0.072159104 0.32478362 9869201
0.79047066 0.077869475 0.32554469 10066323
0.78900003 -0.19183901 0.33428282 9407372
0.79120004 -0.19608019 0.33521569 9407371
0.78696424 -0.18588737 0.33506468 13684427
0.78288001 -0.1756919 0.33535603 14473942
0.77876937 -0.1622857 0.33597818 14276820
0.78095007 -0.1666656 0.3337974 14408149
0.77709115 -0.15449093 0.33463624 14342613
0.77519989 -0.14493105 0.33478621 14341843
0.77323085 -0.13537364 0.33505052 12959676
0.76706254 -0.12365812 0.33486307 12499383
0.77066666 -0.12874728 0.33463302 12499638
0.75900006 -0.1116946 0.33667552 14539477
0.76124001 -0.11609048 0.33499473 13815498
0.75743586 -0.10519321 0.33495489 14407891
0.75429416 -0.095008448 0.33530992 14342355
0.74833339 -0.082290448 0.33826929 14408147
0.75181252 -0.085780479 0.3341437 14342097
0.74758613 -0.074893467 0.33526129 14276304
0.75000006 -0.07876642 0.33092755 14276559
0.74579501 -0.065031417 0.334777 14210511
0.74400008 -0.054507636 0.33540878 14210767
0.74290919 -0.045135025 0.33530432 14013133
0.74535137 -0.03554767 0.33483863 13947598
0.74842864 -0.029042032 0.33661628 13684683
0.7550742 -0.025674129 0.33450246 13882318
0.76087505 -0.021572996 0.3334969 13882317
0.76554543 -0.018812381 0.33541691 14013904
0.7743929 -0.013727546 0.3344996 14342869
0.77880007 -0.0088636568 0.33543038 14277077
0.7819131 -0.0045188377 0.33477995 14211283
0.78499979 0.0048508649 0.33534154 13882318
0.78625935 0.014776539 0.33536962 13619146
0.78744131 0.025359176 0.33481374 13421767
0.78793341 0.035302222 0.33475286 13553352
0.78792858 0.044524129 0.33514667 13618890
0.78768981 0.054812327 0.33570048 13092289
0.78863627 0.064201847 0.33438155 9803151
0.79000002 0.068221495 0.33701825 9934994
0.78900003 0.070443973 0.3305887 9869201
0.7913183 -0.195016 0.34503201 10065557
0.78714818 -0.18579637 0.3453027 13947855
0.77875006 -0.17157203 0.34817022 14342098
0.78229636 -0.17590004 0.34473407 14408148
0.7778334 -0.16484667 0.345862 14210513
0.78062505 -0.16855882 0.34215543 14144977
0.77590919 -0.15530185 0.34458721 14144977
0.77437925 -0.14471485 0.34515303 14145234
0.77293116 -0.13558438 0.34481975 13288899
0.76627278 -0.12385843 0.34544143 12170419
0.77039999 -0.12888288 0.34461737 12302004
0.7582857 -0.1128583 0.34548649 13486792
0.76113343 -0.11771174 0.34456959 12565436
0.74785715 -0.10205154 0.34786293 13749961
0.75362498 -0.10572666 0.34409919 14013135
0.7471143 -0.094955027 0.34551552 14144977
0.7507143 -0.095915489 0.34090763 14342100
0.74589479 -0.085046165 0.34464002 14211025
0.73900002 -0.071556136 0.3494291 14341585
0.74390244 -0.075281419 0.34515643 14210767
0.73830771 -0.063313715 0.34816986 13946826
0.7428183 -0.065630458 0.34390423 14144717
0.73703992 -0.055043645 0.34704819 14145230
0.74123526 -0.055186536 0.34201217 14276304
0.73760879 -0.046606876 0.34719136 14211536
0.7409445 -0.044086128 0.34340942 14276560
0.7447353 -0.035595477 0.34490895 14210769
0.7486667 -0.028967932 0.34319219 13618377
0.75503999 -0.024349978 0.34512904 13881548
0.76400006 -0.018144231 0.3452785 13947854
0.77380961 -0.013200616 0.34483972 14408662
0.77900004 -0.0088659329 0.34281158 14277075
0.78266668 -0.0046293973 0.34503648 14145491
0.78330028 0.0048375158 0.34470418 13816526
0.78435719 0.015142525 0.34457588 13487561
0.78558326 0.025082067 0.34478712 13224389
0.78579998 0.035206631 0.34488127 13290182
0.78621209 0.044930797 0.3451454 13290183
0.78838456 0.055057611 0.34474108 11974066
0.79000002 0.059436832 0.3495017 9737360
0.78900003 0.06182434 0.34228674 9934994
0.79047841 0.065427437 0.34536931 9803408
0.78883338 -0.19210632 0.35667935 12631229
0.79141182 -0.1961329 0.35459366 9473421
0.78460002 -0.18526706 0.3546373 14013648
0.77775019 -0.17400904 0.35462645 14407891
0.78039998 -0.17842118 0.35365701 14539477
0.77592862 -0.16485299 0.35475841 14276048
0.77480537 -0.15483341 0.35456881 14210513
0.77388471 -0.14475395 0.35484412 14144721
0.76820004 -0.13139221 0.35712036 13026240
0.77176017 -0.13561699 0.35429466 13618377
0.76410347 -0.12509754 0.35444623 12236726
0.7577222 -0.11347992 0.35483164 12762556
0.76054555 -0.11823512 0.35492295 11775407
0.74776924 -0.10290663 0.35424945 13552582
0.75300008 -0.10792815 0.35476705 13092032
0.74490917 -0.09456341 0.35444278 13881547
0.73871428 -0.08178129 0.35744613 14342098
0.74199998 -0.085478373 0.35398504 14013133
0.73610014 -0.074553296 0.35494381 14144719
0.74075007 -0.077794969 0.35068968 14078926
0.73392308 -0.065140709 0.35490575 14012620
0.73269063 -0.055508722 0.35501656 14144976
0.73320949 -0.04518576 0.35482749 14408662
0.73642856 -0.03830364 0.3560901 14145491
0.74436671 -0.034312699 0.35440156 13948111
0.7486667 -0.029552408 0.3575044 13684938
0.75551867 -0.025751581 0.35480884 13750474
0.76000005 -0.021103906 0.35668999 13618375
0.76388901 -0.017630136 0.35493252 14013133
0.77335298 -0.012419086 0.35480601 14342355
0.77787507 -0.008397215 0.35642645 14276562
0.78366679 -0.0044059516 0.3546482 14276818
0.78423542 0.0046263612 0.3549431 13947854
0.78360015 0.014929664 0.35400918 13487560
0.78483331 0.025058402 0.35456571 13224389
0.78499991 0.035169903 0.3546412 13290182
0.78544819 0.045148853 0.35446301 13158342
0.78834999 0.053684883 0.35476929 10920866
0.79012501 0.058752704 0.35580021 9868688
0.78880006 -0.1927139 0.36466736 10657439
0.79081821 -0.19665815 0.36517861 9407629
0.78590912 -0.18582463 0.36475432 12960964
0.77866673 -0.17292146 0.36089364 14210513
0.78288233 -0.17547561 0.36608443 12500414
0.77781814 -0.16561554 0.36265329 14013392
0.78085721 -0.16452833 0.36739352 11644848
0.7767778 -0.15472156 0.36375859 14079698
0.78125006 -0.15612167 0.36940661 11645359
0.77533329 -0.14478315 0.36410639 13882063
0.76900005 -0.13206875 0.36091399 12500666
0.77336848 -0.13591778 0.36501604 13158340
0.76630008 -0.12443088 0.36287773 12236471
0.77180004 -0.12694828 0.36746985 12368314
0.75900006 -0.11258302 0.3615512 12762815
0.7633636 -0.11493827 0.36501303 12038579
0.77100003 -0.1188753 0.36997479 11907506
0.75654542 -0.10473492 0.3640056 12565176
0.76100004 -0.10664438 0.36784843 12301490
0.74685717 -0.093425885 0.3618857 13289154
0.75450003 -0.097347379 0.36647454 13025981
0.73812503 -0.081623971 0.36391804 13552837
0.74346662 -0.086206108 0.36511576 13289409
0.73381245 -0.074172884 0.36426061 13552581
0.72900003 -0.061201539 0.36859313 13749961
0.73100019 -0.064910829 0.36517766 13223360
0.72900003 -0.054033808 0.36773986 13947854
0.73038447 -0.055793431 0.36370209 14079184
0.72885716 -0.048514269 0.36730161 14079954
0.73116678 -0.044435866 0.36455241 14474456
0.73561108 -0.037643943 0.36533308 14145491
0.74283338 -0.032797132 0.36486095 13750990
0.74738467 -0.028423855 0.36510131 13750734
0.75595832 -0.024008663 0.36496189 13619146
0.76000005 -0.021103906 0.36202753 13487559
0.76389474 -0.017158769 0.36533794 13816524
0.77212512 -0.012174555 0.364187 14277075
0.77644455 -0.0069148713 0.36541519 14408148
0.78138471 -0.0028415406 0.3639808 14342098
0.78366685 0.0049270843 0.36487699 14079183
0.78499991 0.014955874 0.36474779 13487560
0.78609097 0.024848651 0.36483717 13290181
0.78651994 0.035238098 0.36453491 13290182
0.78720003 0.044485249 0.36485085 13158598
0.7887333 0.052325655 0.36395925 9671570
0.79050004 0.057046816 0.36579975 9737617
0.78840005 -0.1844966 0.37168041 9605779
0.79154545 -0.18538313 0.37680328 9934740
0.78780007 -0.17495105 0.37342682 9539986
0.79049999 -0.17462385 0.37779018 9672338
0.78668427 -0.16481395 0.37479147 9408655
0.79000002 -0.16803989 0.37909219 9672594
0.78593338 -0.15490964 0.37530428 9145226
0.77900004 -0.14381625 0.37016639 12434620
0.78468752 -0.14520907 0.37563011 9210761
0.77700001 -0.13357495 0.37155539 11250345
0.78350002 -0.13616669 0.37712106 8487551
0.77544451 -0.12460598 0.37291569 11118247
0.78200006 -0.12606522 0.37854895 8421248
0.76900005 -0.11316621 0.37081531 12433337
0.77458334 -0.11535051 0.37547424 11051940
0.76866674 -0.1059193 0.37425351 11709865
0.773 -0.10579304 0.37817389 11249315
0.75850004 -0.092087567 0.37552005 12434102
0.76333332 -0.095663466 0.37641683 11776172
0.73500001 -0.080632381 0.37334746 8684929
0.74625003 -0.083176352 0.37469539 11645098
0.7523334 -0.086054809 0.37686992 12500408
0.73266673 -0.071802042 0.37044707 11710121
0.74340004 -0.077722125 0.37379003 13026237
0.75100005 -0.078871444 0.37971666 11842736
0.73000002 -0.061285492 0.37080771 13881547
0.72900003 -0.055512868 0.37086865 13684425
0.72880006 -0.047193889 0.37190431 14145232
0.73109996 -0.042891987 0.37239277 13289924
0.73512506 -0.03804864 0.37297702 13290184
0.74306673 -0.032924354 0.37443036 13356232
0.74699998 -0.027459053 0.37502408 13619404
0.75468427 -0.022533404 0.37450713 13553354
0.75860006 -0.019289134 0.37645435 13487561
0.7635715 -0.016174572 0.37457442 13750989
0.77208334 -0.011497331 0.37501204 14079696
0.77643484 -0.0059871082 0.37502974 14277075
0.78100002 -0.0015753543 0.37477341 14277075
0.78314304 0.0049702241 0.3750158 14013647
0.78450006 0.014946191 0.37553233 13487559
0.78603035 0.02534876 0.37484312 13158595
0.78733337 0.035276581 0.37504691 13092804
0.78852373 0.043680299 0.3744283 12632509
0.79020005 0.047612883 0.37770864 9868944
0.78900003 0.050126277 0.37122408 9803410
0.78900003 -0.15305068 0.3804594 9408909
0.78900003 -0.14473888 0.38169077 9079687
0.78780001 -0.13437769 0.38264832 8816261
0.78722227 -0.12465522 0.38410836 8618883
0.79100007 -0.12628089 0.38852254 8948101
0.77800006 -0.11084802 0.38061911 9735824
0.78590912 -0.1151506 0.3856636 8749185
0.79000002 -0.11995538 0.38833919 9145223
0.77700001 -0.10433973 0.38240474 11447465
0.78380001 -0.10580453 0.38712686 9209990
0.77399999 -0.096689284 0.38500595 10921378
0.75600004 -0.083831608 0.38135636 10263447
0.76200008 -0.086272523 0.3852784 8684674
0.75400007 -0.076542325 0.38299865 11118756
0.7464 -0.034702606 0.38088554 11908529
0.75400001 -0.035057377 0.38652891 12500664
0.74849999 -0.027792407 0.38108045 13027267
0.75459999 -0.024366383 0.38483727 12500923
0.76000005 -0.021103906 0.38960475 12369337
0.75833338 -0.019282354 0.38342533 13553611
0.76428568 -0.015078854 0.3848086 13684939
0.77116674 -0.010882526 0.38389528 14079696
0.77564299 -0.0053199595 0.38510433 14277075
0.78050005 -0.0015743459 0.38092798 14408661
0.77866673 0.00025222488 0.38823596 14342868
0.78229415 0.0051030256 0.3852489 14145489
0.78319252 0.014780878 0.38520303 13619145
0.78466666 0.025053872 0.38479739 13158595
0.78680009 0.035253543 0.38492429 12895683
0.78870583 0.042831436 0.38520479 11185322
0.79030001 0.047434058 0.38478601 9672080
0.78842866 -0.10310525 0.39310497 8618880
0.79037499 -0.10602034 0.39673483 8948101
0.7766 -0.092832938 0.39302513 8947848
0.78450006 -0.097087465 0.39573419 8947845
0.77499998 -0.084341355 0.39616269 9145480
0.78000003 -0.080091082 0.39985749 9079687
0.77466673 -0.077727601 0.39530993 8816515
0.78150004 -0.073840082 0.39879695 8749952
0.77300006 -0.041370571 0.39807862 11645355
0.76350003 -0.031925298 0.3940841 11447978
0.77100003 -0.034947462 0.39885357 10395290
0.76250011 -0.024734015 0.39312083 11776942
0.76585722 -0.01716475 0.39260766 12632509
0.77215385 -0.012958268 0.3955588 13487561
0.77507144 -0.0049952446 0.39493343 14276819
0.77762079 0.00395909 0.39499506 14211283
0.78057146 0.0083457408 0.39336181 14145489
0.78186208 0.015023875 0.39456168 13750987
0.78300017 0.02487104 0.39484695 13224131
0.7868889 0.035054203 0.39458701 12698303
0.78885716 0.041411288 0.39437342 9803413
0.79025 0.046043955 0.39558467 9606546
0.78900003 0.066749841 0.39892998 9934994
0.78900003 0.071367502 0.39893001 9934994
0.78810006 -0.09476079 0.40308794 9145736
0.7858572 -0.085680537 0.40417638 9277066
0.78712511 -0.075983211 0.40397236 9144968
0.77900004 -0.041691687 0.40299216 12237494
0.7856667 -0.043894377 0.40735945 10461085
0.77550006 -0.034924645 0.40277138 10263451
0.78200006 -0.034532662 0.40820548 8684676
0.77540004 -0.025161754 0.40385523 11118756
0.77560008 -0.014453404 0.40232348 11513256
0.78066665 -0.01527861 0.40750945 11052963
0.77766663 -0.0047533908 0.40366936 12566458
0.78066665 -0.0070581264 0.40750948 11711150
0.77823079 0.0034767459 0.40273505 14014159
0.7808001 0.0070172874 0.40611759 13092801
0.78215986 0.014903076 0.40462846 13816523
0.78317243 0.024912434 0.40471023 13421769
0.78742313 0.035282988 0.40458453 11513773
0.78900003 0.040890962 0.40170062 9540753
0.79047835 0.044991482 0.40547076 9606799
0.78900003 0.059361596 0.4007771 9934996
0.79037958 0.054678552 0.40530598 9738385
0.78899986 0.065641612 0.40391713 9869203
0.79000002 0.062026002 0.40720311 9803408
0.7889998 0.073886223 0.40472308 10066582
0.79022223 0.078569785 0.40386328 10000789
0.78875005 -0.043137621 0.41126722 8947848
0.78820002 -0.034801431 0.41291904 9145481
0.78714287 -0.024224719 0.41326046 10592926
0.79100001 -0.025483742 0.41771871 8948101
0.78706253 -0.014139828 0.41465145 11776686
0.79000002 -0.016388742 0.41885439 9802899
0.78550011 -0.0052641602 0.41463533 11908527
0.78479171 0.0048491396 0.41426089 12105905
0.78659999 0.014988109 0.415214 11645356
0.7877692 0.025436241 0.41547555 11513772
0.78866661 0.034474127 0.41340908 9803409
0.79009998 0.036694109 0.41724283 9540494
0.79108 0.044703752 0.4147985 9606799
0.7905668 0.075209625 0.4145298 10000788
0.78900003 -0.010826807 0.42109478 9605521
0.78900003 -0.0045929686 0.42178744 11710897
0.79025 -0.0057569277 0.42592487 9013897
0.78850001 0.0048701423 0.42175147 11053734
0.79033333 0.0048822458 0.42643222 9343374
0.78900003 0.01424048 0.42162254 9342604
0.79076922 0.015493652 0.42602736 9211786
0.78900003 0.020573268 0.42109478 9079687
0.79086965 0.025452044 0.42499244 9343629
