# .PCD v0.7 - Point Cloud Data file format
VERSION 0.7
FIELDS x y z rgb
SIZE 4 4 4 4
TYPE F F F U
COUNT 1 1 1 1
WIDTH 1065
HEIGHT 1
VIEWPOINT 0 0 0 1 0 0 0
POINTS 1065
DATA ascii
0.78880006 -0.0917053 0.087862119 14013900
0.79173917 -0.095481105 0.084818929 13816009
0.78862506 -0.08536084 0.087888643 14606294
0.78900003 -0.079168148 0.088623412 14869469
0.78900003 -0.042226881 0.088623412 11645611
0.79286212 -0.045442104 0.084506035 11777196
0.78900003 -0.034838628 0.088623412 11449000
0.79190004 -0.034967732 0.084311232 11316901
0.78900003 -0.026526846 0.088623412 11119522
0.79153848 -0.024474211 0.084629692 10922143
0.79255998 -0.014583549 0.085309952 10724764
0.78816003 -0.093698829 0.095318668 13487298
0.79044449 -0.099051505 0.094335683 13486784
0.78593749 -0.084725976 0.094716214 13618885
0.78651845 -0.075440831 0.095294818 13684678
0.79000002 -0.07279557 0.090585135 14408917
0.78646684 -0.065105304 0.095696516 13684935
0.79079998 -0.064539477 0.090676859 14869723
0.78640741 -0.054770555 0.095279649 13948620
0.79000002 -0.057075635 0.090585135 15001307
0.78594464 -0.044824056 0.09471181 14014414
0.7856667 -0.034690976 0.094679289 13422534
0.78676468 -0.024879221 0.094596595 12830139
0.78661287 -0.014952154 0.095179275 12764605
0.79000002 -0.01084053 0.090585135 11053475
0.78669572 -0.0055095749 0.096045963 13027517
0.79071426 -0.0045024934 0.091195449 10790557
0.78783339 0.0043548369 0.097609729 13356997
0.79222226 0.0054093269 0.092794321 10659228
0.78850007 0.015022551 0.098719083 13948622
0.78875005 0.024260584 0.099212438 13685194
0.78900003 0.034426238 0.099705793 12500664
0.78900003 0.059361596 0.099705793 10658460
0.78860009 0.065607533 0.098547235 10987425
0.79160005 0.064744785 0.093638346 10921632
0.78830779 0.073648237 0.098055944 11184804
0.79130006 0.075465962 0.093787715 11119011
0.79210353 -0.10557204 0.10489284 12368048
0.7883448 -0.094632074 0.10528738 13684420
0.79000002 -0.099611931 0.10168156 13750211
0.78672004 -0.084466495 0.10494529 13421248
0.78373086 -0.074832395 0.10475659 13289662
0.7790001 -0.063741304 0.10689721 13092283
0.7810455 -0.065654002 0.10368566 13223869
0.77900004 -0.05992822 0.10756036 13092283
0.78136665 -0.054620754 0.1051416 13158076
0.78250015 -0.044841774 0.1050279 13026492
0.7835601 -0.034597207 0.10452336 12697527
0.78416008 -0.025446907 0.10460301 12500148
0.78258842 -0.015212164 0.10503925 12500148
0.78247994 -0.0052408157 0.10437866 12698040
0.78336394 0.0050884453 0.10499263 12895164
0.77900004 0.018488863 0.10847218 12171184
0.78292859 0.01465446 0.10508347 12698042
0.77816677 0.024844265 0.10835516 12170928
0.78379178 0.025026051 0.10362782 13355973
0.77788889 0.034446701 0.10841748 12303028
0.78504765 0.035347931 0.10401256 13685451
0.77816677 0.044886306 0.10926699 12566200
0.78535718 0.044970091 0.10494858 13619659
0.77840006 0.054917254 0.10929976 13355973
0.78577775 0.05502829 0.1046037 13290693
0.77707148 0.065351076 0.10781211 13750731
0.78395236 0.064834602 0.1035201 12698300
0.77745456 0.074046679 0.10784178 14079952
0.78460002 0.075746469 0.1035523 12501175
0.77900004 0.081404895 0.10938401 14014160
0.78613639 0.08474379 0.10644698 13619656
0.79250002 0.086899653 0.10162971 11579817
0.78566676 0.094976366 0.10847694 14408659
0.78676927 0.10481786 0.10834587 13618631
0.78850007 0.1119325 0.10887207 14737110
0.79152 -0.10536641 0.11484736 13157821
0.78893083 -0.094700977 0.11440891 13487041
0.79000002 -0.099611931 0.11647679 13421248
0.78826928 -0.084489778 0.1145903 13289662
0.78662074 -0.075375818 0.11521999 13355456
0.77900004 -0.061751872 0.11120766 13092283
0.78321421 -0.065100171 0.11574312 13289663
0.77900004 -0.05992822 0.11120766 13289662
0.78339994 -0.054762974 0.11550894 13158077
0.78459376 -0.044515993 0.11533712 13092283
0.78499991 -0.034662001 0.11482074 12829112
0.78446674 -0.025457302 0.11474197 12434355
0.78359407 -0.01545324 0.11518873 12303026
0.78516662 -0.0052586114 0.11484531 12368819
0.78439397 0.0045910641 0.11514907 12303025
0.77869999 0.017569916 0.11481003 11974061
0.78106672 0.013051037 0.11515983 12105647
0.77638739 0.024933444 0.11464483 12039597
0.77613372 0.034773152 0.11533996 12236721
0.77636695 0.044780679 0.11446576 12170928
0.77622253 0.05496648 0.11484891 12105392
0.77488869 0.06464792 0.11515614 12171185
0.77445465 0.075078733 0.11533654 12631480
0.77530301 0.085060962 0.11496437 13157825
0.77509099 0.095099255 0.11542719 13354946
0.77591664 0.10424442 0.11560792 13880776
0.78214294 0.10723753 0.1119135 15065564
0.7863043 0.11430562 0.11496833 12499892
0.79000002 0.1180013 0.11154505 11382437
0.78900003 0.12031468 0.11817642 11579816
0.79288 0.12492053 0.11467108 11250851
0.78900003 -0.1021245 0.126884 15263196
0.79086965 -0.10616364 0.12425158 14802646
0.78894264 -0.094729386 0.12476369 14342351
0.79000002 -0.099611931 0.1201756 13947592
0.78899974 -0.084836729 0.12480035 14079179
0.7886799 -0.0754437 0.12551497 13816008
0.78806663 -0.065238543 0.12541863 13684422
0.78740007 -0.055044856 0.12531257 13618629
0.78653342 -0.044857811 0.12517399 13355457
0.78591996 -0.034703102 0.1250765 12960699
0.78516006 -0.025479922 0.12495562 12631734
0.7847001 -0.015360802 0.12488277 12434355
0.78515989 -0.0052602678 0.12495419 12500148
0.78370005 0.0048373342 0.12472253 12500148
0.77885723 0.016922342 0.12160647 12105647
0.7815001 0.014075424 0.12528759 12171697
0.77794755 0.024981273 0.12246541 12171183
0.7812857 0.024944795 0.12799615 12105906
0.77793342 0.03485395 0.12380504 12302770
0.78100002 0.034991346 0.12886353 12236978
0.77808338 0.044879545 0.12291875 12434355
0.78100008 0.04504719 0.12886353 12500148
0.77787513 0.054730088 0.12432823 12500149
0.78025007 0.054592449 0.1296519 12565941
0.77653337 0.064784102 0.12540118 12565686
0.77503705 0.075042062 0.12495705 12631223
0.77446413 0.084880345 0.12526007 12960188
0.77417862 0.095076375 0.12482524 13026237
0.77633333 0.10468038 0.12513946 13289408
0.78066665 0.10990616 0.12423924 13815752
0.78621739 0.11501645 0.12527929 12368821
0.79235733 0.1243434 0.12483997 11185060
0.78899992 -0.10317997 0.13479999 15131354
0.79009998 -0.10794803 0.13498746 14605013
0.78800005 -0.094747931 0.13462912 14999768
0.7889598 -0.084704846 0.13479324 14539217
0.7889998 -0.075474024 0.1348 14276302
0.78889978 -0.065307163 0.13478321 14079180
0.78863996 -0.055131622 0.1347395 14079180
0.78836656 -0.044961549 0.13469332 13816008
0.78799993 -0.034794476 0.13463099 13421250
0.78751737 -0.024792597 0.13467534 12894906
0.7871539 -0.01469927 0.13434529 12697527
0.78704017 -0.0052729552 0.13446766 12565941
0.78593338 0.0048527285 0.13427934 12697527
0.78530014 0.014960881 0.13509265 12565942
0.78484386 0.024828332 0.13558626 12303027
0.78487992 0.035165653 0.13593687 12500149
0.78483331 0.045268252 0.1359296 12500150
0.78336 0.055268507 0.13567448 12565942
0.77880007 0.068074368 0.13196361 12763320
0.78196013 0.064614616 0.13601613 12697527
0.77747625 0.075480342 0.13422039 12828859
0.78049999 0.071968734 0.13745977 12894907
0.77656668 0.084787637 0.13449673 13157824
0.77724004 0.094867662 0.13461398 13289153
0.77805281 0.10321233 0.13417803 13355458
0.78049999 0.10714254 0.13700287 13684168
0.78588879 0.11425909 0.13501647 12829115
0.78900003 0.12031468 0.13572352 11250851
0.79260868 0.12546812 0.13476819 11250594
0.79225928 -0.11453301 0.14504085 12104366
0.78894985 -0.10354296 0.14531876 14802390
0.79000002 -0.10811919 0.14440279 14604499
0.78800005 -0.094747938 0.14477509 14868183
0.78846663 -0.084651217 0.1448597 14671061
0.78899974 -0.075474016 0.14495882 14341839
0.78899974 -0.065447107 0.14482693 14210253
0.79000002 -0.060774446 0.14976607 14276559
0.78900003 -0.055772007 0.14188039 14210509
0.79000014 -0.05507211 0.14591309 14210509
0.78900003 -0.043663487 0.1411621 13881545
0.7900002 -0.045499727 0.14640972 14013131
0.7889998 -0.034684706 0.1438814 13552836
0.79000002 -0.035499252 0.14945784 13618629
0.78885162 -0.024983337 0.1435985 13092285
0.79000002 -0.023786359 0.1491496 13289665
0.7888332 -0.014517868 0.1449292 12960699
0.78866643 -0.0052836961 0.14489909 12894906
0.78813893 0.0048672934 0.14480112 12829114
0.78784007 0.015009415 0.14566845 12631735
0.78740001 0.025138905 0.14558825 12434868
0.78728002 0.035273079 0.14556575 12698041
0.78753573 0.045094796 0.1454812 12697786
0.78637034 0.055070445 0.14553402 12763321
0.7838335 0.065391786 0.14492764 12894650
0.77900004 0.077757582 0.14129794 13092285
0.78131813 0.074744709 0.14521062 13092029
0.77891678 0.083371513 0.14189081 13355201
0.78090465 0.085827194 0.14638861 13486786
0.78159988 0.095399551 0.14451581 13486786
0.78268003 0.10469475 0.14471662 13421252
0.78736001 0.11446553 0.14491646 12237236
0.79000002 0.11861777 0.14884137 11119265
0.78900003 0.12031468 0.14218824 11185058
0.79226094 0.12484765 0.14511529 11119265
0.78900003 -0.11056822 0.15696473 14736597
0.79144013 -0.11528598 0.15470658 12169903
0.78836 -0.10494304 0.1549914 14605011
0.78800005 -0.094747938 0.15492111 14539475
0.78800005 -0.084601969 0.15492111 14539476
0.78847992 -0.075422876 0.15501519 14276561
0.78873318 -0.06529294 0.15506417 14210511
0.78883314 -0.055221438 0.15523809 14210768
0.79000002 -0.053376824 0.15161547 14079180
0.78899992 -0.046464261 0.1564215 14144719
0.79000002 -0.043133974 0.15360714 14013131
0.79000014 -0.034882784 0.15531425 13684167
0.79000026 -0.024711061 0.15531428 13355203
0.78900003 -0.013043282 0.15179297 12960445
0.79000002 -0.01490922 0.1561465 13157824
0.78899992 -0.0050547342 0.1535015 13026238
0.79000002 -0.0057032951 0.15819113 12961215
0.78879291 0.0050306972 0.15495044 12960701
0.79000002 0.00025589595 0.15901309 13027008
0.78859991 0.015024457 0.15504046 12697530
0.78843331 0.025172949 0.15500766 12565943
0.78863627 0.035081927 0.15454386 12698042
0.79000002 0.037243981 0.15901309 12763836
0.78855985 0.044560041 0.15503259 12698299
0.78720003 0.054616235 0.1547644 12829371
0.78426486 0.065643765 0.15483622 12894652
0.78210336 0.075320177 0.15483572 13157824
0.78196645 0.085193478 0.15483372 13552068
0.78290933 0.095059998 0.15508768 13683654
0.7850371 0.10480735 0.15474844 13946827
0.7883572 0.11283542 0.15433244 11973550
0.79063642 0.11736808 0.15628153 10987679
0.78900009 -0.11140779 0.16569634 14539476
0.79093754 -0.11616482 0.16452542 13157311
0.78820008 -0.10492148 0.16510898 14736854
0.78786123 -0.094731942 0.16503803 14736598
0.78800005 -0.084601969 0.16506703 14670805
0.78859991 -0.075434811 0.16519362 14605012
0.78833324 -0.065260619 0.16513795 14407891
0.78833336 -0.055108938 0.16513766 14342097
0.7889998 -0.046331473 0.16517392 14210511
0.79000002 -0.040959395 0.16456129 14013132
0.79000014 -0.034882784 0.16456129 13750216
0.7901336 -0.02471461 0.16458955 13420994
0.79080009 -0.014554059 0.16472887 13289665
0.79072022 -0.0052974219 0.16471243 13158081
0.78900003 0.0085673565 0.16065887 12895422
0.79007167 0.0046153129 0.16484073 13092288
0.78900003 0.015770901 0.1617671 12763579
0.79000002 0.014557956 0.16628741 12894652
0.78900003 0.022948066 0.16145046 12500664
0.79000008 0.025906326 0.16544579 12763066
0.79000014 0.035394575 0.16456129 12829371
0.78899986 0.045785673 0.16583064 12960701
0.79000002 0.042237371 0.16437635 12895165
0.78802782 0.054674819 0.16507296 12895164
0.78593338 0.065015018 0.16524735 13026237
0.7830742 0.075004444 0.16488373 13289410
0.78260005 0.084530428 0.16485214 13618119
0.78343356 0.094707996 0.16502787 13486276
0.78628576 0.10537602 0.16503611 13881034
0.78874999 0.11196771 0.16522388 11381414
0.79153335 0.11699735 0.16488071 10987936
0.78900003 -0.11138913 0.17564061 14407378
0.79094744 -0.11620278 0.1748939 14012106
0.78820008 -0.10492148 0.1752575 14802392
0.78800005 -0.094747938 0.17521304 14868185
0.78800005 -0.084922791 0.17497241 14802649
0.78876179 -0.074922733 0.17485493 14802649
0.78899974 -0.065315165 0.17543536 14868442
0.78899986 -0.055361554 0.17420399 14671319
0.79000002 -0.05469783 0.17882814 14868442
0.78900003 -0.046659835 0.17284948 14473683
0.79000002 -0.043961674 0.17633025 14539476
0.78900003 -0.032068033 0.17912951 14144719
0.79000026 -0.035080936 0.17440276 14013387
0.78900003 -0.024987627 0.17851382 13684422
0.79003721 -0.02460926 0.17340533 13487043
0.78900003 -0.01267387 0.17912951 13421250
0.79027617 -0.014608107 0.1746332 13355457
0.78900003 -0.0029767887 0.17866772 13355458
0.79034621 -0.00565047 0.17416774 13355202
0.78899992 0.0057967617 0.17717376 13289410
0.79005259 0.0040521813 0.1723596 13289410
0.7889998 0.01494812 0.17593911 13092031
0.79000002 0.015282305 0.17080304 12960445
0.78899986 0.02549877 0.17717981 12960445
0.79000002 0.024950881 0.17185013 12828859
0.78858322 0.035484441 0.17549539 13092031
0.79000002 0.034778107 0.17041774 12960700
0.78800011 0.044937219 0.17541686 13157822
0.78732151 0.054955009 0.17486349 13158079
0.78561527 0.064834431 0.17454132 13157822
0.78386229 0.074729204 0.1744214 13420995
0.78296691 0.084569052 0.17501086 13684167
0.78331465 0.09456265 0.1749572 13881546
0.78600001 0.10514054 0.17476863 13749961
0.78858823 0.11330278 0.17566934 10856095
0.79045451 0.11767704 0.17373872 10987680
0.78900003 -0.11149175 0.18467069 14012619
0.79086673 -0.11638551 0.18510698 14078667
0.78879982 -0.10500097 0.18462466 14012875
0.78856659 -0.094816044 0.18457071 13947084
0.78879988 -0.084687479 0.18462473 14078670
0.78899986 -0.075381666 0.18393189 14539477
0.79000002 -0.075939558 0.18786378 13881547
0.78899986 -0.067162231 0.18395239 14342098
0.79000002 -0.062623851 0.18598358 14473684
0.78900003 -0.051462196 0.18836482 14342098
0.79000014 -0.055380341 0.18475066 14671063
0.78888232 -0.043524534 0.18703264 14671063
0.79000002 -0.046225794 0.18293208 14802649
0.78882122 -0.034632843 0.18588099 14407891
0.79000002 -0.037656888 0.18120594 14342098
0.78899974 -0.024679782 0.18467075 13881801
0.7889998 -0.014520932 0.18467073 13552836
0.7889998 -0.005285617 0.18467072 13487043
0.78899974 0.0047140005 0.18454328 13355457
0.79000002 0.0095029166 0.18860355 13289664
0.7889998 0.015192691 0.18434948 13026493
0.79000002 0.013201725 0.18860355 13092285
0.78874177 0.025330283 0.18478873 12960701
0.78800005 0.035432193 0.18519996 13092287
0.78748584 0.045288187 0.18510729 13289408
0.78732282 0.055370532 0.18535002 13289665
0.78723341 0.064757071 0.18518157 13289665
0.78652787 0.074825175 0.18501656 13355459
0.78551996 0.084843569 0.18569818 13487044
0.78483862 0.095026024 0.1853583 13487045
0.78710717 0.10509077 0.18482204 13355715
0.78870004 0.11288396 0.18275459 10855582
0.79086667 0.11628031 0.18634383 10921888
0.79260868 0.12433516 0.18519683 10987938
0.78899997 -0.11170486 0.19518474 14341839
0.79023534 -0.11640054 0.19486207 14276046
0.78899974 -0.10502703 0.19482952 14210253
0.78891641 -0.094858594 0.19480857 14012875
0.78866649 -0.084673554 0.19474562 13947082
0.78885162 -0.075596318 0.19523688 13815241
0.79000002 -0.073257923 0.19091532 13947340
0.7889598 -0.065496333 0.19648178 13749961
0.79000002 -0.064473256 0.19137765 14144719
0.78891289 -0.054749109 0.19597211 13881547
0.79000002 -0.056547232 0.19124556 14144719
0.78811759 -0.045165487 0.19488133 14078926
0.78740013 -0.034767609 0.19535434 14276305
0.78811127 -0.024651004 0.19460794 14144975
0.78863317 -0.01451403 0.19473737 13947596
0.78886646 -0.0052847243 0.19479585 13749960
0.78895634 0.0032269203 0.19566177 13618375
0.79000002 0.0077957739 0.19358274 13420995
0.78900003 0.015647763 0.19636875 13223616
0.79000014 0.014897011 0.19469117 13223359
0.78897119 0.025057912 0.1949545 13026237
0.78826928 0.035174228 0.19535874 13158079
0.78800005 0.044528574 0.19550495 13289665
0.78813338 0.054684266 0.19553858 13355457
0.78855997 0.064866401 0.19564529 13355457
0.78806674 0.074972458 0.19552177 13486788
0.78720003 0.085025214 0.19530687 13552582
0.78656667 0.095086686 0.19515052 13421507
0.78838891 0.10422713 0.19498654 13355716
0.79033333 0.10880043 0.19608466 10724253
0.79289651 -0.12424003 0.20523022 12236209
0.78900003 -0.11162368 0.20314133 14671317
0.79022223 -0.11546784 0.20602524 14605525
0.7889998 -0.10477516 0.20448466 14473682
0.79000002 -0.10700955 0.20894699 14473938
0.78853321 -0.094813809 0.20486733 14342096
0.78800005 -0.084601976 0.20472865 14341841
0.78800005 -0.075378366 0.20472859 14013133
0.7888332 -0.065300487 0.20494527 13815754
0.7889598 -0.055153709 0.20497817 13815754
0.78793335 -0.044937737 0.20471185 13552582
0.78636658 -0.034723602 0.20522524 13486789
0.78633332 -0.024595002 0.20521514 13618375
0.78763336 -0.014495159 0.20555393 13815754
0.78789294 -0.0050808028 0.20529296 13881547
0.78831244 0.0046397103 0.20515434 13881547
0.7889998 0.014951771 0.20530964 13684168
0.79000002 0.015975831 0.20154938 13289410
0.78886646 0.025185965 0.20495337 13289410
0.787889 0.035504263 0.20510867 13223617
0.78782147 0.044321336 0.20527408 13289410
0.78843325 0.05470622 0.20484076 13355458
0.7889998 0.064902782 0.20498839 13420995
0.7881667 0.074981399 0.20477189 13618629
0.78721434 0.085224085 0.2051165 13815753
0.78764534 0.095068708 0.20481545 13750215
0.78888893 0.10285585 0.20393389 13749960
0.79125005 0.10734617 0.2061525 11184547
0.79170001 -0.12515868 0.21464637 12433844
0.79007715 -0.11463204 0.2146581 14473426
0.78900003 -0.10194859 0.21114527 14539218
0.79000002 -0.10558047 0.21491553 14539218
0.78891152 -0.094586395 0.21490633 14341840
0.79000002 -0.099611931 0.21819402 14144460
0.78866649 -0.084673539 0.21505791 14210255
0.78879148 -0.075838506 0.21409106 14144719
0.79000002 -0.071870863 0.21819402 14275792
0.78899986 -0.065222822 0.21283838 14210512
0.79000002 -0.065089725 0.21716657 14210512
0.7889998 -0.054568615 0.21405578 14210512
0.79000002 -0.057075638 0.21745427 14210512
0.78863877 -0.044978086 0.21504971 13947340
0.78756005 -0.03477608 0.21567787 13354946
0.78723347 -0.024623699 0.215589 12894652
0.78744012 -0.014492785 0.21564442 13157825
0.78703713 -0.0054775239 0.21512319 13157824
0.78735304 0.0050812541 0.21496843 13552838
0.78820008 0.015017226 0.21492822 13684424
0.78816676 0.025163345 0.21491915 13749961
0.7872144 0.035071779 0.21498838 13684424
0.78770381 0.044717938 0.21530616 13486789
0.78858316 0.054716498 0.21503429 13420740
0.78899974 0.064902782 0.21514723 13420739
0.78847218 0.075009905 0.21500403 13486788
0.78792596 0.084899239 0.21536703 13815752
0.78830302 0.095156543 0.21487366 13881287
0.79180956 0.10477079 0.2151641 12105135
0.79113346 -0.12568599 0.22498888 13157310
0.79000038 -0.11533185 0.22466697 14473425
0.78900003 -0.10502703 0.22900021 14473682
0.79000014 -0.10516016 0.22374226 14473425
0.7889998 -0.093867689 0.22553699 14407889
0.79000002 -0.099083535 0.22400644 14342096
0.78899997 -0.085988075 0.22374319 14275791
0.79000002 -0.083429635 0.22728693 14342098
0.79000038 -0.074644953 0.22466698 14144463
0.78899986 -0.063981183 0.22664005 14144719
0.79000002 -0.065469079 0.22189283 14144719
0.7889998 -0.055079352 0.22545999 14013133
0.79000002 -0.056613285 0.22050577 14342098
0.78899974 -0.044997476 0.22530611 13815754
0.78816009 -0.034802284 0.22506644 13618375
0.78800005 -0.024648501 0.22502056 13157824
0.78796005 -0.014501981 0.22500932 13157824
0.78732008 -0.0052754865 0.22482666 13092031
0.78710014 0.0048620021 0.22476362 12894651
0.78768003 0.01500693 0.22492795 12829114
0.78741938 0.025287716 0.22503203 13223616
0.78644836 0.035298493 0.2253385 13816010
0.78726935 0.044346742 0.22502349 14078925
0.78826672 0.054694071 0.22509603 13881545
0.78879988 0.064886056 0.22524816 13618116
0.78829998 0.074993834 0.22510561 13618116
0.78800005 0.085112467 0.22502056 13881288
0.78842312 0.094601206 0.22528344 13684422
0.79156679 0.1043418 0.22504972 11645097
0.78900003 -0.12238944 0.23675787 14868183
0.79035002 -0.12630036 0.23438707 14341583
0.78870571 -0.11487186 0.23537585 14802390
0.79000002 -0.11995538 0.23113987 14736597
0.78859985 -0.10497346 0.23534375 14736597
0.78896749 -0.095013067 0.23471032 14539477
0.78899992 -0.085571304 0.23601905 14407891
0.79000002 -0.083522111 0.2326194 14407891
0.78895223 -0.07476604 0.23549443 14342098
0.79000002 -0.077788964 0.23187964 14342098
0.78844434 -0.065269962 0.23529774 14342098
0.78813338 -0.055095576 0.2352048 14473684
0.7882778 -0.044956282 0.23524806 14407891
0.78803343 -0.034796104 0.23517632 14078926
0.78800005 -0.024648502 0.23516652 13684168
0.78800005 -0.014502529 0.23516652 13618375
0.78720015 -0.005274808 0.23492683 13618375
0.7867223 0.0048589017 0.23478378 13487045
0.7863667 0.014981515 0.23467755 13157822
0.7865141 0.02497966 0.23485368 12894651
0.78680778 0.035181042 0.23551981 12960701
0.78634286 0.045486063 0.23480317 13618373
0.78660011 0.055498842 0.23474622 14210510
0.7875334 0.064782761 0.23502535 14210253
0.78733349 0.074902169 0.23496635 13946824
0.78726679 0.085034437 0.23494677 14143690
0.78841376 0.094387069 0.23506695 13881030
0.79136676 0.10524154 0.23493639 11184547
0.78900003 -0.13088591 0.24839437 12828859
0.79214293 -0.13538606 0.24461137 9802125
0.78839284 -0.12498609 0.24477395 14670805
0.79000002 -0.1292024 0.24131158 14407378
0.78573537 -0.11525248 0.24508871 14802647
0.7851876 -0.10514759 0.24546592 14868440
0.78797162 -0.094611444 0.24451087 14802648
0.78846657 -0.084651925 0.24453314 14605270
0.78824133 -0.075529248 0.24462296 14407891
0.78756684 -0.065198049 0.24517672 14539477
0.78661537 -0.054848269 0.24509199 14473684
0.7875334 -0.044913128 0.24516574 14539477
0.78792006 -0.034790661 0.24528719 14078926
0.78800005 -0.024648504 0.24531248 13815755
0.78768003 -0.014497858 0.24521257 13684168
0.78588891 -0.0050619743 0.24506308 13881547
0.78511107 0.0048488853 0.24533065 13881546
0.78562057 0.014905053 0.24533157 13684167
0.78562832 0.02521408 0.24536093 13421252
0.78559995 0.035197832 0.24548282 13552837
0.78549987 0.045306157 0.24545179 13487044
0.78516656 0.05539709 0.24534824 13618630
0.78545165 0.064789273 0.24558328 14144973
0.78597051 0.07477387 0.24532843 14210510
0.78646433 0.08494693 0.24542381 14341839
0.78829616 0.094578773 0.24499321 14275789
0.7918967 0.10426883 0.24486338 11184804
0.78887504 -0.13155782 0.25551081 13157566
0.79057896 -0.13640898 0.25449076 9539210
0.78658623 -0.12483785 0.25483921 14671061
0.78328019 -0.1152684 0.25484589 14803159
0.78419363 -0.10515334 0.25496539 14671316
0.7863822 -0.094822973 0.25471643 14605525
0.7871564 -0.084855512 0.25541365 14539733
0.78792602 -0.07537128 0.25492162 14539477
0.78674287 -0.064999379 0.25491869 14605270
0.78517228 -0.05501581 0.25469932 14473684
0.78541666 -0.044792823 0.25461885 14342099
0.78600001 -0.034705225 0.25480753 14210512
0.78725004 -0.024623193 0.2552135 13618375
0.78730017 -0.014491132 0.25523019 13420996
0.78535712 -0.0054610362 0.25492772 13420996
0.78355914 0.0050546178 0.25558016 13749961
0.78469241 0.015021591 0.25509116 13486789
0.78422588 0.024888406 0.25497362 13223617
0.78380013 0.03511839 0.255014 13486788
0.78503323 0.045280017 0.25541571 13553093
0.78467995 0.055361081 0.25530034 13553093
0.77900004 0.068639323 0.25892356 13947594
0.78214723 0.065037444 0.25512016 13882058
0.77900004 0.073198453 0.25892356 14079180
0.7826429 0.07570143 0.2548289 14342096
0.78377414 0.084538668 0.25535575 14539219
0.78734475 0.094261691 0.25502232 14275792
0.79241383 0.10484865 0.25544816 10658717
0.79240727 -0.15515468 0.26544258 10921632
0.79217851 -0.14499126 0.264961 10395032
0.78857148 -0.13213415 0.26513788 13815754
0.79026669 -0.13677004 0.26488858 9934226
0.78611118 -0.12489029 0.2649664 14605267
0.78370017 -0.11532985 0.26507065 14605524
0.78496963 -0.10565659 0.2650829 14539475
0.78600001 -0.095427476 0.26493025 14408145
0.78576666 -0.085281417 0.26484987 14276560
0.78692877 -0.075274944 0.26464936 14342098
0.78667766 -0.065273456 0.2649802 14407891
0.78543997 -0.054908678 0.26474208 14276304
0.78465712 -0.044619404 0.26526326 14276305
0.7845518 -0.034767661 0.26520023 14407891
0.78574073 -0.025087353 0.26463693 13815754
0.785258 -0.014810095 0.26538858 13618375
0.77900004 -0.0015713201 0.26986548 14013133
0.78276676 -0.0052470588 0.26475301 13486789
0.7790001 0.0048114653 0.26895365 13618375
0.78123093 0.0045432406 0.26388299 13618375
0.78249997 0.014910113 0.2646645 13749961
0.78405899 0.024818549 0.2649245 13421253
0.78480005 0.035162158 0.26452649 13289923
0.78493744 0.045503717 0.26491594 13289666
0.78366679 0.055288676 0.26505837 13224130
0.77858329 0.066627078 0.26577127 13552582
0.78090918 0.06190962 0.26421034 13487046
0.77827579 0.074827805 0.26521569 14012877
0.78000003 0.078770399 0.26108193 14407891
0.77900004 0.081100948 0.2677379 14275792
0.78131825 0.085141711 0.26451507 14605012
0.78667641 0.095214374 0.26483074 13618118
0.78900003 0.10184405 0.26594147 10658460
0.79091322 0.10635927 0.26505467 10592924
0.78858346 -0.13220209 0.27549323 14210769
0.79042858 -0.13707142 0.27488193 10460311
0.78546435 -0.12478729 0.27486083 14671319
0.78243995 -0.11514525 0.27472001 14671062
0.78336376 -0.10494062 0.27454233 14539477
0.78493327 -0.095297605 0.27467525 14407890
0.7845279 -0.085147634 0.27453363 14144719
0.78519994 -0.075109497 0.27476883 14210512
0.78558326 -0.065033145 0.27490276 14407891
0.78489989 -0.054870173 0.27466473 14276305
0.78367764 -0.044843223 0.27497584 14144976
0.78307718 -0.034435548 0.27473187 14144975
0.78386688 -0.025436036 0.27430126 13750218
0.78354561 -0.015590487 0.27460602 13421510
0.77900004 -0.0015713201 0.27168912 13027008
0.78143996 -0.0053106342 0.27502823 13092801
0.77900004 0.0056473059 0.27472857 13355716
0.78000003 0.001469986 0.27812454 13421766
0.77900004 0.011194251 0.27442461 13289922
0.78081483 0.01501382 0.2748937 13552838
0.78328151 0.025240209 0.27466989 13618632
0.78466672 0.035156325 0.27458248 13618375
0.78367662 0.044983409 0.27450433 13618632
0.77900004 0.058609232 0.27533641 13420996
0.78129631 0.055190016 0.27485943 13421253
0.77893102 0.065143161 0.27543795 13355459
0.78000003 0.06051046 0.2711249 13289410
0.77884001 0.07500717 0.27528051 13552325
0.77900004 0.081303574 0.27493116 13683911
0.7809999 0.085863732 0.27486014 13947082
0.78651613 0.09499827 0.27478406 13157311
0.78900003 0.10184405 0.27148265 10592667
0.79154551 0.10588112 0.27513909 10592667
0.78825009 -0.13297728 0.28543329 14144719
0.79000002 -0.13762747 0.2843616 10920862
0.78458631 -0.12458419 0.28503567 14736600
0.78273338 -0.11518776 0.28490266 14802649
0.78291708 -0.10513338 0.284969 14605270
0.78370023 -0.095147617 0.28525367 14342098
0.78380585 -0.085069321 0.28529179 14144719
0.78380018 -0.074976221 0.28528899 14078926
0.78448576 -0.065071464 0.28540727 14342098
0.78453857 -0.054845516 0.28485268 14144719
0.78357607 -0.0444392 0.28479287 13947596
0.78306693 -0.034576871 0.28502351 13816524
0.78300029 -0.02540862 0.28499886 13552839
0.78266692 -0.015322051 0.28487751 13289923
0.78210706 -0.0054363376 0.28500149 13092801
0.78126663 0.0048239827 0.28528449 13224387
0.78161538 0.015033199 0.28519958 13487046
0.78247237 0.02498417 0.28480643 13553352
0.78356689 0.035107672 0.28520501 13487302
0.78311801 0.045384504 0.28477293 13487302
0.78166658 0.054944761 0.28502232 13553095
0.77900016 0.067055628 0.28416675 13289921
0.78033334 0.062210534 0.28585535 13487045
0.77899992 0.075022101 0.28536651 13684166
0.77900004 0.080493063 0.28536654 13947082
0.78150004 0.085494094 0.28486851 13881289
0.78705883 0.095368594 0.28490388 12763066
0.78900003 0.10184405 0.28995332 10461338
0.79234785 0.10542588 0.28529453 10527131
0.79240018 -0.14443994 0.29509345 9407880
0.78768003 -0.13384174 0.29566231 14276304
0.79000002 -0.13844942 0.2921702 12434101
0.78316677 -0.12442221 0.29532209 14670807
0.78150004 -0.11500556 0.29542693 14736856
0.78263348 -0.10509401 0.29494187 14671063
0.78424013 -0.095213443 0.29554927 14342354
0.78383356 -0.085074164 0.29539534 14210510
0.78300017 -0.074900068 0.29508036 14144974
0.78345186 -0.064705849 0.29507238 14276560
0.784931 -0.054871559 0.29504752 14078926
0.78548479 -0.045048654 0.29551625 13816267
0.78452003 -0.03464203 0.29565305 13882317
0.78328019 -0.025418637 0.29518607 13553352
0.78300029 -0.015327017 0.29508045 13290180
0.78272003 -0.00524467 0.29497516 13158337
0.78187853 0.0050783874 0.29515633 13158081
0.77900004 0.018488863 0.29904392 13290180
0.78137916 0.014760392 0.29522398 13223874
0.77900004 0.024871647 0.29904392 13487559
0.7814666 0.024951104 0.29449984 13487559
0.77900004 0.031254437 0.29904392 13619145
0.78257167 0.03506276 0.29550436 13553352
0.78371906 0.044973746 0.29500592 13487302
0.78223073 0.055329159 0.29500166 13487559
0.78082871 0.06501323 0.29530716 13553095
0.7790001 0.076116301 0.29302582 13815496
0.77999997 0.07438802 0.29735833 13881546
0.77900004 0.080493063 0.29357296 13947081
0.78133339 0.084777117 0.29528895 13815494
0.78724986 0.094943039 0.29518422 12697013
0.78900003 0.10184405 0.29364744 10592921
0.79116678 0.10621669 0.29530144 10526873
0.78900003 -0.14176306 0.30514023 9538952
0.79105008 -0.14687581 0.30468756 9604746
0.7863571 -0.13538311 0.30521828 14012876
0.7788825 -0.12255764 0.30704278 14605270
0.78130001 -0.12677619 0.30404109 14539477
0.7790001 -0.11722133 0.30618656 14605270
0.78087503 -0.1133126 0.30501992 14671063
0.78327286 -0.10542771 0.30485186 14671063
0.78573066 -0.095182024 0.30544931 14407891
0.78520685 -0.085064858 0.30497766 14078926
0.78348166 -0.074743591 0.30484104 14078669
0.78341699 -0.064852029 0.30532369 14342098
0.7840001 -0.054806713 0.30554855 14276818
0.78354287 -0.044818152 0.30523801 14145232
0.77900004 -0.033991817 0.30917534 14012876
0.78211105 -0.034873288 0.30430341 14013390
0.77900004 -0.027710348 0.30937794 13749961
0.78200012 -0.025249748 0.30461091 13882061
0.7825281 -0.015317934 0.3049762 13421766
0.7821666 -0.0052408543 0.30483574 13224387
0.7790001 0.0072430023 0.30694643 13224387
0.78091305 0.0035103264 0.30375147 13224131
0.77871418 0.015030585 0.30563924 13158594
0.78000003 0.012121618 0.3012538 13092031
0.77811104 0.024843659 0.30507731 13421509
0.77892309 0.03475837 0.30609775 13618888
0.78060001 0.036437027 0.30111939 13619145
0.77895021 0.044563927 0.30777749 13816010
0.78140903 0.045403793 0.30246094 13618888
0.77866673 0.054938409 0.30802953 13749961
0.78105265 0.054913677 0.30271715 13553096
0.77887511 0.064982027 0.30720061 13881547
0.78058338 0.0651244 0.30239233 13749962
0.77900004 0.07210426 0.30852693 13947340
0.78004545 0.075537786 0.30450857 14013133
0.7812593 0.084591381 0.30499139 14144974
0.78728563 0.094650626 0.30472466 12368308
0.79182148 0.10532354 0.30535612 10526874
0.78900003 -0.14289182 0.31488869 9999762
0.79049999 -0.14767537 0.31490922 9407882
0.78511548 -0.13569185 0.31482074 14210257
0.77852392 -0.12437537 0.31509036 14671063
0.7808333 -0.12953116 0.31528428 14605270
0.77834612 -0.115732 0.3156814 14605270
0.78059995 -0.11194886 0.31208378 14671063
0.77900004 -0.10770793 0.31837463 14539477
0.78241187 -0.10436219 0.31478637 14605270
0.78466666 -0.095264688 0.31499115 14407891
0.78469473 -0.085166775 0.31500351 14144719
0.78320712 -0.074984923 0.31494483 14079183
0.78197229 -0.064734407 0.31574237 14145232
0.77900004 -0.051721774 0.31819227 13948110
0.78085715 -0.054783564 0.31503087 14342355
0.77900004 -0.041691687 0.31363314 14275792
0.7803449 -0.045543998 0.31511804 14144720
0.77896422 -0.034981839 0.3155728 13815754
0.78000003 -0.039919212 0.31281844 14144463
0.77900016 -0.026980884 0.31509206 13486789
0.78023082 -0.023070293 0.31511241 13487046
0.7820664 -0.015308436 0.31486815 13420996
0.78207999 -0.0052401018 0.31487414 13224130
0.77900004 0.009370598 0.31180951 12303287
0.78089654 0.0046645543 0.31509092 12960702
0.77885014 0.015567692 0.31484956 12763837
0.78039998 0.011944766 0.31821632 12697531
0.7784999 0.02485455 0.31525311 13487302
0.77812022 0.034861937 0.31509781 13684424
0.77758062 0.044878621 0.31505609 13684425
0.77712023 0.054829475 0.31469512 13553096
0.77823323 0.064930111 0.31514603 13684681
0.77900004 0.07183072 0.31317723 13816524
0.78081816 0.07578034 0.31552866 13882317
0.78295845 0.084418274 0.31507492 14145232
0.78790909 0.093741223 0.31487298 12302518
0.79000002 0.09827432 0.31621245 10263703
0.78850007 -0.14280185 0.3248415 10986399
0.79047066 -0.14789391 0.32499909 9276294
0.78490329 -0.13572544 0.32519308 14341842
0.77883345 -0.1242617 0.32481012 14605270
0.78000003 -0.12939292 0.32453522 14539477
0.77837032 -0.1149499 0.324112 14473684
0.77892596 -0.10503636 0.32488218 14407893
0.78000003 -0.10078568 0.32194838 14473684
0.77900004 -0.09822493 0.32731056 14276305
0.78089297 -0.094545253 0.32418579 14407891
0.78161114 -0.084831066 0.3247464 14276305
0.78062063 -0.074799448 0.3244915 14210512
0.78066677 -0.064624056 0.32526943 14013390
0.77900004 -0.05080995 0.32092774 13816524
0.78074998 -0.054731365 0.32545811 13552839
0.78092605 -0.045043923 0.3255831 13290181
0.77900004 -0.033941161 0.32092774 13618888
0.78087497 -0.035240989 0.32573932 13421766
0.77900004 -0.028926115 0.32092774 13420996
0.78120828 -0.025196843 0.32564926 13158594
0.78213865 -0.015309478 0.32496679 12895166
0.78243339 -0.0052420171 0.32508743 12895165
0.7814706 0.0046092165 0.32495669 12895165
0.77863169 0.016465118 0.32547528 12500664
0.7802223 0.012023366 0.32467774 12631993
0.77747232 0.024820754 0.3248477 13026751
0.7767002 0.034797832 0.32452545 13421253
0.77622896 0.044745814 0.32445821 13421252
0.77640027 0.054778863 0.32439899 13224130
0.77708352 0.064834341 0.32468379 13355203
0.77871436 0.072911583 0.32614756 13420996
0.78106666 0.077172771 0.32385015 13487046
0.78320694 0.084535658 0.32487175 13750474
0.7879523 0.093278371 0.32487848 12302514
0.79000002 0.09827432 0.32545948 10197909
0.78900003 -0.1512036 0.33797693 9079688
0.79179174 -0.15583578 0.33461511 9474188
0.78751719 -0.14488365 0.33543113 11052450
0.79000002 -0.14892937 0.33162415 9342602
0.77833337 -0.13291319 0.33659527 14342098
0.78236848 -0.13644058 0.33368677 14276305
0.77817643 -0.12480266 0.33403447 14473684
0.77888459 -0.11525139 0.33511612 14539478
0.78000003 -0.11387196 0.33381736 14539477
0.77899998 -0.10488828 0.33481565 14539478
0.78000009 -0.10401161 0.3344869 14539478
0.77900004 -0.097617052 0.33855641 14407891
0.78029639 -0.094395734 0.33472154 14342098
0.78145164 -0.084961429 0.3349191 14144719
0.78021437 -0.0748294 0.33480135 14078926
0.78106672 -0.064657018 0.33457878 13947596
0.78183985 -0.054655705 0.33490953 14013390
0.78219998 -0.044608578 0.33506498 14342098
0.78247994 -0.03455092 0.33518514 13815755
0.78199983 -0.02537616 0.33497846 13618375
0.78163326 -0.015301709 0.33482122 13552582
0.7790001 -0.0026655118 0.33569932 13486789
0.78072232 -0.0063474784 0.33422726 13420996
0.77822578 0.0054218057 0.33559239 13289923
0.78028578 0.0031225029 0.33111244 13224387
0.77725017 0.014636368 0.33527055 13092288
0.77652812 0.024792748 0.33535945 13026751
0.77643359 0.03478675 0.33531868 13224387
0.77681273 0.044578873 0.33491614 13290180
0.77672011 0.054800585 0.33453724 13027009
0.77696687 0.064823724 0.3346433 13157825
0.77857912 0.074215308 0.33389702 13420996
0.7801429 0.077219687 0.33653122 13552581
0.78336 0.084616259 0.33482769 13749960
0.78817391 0.093556881 0.33505607 11184549
0.79000002 0.09827432 0.33470649 10198166
0.79257131 0.1550518 0.33499819 10461852
0.78900003 -0.1512036 0.34536517 9210503
0.79222733 -0.15646316 0.34492233 9211015
0.78511101 -0.14481647 0.34481505 11776173
0.7775557 -0.13424794 0.34440133 14473684
0.78100002 -0.13870049 0.34003505 14210512
0.77720708 -0.12535316 0.34459561 14605527
0.7784 -0.11545847 0.34436998 14605270
0.77899998 -0.1046077 0.3440741 14539477
0.78000003 -0.104742 0.34872964 14473684
0.77900004 -0.094577618 0.34463525 14276305
0.77900016 -0.086240932 0.34541681 14013133
0.78029996 -0.083501264 0.34310848 14013133
0.77900004 -0.075429268 0.34828255 13947340
0.7803182 -0.07439357 0.34388894 13881804
0.77900004 -0.069046482 0.34828255 14211282
0.78065729 -0.064493932 0.34432253 14013904
0.77900004 -0.054457258 0.34828255 13816273
0.78070372 -0.054576013 0.34396607 14145491
0.78197223 -0.044594765 0.34503278 14474455
0.77900004 -0.030749768 0.34828255 14211282
0.78179306 -0.034647547 0.34479588 14211026
0.77875 -0.024587704 0.34839818 13816267
0.78129154 -0.02535337 0.34366548 13816268
0.77881265 -0.014789354 0.34762841 13618890
0.78113043 -0.015490528 0.34271416 13684425
0.7785219 -0.0044241585 0.34561065 13552583
0.78028578 -0.0078368057 0.34207177 13684168
0.77620608 0.0045776977 0.34457275 13355460
0.77466661 0.014758607 0.34543663 13092545
0.77509671 0.024601204 0.34489772 13224130
0.77531999 0.034737334 0.34482107 13355716
0.77716136 0.044683047 0.34464219 13618632
0.78000003 0.049554493 0.34872964 13749961
0.77900004 0.053822149 0.34189978 13355973
0.78113335 0.055357315 0.34655574 13487046
0.77900004 0.063168362 0.34098795 13355460
0.78181815 0.065891989 0.3458842 13552582
0.781923 0.075374849 0.34536633 13684168
0.78499997 0.084863529 0.34488565 13816267
0.78860861 0.094249777 0.34559533 10856096
0.79000002 0.09827432 0.34395352 10329752
0.78900003 0.10553817 0.3481358 10461338
0.79123998 0.1050989 0.3433792 10395545
0.78900003 0.11169505 0.34844363 10461340
0.79171896 0.11545846 0.34423152 10461339
0.79250014 0.12471373 0.34518972 10461338
0.79255986 0.14497705 0.34506744 10527131
0.79199988 0.15507276 0.34482422 10527131
0.79271996 0.16542083 0.34513715 10658717
0.79235995 0.17461954 0.34497985 10658717
0.78900003 -0.1512036 0.35460049 9013124
0.7918182 -0.15638113 0.35493824 9210759
0.78627998 -0.1453862 0.35477814 12105141
0.77887499 -0.13444901 0.35141748 14276563
0.78220004 -0.13598569 0.35594034 13881807
0.77884632 -0.12457243 0.35228121 14342612
0.78185719 -0.12447216 0.35662046 14013905
0.77900004 -0.11828512 0.35010621 14671833
0.78178948 -0.11485413 0.35425299 14277076
0.78237504 -0.1050603 0.35437381 14407892
0.77900004 -0.092753969 0.35010621 14276306
0.78227776 -0.09517926 0.35463566 14342099
0.78162962 -0.084529467 0.35454461 14013391
0.77899998 -0.072172746 0.35166934 14210770
0.78049994 -0.075575359 0.35524806 14079441
0.77893102 -0.065267935 0.35447657 14013649
0.78000003 -0.069135115 0.35968563 13948112
0.77786118 -0.055288881 0.35414407 14079186
0.77876008 -0.045615774 0.35539427 14474457
0.78000003 -0.043936398 0.35092086 14540249
0.77885014 -0.033114593 0.35477886 14079440
0.78025001 -0.038105279 0.35500488 14342869
0.77690345 -0.025212659 0.35461727 13882317
0.77669239 -0.015273509 0.35493979 13619145
0.77662528 -0.0053743413 0.35500163 13618889
0.77536118 0.0047874609 0.35482347 13421253
0.77412009 0.014748023 0.3551622 13223874
0.7744571 0.024856765 0.35453835 13092801
0.77469987 0.034710098 0.35452065 13421253
0.77629727 0.044853855 0.35478315 13684168
0.77872735 0.054113962 0.35760668 13684168
0.78171432 0.055852283 0.35367662 13684168
0.77835715 0.065459006 0.35762542 13618375
0.78200012 0.064677849 0.3532826 13618375
0.77881819 0.074176304 0.3578144 13749958
0.78135002 0.075889163 0.35362986 13749704
0.7843104 0.084655344 0.35470593 13947340
0.78827268 0.095042035 0.35477597 10461082
0.7889998 0.10553817 0.35460049 10395545
0.78899997 0.11264227 0.35502678 10461081
0.79000002 0.11723071 0.35458755 10461337
0.79036701 0.1251498 0.35521373 10592667
0.79133344 0.13549085 0.35472146 10592667
0.79116666 0.14472237 0.35464585 10527131
0.791278 0.15493172 0.35469592 10527131
0.79166669 0.16520174 0.35487172 10527132
0.792346 0.1744753 0.35446411 10592925
0.78900003 -0.1512036 0.36014169 9671567
0.7916801 -0.15572372 0.36499813 9934738
0.78861535 -0.14474019 0.36309084 10197913
0.7902 -0.14625452 0.36716422 10000787
0.78736842 -0.13459337 0.3633773 10790047
0.79000002 -0.13660002 0.36799577 9869201
0.7872631 -0.12506844 0.36381474 11119014
0.79000002 -0.1255036 0.36799577 9803157
0.78784209 -0.11477356 0.3634983 12105655
0.79000002 -0.11625656 0.36799577 9934486
0.7880525 -0.10470613 0.3641783 11841970
0.79000002 -0.10608484 0.3693828 9736594
0.78815997 -0.0946564 0.36485291 11645105
0.79000002 -0.096837826 0.36984515 9343121
0.78673917 -0.08494895 0.36495847 11974069
0.78424996 -0.07502187 0.36440355 13224135
0.78299993 -0.064770609 0.36522138 13158598
0.77833343 -0.055323269 0.36073914 13882062
0.78306675 -0.054741856 0.36660379 13882063
0.77900004 -0.048074469 0.36104813 14079698
0.78306252 -0.044773199 0.36534068 14211284
0.77900004 -0.031661592 0.36104813 13684938
0.78288239 -0.034892116 0.3654387 13948112
0.77742863 -0.024708947 0.36331114 13553354
0.78116673 -0.026569957 0.36784318 13816783
0.77595836 -0.015189228 0.36418059 13553354
0.77620012 -0.0052001029 0.36429387 13553354
0.77549994 0.0047885599 0.36487406 13224389
0.77432001 0.014751834 0.36431798 13027010
0.77443331 0.024726817 0.36437103 12961215
0.77511984 0.034728374 0.36469409 13092801
0.77617264 0.044675786 0.36475125 13355973
0.77700019 0.054820906 0.36375868 13421509
0.77700019 0.064826153 0.36375996 13420996
0.77808338 0.074783809 0.36411583 13487301
0.78000003 0.078770399 0.36881557 13355973
0.78351855 0.084567033 0.36463583 13947852
0.78853321 0.095201805 0.36460507 10132374
0.79000002 0.09827432 0.36984515 10000787
0.7889998 0.1058337 0.36390969 10329751
0.79000002 0.10302992 0.36931676 10329752
0.78899974 0.11450963 0.36502329 10395544
0.79000002 0.11861777 0.36152285 10395542
0.78900003 0.12271587 0.36789942 10461338
0.79007715 0.12595689 0.36404768 10461337
0.79138476 0.13535866 0.36514887 10527131
0.79167992 0.14481626 0.36507282 10461338
0.79143345 0.15496261 0.36495936 10527131
0.79255998 0.1653882 0.36547861 10527132
0.79222733 -0.094837233 0.37535819 9671823
0.78871435 -0.083360337 0.37188125 9474190
0.79056251 -0.085108995 0.37647122 9671822
0.78833324 -0.075410873 0.37275678 9408396
0.79033333 -0.075602338 0.37801921 9671822
0.7881251 -0.065588184 0.37288943 9408397
0.7906 -0.064522222 0.37752929 9803410
0.78850007 -0.05512137 0.37375826 10592156
0.79020005 -0.055241149 0.37733826 9539982
0.78811771 -0.044676017 0.37276381 12631998
0.79014289 -0.044401318 0.37757555 9210765
0.78806674 -0.034797728 0.37373835 12829888
0.79042858 -0.035695314 0.37876946 9539725
0.78642106 -0.025327418 0.37553787 12105909
0.77900004 -0.014336891 0.37016639 13093060
0.78461111 -0.015356277 0.37620476 12237496
0.77900004 -0.0052186265 0.37016639 13487818
0.7853334 -0.0052613663 0.37685701 12369083
0.778 0.00662426 0.3715125 13355975
0.78335714 0.0043097255 0.37643126 12566460
0.77680004 0.014798472 0.37184972 12961217
0.78211117 0.015307907 0.37795275 11909042
0.77633333 0.024786115 0.37162614 12566459
0.78209096 0.025385225 0.37796164 12040115
0.77716666 0.034820382 0.37248078 12566459
0.78162503 0.03501847 0.37804818 12369080
0.77890015 0.044926651 0.37194225 12698045
0.78200006 0.045105539 0.37708536 12500666
0.77900004 0.054961931 0.37016639 12895424
0.7826001 0.05521686 0.37554386 12829631
0.77900004 0.064992018 0.37016639 13026238
0.78250009 0.065282263 0.3754963 12763580
0.77900004 0.073198453 0.37016639 13223871
0.78200006 0.075634919 0.3748256 13223872
0.78571999 0.085165195 0.37512726 12565943
0.78871429 0.092443936 0.37451887 10066581
0.79000002 0.097097442 0.37572965 10001300
0.79050034 0.10481332 0.37563223 10198679
0.78900003 0.11538918 0.37153193 10395545
0.79021055 0.11475465 0.37656507 10329752
0.78900003 0.12331616 0.3723785 10395545
0.79000002 0.12567915 0.37631807 10329752
0.79068989 0.13551 0.37495354 10395802
0.79178572 0.14463811 0.37498313 10461338
0.79281479 0.15471815 0.37466967 10461338
0.79274064 -0.085316978 0.3855637 9934994
0.78900003 -0.02283272 0.38138294 9737617
0.79172224 -0.025590725 0.38527551 9342601
0.78880006 -0.014516784 0.38220957 8816260
0.79100001 -0.014557742 0.38605437 9013895
0.78900003 -0.0052856179 0.38230646 11316393
0.79100001 -0.0052990159 0.38605437 9277322
0.78800011 0.0057877945 0.38310009 10856614
0.79109091 0.0037901225 0.38786629 9146250
0.78746158 0.014861586 0.38454109 10067353
0.79000002 0.014434661 0.38833919 8685699
0.78728575 0.025137197 0.38424203 11119271
0.79000002 0.02429815 0.38833919 9934739
0.78731251 0.035504024 0.38540855 11316395
0.78713042 0.045119457 0.38549072 12171703
0.78783995 0.054699782 0.3852151 12237751
0.78795004 0.064816177 0.3845675 12171959
0.78737491 0.074907191 0.38428727 11382186
0.78841174 0.08483237 0.38430238 9803408
0.79000002 0.087177895 0.38833919 10198166
0.78900003 0.091377355 0.38107511 10132373
0.79090917 0.095106795 0.38550559 10132373
0.79210335 0.10518642 0.38553923 10263959
0.79183996 0.11518615 0.3855384 10329753
0.7905336 0.12517388 0.38490137 10329753
0.79036021 0.13532481 0.38481644 10461339
0.79151851 0.14499451 0.38496801 10395546
0.79272401 0.15415998 0.38487843 10461338
0.79161114 0.045041263 0.39531118 9474447
0.79111111 0.055198207 0.39485565 9869974
0.79159999 0.065117314 0.39468849 10198424
0.79171449 0.07498835 0.39454725 9671823
0.79220837 0.084872603 0.39475974 10000787
0.79185712 0.12505248 0.39461699 10395546
0.79174083 0.13514844 0.39496365 10329753
0.79252177 0.14472918 0.39482412 10461339
0.79252762 0.05498828 0.40535098 9606542
0.79263318 0.065201893 0.40540472 9737871
0.79279995 0.074495792 0.40548941 9803665
0.79217231 0.035106037 0.41460109 9540751
0.79084015 0.044689164 0.41467172 9672337
0.79146665 0.054915395 0.41499984 9672080
0.79180002 0.065132923 0.41517448 9672335
0.79211098 0.074842893 0.41554338 9738385
0.791619 0.0048889057 0.42433888 9737617
0.79202878 0.015090983 0.42455798 9606287
0.79263878 0.024894662 0.4245792 9409422
0.79207993 0.035487767 0.42459273 9541008
0.79195994 0.044752445 0.42452878 9606546
0.79164517 0.055075821 0.42453969 9606546
0.79123348 0.06508626 0.42506471 9738130
0.79155564 0.075305283 0.42523673 9869459
0.79271996 0.085623682 0.42493618 10001559
0.79253328 -0.014587368 0.43503729 9541008
0.79128581 -0.0055014216 0.43468434 9606801
0.78900003 0.0094908876 0.43125361 9606031
0.79017872 0.0045501329 0.43487144 9606544
0.79056013 0.015063018 0.43488371 9540495
0.792 0.025505733 0.43502107 9475215
0.79216647 0.035491649 0.43484002 9475472
0.79246658 0.044781145 0.43500501 9607058
0.79205692 0.054822486 0.4349125 9606801
0.79136014 0.065096729 0.43532375 9672594
0.79103357 0.075254887 0.43514305 9804181
0.79080009 -0.0052976762 0.4442704 9475215
0.79183328 0.0048922519 0.44485295 9475215
0.79216659 0.075361758 0.44503915 9804180
