# .PCD v0.7 - Point Cloud Data file format
VERSION 0.7
FIELDS x y z rgb
SIZE 4 4 4 4
TYPE F F F U
COUNT 1 1 1 1
WIDTH 997
HEIGHT 1
VIEWPOINT 0 0 0 1 0 0 0
POINTS 997
DATA ascii
0.79030001 0.12356456 0.056115042 11448230
0.79073334 0.13625257 0.05698042 11645609
0.78880006 -0.0917053 0.087862119 14211536
0.79168183 -0.095276468 0.084794238 13750728
0.78875005 -0.085374266 0.08790268 14540500
0.78900003 -0.079168148 0.088623412 15067102
0.78832138 -0.093601823 0.095270164 13487041
0.79025 -0.099181101 0.094312899 13552834
0.78656667 -0.084449247 0.0947925 13750471
0.78548265 -0.075265832 0.094813392 13619142
0.79000002 -0.070946157 0.090585135 14803930
0.77900004 -0.065399177 0.0984421 13026491
0.78496313 -0.064878494 0.09510389 13750728
0.79000002 -0.064473256 0.090585135 14738907
0.78590006 -0.054939378 0.09470465 14211536
0.78622228 -0.044838272 0.094744757 14014415
0.78623098 -0.034858789 0.095454536 13948621
0.79000002 -0.033958081 0.090585135 10987682
0.78628576 -0.024921536 0.095476612 13356227
0.79000002 -0.024711059 0.090585135 10790300
0.78675008 -0.015168565 0.096423298 13553863
0.79062498 -0.013856143 0.091350324 10790557
0.78710002 -0.0052725379 0.09669777 13356484
0.79150009 -0.0053009605 0.091682307 10856350
0.78776473 0.0045959707 0.097812369 13488070
0.79231584 0.0051391469 0.092896841 10659228
0.78850007 0.015022552 0.098719083 13948620
0.78850001 0.02517496 0.098719068 12961982
0.78837502 0.034629121 0.098934159 11382439
0.78900003 0.044585086 0.099705793 10461081
0.78900003 0.050126277 0.099705793 10658460
0.78900003 0.065826312 0.099705793 11119265
0.79246163 0.065044545 0.09478832 10922144
0.78900003 0.072291039 0.099705793 11185058
0.79237926 0.07503169 0.095267244 11119267
0.78900003 0.14940594 0.098320492 11448230
0.7883684 0.15547878 0.097002313 11316901
0.79092854 0.1543323 0.092013113 11448230
0.78890914 0.16261066 0.097175792 11382438
0.79063159 0.16615418 0.094064973 11448230
0.79206908 -0.10556842 0.10488631 12302512
0.78869987 -0.094833568 0.10520714 13749957
0.78668016 -0.084463328 0.10493826 13486785
0.77900004 -0.071478017 0.10300123 13289919
0.78228569 -0.075444199 0.10513858 13355455
0.77791685 -0.065156743 0.10361735 13158333
0.78114289 -0.065318219 0.10942405 13289662
0.77876478 -0.057550095 0.10409622 13158078
0.78105557 -0.053177744 0.10550913 13158334
0.7821942 -0.044609185 0.10525569 12961212
0.78183323 -0.034523431 0.10520652 12698040
0.7808668 -0.025339225 0.10507573 12435125
0.78205538 -0.015307944 0.10523579 12435125
0.78250021 -0.0052420734 0.10529643 12632248
0.78269458 0.0048333411 0.1053184 12764090
0.77880007 0.017025193 0.10862646 12105393
0.78271985 0.014473724 0.10454795 12829884
0.77777791 0.024831194 0.10738978 12368820
0.78377795 0.025023282 0.10271228 13553863
0.77733338 0.034827068 0.10732789 12697785
0.78406674 0.03512999 0.10274997 13817035
0.77741671 0.04484275 0.10825065 12829371
0.7843914 0.045044776 0.10382793 13817292
0.77733332 0.054236453 0.10884604 13420996
0.78531992 0.055333108 0.10445197 13356227
0.77758342 0.064872555 0.10827347 13816265
0.7856667 0.064888887 0.10400797 13027262
0.77755564 0.074478529 0.10837066 14145743
0.78600001 0.075159572 0.10399711 12764091
0.77850008 0.081353232 0.1093138 14145743
0.78545457 0.085087173 0.10677168 13816778
0.7922501 0.086037762 0.10150511 11579561
0.78638893 0.09506283 0.10826923 14014160
0.78822231 0.10502446 0.10801281 13486790
0.78900003 0.11200289 0.10894111 14736345
0.78900003 0.1498677 0.10247639 11382694
0.79166681 0.14460523 0.1051911 11382438
0.78878564 0.15563105 0.10324039 11382694
0.79014289 0.15418069 0.10777774 11382438
0.78900003 0.16187359 0.10247638 11448230
0.7910952 0.16561171 0.10605788 11382694
0.79116011 -0.10531831 0.11479551 13157564
0.78886646 -0.094852932 0.1144631 13487042
0.78793341 -0.084595352 0.11525045 13421249
0.78685719 -0.075466767 0.11542556 13355456
0.78596675 -0.065065511 0.11588846 13289664
0.78556013 -0.05491538 0.11582855 13223871
0.78523338 -0.044783946 0.11577805 13092542
0.78364009 -0.034603924 0.11554208 12763320
0.78236008 -0.025388218 0.11535248 12434355
0.78293353 -0.015324149 0.11543605 12368562
0.78504008 -0.0052581518 0.11574709 12434355
0.78390002 0.0048376336 0.1155804 12368562
0.77883339 0.017269138 0.11239965 12039342
0.78152639 0.014117892 0.11599985 12105390
0.77734494 0.024973672 0.11448734 12105391
0.78000003 0.020338591 0.11865439 12105390
0.77620012 0.034776293 0.11444306 12236721
0.77643371 0.044783663 0.11447806 12105136
0.77624023 0.054766711 0.11444895 12236978
0.7751109 0.064666264 0.11518938 12302770
0.77423537 0.075202897 0.11527063 12631735
0.77484387 0.085165702 0.11491826 13223615
0.77512515 0.095005102 0.11558226 13289664
0.78000003 0.098856337 0.11135042 14606294
0.77634776 0.10463899 0.11627915 13552581
0.78333336 0.1055457 0.11151746 15065819
0.78654164 0.11449644 0.11519622 12434101
0.79033333 0.11805135 0.11159185 11251108
0.78900003 0.12031468 0.11725289 11316901
0.7916801 0.12517214 0.11486823 11251108
0.79103577 0.13484262 0.11457626 11251109
0.79064012 0.14462686 0.11471874 11251108
0.79150009 0.15497699 0.11484518 11316901
0.78900003 -0.10235905 0.1265908 15131867
0.79061908 -0.10638975 0.12405898 14802903
0.78855538 -0.094815455 0.1245694 14342094
0.78812003 -0.084614664 0.12542471 14079179
0.78879982 -0.075454421 0.12553352 13815751
0.78896642 -0.065312222 0.12555952 13618629
0.78875995 -0.055139724 0.1255275 13618629
0.78820008 -0.044953335 0.1254386 13289922
0.7871601 -0.034758516 0.12527427 12960956
0.7860384 -0.02529544 0.12523836 12565941
0.78589648 -0.015224329 0.1249463 12434355
0.78696001 -0.005271202 0.12524228 12500149
0.78673333 0.0048574358 0.12520646 12500149
0.78464007 0.014946673 0.12487455 12236977
0.77900004 0.028063042 0.12078184 12171183
0.78203845 0.024474479 0.12495281 12170928
0.77850008 0.035139862 0.12194192 12368562
0.78145462 0.03467929 0.1268594 12302769
0.77850002 0.044902992 0.12116051 12434355
0.7809999 0.04504719 0.12612143 12500148
0.77813339 0.055750411 0.12237967 12500148
0.78093338 0.054244015 0.12757285 12500148
0.77700001 0.064978249 0.1253503 12565941
0.78000003 0.06051046 0.12961036 12565941
0.77465516 0.075352475 0.12497136 12697271
0.77430767 0.085237153 0.12517978 12894651
0.77476001 0.094564952 0.12511453 13092031
0.77657139 0.10446464 0.12501574 13158338
0.78050005 0.10988269 0.12695327 13816524
0.78561902 0.11498833 0.12528902 12171698
0.78900003 0.12031468 0.12464113 11316388
0.79112005 0.12567686 0.12427459 11250852
0.79181486 0.13516015 0.12437087 11316645
0.7911787 0.14492299 0.12465884 11316644
0.79150015 0.15497641 0.12503769 11316644
0.78899992 -0.10317997 0.13479999 15065817
0.79030001 -0.10797558 0.13502209 14671061
0.78803343 -0.094752155 0.134635 14999768
0.78847992 -0.084652573 0.13471207 14539473
0.7889998 -0.075550981 0.13472302 14276301
0.78886646 -0.065304831 0.13477728 14144716
0.78847998 -0.055119596 0.13471125 14079180
0.78886646 -0.044989944 0.13477775 13750216
0.78875995 -0.034828223 0.13476001 13421250
0.78820002 -0.024655849 0.13466419 12829370
0.78784007 -0.014499399 0.13460253 12697527
0.78800005 -0.0052789189 0.13462916 12631991
0.78796673 0.0048666531 0.1346236 12631990
0.78678572 0.015186367 0.13501462 12500406
0.78561115 0.025080971 0.1351437 12368564
0.78439999 0.03514266 0.13493589 12500149
0.7838614 0.045211401 0.1348421 12500148
0.78256005 0.055211596 0.13553219 12565941
0.77841187 0.067246288 0.1344931 12763320
0.78084624 0.062121712 0.13565682 12697527
0.77620012 0.074751228 0.13443208 12960443
0.77623355 0.084751643 0.13443866 13158079
0.77716011 0.094858743 0.1345991 13289410
0.77815014 0.10326855 0.13440497 13420740
0.7802 0.10764879 0.13658473 13815498
0.78588891 0.11426014 0.13501681 12697530
0.78900003 0.12031468 0.13387647 11119011
0.78900003 -0.10179467 0.14403529 14868439
0.79027289 -0.10637462 0.14552894 14605268
0.78894418 -0.094861448 0.14494899 14868183
0.7889998 -0.085478939 0.1444201 14605524
0.79000002 -0.081734367 0.1473002 14473938
0.78900003 -0.079168148 0.14034118 14539731
0.79000032 -0.074785061 0.14550687 14276559
0.78899986 -0.064494252 0.14239347 14210509
0.79000002 -0.065133758 0.14791667 14210767
0.78899992 -0.055482272 0.14262283 14210253
0.79000002 -0.054799445 0.1482012 14210512
0.78900003 -0.045366887 0.14126471 14013130
0.7900002 -0.044912245 0.14656517 14013131
0.78900003 -0.031606268 0.14172646 13355457
0.79003865 -0.035382397 0.14564778 13487043
0.78891975 -0.024197416 0.14335616 13026492
0.79000002 -0.025803892 0.14875731 13289664
0.78853327 -0.014512737 0.14487477 12960699
0.78803343 -0.0052792975 0.14478144 12894906
0.78800005 0.0048670536 0.14477511 12829114
0.78796309 0.014807005 0.14528114 12631480
0.78726673 0.025134413 0.14556289 12565687
0.78600007 0.035214983 0.14532806 12763065
0.78509992 0.045281913 0.1451623 12763321
0.78263998 0.055217247 0.14470692 12763065
0.77900004 0.068335377 0.14281766 12894907
0.78065389 0.064144731 0.14581566 12894651
0.7787897 0.074809618 0.14293969 13026493
0.78042859 0.075160019 0.14795187 13092031
0.77887511 0.084583223 0.14195928 13289665
0.78039998 0.085996322 0.14685066 13486788
0.7790001 0.095690168 0.14190583 13289409
0.78027779 0.094832338 0.14721335 13749958
0.77900004 0.10116113 0.140994 13092031
0.78140908 0.10494111 0.14489652 13552581
0.78720003 0.11444291 0.14488648 12302771
0.79000002 0.11861777 0.14884137 11184545
0.79250008 0.12442169 0.14488746 11119266
0.78899992 -0.1033031 0.15561023 14671060
0.79009998 -0.10776309 0.15459372 14671061
0.78899974 -0.094868191 0.15511769 14539731
0.78899992 -0.086325511 0.15534858 14605524
0.79000002 -0.081939846 0.15490331 14473938
0.79043359 -0.074684225 0.15539923 14276559
0.79068011 -0.064529315 0.1554489 14210767
0.79000014 -0.055226225 0.15531425 14210512
0.78900003 -0.048691601 0.15881181 14210512
0.79000026 -0.044790309 0.15505007 14078926
0.7916401 -0.034953702 0.15563793 13684168
0.79183334 -0.024769694 0.15567714 13355203
0.78900003 -0.011565632 0.1529012 12960701
0.79035008 -0.015286711 0.15593907 13157824
0.78886944 -0.0050440268 0.15477143 13026238
0.79000002 -0.0080664232 0.15901309 13092031
0.7888664 0.0048727184 0.15509208 13026492
0.78891981 0.015030272 0.15510231 12697527
0.78820008 0.025163822 0.15496157 12631734
0.78732002 0.035273749 0.15478937 12828857
0.78656679 0.045367304 0.15464135 12829116
0.78425926 0.055534754 0.15459621 12829372
0.78241938 0.065128408 0.15548077 12829629
0.78251737 0.075487405 0.15491906 13158080
0.78260607 0.085028775 0.15469632 13486787
0.78207409 0.095050767 0.15579185 13487043
0.78382152 0.10465328 0.15469113 13947081
0.78836834 0.1136145 0.15479994 11841707
0.79016668 0.11833455 0.1559643 11119010
0.79192299 -0.1148326 0.16474651 13551810
0.7889998 -0.10410348 0.16527654 14868183
0.79000002 -0.10885896 0.1645613 14670804
0.78899974 -0.094868183 0.16527654 14736854
0.78899986 -0.086186975 0.16490713 14539731
0.79000002 -0.081811413 0.16525482 14539731
0.79013366 -0.074657008 0.16458853 14539731
0.79036021 -0.064502731 0.16463497 14342352
0.78900003 -0.052201021 0.16620007 14407634
0.79000002 -0.055730604 0.16464534 14276561
0.78900003 -0.048922487 0.16458389 14210512
0.79000008 -0.04388858 0.1647221 14078926
0.79164016 -0.034953047 0.16490114 13750217
0.79124016 -0.014563939 0.1648199 13289922
0.78900003 -0.0034385545 0.16065887 13223617
0.79000002 -0.0055445079 0.16506566 13158337
0.78900003 0.0042135646 0.16118659 13092031
0.79000008 0.0050804289 0.1655262 13158080
0.78900009 0.017718714 0.16536047 12828859
0.79000002 0.013548488 0.16456129 12960445
0.78899974 0.025190925 0.16527656 12763066
0.78859991 0.035330918 0.16519347 12894652
0.78793555 0.044941034 0.16490474 12960699
0.78665626 0.054636374 0.16507342 12960956
0.78492302 0.06477838 0.16520098 12960700
0.78527582 0.074866898 0.16554341 13289665
0.78568006 0.084861688 0.16550186 13618373
0.78406674 0.094780855 0.16516261 13420994
0.78592598 0.10533638 0.16514371 13750214
0.78890002 0.11180411 0.16451733 11381926
0.79112506 0.11670493 0.16502857 11118498
0.79131049 -0.11447253 0.17486212 14209741
0.78899986 -0.1044993 0.17587514 14802390
0.79000002 -0.10811919 0.17269869 14802390
0.7887665 -0.094840311 0.17538255 14868183
0.7889998 -0.084709339 0.17543536 14933976
0.79000002 -0.08204259 0.17010953 14802646
0.78900003 -0.079168148 0.17635891 14868696
0.79006284 -0.074130349 0.17434205 14802647
0.78900003 -0.060697515 0.17820597 15000282
0.79000026 -0.064737454 0.1744688 14802903
0.7889998 -0.055002391 0.17558931 14802903
0.79000002 -0.057075635 0.17057188 14605267
0.78899974 -0.045261342 0.17569925 14605267
0.79000002 -0.043337204 0.17063792 14210510
0.78900009 -0.035174463 0.17795411 14078926
0.79010528 -0.034692388 0.17276029 13947595
0.78900003 -0.027912144 0.17866775 13749961
0.79053152 -0.024322281 0.17432803 13552581
0.78900003 -0.01267387 0.17912953 13420996
0.79033357 -0.014751657 0.1742917 13355458
0.78899997 -0.004859372 0.17756662 13355203
0.79000002 -0.0056186826 0.17239408 13355203
0.78899992 0.0050362065 0.17739111 13289667
0.79000002 0.0047334009 0.17215359 13289410
0.7889998 0.015451864 0.17585517 12960702
0.79000002 0.012585257 0.17134245 13157824
0.78863317 0.025178397 0.17535277 12763835
0.78788 0.035298847 0.17518564 12961213
0.7871334 0.045400571 0.17501894 13092286
0.78680009 0.055511512 0.17494631 13223871
0.78587997 0.064645566 0.17474194 13158078
0.78579992 0.074757896 0.17472407 13421250
0.78571999 0.084865831 0.17470503 13684421
0.78441185 0.094608068 0.17506301 13881544
0.78612006 0.10515708 0.17479509 13749959
0.78900003 0.11107936 0.17543538 10986653
0.79195654 0.11601396 0.17496368 11052961
0.79130787 -0.11474285 0.18499662 14012877
0.78894985 -0.10409708 0.18465897 14012620
0.79000002 -0.10885896 0.18490474 13946827
0.78800005 -0.094616175 0.18522719 13947340
0.788423 -0.08478795 0.18474871 14012877
0.7889998 -0.075714938 0.1846707 14276049
0.79000002 -0.071131095 0.18416499 14407634
0.7889998 -0.0644686 0.18520944 14473683
0.79000002 -0.067555599 0.1818224 14605269
0.7889998 -0.055156317 0.18467073 14736855
0.78879392 -0.044769019 0.18527319 14802392
0.78856659 -0.034819726 0.18549064 14473428
0.78863877 -0.024668127 0.18550774 14012877
0.78859985 -0.014513806 0.18549851 13618375
0.78836662 -0.0052815308 0.18544365 13486789
0.788903 0.0047242413 0.18482637 13355203
0.7889998 0.015032078 0.1846707 13026238
0.78811431 0.025293743 0.18525407 12894909
0.78750014 0.035281863 0.1852425 13157824
0.78677779 0.045379613 0.1850729 13289410
0.78686684 0.055517197 0.18509276 13289410
0.78676677 0.06471806 0.18506907 13223617
0.78555548 0.074732251 0.18478397 13355203
0.78499991 0.084788419 0.18465328 13552836
0.78515613 0.095145002 0.18526508 13487300
0.78725004 0.10510987 0.18485512 13421508
0.78900003 0.11107937 0.1819001 10789533
0.79208344 0.11569089 0.18539228 10987425
0.79090011 -0.11453976 0.1952983 14341585
0.78900003 -0.10317997 0.19205895 14012620
0.79000002 -0.10608484 0.19646351 14210255
0.78877759 -0.094465822 0.19508313 14078413
0.79000002 -0.098687232 0.19877528 14210256
0.78896528 -0.084578089 0.19498037 13946827
0.78893304 -0.075467564 0.19481269 13749448
0.78894418 -0.065310322 0.19481553 13881547
0.78886646 -0.055147462 0.194796 13947340
0.78815627 -0.045180719 0.19519703 14013133
0.78780001 -0.034786206 0.19545461 14276305
0.7875669 -0.024634983 0.1953961 14210512
0.78796005 -0.014501607 0.19549488 14013133
0.78800005 -0.005278918 0.19550499 13749961
0.78894264 0.0050051445 0.19494724 13552582
0.78899974 0.015032079 0.19482952 13157824
0.7884838 0.025024204 0.195447 13026238
0.78800005 0.035304975 0.19550501 13092031
0.78812003 0.044535641 0.19553527 13355203
0.7881667 0.054685924 0.19554709 13355203
0.78764009 0.064790167 0.19541672 13355203
0.78646666 0.074819691 0.19512632 13486789
0.78611982 0.084909678 0.19504069 13618374
0.78680009 0.095115729 0.19520874 13552580
0.78852934 0.10417321 0.19476752 13487044
0.79030001 0.10848758 0.19644618 10921632
0.79032016 -0.11445434 0.20533051 14671061
0.78900003 -0.1013329 0.20868251 14407891
0.79000014 -0.10531428 0.20509405 14473683
0.7889998 -0.094021596 0.20560409 14342098
0.79000002 -0.098378994 0.20278233 14276305
0.78860003 -0.084667511 0.2048838 14276305
0.78800005 -0.075378366 0.20472859 14013133
0.78806674 -0.065237597 0.20474561 13881547
0.78812003 -0.055095088 0.20475924 13815754
0.78800005 -0.044940446 0.20472856 13486789
0.78737038 -0.034563273 0.20497443 13421253
0.78688914 -0.024613554 0.20536147 13553352
0.78756005 -0.014493124 0.20461451 13750476
0.78800005 -0.005278918 0.20472862 13947596
0.78839993 0.0048706168 0.20483154 13881547
0.78879988 0.015028267 0.20493548 13618375
0.78886646 0.025186274 0.20495372 13289665
0.7880401 0.03530667 0.20473909 13223615
0.78871989 0.044570293 0.20491615 13355457
0.78899974 0.054743946 0.20498841 13355457
0.78800005 0.064820528 0.20472854 13355458
0.78714305 0.075016864 0.2052957 13618629
0.78737044 0.084908523 0.20497479 13816008
0.78803343 0.095263384 0.20473781 13815751
0.78900003 0.1025367 0.20429575 14012617
0.79052943 0.10715906 0.20571278 11184545
0.79196006 -0.12574427 0.21495108 12302002
0.78899992 -0.11380057 0.21757147 14473425
0.79000002 -0.11625657 0.21313249 14473425
0.7889998 -0.10475339 0.21552342 14539219
0.79000002 -0.10762601 0.21202934 14539474
0.78899974 -0.094868191 0.21514726 14341841
0.7889998 -0.085051388 0.21470262 14210512
0.79000002 -0.081117891 0.21819402 14210512
0.78893334 -0.075467959 0.21235885 14144719
0.79000002 -0.074644975 0.21726932 14144719
0.78874981 -0.064569056 0.21409097 14144719
0.79000002 -0.067247361 0.21819402 14342098
0.78850001 -0.055121604 0.21501258 14210512
0.78844434 -0.044966314 0.21499729 13947340
0.78803575 -0.034993865 0.21521394 13289410
0.78780001 -0.024642013 0.21574302 13026238
0.78800005 -0.01450253 0.2148746 13157824
0.78760016 -0.0052773305 0.21476464 13355203
0.78738904 0.0048635397 0.21470633 13552582
0.78780007 0.015009372 0.21481897 13749961
0.78800005 0.025158999 0.21487457 13815753
0.78800005 0.035304971 0.21487458 13684422
0.78849989 0.044557851 0.21500978 13487043
0.78852773 0.054710489 0.21501693 13355457
0.78753346 0.064781204 0.21474563 13421250
0.7867099 0.074694835 0.21526371 13552836
0.78728586 0.085167587 0.2150079 13816008
0.7883333 0.095300324 0.21496548 13881288
0.78900003 0.10184405 0.21237665 14341840
0.79081821 0.10628811 0.21497007 11447718
0.78900003 -0.12165061 0.22900021 14341839
0.7908622 -0.12577033 0.22475149 13223103
0.78896642 -0.11518119 0.22529642 14473425
0.79000002 -0.11995538 0.22004344 14407632
0.78879988 -0.1050004 0.22524807 14473425
0.78889978 -0.094855808 0.22527705 14407634
0.78899997 -0.086556397 0.22596575 14341585
0.79000002 -0.082398243 0.22402677 14276048
0.79063916 -0.074704975 0.22484779 14209999
0.78900003 -0.061005358 0.22592176 14275792
0.7900455 -0.065654077 0.22467993 14210255
0.7889998 -0.055156317 0.22530612 14144206
0.7888664 -0.044990417 0.22526772 13881547
0.7880401 -0.034796428 0.22503193 13684166
0.78800005 -0.024648504 0.22502057 13223616
0.78800005 -0.014502531 0.2250206 13157824
0.78792006 -0.0052786637 0.22499809 13026238
0.78712916 0.0050089699 0.22495021 12960445
0.7864483 0.015109715 0.22533792 12894652
0.78700012 0.024877537 0.22523575 13157824
0.78776008 0.035294127 0.22495107 13947338
0.78715175 0.045261823 0.2257809 14079179
0.78751862 0.055153098 0.22467686 13947593
0.78671992 0.064714208 0.22465509 13552835
0.78614694 0.075006187 0.22514115 13618628
0.78688461 0.084850721 0.22491397 13881544
0.78829998 0.09529648 0.22510611 13815239
0.79132158 0.10565364 0.22471271 11250083
0.79196435 -0.13528706 0.23482451 9999504
0.78891677 -0.12317697 0.2362092 14736597
0.79014289 -0.12711215 0.23382385 14144462
0.78822225 -0.11507349 0.23523185 14737110
0.7877 -0.10485398 0.23507547 14736854
0.78816676 -0.094767265 0.23521553 14605269
0.78865504 -0.084799126 0.23551989 14407891
0.79000002 -0.081117891 0.23113987 14473684
0.78889978 -0.075372338 0.23617336 14342098
0.79000002 -0.074644975 0.23160222 14342098
0.78855866 -0.065062076 0.23560336 14407891
0.79000002 -0.06817206 0.23113987 14342098
0.7882334 -0.055102963 0.23523496 14473684
0.78811115 -0.044947166 0.23519908 14342098
0.78800005 -0.034794472 0.23516652 14078926
0.78800005 -0.024648502 0.23516652 13684168
0.78800005 -0.014502529 0.23516649 13618375
0.78810352 -0.0053428994 0.23503859 13618631
0.78765726 0.0047320328 0.2351969 13552839
0.78653842 0.014842646 0.2354394 13158081
0.78678799 0.025372343 0.23522386 12894652
0.78700012 0.03526016 0.23486803 13157824
0.78609669 0.045192212 0.23534013 13552838
0.78656673 0.055496808 0.23473768 14079179
0.78693354 0.064732552 0.2348478 14078922
0.78631252 0.074574925 0.23523737 13947079
0.78672415 0.085102454 0.23494397 14078666
0.78817642 0.095064826 0.23494728 13881030
0.79211116 0.10616511 0.23505343 10789789
0.78900003 -0.13088591 0.24931791 13815241
0.79064304 -0.13486251 0.24487866 9801612
0.78871411 -0.12530042 0.24494089 14670548
0.79000002 -0.1292024 0.24038687 14603987
0.78766674 -0.11499279 0.24520873 14933976
0.78700006 -0.1047608 0.24500117 14933976
0.78750014 -0.094686367 0.24515635 14802392
0.78796005 -0.084597483 0.24529982 14670807
0.78810722 -0.075520553 0.24475214 14407891
0.78796673 -0.065229833 0.24530193 14539477
0.7871601 -0.055028915 0.24504966 14407892
0.78656256 -0.044915963 0.24520752 14473684
0.78740013 -0.034767423 0.24512391 14078926
0.78786665 -0.024643786 0.24527042 13815755
0.78796005 -0.014501981 0.24529982 13749962
0.78784621 -0.0052068466 0.24505053 13750475
0.78773338 0.0048651719 0.24522844 13750731
0.78712004 0.014995697 0.24503823 13553351
0.78608567 0.025227537 0.24550198 13356228
0.78516662 0.035178486 0.24534522 13552581
0.78544426 0.045303795 0.24543418 13486788
0.78516662 0.055396069 0.24534664 13618630
0.78400004 0.065137535 0.24519564 14210766
0.78412491 0.075171843 0.24479043 14144973
0.78558624 0.084726445 0.24532002 14342096
0.7882188 0.095518157 0.24503425 14144459
0.79148155 0.10566806 0.24495399 10658460
0.78900003 -0.13157855 0.25555176 13223361
0.79088891 -0.13644716 0.25485131 9605004
0.78807408 -0.12499405 0.25496867 14671061
0.78730577 -0.11493952 0.25523239 14802391
0.78700012 -0.1047608 0.25513428 14736598
0.78713912 -0.094643861 0.2551789 14605269
0.78777784 -0.084782466 0.25487354 14539477
0.78800005 -0.075378358 0.25453606 14605270
0.78748584 -0.06505952 0.25515914 14605270
0.78626657 -0.054966342 0.25489622 14473684
0.7854411 -0.044741597 0.25489926 14407891
0.78546649 -0.034681987 0.25463524 14210512
0.78629404 -0.024864566 0.25468686 13684168
0.78646886 -0.014819798 0.25519058 13486788
0.78586662 -0.0052652513 0.25476396 13421252
0.78583318 0.0048538665 0.25475365 13684680
0.78563327 0.014967392 0.25468922 13552837
0.78403234 0.024880718 0.25491124 13355203
0.78296018 0.035079166 0.25474101 13421251
0.78433341 0.045242108 0.25518823 13684422
0.78416008 0.055323359 0.25513202 13750215
0.77900004 0.068639316 0.2570999 14013132
0.78134489 0.064585485 0.25440431 13947595
0.77900004 0.071374804 0.25892356 13947594
0.78155178 0.075396128 0.25503832 14342098
0.7845 0.084879033 0.2550289 14605011
0.78782755 0.094509438 0.25466996 14078925
0.79188472 0.10500174 0.25486305 10592924
0.78900003 -0.13180946 0.26501793 14078413
0.79081249 -0.13662638 0.26504785 10460055
0.78750002 -0.12530534 0.26484281 14605013
0.7859332 -0.11473846 0.26490727 14539732
0.78635997 -0.10467448 0.26505172 14473683
0.78696442 -0.094952531 0.26505786 14407891
0.78666675 -0.084642202 0.26478443 14342098
0.78703326 -0.07528542 0.26435485 14342098
0.78670985 -0.065275021 0.26498997 14539477
0.78604007 -0.054949589 0.26494357 14407892
0.78549981 -0.044799458 0.2647613 14407891
0.78495997 -0.034660149 0.26457968 14473683
0.78527987 -0.025481658 0.26468697 13947339
0.78556657 -0.015377535 0.26478291 13618374
0.78492844 -0.0050618644 0.26515883 13355972
0.78480554 0.0048471601 0.26544511 13553351
0.78439999 0.014944362 0.26530656 13685194
0.78400022 0.025031026 0.26517436 13421765
0.78376687 0.035115924 0.26509586 13290435
0.78522575 0.045144349 0.26484677 13289665
0.78448278 0.055472508 0.2651763 13289665
0.77900004 0.068639323 0.26074719 14013387
0.78137928 0.064776652 0.26526424 13618374
0.78083998 0.075201929 0.26501849 14078924
0.78360009 0.084639952 0.26503587 14670804
0.78761286 0.095007613 0.26511595 13881802
0.79214293 0.10470529 0.26507726 10658460
0.78881818 -0.13203116 0.27528065 14407634
0.79075003 -0.13696219 0.27497581 10657434
0.78665507 -0.12484798 0.27511895 14671063
0.78471434 -0.11469146 0.27446693 14671063
0.7858386 -0.1047824 0.27514061 14539477
0.78616649 -0.095448889 0.27510661 14407635
0.78450024 -0.085146151 0.27452156 14144719
0.78419995 -0.07501439 0.27441588 14276305
0.78433341 -0.064928859 0.27446327 14407891
0.78483337 -0.054864891 0.27463976 14276306
0.78450012 -0.044741876 0.27452382 14210514
0.78453338 -0.034640692 0.27453595 14210770
0.78499991 -0.025473515 0.27470061 13618889
0.78427792 -0.015354306 0.27444643 13421765
0.78300017 -0.0054502189 0.27450731 13290179
0.78246665 0.0048326426 0.27472857 13355971
0.78284013 0.014915373 0.2748605 13356228
0.783167 0.025004247 0.27497497 13487814
0.78272009 0.035068322 0.2748175 13684423
0.78311455 0.045300543 0.27416784 13553094
0.77900004 0.058609232 0.27807191 14013387
0.78148276 0.054756798 0.27482188 13487044
0.7790001 0.064262554 0.2782543 13618629
0.78026927 0.065377787 0.27339557 13289665
0.77900004 0.075224735 0.27756536 13420994
0.78009522 0.075041071 0.27346221 13683910
0.78167862 0.084236145 0.27503958 13946825
0.78690618 0.094901077 0.27479142 13157566
0.78900003 0.10237179 0.27544066 10592924
0.79061908 0.10707809 0.27485833 10592924
0.78829992 -0.1329857 0.28545111 14341585
0.79011112 -0.13764694 0.28440115 11117728
0.78437954 -0.12455146 0.28496051 14736856
0.78306699 -0.11523593 0.28502309 14868185
0.78483874 -0.10553842 0.28492674 14605270
0.78496158 -0.095161229 0.285005 14342098
0.78297257 -0.084980309 0.28498816 14144719
0.78243327 -0.074845314 0.28479207 14144719
0.78288931 -0.064809546 0.28495866 14342355
0.78280008 -0.05472267 0.28492424 14144719
0.78313929 -0.044663314 0.2850486 14013134
0.78396684 -0.034614351 0.2853497 13947340
0.7850799 -0.025475733 0.28483722 13684168
0.78426671 -0.015354619 0.28454298 13486790
0.78262073 -0.0051177582 0.28470418 13223874
0.78163886 0.0048267562 0.28450313 13355460
0.77900004 0.015753383 0.28992566 13289412
0.78133321 0.014886636 0.28438899 13487046
0.78183329 0.024961717 0.28457201 13618632
0.78199977 0.035036147 0.28463477 13618374
0.78199977 0.045104869 0.28463474 13552581
0.77900004 0.058609232 0.28080741 13289664
0.78104168 0.054951761 0.28535375 13618374
0.77899998 0.065623283 0.28417414 13420995
0.78000003 0.060966957 0.28664586 13618375
0.77873325 0.074995883 0.28526783 13684166
0.77890015 0.081394561 0.28660583 13815751
0.78169996 0.085807361 0.28461665 13881544
0.78739995 0.094821885 0.2848179 13026494
0.78900003 0.10184405 0.280718 10461338
0.79157698 0.10524504 0.2855562 10527131
0.78766656 -0.13389505 0.29545513 14144463
0.79000002 -0.13844942 0.2921702 12302002
0.7840001 -0.12475771 0.29504788 14670807
0.7835716 -0.11471903 0.29509845 14802136
0.78481251 -0.10481375 0.29507357 14671063
0.78431046 -0.095350213 0.29481325 14407891
0.78300029 -0.084981672 0.29508039 14144719
0.78312021 -0.074911453 0.29512584 14078926
0.78313369 -0.064829834 0.29513079 14276305
0.78236002 -0.054692984 0.29484019 14013390
0.78256679 -0.044629216 0.29491764 13881804
0.78364021 -0.034600735 0.29532194 13947597
0.78466678 -0.025461374 0.29478785 13684425
0.78502768 -0.015366872 0.29492557 13289924
0.78473085 -0.0053991899 0.29552168 13158082
0.77900004 0.009370598 0.29813212 13026238
0.78196782 0.0047963043 0.29492784 13223618
0.77820015 0.014824909 0.29509148 13289411
0.78000003 0.014251944 0.29029784 13223619
0.77857155 0.023513773 0.29592749 13618889
0.78046674 0.026807446 0.29278553 13684168
0.78156662 0.0350172 0.29545334 13618631
0.7822727 0.044871844 0.29530433 13552582
0.78227997 0.055193629 0.29480997 13618375
0.78146654 0.06519711 0.29450452 13618375
0.77886677 0.076467566 0.29449546 13881546
0.7804445 0.073130772 0.29695982 13815754
0.77872235 0.082895644 0.29529178 13684424
0.78150004 0.087384373 0.29451397 13881802
0.7865926 0.093968958 0.29499987 12763836
0.79200011 0.10389191 0.29535893 10526874
0.78900003 -0.14176306 0.30514023 9473417
0.79095238 -0.14717118 0.30451354 9473675
0.78658068 -0.13500351 0.30509943 14078926
0.78187883 -0.12471461 0.3049722 14605270
0.78196663 -0.11507314 0.30475774 14671318
0.78373557 -0.1054568 0.30517745 14605525
0.78479993 -0.095282555 0.30494568 14342353
0.78423339 -0.085114941 0.30472699 14078926
0.78432006 -0.075027101 0.30475956 14013133
0.78327811 -0.064842843 0.30526885 14342098
0.78293359 -0.054731991 0.30513567 14342098
0.78413337 -0.04471774 0.30468741 14210512
0.78483993 -0.034654845 0.30496123 14078926
0.78334504 -0.025294119 0.30513784 13816010
0.78363925 -0.01533936 0.30540833 13552839
0.78360021 -0.0052507692 0.30539316 13355460
0.77892327 0.0078265816 0.30686906 13158338
0.78145838 0.0031477006 0.30440679 13289667
0.7771669 0.014805613 0.30470774 13158338
0.77752799 0.024827151 0.30484861 13355973
0.77891314 0.034659874 0.30662116 13553352
0.78028578 0.035742912 0.30188587 13553352
0.7786364 0.044413708 0.30727163 13684938
0.78088236 0.046170082 0.30245343 13684424
0.77890915 0.054624368 0.30878916 13815754
0.78133321 0.055279687 0.30344367 13684168
0.7790001 0.06457755 0.30915692 13881547
0.78138697 0.065338239 0.30379337 13881547
0.7790001 0.076182611 0.30633855 14013133
0.78033334 0.074033335 0.30452734 13947340
0.77899998 0.081535153 0.30269122 14013133
0.78136843 0.085554384 0.30582538 14210512
0.78674996 0.095056787 0.30506855 12105393
0.78900003 0.10184405 0.30657688 10395545
0.79103857 0.10624032 0.30451685 10461338
0.78900003 -0.14223216 0.31422898 10657690
0.79100007 -0.14603336 0.31537855 9407623
0.78522235 -0.13571258 0.31504595 14210512
0.7790001 -0.12454897 0.31609109 14671576
0.78038466 -0.12510136 0.312363 14671063
0.78106672 -0.11494061 0.31537825 14539990
0.78208333 -0.10501873 0.31517631 14474197
0.78463334 -0.095260628 0.31498101 14342355
0.78469437 -0.085166119 0.31500557 14144976
0.78360021 -0.074958786 0.31456509 14210512
0.78158349 -0.064702086 0.31558502 14276305
0.78162068 -0.054765668 0.31544295 14407891
0.7834723 -0.044680238 0.31451353 14210512
0.78423345 -0.034627918 0.31481934 13881547
0.78303868 -0.025551945 0.31504646 13552583
0.78228116 -0.015256435 0.31529596 13355460
0.78151858 -0.0050343447 0.31505179 13289411
0.77880007 0.00572098 0.31537542 12829374
0.7801429 0.00051355932 0.31435347 13092289
0.77732015 0.014809269 0.31477544 12698044
0.77796668 0.024840103 0.31503931 13421766
0.77807999 0.034860052 0.31508383 13618633
0.77713358 0.044824082 0.31470039 13749963
0.77724022 0.054837938 0.31474304 13684170
0.77740008 0.064859375 0.31480762 13749963
0.77875012 0.0734035 0.31546926 13947342
0.78000009 0.077774405 0.31469974 14013134
0.78218526 0.084284112 0.31532234 14210000
0.78718746 0.095166013 0.31508592 11710893
0.78900003 0.10253671 0.31327245 10395545
0.79009998 0.10661048 0.31551287 10461338
0.79191309 0.11495784 0.31480289 10527131
0.78900003 -0.14249603 0.3258391 11907759
0.79122227 -0.14700024 0.32534406 9276296
0.78486204 -0.1357192 0.3251771 14276306
0.7787742 -0.12424958 0.32506806 14539734
0.78000003 -0.12939292 0.32407874 14539477
0.77892315 -0.11602877 0.32650641 14473684
0.78000003 -0.11380173 0.3234466 14342611
0.77900016 -0.10685689 0.3254261 14408148
0.78052938 -0.10239363 0.32381332 14342612
0.78230006 -0.094977252 0.32503223 14408147
0.78222227 -0.084897853 0.32500079 14210769
0.78106672 -0.074715994 0.3245196 14144976
0.77900004 -0.067222826 0.3227514 14078926
0.78024155 -0.064494975 0.32515609 14013134
0.78173071 -0.054505806 0.32550308 13684169
0.78272241 -0.044638734 0.3252109 13552839
0.78300029 -0.034573693 0.32532519 13421766
0.78189987 -0.025373852 0.32486737 13158594
0.78070599 -0.015336299 0.3246392 12829629
0.78057152 -0.0054260497 0.32464114 12829629
0.77832007 0.0063724709 0.32472771 12829630
0.78000009 0.00093740446 0.32567647 12829629
0.77703351 0.014803385 0.32466418 12566458
0.77722239 0.024816191 0.32474238 12961216
0.77786201 0.034725633 0.32485384 13355717
0.7773127 0.045061424 0.32421404 13355974
0.77690023 0.054813284 0.3246091 13158339
0.77658367 0.064790681 0.32447556 13355204
0.77766669 0.074895024 0.3249279 13486790
0.77899998 0.081014104 0.32535663 13683912
0.78214282 0.085790582 0.32483733 13946829
0.78744823 0.09478353 0.3247247 11644844
0.7914232 0.10529558 0.32547572 10461339
0.7876538 -0.14449504 0.33569467 11249575
0.79016668 -0.14896092 0.33323514 9210249
0.77769238 -0.13279283 0.33733222 14407891
0.78254551 -0.13631406 0.3338747 14342099
0.77750015 -0.12545191 0.33509475 14539477
0.7783823 -0.11518788 0.3345525 14539477
0.77900016 -0.10612743 0.33318678 14539477
0.77999997 -0.10325839 0.33606181 14539477
0.78079313 -0.094793707 0.33521587 14276306
0.78183323 -0.084854394 0.33490643 14144720
0.78203994 -0.074807502 0.33499709 14013134
0.78253335 -0.064779304 0.33520862 14013133
0.78280014 -0.054722346 0.33532184 14144719
0.7832669 -0.044669252 0.33552063 14276561
0.78320014 -0.034583181 0.33549285 13685193
0.78227997 -0.025386371 0.33509842 13553351
0.78116679 -0.015292341 0.33462209 13421766
0.77875006 -0.0022546859 0.33609229 13421766
0.78047627 -0.0061865486 0.3344124 13355973
0.77724344 0.0048224428 0.33519915 13289923
0.78000003 0.00025265676 0.3304697 13355973
0.77606684 0.014784966 0.33515969 13026752
0.77600026 0.024776708 0.3351323 13027008
0.77761543 0.034981873 0.33470982 13224132
0.77841169 0.044682186 0.33461887 13355461
0.77708024 0.054826088 0.33468992 13157824
0.77676684 0.064806104 0.33455563 13223617
0.77720016 0.074849606 0.33474186 13420996
0.7790001 0.081222519 0.33387566 13749961
0.78252941 0.085925922 0.33574402 13815755
0.78780001 0.094094418 0.33473313 10921377
0.79000002 0.09827432 0.3374806 10198166
0.79193109 0.10478403 0.33552429 10329753
0.78900003 -0.1512036 0.34813577 9341579
0.77900004 -0.14016895 0.34645891 14473686
0.78503841 -0.14522161 0.34468654 11578539
0.77635735 -0.13443707 0.34469843 14473940
0.77576923 -0.12491854 0.34481114 14671063
0.77754301 -0.1154594 0.34476975 14605527
0.77900004 -0.10916685 0.34372342 14539477
0.78071439 -0.10405342 0.34513217 14539477
0.78046167 -0.094755538 0.34507069 14342098
0.7813611 -0.084802009 0.34476569 14078927
0.78296161 -0.075035326 0.34476662 13947341
0.78383887 -0.064741664 0.34511793 14144720
0.78186667 -0.054658905 0.34498531 14276306
0.77900004 -0.047162641 0.34828255 14539478
0.78138715 -0.044591513 0.34409535 14671064
0.78212512 -0.034877941 0.34532842 14342098
0.77875006 -0.023902958 0.34862611 14013133
0.78162962 -0.02556807 0.3443726 13947340
0.7790001 -0.014171106 0.34728786 13553097
0.78087997 -0.015762243 0.34297955 13619145
0.77779174 -0.004530564 0.3452374 13553096
0.7802 -0.0081491927 0.34187797 13553352
0.77518177 0.0048672995 0.34492397 13158595
0.7744 0.014754153 0.3453179 13092801
0.77531248 0.024528956 0.34515786 13224130
0.776667 0.034798291 0.34451085 13355717
0.77672249 0.044799734 0.34453556 13553352
0.77640027 0.054778941 0.34439242 13421766
0.7767781 0.064806603 0.34456021 13421766
0.77716696 0.074846253 0.34473312 13619144
0.77850008 0.0804414 0.34532353 13816266
0.78300011 0.085450858 0.34526789 14013389
0.78826678 0.092523597 0.34504452 11315877
0.79036367 0.097478919 0.34545812 10263702
0.78900003 -0.1512036 0.35460049 9013386
0.77900004 -0.14016895 0.35010621 14407893
0.78586364 -0.14550668 0.35503164 12039604
0.77720004 -0.13366127 0.35220945 14079184
0.78212506 -0.13546747 0.35746241 13947598
0.77662504 -0.12485477 0.35279086 14145234
0.78166676 -0.12509389 0.35862431 14210772
0.77772731 -0.11626756 0.35218251 14211283
0.78183341 -0.11398707 0.35702553 14079700
0.77900004 -0.10916685 0.35010621 14539477
0.78216666 -0.10503101 0.35458353 14342613
0.78275001 -0.095032915 0.35454398 14211026
0.782875 -0.084968559 0.35459936 14013391
0.7830717 -0.074645288 0.35468608 14144978
0.77900004 -0.061751872 0.35831267 13816269
0.7822355 -0.065080926 0.35435826 14079441
0.77813786 -0.054461014 0.35493028 14144978
0.78033334 -0.057595354 0.3513141 14144977
0.77806664 -0.045283735 0.35423917 14605528
0.77877128 -0.035221457 0.35469103 14210770
0.78000003 -0.038093217 0.35055563 14342098
0.77772421 -0.025237488 0.35424 13882061
0.77887088 -0.015863128 0.35410649 13619147
0.78000003 -0.011433705 0.35822481 13684940
0.77815396 -0.0052858 0.35463074 13684683
0.78000003 -0.0088773137 0.35968563 13487561
0.77540618 0.0047866711 0.35484526 13355974
0.7740801 0.01474773 0.35514396 13092802
0.77482343 0.02495292 0.35484493 13158594
0.77589667 0.034637894 0.35491237 13420998
0.77603161 0.044987641 0.35456285 13684425
0.77600032 0.054750249 0.35511622 13684168
0.776061 0.064499319 0.3547312 13618375
0.77684021 0.074815303 0.35459214 13618631
0.77860004 0.080451734 0.35539603 13619143
0.78330004 0.08552777 0.35478804 13816525
0.7884376 0.092428148 0.35469404 10658205
0.79049999 0.097411811 0.35527462 10263959
0.79202765 0.13468263 0.35503417 10461595
0.78900003 -0.1512036 0.36014169 10000789
0.79176009 -0.15573896 0.36503521 10000531
0.78858334 -0.14450942 0.36302876 10263450
0.79036367 -0.14641939 0.36698827 10000533
0.78768748 -0.13562252 0.36473149 10131351
0.79000002 -0.13197652 0.36984515 9869203
0.78693753 -0.12444147 0.36530623 9868693
0.79000002 -0.127353 0.36984515 9803410
0.78742856 -0.11535087 0.36548412 10658466
0.79000002 -0.11255776 0.36984515 9934483
0.78740001 -0.1048131 0.36402321 11645102
0.79000002 -0.10516014 0.36984515 9999763
0.78807992 -0.094572812 0.36452106 11776946
0.79000002 -0.095913127 0.36984515 9342607
0.78707999 -0.08450488 0.36479682 12105910
0.7856192 -0.075327627 0.36482006 13289927
0.78359091 -0.06511911 0.36493084 13224391
0.77833337 -0.054411434 0.36134708 13882319
0.78316671 -0.055204839 0.36710748 13816273
0.77875006 -0.046235096 0.36093226 14408663
0.78327781 -0.044771209 0.36660057 14145236
0.77900004 -0.032573421 0.36104813 13750733
0.78252631 -0.035419077 0.3656764 14145491
0.77870017 -0.025268838 0.36182097 13684940
0.78116673 -0.024893595 0.36708239 13421768
0.77900004 -0.017680256 0.36226392 13553354
0.78060865 -0.014843152 0.36592695 13553354
0.77883339 -0.0027867528 0.36218667 13421768
0.78093749 -0.0058031064 0.36583248 13553354
0.77666688 0.0049617919 0.36441156 13158852
0.78000003 0.00025265676 0.36881557 13290439
0.77503991 0.014765736 0.36465675 12961216
0.77560002 0.024764966 0.36492059 12895422
0.77750009 0.034835812 0.36490485 13158594
0.77788478 0.04472753 0.36417583 13421510
0.78000003 0.043163516 0.36881557 13224644
0.77726328 0.054935366 0.36465093 13487046
0.78000003 0.053206485 0.36881557 13027008
0.77758342 0.064874023 0.36403409 13421252
0.78000003 0.06781444 0.36881557 13420996
0.77823538 0.074413329 0.36305293 13618885
0.78025007 0.0762849 0.3680205 13618629
0.78434628 0.084796146 0.36514875 13882316
0.78866673 0.091954701 0.36460528 10197910
0.79046667 0.096482657 0.36512908 10132373
0.79199988 0.10501242 0.36521927 10263959
0.78900003 -0.083170116 0.37183976 9671312
0.79057151 -0.085539386 0.37566593 9737358
0.78850007 -0.075426191 0.37191236 9210763
0.79045451 -0.075107917 0.37661922 9737615
0.7883749 -0.0657252 0.37300736 9276555
0.79040003 -0.064507298 0.37743378 9803153
0.78809094 -0.054757789 0.37381649 10526367
0.79042858 -0.054990981 0.37824106 9671568
0.78833324 -0.044958808 0.37460247 10986919
0.79000002 -0.045054507 0.37909219 9605774
0.78812492 -0.034569841 0.37473476 12171448
0.79000002 -0.035807487 0.37909219 9210764
0.78652638 -0.025523784 0.37510338 12368827
0.78563166 -0.014942053 0.37506413 12632509
0.78583324 -0.0055708173 0.37464443 13290183
0.77866673 0.0075429357 0.371223 13093060
0.78426313 0.0040186411 0.37595648 12764097
0.77740008 0.014809904 0.3721374 12829889
0.78262502 0.01559771 0.3780733 12040373
0.77766669 0.023920633 0.371961 12632509
0.78200006 0.025331926 0.37671944 12369080
0.77900004 0.034597799 0.37077427 12698044
0.78200001 0.035768732 0.37598801 12369337
0.7825771 0.044857357 0.3749693 12632252
0.78365004 0.055291057 0.37513196 12895423
0.78359109 0.064957857 0.37493703 12960446
0.7833637 0.074940734 0.37516105 13289409
0.78632003 0.085229903 0.37541264 12566456
0.78900003 0.091685206 0.37491819 10000787
0.79052949 0.096599154 0.37499097 10132373
0.79178119 0.10475207 0.37473339 10263959
0.78900003 -0.023140563 0.38076726 10131866
0.79161125 -0.025276937 0.38532388 9277068
0.78900003 -0.014890346 0.38082883 11316393
0.79142857 -0.014301429 0.3854706 8882824
0.78900003 -0.0052856179 0.3804594 11119016
0.79140002 -0.0053018513 0.38532442 9869206
0.78824997 0.0060971449 0.38317406 11053480
0.79108334 0.0036497479 0.38763821 9474188
0.78730774 0.014432771 0.38404068 10395293
0.79000002 0.01551348 0.38833919 8816260
0.78735298 0.025409687 0.3834627 11250601
0.79000002 0.025222853 0.38833919 10132377
0.78738892 0.035381116 0.38470408 11514285
0.79000002 0.031695768 0.38833919 11777200
0.78715986 0.045144275 0.38517839 12237495
0.78821427 0.05501942 0.3858164 12303287
0.78831583 0.064846255 0.38459909 12303288
0.79000002 0.064985044 0.38833919 11776947
0.78824997 0.07499028 0.38471296 11513257
0.78847057 0.084621146 0.38443983 9803408
0.79000002 0.088410832 0.38772273 10000787
0.78900003 0.091500498 0.38193706 10132373
0.79100001 0.095281713 0.38551834 10066580
0.78900003 0.048279215 0.39154175 11447982
0.79144454 0.044722442 0.39553633 9474446
0.78900003 0.052896876 0.39154175 11250860
0.79032016 0.055316001 0.3963421 9277324
0.79066682 0.064834826 0.39463294 10132633
0.79096556 0.075088799 0.39424393 9671822
0.7917667 0.054626457 0.40558147 9475472
0.7912668 0.13492282 0.40476745 10330008
0.79172409 0.1449534 0.40509945 10330009
0.78900003 -0.060697515 0.41924775 10395547
0.78900003 -0.055156324 0.41855505 10264216
0.79112005 -0.055527855 0.41370347 10001557
0.79139471 -0.045229323 0.41466579 10001301
0.79163992 0.044735122 0.41509083 9541266
0.79106688 0.12525919 0.41479036 10263961
0.79108018 0.13544768 0.41479751 10329752
0.79144007 0.14477246 0.41498673 10264216
0.7917999 0.15503448 0.41517487 10395545
0.78900003 -0.061621044 0.42294183 10329497
0.79090011 -0.065474562 0.42562491 10263961
0.78899992 -0.055733524 0.42328817 10263704
0.79000002 -0.054198783 0.42799866 10198168
0.79076689 -0.045096081 0.42481473 10066581
0.79165626 0.12558283 0.424714 10263960
0.78900003 0.13878532 0.42848301 10395545
0.79068989 0.13525239 0.42461216 10263959
0.78900003 0.14340296 0.42848301 10329752
0.79061568 0.14476441 0.42401963 10329753
0.79175758 0.15477459 0.42492473 10395545
0.78900003 0.12955 0.43956542 10329752
0.79141188 0.12509315 0.43469512 10264215
0.78896135 0.13551067 0.43549484 10198423
0.79000002 0.1324883 0.43180019 10198423
0.78871411 0.14414282 0.43426275 10198423
0.79000002 0.14820823 0.4382731 10461338
0.78900003 0.12770292 0.4451066 10198166
0.79026318 0.12342767 0.44318977 10198423
0.78899997 0.13443151 0.44325951 10198166
0.78900003 0.14247943 0.44141248 10263959
