# .PCD v0.7 - Point Cloud Data file format
VERSION 0.7
FIELDS x y z rgb
SIZE 4 4 4 4
TYPE F F F U
COUNT 1 1 1 1
WIDTH 1003
HEIGHT 1
VIEWPOINT 0 0 0 1 0 0 0
POINTS 1003
DATA ascii
0.78900009 0.12787084 0.054200865 11448230
0.79105264 0.12354965 0.056204531 11448230
0.78852636 0.1348159 0.054275405 11514023
0.79000002 0.13587886 0.05883703 11448230
0.78866673 -0.092264429 0.08714962 14013899
0.79130006 -0.096072242 0.084341459 13553350
0.78846157 -0.085077234 0.0870004 14277584
0.79116672 -0.084478237 0.082845874 11908780
0.78900003 -0.078244612 0.088623412 15001307
0.78796297 -0.094985195 0.095270999 13552834
0.79025006 -0.099181101 0.09200085 13289149
0.78548563 -0.085120216 0.094793871 13618885
0.78665519 -0.07537549 0.094959348 13619142
0.79000002 -0.070946157 0.090585135 14540758
0.78640002 -0.065100484 0.095688723 13619142
0.79000002 -0.064473256 0.090585135 14803930
0.78637934 -0.054846052 0.094923049 14079950
0.79000002 -0.05892504 0.090585135 14869723
0.78647214 -0.044853147 0.094775334 14014157
0.78629619 -0.034923781 0.09526553 13816777
0.79000002 -0.033033378 0.090585135 10987422
0.78685194 -0.025054311 0.095880918 13553348
0.79025 -0.023793008 0.091076151 10658458
0.78714281 -0.014749281 0.096834674 13750984
0.79069996 -0.014551518 0.091590099 10659229
0.78705007 -0.005272788 0.096691564 13356225
0.79079998 -0.005296974 0.091601565 10658971
0.78757143 0.0044702794 0.097152017 12961468
0.79186666 0.0054485663 0.092279948 10724764
0.78820008 0.015018007 0.098681405 13882569
0.78850001 0.025174962 0.098719068 12698555
0.78871435 0.034546375 0.099141955 11251111
0.78900003 0.044585086 0.099705793 10395287
0.78900003 0.055667471 0.099705793 10592921
0.78900003 0.064902782 0.099705793 10987423
0.78900003 0.073214568 0.099705793 11316644
0.79189646 0.075112984 0.095081672 11119265
0.78900003 0.1498677 0.099705793 11316901
0.78899997 0.15567276 0.097990654 11316901
0.79147619 0.154396 0.093221508 11316644
0.78900003 0.16141182 0.098320492 11448230
0.79216671 0.1655381 0.094923735 11448230
0.78824145 -0.094619915 0.10501897 13684420
0.79000002 -0.099611931 0.10907917 13816006
0.78675997 -0.084469967 0.10495136 13421248
0.7859199 -0.075180322 0.1048393 13289662
0.78416675 -0.064916588 0.10460592 13092283
0.7835201 -0.054772958 0.10451872 13092283
0.78323346 -0.044669963 0.10447955 12960697
0.78183323 -0.034523427 0.10520688 12697526
0.78073341 -0.025335211 0.10505624 12500148
0.78144443 -0.015296048 0.10515198 12434611
0.78179997 -0.0052375398 0.10520054 12631990
0.77900004 0.0082764067 0.10792509 12303025
0.78206456 0.0042702104 0.1047309 12763833
0.77846688 0.014830303 0.10748564 12237489
0.78380013 0.014933789 0.10271549 13158846
0.77738893 0.024819884 0.10733569 12303282
0.78438896 0.025044806 0.10279199 13356227
0.77707702 0.034394737 0.10757268 12434868
0.78441173 0.035467539 0.1032251 13750986
0.77741671 0.04484275 0.10825063 12960955
0.7848261 0.045069139 0.10388552 13882828
0.77790004 0.054883849 0.10831772 13487043
0.78576195 0.055175032 0.10375813 13290177
0.77766663 0.064881556 0.10828496 13684681
0.78538084 0.064866945 0.1039703 12895676
0.77816671 0.074336313 0.10896305 13882317
0.78581482 0.075201973 0.10447416 12829883
0.78562498 0.084855355 0.1070871 13750986
0.79163641 0.086349495 0.10155316 11448232
0.78634775 0.095258005 0.10752808 13290435
0.78750008 0.10460386 0.10817895 13421765
0.78900003 0.11107937 0.10894111 14606040
0.78900003 0.1498677 0.10155285 11119522
0.78900003 0.15525497 0.10293814 11382694
0.79070598 0.15454781 0.10732683 11251108
0.78900003 0.16095006 0.10155285 11316644
0.79216009 0.16560316 0.10559855 11382437
0.78886938 -0.093608409 0.11422297 13486784
0.79000002 -0.099083535 0.11541998 13552577
0.78803456 -0.084478617 0.11510569 13420991
0.78800005 -0.075378366 0.11525958 13289406
0.78775769 -0.065464228 0.1148062 13158076
0.7873928 -0.054846663 0.1148442 13158076
0.78644443 -0.044853613 0.11503585 13092283
0.78436005 -0.034636185 0.11564871 12697527
0.78272009 -0.025400557 0.11540709 12368819
0.78280002 -0.015323413 0.11541788 12237746
0.78332007 -0.0052483161 0.11549434 12303282
0.77900004 0.0089146849 0.1125754 12171440
0.78176934 0.0041918126 0.11561557 12237489
0.77756011 0.014811406 0.11464377 12039853
0.77613372 0.024780432 0.11443292 11973804
0.77632022 0.034782134 0.11446112 12105391
0.77666688 0.044797637 0.11451312 12039342
0.77656019 0.054789204 0.11449698 12105135
0.7758826 0.064944997 0.11503671 12236722
0.7754001 0.074675635 0.11523015 12565687
0.77552778 0.084672548 0.11524561 12960445
0.77532262 0.094808944 0.1153018 13355203
0.77614993 0.10336705 0.11643165 13421252
0.78285724 0.10641925 0.11266928 14671577
0.78690904 0.11413754 0.11568344 12698043
0.79100007 0.1175342 0.11230233 11250852
0.78900003 0.12493233 0.11817642 11250852
0.78858328 0.13548161 0.11857482 11185058
0.78900003 0.14124806 0.11756072 11316644
0.79131818 0.1451714 0.11439503 11250851
0.79146683 -0.10535906 0.12502863 14933974
0.78899974 -0.093680777 0.124905 14341837
0.79000002 -0.099149585 0.12387441 14407630
0.78826928 -0.084773861 0.12523542 14078922
0.78812003 -0.075389564 0.1254252 13881544
0.78872716 -0.065039776 0.12501815 13553092
0.78885168 -0.055351883 0.12513073 13553092
0.78796673 -0.044938739 0.12540039 13355457
0.78708005 -0.034755446 0.12526064 12960699
0.78595996 -0.025505789 0.12508275 12500148
0.7852 -0.015371411 0.12496088 12368562
0.78499991 -0.0052594771 0.12492864 12434355
0.78340024 0.0048361444 0.12467682 12434355
0.77883339 0.016357312 0.12090807 11974574
0.78210533 0.014418469 0.12543425 12105904
0.77816683 0.024845434 0.12110903 11908781
0.78199989 0.02496743 0.1262829 11974574
0.77866673 0.034887329 0.12108496 12171953
0.782125 0.035042189 0.12607431 12171953
0.77900004 0.044931829 0.12032592 12171183
0.78154176 0.045078188 0.12529539 12303282
0.77858335 0.055994958 0.12193307 12368563
0.78131258 0.054667555 0.12685785 12500148
0.77741396 0.065014787 0.12485255 12434100
0.78033334 0.061144982 0.12905709 12565941
0.77564013 0.07469748 0.12525541 12565687
0.77486652 0.084600382 0.12513074 12828859
0.77495992 0.094589837 0.12514655 13026237
0.77688462 0.10406138 0.12524691 13158080
0.78100002 0.10995308 0.12154901 13092031
0.78562504 0.11444279 0.12548572 12500150
0.78874981 0.12489264 0.12460167 11185058
0.78812003 0.13494061 0.12542522 11185058
0.78879994 0.14256692 0.12331683 11250851
0.7906 0.14634731 0.12619153 11250851
0.78900003 -0.1013329 0.13295293 15263452
0.7906251 -0.1053999 0.13515469 14868181
0.78899974 -0.094868183 0.13479999 14868438
0.78883988 -0.084692337 0.1347734 14408144
0.7889998 -0.075474016 0.13479997 14144971
0.78899974 -0.065315172 0.13479999 14079178
0.78883982 -0.055145789 0.13477294 14013643
0.78806669 -0.044944562 0.13464083 13684935
0.78792006 -0.034791313 0.13461578 13224384
0.78719366 -0.0246542 0.13520545 12829626
0.78628129 -0.014817004 0.13502705 12566456
0.78606665 -0.0052657323 0.13521963 12500407
0.78632349 0.0046399138 0.13499488 12631479
0.78603846 0.015116656 0.1345093 12434357
0.78552783 0.025079051 0.13512951 12302770
0.78479987 0.035161678 0.13500409 12434356
0.7848056 0.045266721 0.13500549 12434357
0.78399998 0.055109642 0.13537645 12500405
0.77887511 0.068400204 0.1332984 12763320
0.78186363 0.063980989 0.1359953 12631734
0.77716017 0.074843206 0.13459893 12828856
0.77683347 0.084817313 0.13454239 13157821
0.7779001 0.094949082 0.13381645 13289410
0.78039998 0.095254578 0.13881148 13223103
0.77873343 0.10307148 0.13377602 13354945
0.78070009 0.10607228 0.13685602 13420739
0.78588897 0.11425902 0.13501681 12763321
0.78900009 0.12216175 0.13379252 11185058
0.79026318 0.12673922 0.13560082 11184802
0.78900003 0.13355197 0.13172156 11250851
0.79073685 0.13587686 0.13607259 11185059
0.79060018 -0.10524204 0.14525232 14671061
0.78899986 -0.093113467 0.14357357 14868183
0.79000002 -0.097184598 0.14687635 14802646
0.78899992 -0.085448161 0.14305019 14605268
0.79000002 -0.084076926 0.14705361 14539474
0.78900003 -0.078552455 0.14095686 14342352
0.7900306 -0.074283361 0.14551257 14210766
0.78900003 -0.061159279 0.14172648 14079180
0.79019248 -0.064987049 0.14567675 14144973
0.78899986 -0.054786909 0.14320414 14079180
0.79000002 -0.05596599 0.14865644 14144973
0.78894264 -0.044862613 0.1448167 13947594
0.79000002 -0.049678016 0.14976607 14079180
0.78823334 -0.034805633 0.14481862 13487043
0.78751528 -0.024886446 0.14510459 13092285
0.78612 -0.014468119 0.14534986 12894906
0.78652006 -0.0052677863 0.1454239 12829115
0.78756267 0.0050965515 0.14527078 12763066
0.7879656 0.014884986 0.14492793 12565687
0.78730011 0.025135046 0.14556929 12565686
0.78632009 0.035229694 0.14538833 12697272
0.78649998 0.045364939 0.14542146 12697272
0.7862401 0.055472087 0.14537326 12697271
0.78413337 0.065416537 0.14498481 12763320
0.77885723 0.076310284 0.14114194 12960699
0.78144443 0.074748084 0.14560503 13026235
0.77870017 0.082832113 0.14179097 13354944
0.78109998 0.086380579 0.14551939 13486273
0.78207988 0.095458418 0.14460365 13552066
0.78287995 0.10472162 0.14475308 13552068
0.78757691 0.1146412 0.14505254 12236978
0.79000002 0.11861777 0.14976607 11053472
0.78900003 0.12031468 0.14218824 11316644
0.79120004 0.12480152 0.1449554 11053472
0.79226661 -0.11473777 0.15483098 12499380
0.78900003 -0.10317996 0.15881181 14473938
0.79013652 -0.10543103 0.15483616 14539731
0.78899992 -0.093829215 0.15650298 14408145
0.79000002 -0.096177325 0.1537291 14539731
0.78900003 -0.087172091 0.15634905 14473938
0.79000002 -0.084480435 0.15514612 14473938
0.7904669 -0.074687347 0.15540618 14276559
0.79100013 -0.064554863 0.15551087 14144973
0.79012018 -0.05523498 0.1553383 14210766
0.78899992 -0.042573202 0.15465593 13947594
0.79000002 -0.047828615 0.15584266 14144973
0.78816003 -0.03480266 0.15495245 13684422
0.78703344 -0.02461846 0.15473089 13355457
0.78716004 -0.014486698 0.15475744 13158078
0.78740013 -0.005274619 0.15480471 13026492
0.78793335 0.0048678122 0.15490897 12960700
0.78887987 0.015029605 0.15509456 12697527
0.7882334 0.025165627 0.15496776 12565941
0.78780007 0.035296012 0.1548827 12763321
0.78765398 0.044721518 0.15471245 12829115
0.78758639 0.05480358 0.15496777 12828858
0.78611535 0.064875744 0.15441023 12829114
0.78362876 0.074678801 0.15511225 13092286
0.78286684 0.084558092 0.15483087 13486532
0.78308374 0.09466438 0.15487178 13552325
0.78503716 0.10480805 0.15474816 13947083
0.78857136 0.11286592 0.15437476 11907757
0.79054546 0.11735442 0.15626384 10856094
0.79132009 -0.1146017 0.16483608 13552324
0.7889998 -0.10393559 0.16569629 14737110
0.79000002 -0.10806634 0.1635045 14671317
0.78899974 -0.094868176 0.16527654 14605524
0.78899974 -0.084973201 0.16554041 14605524
0.79000002 -0.081117891 0.16178718 14473938
0.78900003 -0.077936769 0.16866283 14671317
0.79003721 -0.074203022 0.16422634 14473938
0.79060018 -0.064521849 0.16468497 14342353
0.79036021 -0.055252329 0.16463572 14210767
0.78899986 -0.042329498 0.16548175 14013133
0.79000002 -0.047597438 0.16467687 14210512
0.78843325 -0.034814935 0.16515835 13749960
0.78802788 -0.024648692 0.16507347 13355457
0.78873318 -0.014515637 0.16522193 13289664
0.7888332 -0.0052845008 0.16524261 13158078
0.78886092 0.0048726643 0.16524819 13092285
0.78899974 0.015032077 0.1652765 12829113
0.78899974 0.025190923 0.16527648 12697528
0.78859985 0.035330679 0.16519313 12894906
0.78800005 0.044528577 0.16506709 12960443
0.78744453 0.054634448 0.16494992 12894906
0.78573316 0.064632662 0.16459054 12894907
0.78496659 0.074677892 0.16535091 13223871
0.78519982 0.084810123 0.16540076 13618373
0.78413355 0.094789766 0.16517486 13354946
0.78617859 0.1053622 0.16501348 13815239
0.78900003 0.11107936 0.16527653 11776170
0.79205006 0.11614843 0.16498983 10987167
0.78900003 -0.11056822 0.17820597 14276046
0.79078591 -0.11478782 0.17464206 14078670
0.7889998 -0.10487311 0.17558926 14737110
0.79000002 -0.10885895 0.17103422 14671317
0.7883333 -0.094788812 0.17528635 14802903
0.78843993 -0.084648088 0.17531028 14737111
0.78899986 -0.075935788 0.17552772 14737111
0.79000002 -0.071685925 0.17288363 14671062
0.78900003 -0.066033468 0.17851382 14934234
0.79000008 -0.064312443 0.17348669 14802649
0.78899997 -0.054232799 0.1770186 14736856
0.79000002 -0.056035336 0.17253686 14539733
0.78899974 -0.044838242 0.17556274 14473684
0.79000002 -0.049061548 0.17072599 14210768
0.7889598 -0.034837052 0.17542666 14013132
0.78889978 -0.024676302 0.17541361 13487043
0.7889998 -0.014520934 0.17543536 13289664
0.7889998 -0.0052856179 0.17543539 13355202
0.78899974 0.0048732301 0.17543539 13223616
0.7889998 0.015032077 0.17543536 13026236
0.78896642 0.025189666 0.17542782 12829113
0.78820008 0.035313182 0.17525694 12960699
0.78716677 0.045401521 0.17502649 13026492
0.78635985 0.055480078 0.17484747 13092285
0.78523993 0.064592555 0.17459951 13026492
0.78503323 0.074684456 0.17455319 13420994
0.78519225 0.08494965 0.17479913 13618374
0.78347254 0.09471108 0.17512186 13815753
0.78612006 0.1051579 0.17479527 13749960
0.78900003 0.11160709 0.17622697 10921119
0.79181826 0.11636651 0.17479628 10921630
0.78900003 -0.11126087 0.18536335 13881547
0.79052949 -0.11590029 0.18470149 14012876
0.7889998 -0.10502703 0.18467067 13881803
0.78889978 -0.094856516 0.1846478 13947340
0.78891981 -0.084700458 0.18465233 14013133
0.7889998 -0.075474016 0.18467072 14276305
0.78899974 -0.065315165 0.18467072 14407891
0.7889998 -0.055156317 0.1846707 14605270
0.78899974 -0.044997469 0.1846707 14671063
0.78896135 -0.034907881 0.18487456 14407890
0.78859985 -0.024535537 0.185367 13816009
0.78873318 -0.014516259 0.18553022 13552836
0.78875846 -0.005220471 0.18537706 13421251
0.7888748 0.0046421606 0.18498738 13289409
0.7889998 0.015032078 0.1846707 12960699
0.78861761 0.02539454 0.18523198 12894906
0.78800005 0.035304971 0.18535899 13026492
0.78694451 0.0453889 0.1851121 13223871
0.78656662 0.055496491 0.18502381 13223871
0.78686684 0.064727224 0.18509506 13158078
0.78655559 0.074828357 0.18502222 13355457
0.78531027 0.084693998 0.18488654 13552579
0.78440017 0.094824664 0.18543257 13487043
0.78717858 0.10510065 0.18483846 13355202
0.78900003 0.11144878 0.18319304 10789276
0.79095 0.11589278 0.18549782 10921886
0.78900003 -0.11164567 0.19452168 14210255
0.79033339 -0.11620367 0.19536427 14341839
0.78899974 -0.10529089 0.19509342 14144206
0.79000002 -0.10146134 0.19137767 13947084
0.7889998 -0.094952136 0.19558516 14012619
0.79000002 -0.094856329 0.19388758 14012620
0.78899974 -0.084581956 0.19486132 13881034
0.79000002 -0.088515505 0.19415176 14012620
0.78889972 -0.075464852 0.19480436 13749448
0.78866649 -0.065287508 0.19474572 13815754
0.78846663 -0.055119194 0.19469613 13881547
0.78799999 -0.044941161 0.1945806 14078926
0.78772426 -0.034718439 0.19467084 14210767
0.78770989 -0.024788076 0.19525301 14144717
0.78780001 -0.014498848 0.19545442 14013131
0.788077 -0.0053502945 0.19531077 13749960
0.78861749 0.0050888928 0.19500525 13486788
0.78879982 0.015028502 0.19477944 13092286
0.7881875 0.024933588 0.19520569 12960700
0.78800005 0.035304975 0.19550495 13026493
0.78800005 0.044528581 0.19550496 13223871
0.78806674 0.054679569 0.19552176 13355202
0.78843993 0.064856626 0.19561528 13289409
0.78803343 0.074969165 0.19551368 13421251
0.78716016 0.085020892 0.19529863 13618117
0.78706676 0.095146865 0.19527575 13552323
0.78855002 0.10464833 0.19481131 13091773
0.79000002 0.10884236 0.19679378 10790045
0.78900003 -0.11056822 0.20129426 14407632
0.79033351 -0.11461081 0.2054892 14670804
0.7889998 -0.1047058 0.20474747 14539218
0.79000002 -0.10885895 0.2080223 14539218
0.78899974 -0.094868183 0.20498842 14341840
0.78887975 -0.084696814 0.20495693 14210255
0.78836 -0.075413555 0.20482208 13947084
0.78800005 -0.065232389 0.20472857 13815754
0.78800005 -0.055086412 0.20472856 13749961
0.78700006 -0.044634312 0.2049711 13552325
0.78563327 -0.034690831 0.20503284 13420996
0.78584367 -0.025155008 0.20491432 13618375
0.78688252 -0.01513139 0.20552163 13749960
0.78713346 -0.0052727228 0.20542403 13881546
0.78770602 0.0046492433 0.20530188 13881545
0.78851992 0.015024337 0.20486337 13618373
0.78869987 0.025179902 0.20491041 13223872
0.78800005 0.035304975 0.20472862 13158078
0.78800005 0.044528581 0.20472862 13289408
0.7881667 0.054686777 0.20477143 13289410
0.7889998 0.06490279 0.20498836 13289410
0.78879982 0.075041838 0.20493707 13552836
0.78835988 0.085151546 0.2048234 13816008
0.78876656 0.095351644 0.20492868 13684421
0.78900003 0.10276759 0.20314132 14013131
0.79021055 0.10657712 0.20588714 11447975
0.79220688 0.11536996 0.2050525 10921887
0.7920357 -0.12523356 0.21484864 12499637
0.78900003 -0.11056822 0.2197649 14539218
0.7901113 -0.11483464 0.21473046 14473425
0.7889998 -0.10452974 0.21550247 14473425
0.79000002 -0.1083966 0.21310815 14539218
0.78894418 -0.094861828 0.2151321 14276303
0.7887665 -0.084683813 0.21508406 14210254
0.78899974 -0.075474016 0.21514727 14144718
0.78883308 -0.065301694 0.21510264 14144719
0.78859985 -0.055128589 0.2150398 14210255
0.78812122 -0.04520005 0.21532802 14012877
0.7871201 -0.03475656 0.21555811 13289410
0.78680003 -0.024610421 0.21546999 12894652
0.78732008 -0.014490391 0.21561185 13092031
0.78720009 -0.0052741216 0.21557857 13092031
0.78703141 0.0050917706 0.21518587 13421250
0.78766686 0.015007299 0.21478251 13684422
0.78808337 0.025161367 0.21489678 13684422
0.78800005 0.035304971 0.21487454 13618629
0.78800005 0.044528581 0.21487461 13487043
0.78800005 0.054674547 0.21487458 13355458
0.78866655 0.064876534 0.21505576 13355458
0.78880537 0.075042717 0.21509324 13487043
0.78869987 0.085188001 0.21506402 13816007
0.78872204 0.095346414 0.21507035 13749957
0.7907601 0.10577594 0.21470259 11776682
0.79220003 0.11523861 0.21509427 10856096
0.79148144 0.1248105 0.21482962 10921889
0.7913 -0.12571277 0.22503613 13157310
0.78900003 -0.11159436 0.22633225 14538705
0.7900002 -0.11675446 0.22416903 14472912
0.7889998 -0.10502703 0.22530609 14473168
0.78899974 -0.094868183 0.22530611 14407632
0.7889998 -0.084863253 0.22515213 14276302
0.79000002 -0.081117891 0.22929044 14408145
0.7889998 -0.075397067 0.22515219 14144460
0.79000002 -0.07741908 0.22929044 14210766
0.7889998 -0.065623008 0.22510087 14078926
0.7889998 -0.055240277 0.22547397 14013133
0.79000002 -0.054609761 0.22435872 14013133
0.7889331 -0.044994067 0.22528704 13881291
0.78808004 -0.03479838 0.2250433 13552582
0.78796673 -0.024647422 0.22501121 13157823
0.78800005 -0.014502531 0.22502054 13092030
0.78800005 -0.005278918 0.22502054 13026237
0.78750008 0.0048627555 0.22487839 12829115
0.78712004 0.014996635 0.22476877 12828858
0.78743345 0.025140943 0.22485739 13223873
0.78739297 0.035475083 0.22543733 13816008
0.78792 0.044524342 0.22499733 14013387
0.78800005 0.054674547 0.22502056 13816008
0.78800005 0.064820521 0.22502053 13487043
0.78793341 0.074959993 0.22500126 13421251
0.78763998 0.08507368 0.2249164 13881544
0.78831035 0.095138364 0.22510915 13683909
0.7916553 0.10551433 0.22485022 11315876
0.78900003 -0.12257414 0.23823553 14868440
0.79056543 -0.12583622 0.23468393 14341840
0.7885555 -0.11406194 0.23604862 14736854
0.79000002 -0.11833714 0.2327581 14473425
0.78806657 -0.10490294 0.23518398 14671061
0.78844434 -0.094800666 0.23529738 14539475
0.7888748 -0.08546523 0.23558079 14408146
0.79000002 -0.081580244 0.23252693 14342352
0.7889998 -0.075054236 0.23487724 14342097
0.79000002 -0.078652017 0.23237281 14342352
0.78868556 -0.065157995 0.23523797 14342354
0.78833336 -0.055109717 0.23526417 14408147
0.78802782 -0.04494264 0.23517354 14342353
0.78736681 -0.034767218 0.23497555 14013388
0.78747231 -0.024631308 0.23500726 13618629
0.78796673 -0.014501762 0.23515634 13487043
0.78786671 -0.0052779471 0.23512618 13552836
0.78733355 0.0048620906 0.23496641 13487043
0.78660005 0.014985647 0.23474759 13092286
0.78616661 0.025099032 0.23461713 12763322
0.7854073 0.034983665 0.23490144 12960699
0.78580546 0.045324922 0.23450872 13618629
0.7864998 0.055491161 0.23471551 14079180
0.78696668 0.06473615 0.2348561 14013387
0.78686142 0.074858315 0.23482578 13815751
0.78693348 0.084997423 0.23484822 14012872
0.78826475 0.09507519 0.23497391 13880773
0.79162967 0.10609938 0.23490994 10723997
0.78900003 -0.13088591 0.24839437 13420738
0.79200006 -0.1355285 0.24494602 9736588
0.78829622 -0.12489262 0.24492472 14670805
0.79000002 -0.12858593 0.24100335 14473427
0.78555888 -0.11522742 0.24503413 14868440
0.78427279 -0.10489641 0.24531581 14802904
0.78661287 -0.094964676 0.2451155 14671318
0.78778583 -0.084577717 0.24498065 14539475
0.78839988 -0.075416639 0.24451254 14342098
0.78780657 -0.065366343 0.24507251 14407891
0.78625917 -0.05476106 0.24517761 14407891
0.78648394 -0.045002032 0.24501701 14408147
0.78676009 -0.034740474 0.24492623 13947596
0.78696567 -0.024774767 0.24486323 13750473
0.78662944 -0.014545809 0.24522506 13618630
0.78613335 -0.0052669584 0.24564908 13684680
0.78603017 0.0046047186 0.24519941 13684937
0.78635997 0.014982061 0.24480145 13553094
0.78522843 0.025200641 0.24523708 13355714
0.78483325 0.035163715 0.24524526 13421251
0.78480554 0.045265809 0.24523592 13421250
0.78483331 0.055373963 0.24524371 13552836
0.78506255 0.064923242 0.24554355 14079180
0.78529394 0.074979529 0.24516958 14210253
0.78603327 0.084900834 0.24561742 14341839
0.78818744 0.095514633 0.24502403 14078409
0.79117864 0.10563435 0.24504486 10724252
0.78900003 -0.1512036 0.25855324 10856096
0.78900003 -0.14418477 0.25781444 10394777
0.79070836 -0.14528389 0.25324896 10658462
0.78888232 -0.13347401 0.25568989 11380387
0.79000002 -0.13706237 0.2533327 9604491
0.78685719 -0.12481024 0.25475779 14670804
0.7835601 -0.11531102 0.25493699 14802392
0.78350013 -0.10520907 0.25491831 14670805
0.78603113 -0.094566718 0.25487769 14539476
0.78668773 -0.084805995 0.25526148 14539475
0.78666675 -0.075251676 0.25502264 14539475
0.7856667 -0.065041184 0.2546989 14539732
0.78467858 -0.055051629 0.25470743 14408146
0.78482848 -0.044627171 0.25455865 14342098
0.78556663 -0.034686558 0.2546671 14144719
0.78579992 -0.025499396 0.25474316 13618374
0.78531426 -0.015504888 0.25471744 13420995
0.78468001 -0.0052573336 0.25529987 13355457
0.78515142 0.0051006582 0.25495189 13684423
0.78573328 0.014970155 0.25472197 13355715
0.78509665 0.024917535 0.2552579 13224128
0.78388017 0.03511963 0.2550391 13421250
0.78258336 0.045137573 0.25553194 13487044
0.78250015 0.055209175 0.255505 13618373
0.78205562 0.06524682 0.25535944 13881802
0.7824139 0.075225428 0.25531939 14210510
0.78388017 0.084669344 0.25503904 14539475
0.78739995 0.094452858 0.25470904 14078924
0.79173076 0.10512291 0.2550289 10592667
0.79216659 0.12450769 0.25495023 10855839
0.78900003 -0.1512036 0.2604003 10855839
0.79120845 -0.15548746 0.26498941 10921632
0.78900003 -0.14539854 0.26066417 10592155
0.79073924 -0.14485717 0.26572475 10394775
0.78871417 -0.13330129 0.26435024 12696761
0.79000002 -0.13752472 0.26627854 9407112
0.78589666 -0.12485693 0.26489168 14539218
0.78300017 -0.11522748 0.26483276 14473939
0.78466672 -0.10561477 0.26498047 14473938
0.78659993 -0.095500514 0.26513273 14342352
0.78559995 -0.085265413 0.26479465 14276304
0.78426683 -0.07502234 0.26526248 14276305
0.78336155 -0.064849325 0.26495662 14407891
0.78320032 -0.054750703 0.26490262 14276305
0.78305602 -0.044658463 0.2648541 14144976
0.78313351 -0.034578804 0.26487881 14276562
0.78416669 -0.025445456 0.26522759 13750217
0.78490901 -0.015614663 0.26506305 13552838
0.78495997 -0.0052584601 0.26457986 13355716
0.78455877 0.0050602434 0.265091 13487558
0.78376681 0.014931826 0.26509163 13619399
0.78325009 0.025006916 0.26491642 13356227
0.78266686 0.035064932 0.26472136 13224386
0.7810334 0.045046106 0.26508448 13158337
0.78048015 0.055067845 0.26489684 13157824
0.78133333 0.065188318 0.26518813 13486789
0.78199989 0.075452112 0.26520041 13881803
0.7827667 0.084548071 0.2647548 14473682
0.78689283 0.094274856 0.26503175 14210511
0.78837502 -0.13285974 0.2751888 13750475
0.79039997 -0.13777976 0.27473897 9473164
0.7833668 -0.12445632 0.27485701 14671318
0.7790001 -0.11509373 0.27594432 14736853
0.78038883 -0.11453785 0.27389732 14605524
0.78277147 -0.10508301 0.27467519 14539731
0.78543335 -0.095358372 0.274849 14342096
0.78511101 -0.085211299 0.27473897 14144717
0.78432006 -0.075027846 0.27538085 14144719
0.78323364 -0.064838536 0.27499899 14342098
0.7837202 -0.054787401 0.27516976 14276305
0.78286701 -0.044648308 0.27486992 14078926
0.78203988 -0.034531496 0.27457994 14078926
0.78239989 -0.0253883 0.27470568 13553095
0.78390926 -0.015093011 0.27473378 13355717
0.78453344 -0.005256163 0.27453572 13223874
0.78353155 0.0046080207 0.27475849 13289924
0.78219992 0.014901681 0.27463618 13422020
0.78199977 0.024967432 0.27456611 13422020
0.78248018 0.035057846 0.27473545 13619143
0.78159994 0.045080006 0.27442709 13422021
0.7809667 0.055102397 0.27511725 13421251
0.78188217 0.065232493 0.27517009 13289409
0.77887499 0.077061087 0.27734327 13420993
0.78090912 0.074456625 0.27401561 13618374
0.77892315 0.082729608 0.27671173 13684166
0.78094733 0.085891835 0.27361903 13947082
0.7864334 0.095260456 0.2747097 13026492
0.79188454 -0.14441644 0.28488091 9802383
0.78789997 -0.13439585 0.28493765 13026496
0.7827037 -0.12441555 0.28506085 14605269
0.77900004 -0.11646146 0.28080741 14933976
0.78125 -0.11489236 0.28543088 14802646
0.78191155 -0.10478275 0.28487241 14605524
0.78280026 -0.095037565 0.28492489 14276560
0.78434384 -0.085354254 0.28491309 14078926
0.78379333 -0.074850976 0.28512877 14078926
0.78300041 -0.064818479 0.28499886 14342098
0.78320032 -0.054751333 0.28507039 14013647
0.78209078 -0.045020889 0.28441665 13816524
0.78157562 -0.035008531 0.28472817 13750731
0.78213328 -0.025379945 0.28468385 13487559
0.78330594 -0.015332316 0.28511009 13355973
0.78343368 -0.0052490281 0.2851555 13027264
0.7824167 0.0048319511 0.28478512 13224386
0.78189987 0.014896809 0.28459746 13355459
0.78180534 0.024960933 0.28456306 13552838
0.78240013 0.035054781 0.2847791 13486788
0.78222215 0.045116641 0.28471515 13421508
0.78139997 0.055130139 0.28533176 13552837
0.77868438 0.0664519 0.28683326 13486788
0.78058821 0.063888192 0.28288341 13421250
0.77756685 0.074883059 0.28483915 13683909
0.77821749 0.083027631 0.2848801 13816008
0.78133339 0.088355742 0.28439215 13947338
0.78667748 0.095076866 0.28499812 12763066
0.79196161 0.10572471 0.28526589 10461338
0.78790915 -0.13355792 0.29516917 14210512
0.79000002 -0.13844942 0.2967937 13092032
0.78403854 -0.12470127 0.29526007 14671060
0.78284633 -0.11499114 0.29516539 14737110
0.78386223 -0.10510103 0.29528192 14605524
0.78443992 -0.095237806 0.29562631 14342352
0.78485292 -0.084965847 0.29513067 14078925
0.78392315 -0.075131625 0.2952159 14078926
0.78320026 -0.064835496 0.29515657 14210512
0.78244001 -0.054699145 0.29486915 13947597
0.77900004 -0.041691687 0.29357296 13750731
0.78038466 -0.04542039 0.29451656 13816268
0.78112125 -0.035651952 0.29487154 13816524
0.78239989 -0.02538774 0.29485434 13553351
0.78296691 -0.015326949 0.29506728 13290180
0.7826401 -0.0052439468 0.2949439 13092801
0.77900004 0.0086411368 0.29685554 12961215
0.78100008 0.004334935 0.29469144 13158337
0.77900016 0.014727578 0.29687831 13158594
0.78050005 0.0150014 0.29231057 13289410
0.77900016 0.025913734 0.29748079 13487559
0.7804091 0.024251949 0.2931065 13552839
0.77900016 0.034200337 0.29736054 13684168
0.7807647 0.035518825 0.29294652 13552582
0.77900004 0.040372699 0.29904392 13815754
0.7820937 0.044997949 0.29508126 13552582
0.78240013 0.055200968 0.29485565 13486789
0.77872747 0.067868933 0.29396752 13552582
0.78060001 0.063388474 0.29600421 13618375
0.7774002 0.074867368 0.29479131 13815753
0.77793348 0.082205407 0.29499292 13684166
0.78090918 0.08700683 0.29479039 13881544
0.78638464 0.094078764 0.29507971 12894394
0.79156661 0.13460298 0.29460326 10658460
0.78900003 -0.14086005 0.30694628 10394007
0.79147828 -0.14515586 0.30447671 9604490
0.78717238 -0.134399 0.30510151 14210256
0.78300005 -0.12439341 0.30515951 14539220
0.78340012 -0.114496 0.30518535 14605269
0.78632009 -0.10466899 0.30553579 14605269
0.78656006 -0.095496513 0.30562934 14342352
0.78506452 -0.085059874 0.30522466 14078925
0.78353351 -0.07495141 0.30536857 14013133
0.78333366 -0.064846799 0.30529079 14342098
0.78246665 -0.054700386 0.30495426 14342098
0.78193921 -0.044788897 0.30516493 14210512
0.78196412 -0.034331657 0.30508539 14013133
0.78216666 -0.025381571 0.30483714 13816010
0.78238875 -0.015315835 0.30492294 13487046
0.78199977 -0.0052387239 0.30477232 13224387
0.78119349 0.0046761325 0.30519688 13158594
0.77900016 0.014841557 0.30293438 13092801
0.78010011 0.014862048 0.3073191 13158594
0.77865618 0.025372075 0.30500609 13355973
0.78000003 0.020947257 0.30734041 13224387
0.77773345 0.034845226 0.30492762 13553352
0.77824003 0.043978184 0.30640215 13684681
0.7812143 0.047281262 0.30263576 13618375
0.77880013 0.05494852 0.30899444 13815754
0.78167999 0.055151291 0.30373061 13618375
0.77900016 0.065342717 0.30886361 13749961
0.78058338 0.064741455 0.30391458 13815754
0.77888894 0.074808344 0.3048771 13947340
0.77892315 0.082028024 0.30420461 14012877
0.7814616 0.086800024 0.30533627 14210513
0.78674072 0.094259292 0.3049477 12434102
0.79206461 0.10481603 0.30555326 10461337
0.78900003 -0.14135259 0.31396511 11512487
0.79093754 -0.14590597 0.31508285 9341831
0.7862308 -0.13524514 0.31519842 14341585
0.77899998 -0.12167191 0.31780148 14671063
0.78135723 -0.12563598 0.31451544 14671061
0.77900016 -0.11519894 0.31742075 14539220
0.78076476 -0.11446621 0.31305179 14605269
0.78336859 -0.10538358 0.31480655 14604757
0.78433347 -0.095225915 0.3148571 14473427
0.7832225 -0.0850076 0.31471819 14078926
0.78163338 -0.074769802 0.31560457 14210512
0.78179407 -0.064932615 0.31540099 14210512
0.78215986 -0.054677982 0.31490499 14342098
0.78203309 -0.044600356 0.3148545 14144720
0.78199983 -0.034529541 0.31484103 13749962
0.78207988 -0.025379132 0.31487349 13421509
0.78181803 -0.015386954 0.31526595 13355203
0.78215986 -0.0052392338 0.31490582 13223875
0.78206646 0.0048300163 0.31486797 12960447
0.77900004 0.017349081 0.31682456 12828860
0.78077275 0.013959568 0.31442964 12828861
0.77770007 0.024827369 0.31492954 13552582
0.78000003 0.020338591 0.31038377 13552582
0.77688479 0.034667496 0.31480944 13618632
0.77696693 0.044814665 0.31463349 13553352
0.77716011 0.054832287 0.31471094 13421766
0.77776676 0.064890482 0.31495526 13553352
0.77892327 0.072910838 0.31584615 13816267
0.78053337 0.077362992 0.31461647 13947597
0.78232008 0.084501959 0.3149721 14144976
0.78726918 0.094395168 0.31490752 11973810
0.7919032 0.10485502 0.31529975 10395545
0.78885716 -0.14247033 0.32577959 11907245
0.79068422 -0.14704604 0.32505789 9341831
0.78589284 -0.13583033 0.32507896 14341842
0.77900016 -0.12293544 0.32493979 14539477
0.78127289 -0.12860765 0.32435811 14473684
0.77900004 -0.11463781 0.32138366 14473684
0.78047615 -0.1148537 0.32580048 14407891
0.78173518 -0.10475844 0.32506949 14408147
0.78199977 -0.094941854 0.32490975 14342355
0.78097141 -0.084894143 0.3246114 14144976
0.77900004 -0.074365474 0.32472703 14079183
0.78000003 -0.078265086 0.32133973 14079696
0.77900004 -0.068235971 0.32477772 14144976
0.7812174 -0.062879622 0.32494178 13881804
0.78300029 -0.054931778 0.32499868 13684425
0.7834841 -0.044536225 0.32478848 13487302
0.78266674 -0.034558974 0.32518822 13421510
0.78183329 -0.025371926 0.32484028 13092801
0.7790001 -0.014640833 0.32609484 12895421
0.78052378 -0.015495872 0.3235552 12894909
0.77900004 -0.0070422795 0.32822239 12961469
0.78146416 -0.0051036202 0.32435733 12895165
0.77861559 0.0062808697 0.32805941 12961215
0.78140742 0.0043845754 0.32340774 12763323
0.77781492 0.015155043 0.32542804 12631480
0.78000003 0.011817287 0.32194838 12631480
0.77691692 0.024804452 0.3246164 13092031
0.77757704 0.034769282 0.32454363 13355460
0.77820843 0.044886414 0.32333633 13355716
0.78033346 0.045007955 0.32878417 13355203
0.77748007 0.055144776 0.32401597 13224130
0.78000003 0.051380493 0.32864371 13552582
0.77636135 0.064771615 0.32438326 13289666
0.77728587 0.07459899 0.325028 13420995
0.78000003 0.078770399 0.32225272 13618374
0.77866673 0.080458619 0.32808116 13684165
0.78266668 0.084675744 0.32474399 13815753
0.78766662 0.094095021 0.3249073 11842735
0.79159272 0.10396698 0.32501698 10395289
0.78900003 -0.15194242 0.33834636 9210763
0.79156005 -0.15599644 0.33432648 9342601
0.78779989 -0.14507452 0.33543006 10855075
0.79000002 -0.14862114 0.33100769 9341579
0.77880007 -0.13211122 0.33798301 14407891
0.78362072 -0.13607074 0.33465314 14276306
0.77826673 -0.1248538 0.3345302 14473684
0.78025001 -0.12486941 0.33148864 14539477
0.77862501 -0.11777167 0.33786154 14539477
0.78112507 -0.11433951 0.33467853 14539477
0.77900004 -0.10096041 0.33916429 14473684
0.78149992 -0.10515869 0.3354075 14473684
0.77900004 -0.096401274 0.33916429 14276305
0.78115374 -0.094768524 0.33482414 14276305
0.78116137 -0.084871136 0.33479598 14144719
0.77900004 -0.073423252 0.33041078 14013133
0.78084999 -0.074968308 0.33531058 14013133
0.77900004 -0.069046482 0.33004603 14078926
0.78141379 -0.064528093 0.33485511 13947340
0.78270382 -0.054511208 0.33487114 13947596
0.78431433 -0.044860102 0.3351818 14144974
0.78376013 -0.034608189 0.33573353 13750475
0.78248006 -0.025393143 0.33518434 13553096
0.77882618 -0.013303644 0.33464852 13487302
0.78058338 -0.018630391 0.33467567 13355973
0.7779668 -0.0052127969 0.33415839 13355716
0.7772814 0.0045724171 0.33443394 13289667
0.77708018 0.014804695 0.33469045 13026238
0.77750009 0.024825204 0.33487236 13026238
0.77861536 0.034815542 0.3349303 13355203
0.78000003 0.038598534 0.33320868 13223617
0.77900004 0.040372699 0.33916429 13552582
0.78106463 0.04496327 0.33475438 13289410
0.77858835 0.056647461 0.33469576 13092031
0.78036368 0.052400444 0.33477587 13223617
0.77656692 0.064787313 0.33446977 13157823
0.7761113 0.074811324 0.33467659 13421251
0.77809101 0.081393845 0.33462808 13684166
0.78250003 0.086467311 0.3348487 13815496
0.78782612 0.093756869 0.33490783 10986400
0.79000002 0.09827432 0.33563119 10263702
0.78837502 -0.15316118 0.34532189 9079177
0.79025006 -0.15776429 0.3442159 9144968
0.78400004 -0.1447459 0.34482291 11710895
0.77750015 -0.13418093 0.34488082 14342868
0.78150004 -0.13878928 0.34116691 14211025
0.77620035 -0.12512819 0.34430429 14474198
0.77744448 -0.11531676 0.34485525 14539734
0.77883327 -0.10458466 0.34456104 14473684
0.77900016 -0.095375486 0.34349546 14210769
0.78030008 -0.093090884 0.34648877 14144976
0.78102857 -0.084686846 0.34474939 13882060
0.78236657 -0.074838556 0.34520882 13816011
0.78213882 -0.06474898 0.34510857 14079183
0.78113329 -0.054605611 0.34466308 14210512
0.7823056 -0.044613317 0.34517926 14605270
0.78276658 -0.03456394 0.34538212 14210769
0.77850008 -0.023805067 0.34805787 13881547
0.78191298 -0.025772838 0.343853 13881804
0.77762508 -0.014768303 0.34539038 13618631
0.78080004 -0.019122753 0.34214106 13684682
0.77731049 -0.0053318646 0.34464172 13552839
0.77862078 0.0046525165 0.34434322 13289666
0.78000003 0.009382627 0.34872964 13027008
0.77879167 0.014989364 0.34439194 13092031
0.78000003 0.011208621 0.34872964 12961215
0.77855533 0.024857329 0.34534857 13158081
0.77766675 0.03484185 0.34495384 13420996
0.77803135 0.044648178 0.34568349 13618375
0.78050005 0.046845514 0.34073034 13486789
0.77768981 0.054994032 0.34512046 13486789
0.78050005 0.051413428 0.34073037 13420996
0.77691692 0.06481725 0.34462214 13486789
0.77682167 0.074748419 0.34490591 13618630
0.77862513 0.081138186 0.34378636 13947596
0.78316665 0.085918687 0.34545833 13947596
0.78799993 0.093108483 0.34503022 10789531
0.79037499 0.097858608 0.34504062 10263957
0.78830761 -0.15263329 0.35386452 9013383
0.79066676 -0.15753941 0.35581347 9145225
0.78534782 -0.14523195 0.3551212 12105909
0.77850008 -0.13392942 0.35215989 14013905
0.7827 -0.13570389 0.35690132 13882319
0.7770834 -0.12542273 0.35242972 14013904
0.78180003 -0.12475081 0.35795504 14079698
0.7778334 -0.11537444 0.35231385 14277076
0.78220004 -0.11510707 0.35795456 13948114
0.77899998 -0.10760371 0.35140881 14342612
0.78194445 -0.10408679 0.35499135 14276820
0.78350008 -0.095123269 0.35488355 14210770
0.78237033 -0.084609859 0.35487893 14013390
0.77900004 -0.072389849 0.35588112 14210514
0.78071433 -0.07502991 0.35444397 14079184
0.77820021 -0.065333538 0.35612139 14013392
0.78072739 -0.065047257 0.35171291 14079183
0.7775588 -0.055052612 0.35427368 14013648
0.78000003 -0.058179155 0.35055563 14078926
0.77844459 -0.045575187 0.35484982 14474199
0.78033334 -0.042980373 0.3513141 14736856
0.77875859 -0.034890383 0.35552955 14079440
0.78042859 -0.037070725 0.35126996 14473684
0.77725017 -0.025288656 0.3545813 13816267
0.77684402 -0.015319575 0.35493317 13618888
0.77741396 -0.0048936573 0.35522711 13553096
0.77800006 0.0048961206 0.35484287 13355459
0.77748567 0.014812105 0.35488042 13092801
0.77641708 0.024788747 0.35530508 13027008
0.77620035 0.034775902 0.35520664 13224387
0.77654868 0.044645082 0.35463345 13487815
0.77655578 0.054924365 0.35486406 13553094
0.77621239 0.0645115 0.35480013 13552836
0.77756011 0.074885949 0.35492104 13684165
0.77900004 0.080493063 0.35101801 13619399
0.78291672 0.08494997 0.35514888 13816267
0.78697222 0.09513697 0.35460633 10329752
0.78828567 0.10482851 0.3563869 10264215
0.79033333 0.10715652 0.3521153 10264472
0.78900003 0.11107937 0.35737109 10330522
0.79132158 0.11537747 0.35445127 10264729
0.78900003 -0.1512036 0.36106521 9276809
0.78861535 -0.14402978 0.3636592 10263706
0.79055554 -0.1469786 0.36722711 9934995
0.78742099 -0.1351833 0.36427501 10263705
0.79000002 -0.1347506 0.36984515 9869203
0.78693324 -0.12501594 0.36472785 9934741
0.79000002 -0.12550358 0.36984515 9803410
0.78761119 -0.11498293 0.36504164 10724259
0.79000002 -0.11533186 0.36984515 9803410
0.78755003 -0.10483237 0.36409229 11710637
0.79000002 -0.10516014 0.36984515 9934740
0.78811544 -0.094620511 0.36499089 11579311
0.79000002 -0.097762525 0.36984515 9211021
0.78586954 -0.08485651 0.36455384 11974069
0.78340894 -0.075022846 0.36509722 12434362
0.77816671 -0.063811846 0.3612698 13553611
0.78225011 -0.065557897 0.36633417 12105655
0.77783328 -0.055285376 0.36141869 13816526
0.78200006 -0.054665338 0.36701664 13684942
0.77857149 -0.046093941 0.36137056 14079698
0.78280002 -0.044459723 0.36684352 14211284
0.778889 -0.034392692 0.36160457 13816525
0.78223091 -0.035384297 0.36649212 14079698
0.77780002 -0.024875762 0.36279976 13553353
0.78100008 -0.025953935 0.36776519 13750733
0.77711135 -0.014909144 0.36394736 13422024
0.78000003 -0.019833278 0.36881557 13355975
0.77672732 -0.0054520811 0.36412832 13553353
0.77634507 0.0049514291 0.36451846 13224387
0.77616012 0.014787355 0.36518359 12895423
0.77633363 0.024786664 0.36526558 12895423
0.7768802 0.034807038 0.36552337 13027009
0.77744848 0.044999823 0.36409622 13355972
0.77743495 0.054692704 0.36428148 13356228
0.77768022 0.064918682 0.36422557 13290178
0.78000003 0.068727434 0.36881557 13421766
0.77860004 0.073891029 0.36213908 13552835
0.78093338 0.075941041 0.36718607 13487045
0.78391999 0.084676094 0.36479804 13881804
0.78689998 0.095127381 0.36471215 10132374
0.78834999 0.10489887 0.36436749 10263958
0.79025 0.10801831 0.36811221 10395542
0.78900003 0.11107937 0.36014169 10395545
0.78900003 -0.090866208 0.37183976 9671566
0.79122734 -0.095138818 0.37564039 9737359
0.78855556 -0.083944224 0.37368256 9605519
0.79000002 -0.0866661 0.3780354 9540237
0.78831571 -0.075894773 0.37498331 9539982
0.79000002 -0.071870863 0.37909219 9606031
0.78772235 -0.065209717 0.37431324 9342604
0.79000002 -0.064473256 0.37909219 9671824
0.78731251 -0.054807622 0.37434939 10329243
0.79000002 -0.056150928 0.37909219 9671823
0.78791302 -0.045135189 0.37520602 10658210
0.79000002 -0.040430997 0.37909219 9079434
0.78773338 -0.034783009 0.37431851 12171703
0.79000002 -0.03488278 0.37909219 9079433
0.78647059 -0.025196111 0.3748036 12500410
0.79000002 -0.028409868 0.37909219 10197911
0.78452945 -0.015087806 0.37452692 12566462
0.78422236 -0.004947328 0.37510261 12763840
0.77900004 0.005115408 0.37077427 13158596
0.78366661 0.0043286462 0.3759554 12763839
0.77800006 0.015429218 0.37181649 12763838
0.78200001 0.014490598 0.37627161 12829888
0.77866673 0.024862567 0.37183091 12566459
0.78216672 0.024973728 0.37625 12435130
0.77900004 0.034901742 0.37199005 12698045
0.78183347 0.035486352 0.37654829 12171958
0.77899998 0.043238439 0.37068743 12763581
0.78210008 0.045292877 0.37585354 12631996
0.78280008 0.055230729 0.37472513 12895166
0.78360873 0.065176971 0.37499237 12829117
0.78376198 0.075218849 0.37531558 13027009
0.7860769 0.085050531 0.37515891 12566200
0.78861111 0.093589626 0.3738108 10066581
0.79025 0.097149536 0.37713131 10066581
0.79131997 -0.084958889 0.38528526 9934994
0.79171431 -0.07507015 0.38521308 9671823
0.78900003 -0.014520934 0.3804594 11776691
0.78900003 -0.0052856174 0.38156766 11447725
0.79166675 -0.0057673939 0.38591719 9539984
0.78845459 0.0052885842 0.38288173 11316396
0.79133344 0.0048872516 0.38776097 9079689
0.78757149 0.015268057 0.3833285 10592672
0.79066664 0.014446583 0.38835868 8684933
0.78766668 0.025148353 0.38350666 11250855
0.79083329 0.025248483 0.38874885 10329496
0.78743744 0.035280056 0.38431743 11514028
0.79000002 0.032620467 0.38833919 11645614
0.78731579 0.045361761 0.38450074 12237494
0.78808331 0.054757297 0.38517019 12237495
0.78806674 0.064826168 0.38370049 12369337
0.79000002 0.064985052 0.38833919 11645357
0.78821427 0.075250424 0.38535482 11119014
0.78833324 0.0847096 0.38506073 9738129
0.79000002 0.0890273 0.38833919 10001557
0.78900003 0.091500498 0.38193706 9935251
0.79075003 0.095407285 0.38556188 10001044
0.79092872 0.055141184 0.39461726 9935254
0.7906667 0.06524571 0.39463255 10132376
0.79065657 0.074988142 0.39571995 9671824
0.79108334 0.085523523 0.39496931 9869716
0.79136121 -0.14501871 0.40459493 10329753
0.79133326 -0.13497664 0.40473786 10263960
0.79096454 0.064864531 0.40488204 9672336
0.79026693 0.075183399 0.40512037 9738130
0.79162067 0.08563263 0.40504691 9935509
0.79131436 0.13453376 0.40486312 10330008
0.78900003 -0.14381535 0.41001242 10263961
0.79100007 -0.13492008 0.41475722 10067095
0.79184371 -0.12463667 0.41484997 10132888
0.79168963 0.075157568 0.41499162 9803664
0.79178572 0.12444647 0.41529772 10198423
0.7918275 0.13480811 0.41506177 10264216
0.78874999 0.10673553 0.42803884 10067094
0.78899992 0.11477349 0.42663592 10198679
0.79028571 0.11469597 0.42191246 10198166
0.78899992 0.12447058 0.42686677 10132629
0.79031581 0.12577401 0.42228317 10198166
0.78900003 0.13139705 0.42848301 10198936
0.79055196 0.13548541 0.4245373 10132887
0.78852624 0.097410254 0.43599746 10132373
0.79100001 0.09332931 0.433465 10066580
0.78803712 0.10520423 0.43492875 10132630
0.78862953 0.11451568 0.43423006 10132887
0.78899974 0.1251055 0.43437061 10198168
0.7889998 0.13452904 0.43450603 10198168
0.79000002 0.13711181 0.43457428 10198681
0.78900003 0.14224856 0.43610218 10263960
0.79017651 0.14552148 0.43369156 10132630
0.78839999 0.096228212 0.44384536 10132373
0.79000002 0.090876706 0.44382134 10329752
0.78800005 0.10540441 0.44269773 10132886
0.78871435 0.11235814 0.44336221 10067093
0.78900003 0.12955 0.44141248 9935766
0.79000002 0.12730996 0.44382137 10067095
0.78900003 0.13139705 0.44141248 9935766
0.79005557 0.13599128 0.44354448 10132630
0.7904402 0.14459075 0.4440695 10263959
