# .PCD v0.7 - Point Cloud Data file format
VERSION 0.7
FIELDS x y z rgb
SIZE 4 4 4 4
TYPE F F F U
COUNT 1 1 1 1
WIDTH 574
HEIGHT 1
VIEWPOINT 0 0 0 1 0 0 0
POINTS 574
DATA ascii
0.79383337 -0.62508082 -0.40516603 11117486
0.79479164 -0.61505771 -0.40480521 11249071
0.79563642 -0.60508084 -0.40507334 11314608
0.79542112 -0.59492213 -0.40450776 11315120
0.79531258 -0.58470571 -0.40405908 11249071
0.79610538 -0.57463759 -0.40524852 11380657
0.79585713 -0.56505978 -0.40513664 11315378
0.78809094 -0.64329225 -0.39334357 13289680
0.78740007 -0.63476717 -0.39543054 13552338
0.78778261 -0.62485123 -0.39437875 13617875
0.79000002 -0.6248427 -0.39950696 13419984
0.78827786 -0.61507297 -0.39320362 13551826
0.79000002 -0.61467099 -0.39796582 13354447
0.78868747 -0.60499495 -0.39330497 13354960
0.79016668 -0.60400957 -0.39743328 13486290
0.78845459 -0.5945909 -0.39218184 13618646
0.79054546 -0.59515822 -0.39709151 13881046
0.78850007 -0.58489263 -0.39228836 13421009
0.79045451 -0.58499628 -0.39687765 14078169
0.78854555 -0.57519251 -0.3923949 13749461
0.79054546 -0.57480073 -0.39709151 14143961
0.78845459 -0.56505829 -0.39218184 13683668
0.79045451 -0.56464118 -0.39687765 14078426
0.78863645 -0.55495018 -0.39227208 13947096
0.79083341 -0.55437768 -0.39699802 13552853
0.78900003 -0.54739869 -0.39161301 14341598
0.79144448 -0.54538757 -0.39560798 13816023
0.79143476 -0.53494912 -0.39387172 14144473
0.7917999 -0.52476108 -0.39463794 13486287
0.7922858 -0.51509833 -0.39483622 13288907
0.79470831 -0.50530928 -0.39538035 13288652
0.79547054 -0.49508795 -0.39482731 13552336
0.79586661 -0.48539889 -0.3950243 13683409
0.79506254 -0.475292 -0.3946251 13354702
0.79500008 -0.46501815 -0.39459431 12960714
0.79570597 -0.4549109 -0.39483428 12697542
0.79555565 -0.44444498 -0.39580083 12434370
0.79409999 -0.43474764 -0.39507753 12500161
0.78900003 -0.65175772 -0.38237771 10063775
0.78747624 -0.64593756 -0.38462371 13551828
0.78332007 -0.63423097 -0.38475922 13552339
0.78415638 -0.62480688 -0.38461852 13617874
0.78675002 -0.61505532 -0.38420179 13749461
0.78763652 -0.60503709 -0.38473314 13486546
0.78753144 -0.59489024 -0.38443097 13683925
0.78744149 -0.58475751 -0.38438684 13486804
0.78750014 -0.57493299 -0.38441551 13750232
0.78713346 -0.56545264 -0.38423648 13552083
0.78659999 -0.55493993 -0.38489836 13815769
0.7879715 -0.54470736 -0.38477898 14276319
0.78830773 -0.53506476 -0.38410187 14472928
0.78882736 -0.5252775 -0.38401374 14275804
0.79000002 -0.52127612 -0.38841054 14473183
0.78900003 -0.51676816 -0.38314733 14210011
0.79011112 -0.5131284 -0.38548562 14209753
0.79057705 -0.50478518 -0.38513666 14012118
0.79092336 -0.49539199 -0.38523543 14407903
0.78900003 -0.48182794 -0.38053063 14801635
0.79076022 -0.48579007 -0.38523275 14801891
0.78899997 -0.47483549 -0.38184994 14736355
0.79099995 -0.47564179 -0.38744879 14604769
0.78900003 -0.46566615 -0.38191593 14736355
0.7906667 -0.46445936 -0.3870123 14736868
0.78900003 -0.45818552 -0.38126945 15197160
0.79116011 -0.45432651 -0.38587216 14737122
0.79185176 -0.44505271 -0.3854101 14145242
0.7909202 -0.43486154 -0.38516137 14210779
0.78900003 -0.42364541 -0.38053063 14211035
0.79039145 -0.42499492 -0.38578847 14342363
0.78900003 -0.41810423 -0.38053063 14539998
0.7909261 -0.41456279 -0.38537145 14605276
0.79140925 -0.40497884 -0.38464278 14605019
0.79133344 -0.65461314 -0.37486145 10130339
0.78804165 -0.64497226 -0.37537763 13617621
0.79000002 -0.64888495 -0.37176591 14341349
0.78621614 -0.63468283 -0.37520143 14012376
0.7868889 -0.62514198 -0.3752093 14012634
0.78824997 -0.61544108 -0.37526506 14078684
0.78879988 -0.60498434 -0.37533674 14078683
0.79000002 -0.60357457 -0.37176591 14079197
0.78871429 -0.59454703 -0.37590772 14013146
0.79016668 -0.59445196 -0.37153569 14144989
0.78870583 -0.5852626 -0.37626076 13750230
0.79033339 -0.58464891 -0.37179869 13947609
0.78870595 -0.57516146 -0.37658665 13881818
0.79037505 -0.57483453 -0.37182593 14144988
0.78852379 -0.56451672 -0.37572885 13947354
0.79016668 -0.56732267 -0.37184393 14079197
0.78790331 -0.55511695 -0.3755371 14144476
0.78793555 -0.5449639 -0.37466159 14735842
0.78847998 -0.53503931 -0.37474111 14341597
0.78899986 -0.52633333 -0.37595689 14670817
0.79018188 -0.52290899 -0.37269166 14736866
0.78900003 -0.51784563 -0.3786836 14473437
0.79039425 -0.51469481 -0.3745853 14473439
0.79130316 -0.50495744 -0.37490326 14012889
0.79093349 -0.49504444 -0.37498137 14210525
0.78900003 -0.48182794 -0.3786836 14735842
0.79013819 -0.48532954 -0.37489167 14736868
0.78899997 -0.47417578 -0.37710038 14736612
0.79000002 -0.47581157 -0.37330708 14671075
0.78899992 -0.46594319 -0.37659019 14736868
0.79013342 -0.46340588 -0.37281469 14802916
0.78900003 -0.45818552 -0.37794477 15196904
0.79072428 -0.45441073 -0.37421113 15328746
0.79167634 -0.44519582 -0.37555063 14933990
0.79143333 -0.43514302 -0.37521604 14210780
0.78900003 -0.42364541 -0.3786836 14474208
0.79093117 -0.42516094 -0.37405303 14473951
0.78900003 -0.41718069 -0.3786836 14605792
0.79080021 -0.41461456 -0.37473154 14803171
0.79076684 -0.40515667 -0.37490138 14736863
0.79011559 -0.39571714 -0.37530568 14670813
0.79300004 -0.6551801 -0.36540407 10458792
0.78900003 -0.6423685 -0.36606196 14144733
0.79023528 -0.64701128 -0.36425897 14144223
0.7888062 -0.63515687 -0.36488888 14210525
0.78890604 -0.62530482 -0.3653062 14210526
0.79000002 -0.622531 -0.36113185 14341597
0.78900003 -0.61666358 -0.36760119 14078684
0.7901541 -0.61372304 -0.36429647 14210268
0.79122877 -0.60469633 -0.36524898 14210525
0.79207301 -0.59491324 -0.36518431 14210782
0.79248375 -0.58461535 -0.36467364 14144989
0.79229987 -0.57503712 -0.36480817 14144989
0.79106909 -0.56444877 -0.36562526 13881818
0.78899997 -0.55280793 -0.36733732 14342367
0.79006249 -0.55553418 -0.36312532 14144989
0.78899986 -0.54462802 -0.3666777 14736611
0.79000002 -0.54531831 -0.3615942 14868195
0.78899997 -0.5359205 -0.36760122 14341598
0.79004771 -0.53443003 -0.36324516 14538977
0.78900003 -0.52985156 -0.36944827 14736355
0.7909413 -0.52489096 -0.3654542 14802662
0.79176003 -0.5150227 -0.36517948 14408161
0.79199988 -0.50498194 -0.36529079 14210268
0.79191995 -0.49473479 -0.36525348 13947609
0.790815 -0.48458257 -0.36515516 14539745
0.79000026 -0.47504097 -0.36529297 14802916
0.79070616 -0.46549982 -0.36534587 14868966
0.7925142 -0.45508298 -0.36473146 15132137
0.79331237 -0.44511208 -0.36485049 15197416
0.79312485 -0.43514431 -0.36499718 14737120
0.79219216 -0.42464691 -0.36552185 14408412
0.79199988 -0.41505885 -0.36529079 14868450
0.79175997 -0.40566635 -0.36518028 15000035
0.79044855 -0.3956143 -0.36534062 14802913
0.79229414 -0.65437144 -0.35495037 10458278
0.78900003 -0.64141417 -0.35688823 14407392
0.79014289 -0.64618421 -0.3543925 14210015
0.78900003 -0.63667339 -0.35775018 14407392
0.79018545 -0.63430631 -0.35390192 14341598
0.78900003 -0.62682235 -0.35836589 14275804
0.79065657 -0.62449312 -0.35396814 14407390
0.79155886 -0.61495483 -0.35489222 14341597
0.79268742 -0.60556865 -0.35534239 14341855
0.79299992 -0.59472805 -0.35461333 14276575
0.7922399 -0.58395773 -0.3542743 14210782
0.79211527 -0.57445151 -0.35443228 14079196
0.79153335 -0.56490785 -0.35488492 14079196
0.79090023 -0.55519754 -0.3545996 14408161
0.79108596 -0.5452733 -0.35454863 14868453
0.79155564 -0.53465486 -0.35489222 14474209
0.79193538 -0.5245862 -0.35521346 14868711
0.79212886 -0.51508355 -0.35500082 14605538
0.7921713 -0.50495881 -0.35530162 14342368
0.79183322 -0.49468124 -0.35501778 13882074
0.79093349 -0.48486128 -0.35461357 14210782
0.79067671 -0.47479376 -0.35427982 14736868
0.79149997 -0.46517107 -0.35509929 15066344
0.79251599 -0.45536625 -0.35457715 15132137
0.79332 -0.445465 -0.35475719 15197930
0.79296428 -0.4353874 -0.35479656 15000551
0.79199988 -0.42483491 -0.35500902 14803171
0.79196656 -0.41504151 -0.35507837 14736864
0.79123342 -0.40539628 -0.3547501 14868192
0.79097164 -0.39520943 -0.3544994 14868194
0.79118764 -0.38499701 -0.35472691 14736865
0.79411119 -0.65474284 -0.34529635 11182516
0.79064316 -0.64445591 -0.3450304 14275551
0.79111451 -0.63482296 -0.34514377 14473185
0.79215997 -0.62469602 -0.34496537 14341855
0.79303211 -0.61502397 -0.3451654 14276318
0.79394138 -0.60500038 -0.34459284 14342368
0.7934193 -0.59459412 -0.34497327 14408161
0.7924 -0.58407664 -0.34506947 14144990
0.79155999 -0.5741924 -0.34470466 14210527
0.79040009 -0.5640986 -0.34420004 14276063
0.79064018 -0.55501401 -0.34430462 14341855
0.79176658 -0.54560983 -0.34479439 14933734
0.79199988 -0.53464729 -0.34489575 14473953
0.79219222 -0.52436227 -0.34476489 14934504
0.79418904 -0.51519346 -0.34484106 14671587
0.79461282 -0.50493771 -0.34507015 14540002
0.79339302 -0.49505833 -0.34470344 14211037
0.79251838 -0.48541966 -0.34491405 14145244
0.79235697 -0.47519964 -0.34524888 14473694
0.79212499 -0.46534777 -0.34510517 15065830
0.79183328 -0.45482501 -0.34482405 15329002
0.79299998 -0.44528493 -0.34533226 15263209
0.79318154 -0.43531561 -0.34439635 15131878
0.79287505 -0.4251453 -0.34457868 15197671
0.79223996 -0.41518563 -0.34500015 14934499
0.79068017 -0.40511313 -0.34432185 14802912
0.79123336 -0.39520618 -0.34456295 14671584
0.79411125 -0.65443331 -0.3346616 11578299
0.79090482 -0.64478046 -0.33533895 14210013
0.78900003 -0.63605767 -0.33065993 14473184
0.79032028 -0.63479018 -0.3353585 14473185
0.79162502 -0.62496704 -0.33511916 14342111
0.7933715 -0.61556846 -0.33514428 14342368
0.79386687 -0.60466999 -0.33455849 14276574
0.79369229 -0.59417707 -0.33469999 14408160
0.79269987 -0.58429778 -0.33499449 14342367
0.7915715 -0.57439929 -0.33484748 14342369
0.79040015 -0.56409824 -0.33494604 14539235
0.7904402 -0.55487329 -0.33496362 14736356
0.79148394 -0.54526502 -0.33522746 14999272
0.79205543 -0.53468448 -0.33472145 14605283
0.79302853 -0.5243324 -0.33499828 14868711
0.79590011 -0.51491892 -0.33541489 14737125
0.79484004 -0.49469861 -0.3349677 14473953
0.79319984 -0.48439297 -0.33520433 14276829
0.79326665 -0.47514805 -0.33523226 14342364
0.79262489 -0.46513894 -0.33472902 14803172
0.7919116 -0.45459774 -0.33487847 15263466
0.79319984 -0.44459933 -0.33507138 15262953
0.79514831 -0.43552932 -0.33509547 15000293
0.79488468 -0.42565992 -0.33484247 14934756
0.79275852 -0.41533029 -0.33517805 15000291
0.79074091 -0.40535015 -0.33467883 14868448
0.79086685 -0.39502409 -0.33514464 14802657
0.79404765 -0.65486825 -0.32498354 11314615
0.78900003 -0.64120305 -0.32485488 14341599
0.79042858 -0.64593357 -0.32544273 14275806
0.7889998 -0.6351341 -0.32511872 14407648
0.79000002 -0.63039094 -0.32553083 14341598
0.78900003 -0.62959301 -0.32511875 14539489
0.79103136 -0.62472951 -0.3250289 14276318
0.79262966 -0.61537641 -0.32496679 14276317
0.79229623 -0.60515636 -0.32455572 14210782
0.79258603 -0.59496093 -0.32480654 14144989
0.79218507 -0.58432978 -0.32437128 14145245
0.79174072 -0.57411712 -0.32480565 14210782
0.79153347 -0.56490648 -0.3252345 14342369
0.79159379 -0.55533689 -0.3250277 14539490
0.79148489 -0.54527569 -0.32529899 14934505
0.79256654 -0.53502834 -0.32473266 14671589
0.79470587 -0.52508944 -0.32495174 14868711
0.79576671 -0.51576728 -0.32511282 14802918
0.79500002 -0.50503355 -0.32538107 14737125
0.7950334 -0.49481827 -0.32481286 14671332
0.79524237 -0.48513094 -0.32464254 14671332
0.79572755 -0.47526747 -0.3253476 14342367
0.79462069 -0.46492779 -0.32480332 14868454
0.7937668 -0.45426229 -0.32447881 15000552
0.79552639 -0.44454393 -0.32511002 15066343
0.79410726 -0.4145053 -0.32476529 14803170
0.79235709 -0.40411684 -0.32524124 14605791
0.79206449 -0.39487541 -0.32560149 14803170
0.79587501 -0.65429527 -0.3147909 12893643
0.78900003 -0.64067537 -0.31957754 14473185
0.79122734 -0.64484334 -0.31525785 14342112
0.78900003 -0.63539803 -0.31904984 14538976
0.79032177 -0.63480961 -0.31462735 14538978
0.79121888 -0.62511081 -0.31526595 14341598
0.79136014 -0.61480349 -0.31497642 14276574
0.79100013 -0.60526443 -0.31483239 14210781
0.79123342 -0.5952543 -0.31492558 14210781
0.79199988 -0.58470768 -0.31523043 14079197
0.79199988 -0.57451028 -0.31523043 14145246
0.79163992 -0.56498402 -0.31508771 14211297
0.79193538 -0.55484647 -0.31502548 14605541
0.79323328 -0.5456925 -0.31479129 15000299
0.79291159 -0.53548175 -0.3149384 14802918
0.79383332 -0.5247317 -0.31472233 14802918
0.79573089 -0.51552808 -0.31470919 15000297
0.79503024 -0.50491118 -0.31536284 14802918
0.79580009 -0.49529526 -0.31487903 14737125
0.79573339 -0.48500583 -0.31485379 14934247
0.79588467 -0.42476347 -0.31477168 14868963
0.79400009 -0.41404331 -0.31458187 14737377
0.79306656 -0.40447858 -0.31472701 14606305
0.79269224 -0.39515221 -0.31529278 14803169
0.79173082 -0.64424938 -0.30442986 14407648
0.79150009 -0.63436544 -0.30484021 14407648
0.79213321 -0.62467515 -0.30508378 14407646
0.79254532 -0.61521751 -0.30498827 14407647
0.7923438 -0.605075 -0.30527887 14342110
0.79193544 -0.59503615 -0.30515611 14342367
0.79199988 -0.5847075 -0.30503297 14276831
0.79206657 -0.57455885 -0.30505854 14342623
0.79166669 -0.56500298 -0.30490384 14342367
0.79188561 -0.55509251 -0.30485597 14539748
0.79346424 -0.54525411 -0.30486822 15000042
0.79268956 -0.53437823 -0.30456194 14737125
0.79296869 -0.5243926 -0.30482471 14934504
0.7961179 -0.5148406 -0.30502871 15065833
0.79500002 -0.42500594 -0.30525783 14803427
0.79380006 -0.41414556 -0.30479652 14605791
0.79291999 -0.40440354 -0.30445912 14671841
0.7921378 -0.39460495 -0.30492589 14803170
0.79136008 -0.64444566 -0.29459739 14276575
0.79107708 -0.63474011 -0.29463464 14342367
0.79165524 -0.62506378 -0.29458067 14276574
0.79316658 -0.61527646 -0.29527026 14342110
0.79351997 -0.60533655 -0.2954013 14342624
0.79235995 -0.59517682 -0.29496989 14342624
0.79209989 -0.58478087 -0.2948724 14408161
0.79292005 -0.57517755 -0.29517758 14342367
0.79215986 -0.56535476 -0.29489487 14473953
0.79216659 -0.55515808 -0.29489753 14539747
0.79300004 -0.54553276 -0.2952078 15000297
0.79306436 -0.53521585 -0.29505181 14737382
0.79433334 -0.52506328 -0.29477343 14737382
0.79492599 -0.5154289 -0.294478 15066346
0.79533345 -0.50524437 -0.29421577 15000553
0.79561549 -0.49496505 -0.29446393 14869222
0.79494452 -0.42497629 -0.29500136 15000549
0.79443341 -0.41447535 -0.29481035 14671584
0.79343319 -0.40466598 -0.29443866 14737377
0.79320681 -0.39488047 -0.29451534 14868963
0.79090488 -0.64477974 -0.28534773 14342368
0.79013819 -0.63496584 -0.28476673 14408160
0.7904669 -0.6242848 -0.28501272 14342624
0.79236352 -0.61456913 -0.28519127 14342366
0.79293531 -0.60506845 -0.28482482 14408160
0.79238701 -0.59501708 -0.28462702 14408160
0.79222846 -0.58474344 -0.28485152 14342367
0.79269993 -0.57501799 -0.28488997 14276574
0.79206651 -0.56528765 -0.28466228 14473953
0.79199988 -0.55504227 -0.28463799 14671332
0.79279989 -0.54539436 -0.28492621 14934761
0.7929998 -0.53545499 -0.28486478 14737382
0.79337037 -0.52494383 -0.28440946 14737638
0.79295999 -0.51506197 -0.28405547 14869223
0.79354829 -0.50503701 -0.28426743 15066601
0.79492593 -0.49516451 -0.2845526 15066344
0.79500008 -0.48527676 -0.28464243 14934758
0.79500002 -0.47509545 -0.28491402 14671843
0.79554558 -0.43503407 -0.28523389 15066343
0.79470003 -0.42484596 -0.28467831 15132135
0.79500002 -0.41476977 -0.28478566 14803170
0.79472005 -0.40532258 -0.28468505 14737377
0.79389673 -0.39541653 -0.28496689 14737377
0.79017884 -0.64506853 -0.27447 14408161
0.79019481 -0.63516998 -0.274739 14473953
0.7909447 -0.62466288 -0.27499875 14408160
0.79125935 -0.61493003 -0.27459598 14342624
0.79144442 -0.60519254 -0.27445531 14276831
0.79212117 -0.59465599 -0.27431485 14474210
0.79300004 -0.58451766 -0.27478704 14408417
0.79291999 -0.57517791 -0.27475902 14342624
0.79211992 -0.56532598 -0.27448168 14276831
0.79199988 -0.55504227 -0.27444056 14473953
0.79211992 -0.54492688 -0.27448258 14934761
0.79269987 -0.53512013 -0.27468413 14737379
0.79211992 -0.52452964 -0.27448267 15066087
0.79276657 -0.51474953 -0.2747061 14868965
0.79363996 -0.50509733 -0.27500865 14934758
0.79480004 -0.49560228 -0.27541098 15066344
0.79584628 -0.47497419 -0.27555823 15066344
0.79492003 -0.46497321 -0.27545264 14803429
0.79511112 -0.42448008 -0.27544901 15066599
0.79500002 -0.41476983 -0.27548012 15000549
0.79496002 -0.40544406 -0.27546597 14802912
0.79367995 -0.39550307 -0.27502227 14736862
0.79016024 -0.64531755 -0.26455402 14342369
0.79097164 -0.63486636 -0.26482528 14539746
0.79199988 -0.62457061 -0.26517013 14408417
0.79148 -0.61489749 -0.26499575 14276832
0.79060018 -0.60495973 -0.26470113 14144989
0.79115635 -0.59478873 -0.26506203 14276831
0.79289281 -0.58503473 -0.26527038 14342624
0.79300004 -0.57523561 -0.26550496 14342623
0.79196 -0.56521326 -0.2651574 14211293
0.79137051 -0.55511504 -0.26516643 14342623
0.79182136 -0.54531676 -0.26491219 14803430
0.79189986 -0.53457946 -0.26513711 14671844
0.79238456 -0.52448916 -0.26508379 15000551
0.79365712 -0.51519424 -0.26492643 15000551
0.79416132 -0.50525147 -0.26481193 14868965
0.7941429 -0.49505943 -0.2650913 14803172
0.79476917 -0.48549351 -0.2644529 14935014
0.79438728 -0.47509971 -0.26501098 15132136
0.79351848 -0.46456608 -0.26547399 15132136
0.79441941 -0.45435941 -0.26550126 15000550
0.79481483 -0.42480454 -0.2650108 15066341
0.79461783 -0.41522545 -0.26489818 15066341
0.79533339 -0.40512547 -0.26510015 14934755
0.79437053 -0.39543363 -0.26534259 14737375
0.79038483 -0.64543027 -0.25509262 14408160
0.79089767 -0.63452244 -0.25497389 14539746
0.79256654 -0.62501621 -0.25515488 14474210
0.79272717 -0.61535925 -0.25495234 14539746
0.79196769 -0.60492879 -0.25499007 14211037
0.79168755 -0.59501714 -0.25510249 14276831
0.79216647 -0.5848304 -0.2550272 14342623
0.79236662 -0.57477582 -0.25509083 14277086
0.79216653 -0.56535929 -0.25502482 14277086
0.7912668 -0.55545521 -0.25473553 14343135
0.79125011 -0.54525453 -0.25473076 14671843
0.79183328 -0.53453356 -0.25491723 14606051
0.79334277 -0.52454019 -0.25527075 15000552
0.79500002 -0.5152697 -0.2550078 15066601
0.79500002 -0.50503361 -0.25500783 14803428
0.79492003 -0.49474803 -0.25498176 14671843
0.79472005 -0.48532128 -0.25491691 14737636
0.79413348 -0.47473815 -0.25472939 14803428
0.79374206 -0.46446469 -0.25568137 15066599
0.79316115 -0.45441964 -0.255317 15000549
0.79564518 -0.44490355 -0.25521737 15066342
0.79577291 -0.43515828 -0.2550033 15132133
0.79470372 -0.42536521 -0.25470576 15132133
0.79471433 -0.41521785 -0.25511509 15197926
0.79548275 -0.40493837 -0.255292 15000548
0.79490483 -0.39540371 -0.25480038 14671583
0.79112005 -0.64447212 -0.2447248 14473954
0.79111445 -0.63482273 -0.24513531 14474210
0.79263991 -0.62507397 -0.24497303 14539746
0.7930333 -0.61517465 -0.24509454 14605796
0.79267991 -0.6046949 -0.24498604 14408417
0.79266649 -0.59447676 -0.24498077 14342624
0.79295999 -0.58448839 -0.2450716 14276574
0.79288 -0.57514811 -0.24504662 14211038
0.79310006 -0.56509608 -0.24511488 14145758
0.79327577 -0.55443025 -0.24446182 14408673
0.79409093 -0.54515421 -0.24434674 14540001
0.79400003 -0.53543967 -0.24501868 14540001
0.79393345 -0.52479994 -0.24537244 14869222
0.79477781 -0.51491868 -0.24522074 15132136
0.794074 -0.50496155 -0.24562444 15000549
0.7945714 -0.49512726 -0.24537151 14737378
0.79480004 -0.48537049 -0.24564131 14737634
0.79382133 -0.47488326 -0.24553944 14671841
0.7944482 -0.46488786 -0.24495545 14869221
0.79437506 -0.45500797 -0.24434434 14869219
0.79472417 -0.41475564 -0.24484619 15197670
0.79391992 -0.40491322 -0.2453701 15066341
0.79116011 -0.64428216 -0.23525512 14408160
0.79133338 -0.6342321 -0.23530647 14539746
0.79219991 -0.62472773 -0.23556493 14605539
0.79187995 -0.61520797 -0.23547059 14671589
0.79142869 -0.60499638 -0.23553492 14540260
0.79221213 -0.59438777 -0.23523164 14474210
0.79371864 -0.58469701 -0.23485297 14342623
0.79417646 -0.57488513 -0.23543841 14342878
0.79373336 -0.5646202 -0.23508954 14277085
0.79378122 -0.55483639 -0.23481613 14408671
0.79548275 -0.54499221 -0.23474374 14671843
0.79473919 -0.53492075 -0.23445921 14605792
0.79365623 -0.52519816 -0.23530203 14803171
0.79409379 -0.51555204 -0.23467463 15000549
0.794559 -0.50502604 -0.23511547 15132135
0.79444838 -0.49522391 -0.23546153 14868963
0.79339379 -0.48501801 -0.23507385 14803427
0.79324985 -0.47478974 -0.23471409 14737377
0.79431427 -0.46493387 -0.23496854 14869220
0.79413337 -0.40502289 -0.23520695 15197924
0.79073358 -0.64393359 -0.22494656 14408160
0.79136121 -0.63425422 -0.22512534 14473953
0.79199988 -0.62457061 -0.22530729 14539746
0.79130012 -0.61475712 -0.22510745 14671332
0.79081267 -0.60477269 -0.22473636 14737125
0.79264104 -0.5952394 -0.22555797 14605796
0.79500008 -0.58522159 -0.22535837 14539746
0.79395652 -0.57479799 -0.22501877 14474209
0.7931537 -0.565135 -0.22470962 14408416
0.79255533 -0.55491596 -0.22433291 14671587
0.79389995 -0.54522121 -0.22492053 14803172
0.79384005 -0.53496224 -0.22490248 14540000
0.7930401 -0.52513874 -0.22467463 14803172
0.79323328 -0.51505208 -0.22472997 14934758
0.79493338 -0.50498837 -0.22521104 15066343
0.79525924 -0.47489372 -0.22550972 14868963
0.79533339 -0.46480152 -0.22553104 15066342
0.79391998 -0.40491405 -0.2249269 15000547
0.79116011 -0.64428216 -0.21488142 14342624
0.79189992 -0.6346873 -0.21508226 14408417
0.79199988 -0.62457061 -0.21510975 14473952
0.79248136 -0.61526227 -0.21503319 14605794
0.79214275 -0.60488039 -0.21534695 14737380
0.79356664 -0.59515089 -0.21553621 14605794
0.79383987 -0.58513868 -0.21561192 14540001
0.79149991 -0.57465452 -0.21522808 14474208
0.79050016 -0.56476319 -0.21450579 14540002
0.79156667 -0.55473733 -0.21499306 14802917
0.79253834 -0.54499948 -0.21539935 15066344
0.79360008 -0.53554094 -0.21523505 14605792
0.79367858 -0.5256952 -0.21496795 14803171
0.7929666 -0.51488006 -0.21537232 14934756
0.79403448 -0.5045777 -0.21579279 15066343
0.79540002 -0.48517808 -0.21473208 14868964
0.79467744 -0.4746727 -0.215358 14803170
0.7948333 -0.46492311 -0.21494919 15132135
0.79351991 -0.45486644 -0.2155237 15000549
0.79309088 -0.41504171 -0.21506886 15132134
0.79216653 -0.40494642 -0.21515574 14868962
0.79103464 -0.64462626 -0.20520538 14276574
0.79180002 -0.63473916 -0.20499426 14408160
0.79193527 -0.62469864 -0.20474838 14408415
0.79199988 -0.61530024 -0.20491418 14605793
0.79191661 -0.60503858 -0.20489123 14737379
0.79212886 -0.59482229 -0.20509596 14671844
0.79199982 -0.584575 -0.20478083 14540000
0.79146427 -0.57438689 -0.2045076 14342621
0.79031056 -0.56460881 -0.20520793 14473952
0.79080015 -0.55512613 -0.20552765 14803174
0.79163885 -0.54552132 -0.20481937 15000549
0.79274267 -0.53517413 -0.20497234 14737378
0.79337037 -0.52521944 -0.20475064 14605791
0.79279983 -0.51570064 -0.20511895 14737377
0.79216653 -0.50508785 -0.20495626 14868962
0.7923702 -0.49522185 -0.20449421 14934498
0.79241365 -0.48519185 -0.204797 14868706
0.79313499 -0.47516745 -0.20488051 14868963
0.79465395 -0.46503204 -0.20452657 15197928
0.7930333 -0.45458707 -0.20517966 14803172
0.79407418 -0.41442564 -0.20499833 15066340
0.79340619 -0.405 -0.20550562 14803168
0.78900003 -0.64067537 -0.19028313 14145499
0.79000026 -0.64531374 -0.19530725 14145244
0.78900003 -0.63472372 -0.19110407 14145500
0.79020005 -0.63517481 -0.19575277 14211038
0.78900003 -0.62528318 -0.19089884 14211038
0.79029411 -0.624749 -0.19571106 14276831
0.78900003 -0.6185106 -0.19028313 14342624
0.79013819 -0.61461824 -0.19438514 14342367
0.79069245 -0.60481447 -0.19453698 14605539
0.79096568 -0.59489423 -0.19433294 14671589
0.79076934 -0.5845108 -0.19455594 14671588
0.79052025 -0.57491726 -0.19435254 14540257
0.78900003 -0.56309873 -0.19133861 14606050
0.7900455 -0.56510603 -0.19591579 14474208
0.78899997 -0.55571049 -0.19173436 14803171
0.79000002 -0.55407864 -0.19704592 14605792
0.78900003 -0.5483222 -0.19028313 14803170
0.79037964 -0.54449415 -0.19444454 14934756
0.79229999 -0.53484738 -0.19478904 15000292
0.79434478 -0.52523285 -0.19516228 14671584
0.79319221 -0.51431286 -0.19515003 14474205
0.7924 -0.50431055 -0.19481221 14605791
0.79207993 -0.49483475 -0.19473411 14671327
0.79232132 -0.48511404 -0.19466054 14737377
0.79285175 -0.47531149 -0.19506149 14868963
0.79313314 -0.46485636 -0.19499403 15197928
0.78900003 -0.64067537 -0.18843606 13882327
0.79063642 -0.64545459 -0.18495484 13553620
0.78899992 -0.63455695 -0.18624268 13948121
0.79000002 -0.63630903 -0.18220198 13619670
0.7889998 -0.62497526 -0.18566549 13882584
0.79000002 -0.6248427 -0.18127728 13817050
0.78900003 -0.6164583 -0.18699946 13948634
0.79000002 -0.61357009 -0.18400735 13685462
0.79000014 -0.60449922 -0.1849761 14079450
0.79083353 -0.59495354 -0.18517122 14277086
0.79044014 -0.5844816 -0.1850778 14474464
0.79030776 -0.57491934 -0.18490459 14474464
0.78900003 -0.56402218 -0.18751252 14671843
0.79011118 -0.56533056 -0.1836659 14540256
0.78899986 -0.55478692 -0.18658899 14803428
0.79000002 -0.55456537 -0.18220198 14540769
0.78900003 -0.54770654 -0.18782037 14540257
0.79020011 -0.54441965 -0.1845786 14540256
0.79166663 -0.53467166 -0.18525399 14868964
0.79372233 -0.52465934 -0.18491934 14934756
0.79383343 -0.51451337 -0.18494383 14539998
0.79427034 -0.62479389 -0.17485605 11383737
0.79402715 -0.61485797 -0.17495339 11515066
0.79416215 -0.60496467 -0.17473371 11186101
0.7947188 -0.58502287 -0.17653839 12633543
0.79504156 -0.5750832 -0.1769193 13094094
0.79421431 -0.56468862 -0.17605861 12830666
0.79415154 -0.55482352 -0.17511761 12107200
