# .PCD v0.7 - Point Cloud Data file format
VERSION 0.7
FIELDS x y z rgb
SIZE 4 4 4 4
TYPE F F F U
COUNT 1 1 1 1
WIDTH 611
HEIGHT 1
VIEWPOINT 0 0 0 1 0 0 0
POINTS 611
DATA ascii
0.79315007 -0.62491465 -0.40509635 11183020
0.79490006 -0.61475474 -0.40534073 11183279
0.79466665 -0.60527331 -0.40373158 11249073
0.79518759 -0.59520215 -0.40387955 11118257
0.79599994 -0.5848617 -0.4053418 11118512
0.79536837 -0.57489306 -0.4049719 11315633
0.79477274 -0.56476051 -0.40488642 11315119
0.79552388 -0.55542207 -0.40434515 11315633
0.78845459 -0.64291739 -0.394196 13420241
0.78773922 -0.63516098 -0.39515916 13683156
0.7879166 -0.62496167 -0.39522839 13617363
0.79000002 -0.62114394 -0.39950696 13090249
0.78752178 -0.61486518 -0.39352715 13551826
0.79000002 -0.61522579 -0.39913708 12367039
0.78822225 -0.60467517 -0.39307341 13551826
0.79000002 -0.60449928 -0.3976576 13815255
0.78850007 -0.59489107 -0.39244232 13684182
0.79059994 -0.5947789 -0.39721984 13946585
0.78850001 -0.58489257 -0.39228836 13486034
0.79045451 -0.58499634 -0.39687765 14078170
0.78858346 -0.57480043 -0.39263758 13750232
0.79044443 -0.57564372 -0.39705932 13750232
0.78849995 -0.56493402 -0.39309618 13816024
0.79000002 -0.56473708 -0.3976576 13881561
0.78859991 -0.5553053 -0.39313826 13947867
0.79049999 -0.5535267 -0.39744693 13158096
0.78887504 -0.54592615 -0.39201275 14079452
0.79142863 -0.54484767 -0.39652577 13552853
0.79100001 -0.53489733 -0.39445904 14078426
0.79129153 -0.52459723 -0.39460671 13486289
0.79130781 -0.51515514 -0.39418697 13289166
0.79388469 -0.50524747 -0.3949714 13289677
0.79615003 -0.49495062 -0.39479268 13749717
0.78775001 -0.64481145 -0.38476837 13552340
0.78510708 -0.63364202 -0.38475782 13617876
0.78517854 -0.62490195 -0.38479179 13617876
0.78555173 -0.61504561 -0.38431963 13683669
0.78614289 -0.60503072 -0.38473874 13420754
0.78617865 -0.59480464 -0.3846921 13487060
0.78623074 -0.58483732 -0.38485944 13421267
0.78617227 -0.57472521 -0.38456222 13750231
0.78628021 -0.56483859 -0.38474143 13421267
0.78669995 -0.55501008 -0.38494688 13815770
0.78771883 -0.54443365 -0.38510025 14276319
0.7883333 -0.53494042 -0.38482434 14407391
0.78887475 -0.52538079 -0.38451043 14210012
0.78899986 -0.51507509 -0.38330126 14210266
0.79000002 -0.51480317 -0.38841054 14078680
0.78899986 -0.50531197 -0.38290542 14012887
0.79012501 -0.50401717 -0.38777849 13816022
0.78900003 -0.49660441 -0.3815861 14079195
0.79105008 -0.49483824 -0.38624373 14473439
0.79086375 -0.48532221 -0.38404083 14670817
0.78900003 -0.47213084 -0.38099238 14802918
0.7911365 -0.47547075 -0.38594177 14539744
0.78900003 -0.46561486 -0.38135156 14736867
0.79131579 -0.46442378 -0.38681784 14736867
0.78900003 -0.45596904 -0.38053063 15394539
0.79145455 -0.45469189 -0.38618106 14802658
0.79146433 -0.44501758 -0.3852292 14211035
0.79176915 -0.4354704 -0.3853606 14276828
0.79155171 -0.4251745 -0.38559684 14408413
0.79147828 -0.41494557 -0.38470975 14276828
0.79223531 -0.65432423 -0.37532324 10524071
0.78757149 -0.6440835 -0.37457269 13881049
0.7853927 -0.63426572 -0.37484917 14012634
0.7868858 -0.62527227 -0.3747716 14078426
0.78777778 -0.6150924 -0.37532854 14013147
0.78796875 -0.60478932 -0.37541941 13947610
0.78781813 -0.59466994 -0.37526324 13947611
0.78764516 -0.58473343 -0.37535304 13750232
0.78771889 -0.5750919 -0.37529913 13947610
0.78811765 -0.56523567 -0.37549031 13947353
0.78793758 -0.55496192 -0.37540489 14210270
0.78793955 -0.54490149 -0.37526691 14539235
0.78855997 -0.53509372 -0.37477899 14473183
0.7889998 -0.52591658 -0.37587285 14670562
0.79022223 -0.52306634 -0.37207544 14737125
0.78900003 -0.51586664 -0.37815586 14539230
0.79033351 -0.51457483 -0.37363476 14473695
0.78899992 -0.50344944 -0.3764019 13946839
0.79009998 -0.50654519 -0.37292236 14276060
0.7889998 -0.49475729 -0.37498942 14144475
0.78899986 -0.48562464 -0.37375811 14867940
0.79000002 -0.48587319 -0.37863514 14933988
0.78899974 -0.47536319 -0.37498954 14736868
0.7889998 -0.46520436 -0.37498942 14802662
0.79000002 -0.46024573 -0.37176591 14868713
0.78899992 -0.45654625 -0.37649021 15262953
0.7905556 -0.45316526 -0.37315673 15197674
0.79154295 -0.44494152 -0.37534711 14868453
0.79236662 -0.4350372 -0.37541193 14276315
0.79166669 -0.42493725 -0.37541252 14605535
0.79122579 -0.41483262 -0.37526789 14934244
0.79042876 -0.40518251 -0.37507227 14736865
0.78900003 -0.39501595 -0.37221885 14736607
0.79000008 -0.3955166 -0.37570602 14605021
0.79399997 -0.65546089 -0.36506718 10524838
0.78857148 -0.6434924 -0.36515883 14144220
0.79039997 -0.64847374 -0.36473721 14143966
0.78770596 -0.63501352 -0.36520597 14275807
0.78861094 -0.62497377 -0.36464924 14275807
0.78896135 -0.61542565 -0.36573616 14144477
0.79000002 -0.61212808 -0.36182541 14210270
0.78899997 -0.60558116 -0.36799696 14210783
0.79040003 -0.60406429 -0.36344153 14276576
0.78900003 -0.59480661 -0.36914042 14276577
0.79069257 -0.59491926 -0.36447221 14276576
0.78900003 -0.58526343 -0.36944827 14079198
0.79048181 -0.58492285 -0.36479434 14144990
0.78900003 -0.57510465 -0.36944827 14210781
0.79044455 -0.57482076 -0.36436626 14144989
0.78900003 -0.56433004 -0.36914042 14079196
0.79026943 -0.56485856 -0.36442038 13947611
0.78899986 -0.55414045 -0.36713943 14276321
0.79000002 -0.55502772 -0.36205658 14078685
0.7889998 -0.54487991 -0.36625788 14671334
0.79000002 -0.54462481 -0.36136299 14934249
0.78899997 -0.53605241 -0.36760119 14144988
0.79009527 -0.53437394 -0.36326703 14408160
0.78900003 -0.52985156 -0.36944827 14867941
0.791875 -0.52496564 -0.36508986 14868198
0.79356253 -0.51526558 -0.36496237 14473695
0.79221219 -0.50497717 -0.3652133 14210522
0.78900003 -0.49396577 -0.36892053 14012632
0.7907728 -0.49586985 -0.3643859 13815766
0.7889998 -0.48463866 -0.36551324 14670561
0.79000002 -0.48904362 -0.36304727 14341853
0.78899974 -0.47536311 -0.36483058 14867941
0.78900009 -0.46755514 -0.36625788 14933734
0.79040015 -0.46366021 -0.36484772 14999785
0.79275 -0.45492992 -0.3649368 15197418
0.79430306 -0.44466388 -0.36567423 15131881
0.79350001 -0.43442255 -0.36505339 14671586
0.79240727 -0.42475483 -0.36506638 14408157
0.79199988 -0.41505882 -0.36529076 14802659
0.79125929 -0.40520519 -0.36535943 14999781
0.79006696 -0.39555019 -0.36532348 14933988
0.79325002 -0.65515476 -0.35507283 10394025
0.78899992 -0.64252245 -0.35467175 14210528
0.79054546 -0.6484924 -0.35486144 14275810
0.78885692 -0.63554633 -0.35553005 14276064
0.79000002 -0.63131559 -0.35142246 14408162
0.78899992 -0.62601429 -0.35651881 14210784
0.79007143 -0.62384188 -0.35290718 14276575
0.79040033 -0.61484885 -0.35450667 14144989
0.79219437 -0.6052494 -0.35517865 14276575
0.79249996 -0.59528136 -0.35531589 14276061
0.79191661 -0.58464569 -0.35505542 14210524
0.79199988 -0.57451028 -0.3550933 14079195
0.79176658 -0.56507409 -0.35498783 14079195
0.7912001 -0.55540812 -0.35473233 14407905
0.7908237 -0.54523283 -0.35434583 14736870
0.7917105 -0.53479028 -0.35515639 14474210
0.79309672 -0.5243963 -0.3548362 14868711
0.79488009 -0.51519144 -0.35545442 14605538
0.79440004 -0.50558424 -0.35523868 14408159
0.7920385 -0.49509579 -0.35460994 13947864
0.78900003 -0.48326457 -0.35631359 14473439
0.79018748 -0.48717776 -0.35393295 14079193
0.7889998 -0.47586054 -0.35516909 14802147
0.79020005 -0.47220078 -0.35151094 14867941
0.78900003 -0.46889848 -0.35744235 15131368
0.79069722 -0.46485698 -0.35442492 15197160
0.79225004 -0.45500451 -0.35456979 15262953
0.79380769 -0.44516686 -0.35504797 15328746
0.79315382 -0.43516034 -0.35468286 15066088
0.79216653 -0.42460391 -0.35461143 14868708
0.7922256 -0.41499785 -0.35504383 14671329
0.79197049 -0.40484628 -0.35507947 14737122
0.79203224 -0.39485925 -0.3552545 14802914
0.79205877 -0.38476646 -0.35489905 14737121
0.79366672 -0.65551209 -0.34479406 10591147
0.78900003 -0.64215297 -0.34839177 14407393
0.79026097 -0.64556104 -0.34421873 14210015
0.78900003 -0.63790476 -0.34913057 14341600
0.79000038 -0.63479692 -0.34467751 14276319
0.79051459 -0.62445474 -0.34504092 14342367
0.79199994 -0.61470264 -0.34469596 14276574
0.79292589 -0.60529399 -0.34550497 14342367
0.79300004 -0.59565628 -0.34533128 14408161
0.79199988 -0.58470768 -0.34489584 14144990
0.79199988 -0.57451022 -0.34489575 14144990
0.79199988 -0.56523985 -0.34489578 14144990
0.79206657 -0.55508906 -0.3449249 14210526
0.79199988 -0.54484487 -0.34489581 14999528
0.79226661 -0.53482699 -0.34501246 14539745
0.79309666 -0.52409655 -0.34519392 14868966
0.79509091 -0.51481915 -0.34505635 14671587
0.79503453 -0.50521636 -0.3453182 14474208
0.79319233 -0.49545956 -0.34512821 14211037
0.79164279 -0.48509759 -0.34533307 14210523
0.791143 -0.47493488 -0.34531415 14473439
0.79041672 -0.46434423 -0.34436104 15065831
0.79110736 -0.45473772 -0.34470686 15328746
0.79240727 -0.44536343 -0.34486824 15328745
0.79292852 -0.43536782 -0.3449018 15131366
0.79308558 -0.42506748 -0.34446344 15197157
0.79335707 -0.41530666 -0.3450214 15065571
0.79196417 -0.40451199 -0.34507903 14868193
0.79272002 -0.39502215 -0.34521022 14868192
0.79286659 -0.38488689 -0.345274 14868449
0.79335302 -0.65338945 -0.33499566 11709884
0.78900003 -0.64146698 -0.33303472 14342367
0.79038465 -0.64564353 -0.33565208 14013405
0.78899986 -0.63557392 -0.33373842 14342111
0.79000002 -0.6322403 -0.33741984 14342369
0.78900003 -0.62959301 -0.33158347 14539746
0.79093766 -0.6244238 -0.33482766 14342368
0.79272199 -0.61493194 -0.33500326 14276575
0.79318738 -0.60473257 -0.33496726 14276574
0.79311752 -0.59454358 -0.33538836 14342367
0.79213327 -0.58387941 -0.33475414 14408160
0.79196286 -0.57468951 -0.33519784 14342368
0.79188454 -0.56515765 -0.33536312 14473955
0.79162949 -0.55529767 -0.33567566 14539748
0.79170001 -0.545008 -0.33494303 14933991
0.79199988 -0.53464735 -0.33469832 14671076
0.7924192 -0.52454668 -0.33496574 14868711
0.79399991 -0.51517671 -0.33461669 14737125
0.79459262 -0.50494659 -0.33493483 14605539
0.79391998 -0.49509254 -0.33465424 14473953
0.79269987 -0.48563474 -0.33499384 14276574
0.79217124 -0.47528669 -0.33490229 14342367
0.79173321 -0.46490058 -0.33427376 14671332
0.79162872 -0.4545747 -0.33467224 15197931
0.79308814 -0.44467732 -0.3349373 15263210
0.79438722 -0.43538514 -0.33579418 15131367
0.79513341 -0.4250769 -0.33509108 15065573
0.79374987 -0.41392106 -0.33510509 14999779
0.7918666 -0.40386674 -0.33464113 14868194
0.79206657 -0.39469707 -0.33472687 14868193
0.79196286 -0.38537547 -0.33519778 14933986
0.79517651 -0.65511084 -0.32514244 11512248
0.78900003 -0.64149624 -0.32552922 14342368
0.79069233 -0.64646429 -0.32467601 14144989
0.7889998 -0.63545531 -0.32535967 14342111
0.79000002 -0.63113064 -0.32331151 14407390
0.78900003 -0.62959301 -0.32788935 14539233
0.79135299 -0.62520194 -0.32488811 14276319
0.79235995 -0.61558026 -0.32464862 14276319
0.79291421 -0.60486984 -0.32487604 14210782
0.79461545 -0.59500992 -0.3253566 14144989
0.79271996 -0.58431292 -0.32479513 14210782
0.79135722 -0.57384664 -0.32483223 14210781
0.79100019 -0.56452602 -0.32485738 14408161
0.79106474 -0.55513322 -0.32489386 14539747
0.79139405 -0.54543775 -0.32503718 15000299
0.79239994 -0.53491586 -0.32466403 14737126
0.79367745 -0.52483958 -0.32428625 14934504
0.79341936 -0.51502454 -0.32454085 14868966
0.79292309 -0.50485617 -0.32487911 14737125
0.79458839 -0.49525142 -0.32490391 14605795
0.7944333 -0.48514631 -0.32456559 14540002
0.79447067 -0.47521272 -0.32436186 14277086
0.79412901 -0.46499023 -0.32483062 14737381
0.79396868 -0.45424998 -0.32443354 15066344
0.7950626 -0.44493014 -0.325057 15066344
0.79570967 -0.42463455 -0.32523963 15000550
0.79400003 -0.41439328 -0.32510608 14934242
0.7922799 -0.40407822 -0.3246153 14736864
0.79199988 -0.39466381 -0.32450089 14868450
0.7959286 -0.65522093 -0.31519619 12104386
0.78900003 -0.64067537 -0.318654 14605541
0.79114288 -0.64541692 -0.31471214 14276576
0.78900003 -0.63735068 -0.31883875 14473955
0.79044145 -0.63433284 -0.3148818 14407905
0.79211116 -0.62506938 -0.31527531 14276576
0.79172003 -0.61508387 -0.31511971 14211040
0.7919333 -0.60504889 -0.31520456 14210783
0.79339993 -0.59505403 -0.31472763 14210782
0.79330003 -0.58473992 -0.31481978 14210782
0.79229623 -0.57493258 -0.31493542 14144989
0.79160011 -0.56495458 -0.31507027 14276318
0.79215616 -0.55491859 -0.31494379 14736613
0.79293329 -0.54548717 -0.31467193 15131626
0.79297203 -0.53530341 -0.31468907 14868454
0.79460001 -0.52489108 -0.31456423 14868710
0.79461282 -0.50463766 -0.31542715 14803174
0.79521435 -0.49546155 -0.31511235 14671588
0.79523337 -0.48470253 -0.31465587 14868710
0.79544008 -0.47458893 -0.31473798 14408415
0.7945385 -0.46460819 -0.31459501 14671588
0.79450011 -0.45472842 -0.31471393 15132138
0.79496002 -0.44452536 -0.31454766 15066344
0.79562974 -0.43517193 -0.31502146 15066342
0.79504007 -0.42521423 -0.31458056 14935013
0.79350007 -0.41439396 -0.31449392 14737377
0.79253572 -0.40427473 -0.31484672 14671584
0.79195994 -0.39464387 -0.31521437 14868708
0.79493338 -0.65480053 -0.30523348 11841472
0.79136014 -0.64489084 -0.30430382 14276576
0.790892 -0.6349532 -0.3045795 14408162
0.79190904 -0.62500399 -0.30525041 14276576
0.79196656 -0.61527425 -0.30501994 14276831
0.79236102 -0.60537726 -0.30517066 14276575
0.79282141 -0.594926 -0.30462033 14276832
0.79255551 -0.58460212 -0.30411455 14342368
0.79249996 -0.57467473 -0.30489326 14408162
0.79223323 -0.56540668 -0.30512163 14276576
0.79226446 -0.5554446 -0.30486187 14539748
0.79423338 -0.54544955 -0.30496293 14934761
0.79371995 -0.53488022 -0.30476448 14671589
0.79399991 -0.52484185 -0.30487335 14934504
0.79516 -0.50494975 -0.30532035 14934504
0.79462963 -0.49497908 -0.3049103 14802918
0.79577154 -0.48489648 -0.3047536 14934504
0.79533339 -0.47473243 -0.30497128 14540001
0.79471999 -0.46485707 -0.30515012 14868965
0.79471439 -0.45495215 -0.30494794 15132394
0.79470378 -0.44479585 -0.30535054 14935014
0.79412001 -0.43476006 -0.30492064 15000550
0.79384005 -0.42531595 -0.30481285 14935013
0.79292303 -0.41532868 -0.30460328 14606048
0.79206437 -0.40462479 -0.30437008 14737377
0.79216659 -0.39474615 -0.30509698 14803171
0.79420006 -0.65484726 -0.29509634 11841983
0.79187995 -0.64486814 -0.2947903 14342367
0.79183322 -0.6346336 -0.29477295 14407904
0.79199988 -0.62457061 -0.29483545 14342367
0.7925331 -0.61478531 -0.29503345 14342366
0.79283994 -0.60481697 -0.29514876 14342367
0.7922399 -0.59508586 -0.29492578 14342367
0.79226661 -0.58490342 -0.29493505 14408160
0.79300004 -0.57523555 -0.2952078 14342368
0.7926296 -0.56527734 -0.29527715 14473955
0.79235697 -0.55496037 -0.29476994 14605284
0.79393321 -0.54524285 -0.29555634 14934762
0.79468751 -0.53518242 -0.2950235 14671589
0.79476476 -0.52507633 -0.29482564 14803175
0.79411989 -0.51470006 -0.29562652 15066346
0.79372418 -0.5045737 -0.29477239 15000552
0.7955001 -0.49510378 -0.29520315 14868966
0.79571444 -0.47455448 -0.29495314 14671331
0.79493338 -0.46498108 -0.29499659 14934758
0.79530561 -0.45495743 -0.29513377 15197929
0.79530007 -0.44471595 -0.29513112 15000807
0.79463333 -0.43504125 -0.29488391 15000806
0.79476476 -0.42515388 -0.29471421 15000549
0.79328585 -0.4147388 -0.29471591 14737376
0.79218507 -0.40444109 -0.2951096 14737377
0.79249996 -0.3943809 -0.2944901 14803171
0.79456264 -0.65437871 -0.28497699 12959694
0.79161549 -0.64479548 -0.28521353 14342368
0.79160005 -0.63444638 -0.28542188 14407903
0.79192299 -0.62436712 -0.28532377 14342111
0.79230291 -0.61502862 -0.28500095 14342110
0.79230291 -0.60491323 -0.284495 14342366
0.79199988 -0.5949052 -0.28463796 14342624
0.79199988 -0.58470768 -0.28463793 14342367
0.79223323 -0.57467884 -0.28472272 14211038
0.79203326 -0.56526369 -0.28465006 14408417
0.79199988 -0.55504227 -0.28463802 14605540
0.79269987 -0.54532528 -0.28489015 15000553
0.79303205 -0.53549349 -0.28426141 14802918
0.79319215 -0.52502435 -0.28428289 14802917
0.79288214 -0.51455259 -0.28473699 14934759
0.79393935 -0.50460911 -0.28491184 15132137
0.79513055 -0.43499032 -0.28507501 15066599
0.79493338 -0.42497045 -0.2847617 15132134
0.79466671 -0.41439024 -0.28507808 14868961
0.79380006 -0.40485331 -0.28528211 14606047
0.79355884 -0.39472884 -0.28492382 14606049
0.79356253 -0.65425175 -0.27486664 12499914
0.79050022 -0.64438492 -0.27477604 14473954
0.79094309 -0.63532156 -0.27465609 14473953
0.79138243 -0.62500936 -0.27515134 14408160
0.79199988 -0.61530012 -0.27444053 14342368
0.79199988 -0.6051026 -0.27444056 14408417
0.79229617 -0.59471464 -0.27433616 14474210
0.79214275 -0.58448231 -0.27468818 14408418
0.79191989 -0.57445258 -0.27441311 14211809
0.79132003 -0.56475472 -0.27420613 14276832
0.79169995 -0.55483091 -0.27433714 14473954
0.79219991 -0.54498184 -0.27451056 15066089
0.79203326 -0.53467 -0.27445224 14737125
0.79191995 -0.52439672 -0.27441311 15000552
0.79332238 -0.51489872 -0.27471733 14868965
0.79500002 -0.50497741 -0.27482128 14934758
0.79568756 -0.4247905 -0.27501783 15066599
0.79518521 -0.40576661 -0.27512953 14737633
0.79247373 -0.65541059 -0.26474282 11315638
0.79008019 -0.64525187 -0.26452756 14342369
0.7910859 -0.63495743 -0.2648643 14539746
0.79231977 -0.6248225 -0.26527607 14473954
0.79231989 -0.61554933 -0.26527625 14342369
0.79199988 -0.6051026 -0.2651701 14210782
0.7922067 -0.5942921 -0.26536748 14276831
0.79246151 -0.58433592 -0.26518145 14342624
0.79199988 -0.57451022 -0.26517013 14277089
0.79132003 -0.5647555 -0.26494193 14211039
0.79146433 -0.55499667 -0.2651903 14342624
0.79174072 -0.54507762 -0.26487833 14868968
0.79176658 -0.53448927 -0.26509282 14737125
0.79258615 -0.52413142 -0.26478821 15066344
0.79542112 -0.51524401 -0.26548007 15000551
0.79548013 -0.49509776 -0.26447362 14737380
0.79526925 -0.48544088 -0.26454851 14934758
0.79510719 -0.40531996 -0.26494759 14868961
0.79289478 -0.65448833 -0.2551119 12499652
0.78900003 -0.64067537 -0.25215977 14473953
0.79017401 -0.64557016 -0.25547013 14342368
0.78900003 -0.63821262 -0.25185192 14408160
0.79053348 -0.63439196 -0.25591996 14605283
0.79233325 -0.62533706 -0.25482833 14539490
0.79305702 -0.61532581 -0.25518054 14539746
0.79270959 -0.60489666 -0.25534931 14276832
0.79270566 -0.59478021 -0.25498012 14342624
0.79278111 -0.58470416 -0.25545561 14342625
0.79283857 -0.57493854 -0.25509161 14342625
0.79270959 -0.56526762 -0.25510913 14276832
0.79144835 -0.55513507 -0.25488913 14408161
0.79102874 -0.5449701 -0.25479236 14671589
0.7912122 -0.53453583 -0.25480253 14671588
0.79244107 -0.5250119 -0.25500646 15000552
0.79460007 -0.51519322 -0.25488225 15066601
0.79546446 -0.5049957 -0.25495881 14737637
0.79504007 -0.49482304 -0.25502074 14671843
0.79468 -0.48529691 -0.254904 14803173
0.79470009 -0.47507602 -0.25491074 14803172
0.79443765 -0.65450799 -0.24517907 13091276
0.78900003 -0.64067537 -0.24938916 14408160
0.79036367 -0.64455903 -0.24477348 14473953
0.78900003 -0.63698125 -0.24846561 14473954
0.79000026 -0.63445956 -0.24434192 14473953
0.79146677 -0.62507474 -0.24461068 14540003
0.79268944 -0.61506754 -0.24511746 14671332
0.79288453 -0.60506403 -0.24490626 14539746
0.79299992 -0.59472805 -0.24508421 14408417
0.79300004 -0.58451772 -0.2450842 14276831
0.79367745 -0.5746454 -0.2451133 14276831
0.79486668 -0.5654251 -0.24472998 14276831
0.79374075 -0.55554169 -0.24489784 14474210
0.79310346 -0.5454759 -0.24434412 14605796
0.7924667 -0.53496289 -0.24491802 14605538
0.79247999 -0.52476686 -0.24492255 14934758
0.79303324 -0.5149231 -0.24509467 15132137
0.79406893 -0.50460035 -0.24528751 15000551
0.79490632 -0.49508756 -0.2447429 14737379
0.79533333 -0.48569584 -0.24487302 14803429
0.79497147 -0.47537187 -0.24489601 14737379
0.79565638 -0.46487737 -0.24468374 14934758
0.79572016 -0.45463777 -0.24406381 14868965
0.79389477 -0.65472806 -0.23499188 12762568
0.79075015 -0.6448735 -0.23513326 14342625
0.79023355 -0.6352008 -0.23497932 14408418
0.79103351 -0.62473392 -0.23521747 14605796
0.79176003 -0.6151135 -0.23543438 14737124
0.79196656 -0.60507697 -0.2354949 14671332
0.79232132 -0.59454948 -0.2356011 14473955
0.79287857 -0.58493382 -0.23475373 14473954
0.79385728 -0.57505828 -0.23499364 14408161
0.79435998 -0.56506622 -0.23434804 14276831
0.79350001 -0.5546065 -0.23483784 14540003
0.79476666 -0.54550678 -0.23465304 14671588
0.7944001 -0.53533912 -0.23528711 14540000
0.79316658 -0.52522302 -0.23492248 14803172
0.79302758 -0.5149197 -0.23488225 15000551
0.79296142 -0.50452322 -0.23557749 15197930
0.79458064 -0.49525282 -0.23429167 14934757
0.79577792 -0.48520783 -0.23469439 14868964
0.79510725 -0.4746559 -0.23496544 14802914
0.79500002 -0.46501982 -0.23453568 14934756
0.79500002 -0.45530069 -0.23432888 14934756
0.7938236 -0.44454554 -0.23533487 14934757
0.79496562 -0.43477252 -0.23452477 15066342
0.79548013 -0.41502064 -0.23467869 15132134
0.79456002 -0.40524113 -0.23440754 15197926
0.79311115 -0.65464067 -0.224695 13354449
0.79035741 -0.64521486 -0.22510444 14408160
0.79011148 -0.63510323 -0.22476962 14539746
0.79100019 -0.62470776 -0.22502272 14539746
0.79160005 -0.61498863 -0.22519217 14671332
0.79227769 -0.60531408 -0.22538511 14737125
0.79308558 -0.59492338 -0.22548106 14605796
0.79545718 -0.58478302 -0.2246111 14539746
0.79578584 -0.57512718 -0.22478445 14539746
0.79424006 -0.5649817 -0.22501408 14408161
0.79284006 -0.55470347 -0.22461855 14605795
0.79403335 -0.54531169 -0.22495748 14868710
0.7948966 -0.53490245 -0.22507243 14540001
0.79409087 -0.52490598 -0.22497167 14803172
0.79323077 -0.51540911 -0.22465679 14934758
0.79196864 -0.50467193 -0.22524036 15000551
0.79525018 -0.49479076 -0.22514585 15066342
0.79500002 -0.47473922 -0.225024 14803170
0.79504007 -0.46504375 -0.22524199 15000806
0.7948277 -0.45484513 -0.22531036 14934757
0.79523081 -0.44489029 -0.225152 15066343
0.7954092 -0.42480242 -0.22560111 14868963
0.7936154 -0.41497695 -0.22484037 15132133
0.7925185 -0.40461123 -0.22432271 15066341
0.79338092 -0.65458357 -0.21521866 13157326
0.79080009 -0.64491516 -0.21478327 14342367
0.79090643 -0.63533539 -0.21463825 14539746
0.79175001 -0.62496787 -0.2152392 14473953
0.79303122 -0.61493963 -0.21504022 14671587
0.79311538 -0.60516983 -0.21519791 14803172
0.79353321 -0.59512687 -0.21552755 14606050
0.79562873 -0.58506858 -0.21497974 14474209
0.79474992 -0.56554335 -0.21525921 14540001
0.79276001 -0.55464792 -0.21531582 14802917
0.79314297 -0.5450328 -0.21561931 15000551
0.79431438 -0.53453374 -0.21510158 14605793
0.7949667 -0.52455348 -0.21498485 14737378
0.79453343 -0.51496953 -0.21486712 14934757
0.79271996 -0.50451434 -0.21530558 15000550
0.79383337 -0.49499664 -0.21560951 15000807
0.79441667 -0.48498213 -0.2156135 14803428
0.7931481 -0.47466475 -0.21562929 14803427
0.79400015 -0.46497422 -0.21493433 15066600
0.79396439 -0.45492128 -0.21504596 14869221
0.79505557 -0.44550678 -0.21500938 15197929
0.79454178 -0.42476273 -0.21486966 14934756
0.79247999 -0.41531181 -0.21524014 15066341
0.79199988 -0.4048613 -0.21510978 14868962
0.79132003 -0.39432564 -0.21492413 14539998
0.79266667 -0.65469998 -0.2048645 12894409
0.79030454 -0.64511389 -0.20515801 14276574
0.79079431 -0.63494241 -0.20552684 14473953
0.79193938 -0.62502688 -0.20464519 14408160
0.79268742 -0.61542815 -0.20503366 14605539
0.79258037 -0.6048578 -0.20467515 14737381
0.7923224 -0.59496862 -0.20514627 14737380
0.79326469 -0.58514577 -0.20463996 14408671
0.79439998 -0.57513481 -0.20460613 14277084
0.79254168 -0.56477708 -0.20435935 14408415
0.79179412 -0.55462492 -0.20486072 14737381
0.79286659 -0.54544061 -0.20513718 15000550
0.79351419 -0.53564125 -0.20511776 14737377
0.79446429 -0.52515084 -0.20462103 14539999
0.79396129 -0.51481223 -0.20434955 14737379
0.79239994 -0.50431085 -0.20501633 14868963
0.79206657 -0.49482584 -0.20493001 14934499
0.79199988 -0.4855147 -0.20491323 14803171
0.79219431 -0.47543207 -0.20496278 14934757
0.79342431 -0.46511042 -0.20485891 15066600
0.79373342 -0.45461407 -0.20498964 14803429
0.7947408 -0.44481575 -0.20448545 15198186
0.79507405 -0.4348681 -0.20498496 15132392
0.79514295 -0.42475018 -0.20459567 14869219
0.79393351 -0.41452399 -0.20541017 15132133
0.79290318 -0.40457475 -0.20529474 14868705
0.78899986 -0.64330018 -0.19378281 14211036
0.79000002 -0.64703554 -0.19708128 14078939
0.78899992 -0.63589478 -0.19278209 14211292
0.79000002 -0.63387221 -0.19726922 14342622
0.78900003 -0.6286695 -0.19028313 14277085
0.79034638 -0.62454671 -0.19466519 14276829
0.79035729 -0.61461824 -0.194114 14408416
0.79057717 -0.60472631 -0.19450909 14605538
0.79134488 -0.59517825 -0.19442759 14737124
0.79185712 -0.58493286 -0.19487984 14671588
0.79148012 -0.57487452 -0.19458921 14474209
0.78900003 -0.5618673 -0.19089882 14605796
0.79022735 -0.56498408 -0.19470026 14408671
0.78900003 -0.55663401 -0.19120668 14671588
0.79010004 -0.55426526 -0.19535781 14540257
0.79113358 -0.54517251 -0.19450369 14934245
0.79286659 -0.53523064 -0.19492958 14934757
0.7938 -0.52564144 -0.19515786 14671584
0.79299992 -0.5149017 -0.1949607 14539741
0.79271996 -0.50451368 -0.19489077 14671327
0.79252005 -0.49510956 -0.19484133 14736607
0.79222214 -0.48523763 -0.19456254 14802913
0.79246426 -0.47526312 -0.19502659 14868963
0.79299992 -0.46477821 -0.19496062 15197928
0.79308009 -0.4546133 -0.19498062 14934499
0.79326922 -0.44522253 -0.19517078 15000292
0.79341382 -0.43514094 -0.19493517 15263719
0.79360008 -0.42518651 -0.19511014 14869218
0.79292852 -0.41494903 -0.19514322 15066339
0.79244447 -0.40457347 -0.1946191 15197154
0.78899997 -0.64294869 -0.18616277 13750488
0.79008335 -0.64679575 -0.18345404 13421267
0.78899986 -0.63532853 -0.1858113 13882329
0.79000002 -0.63408971 -0.18173963 13684695
0.78900003 -0.62797678 -0.18635812 14079706
0.79000002 -0.62410295 -0.18460621 13882328
0.79000026 -0.61483049 -0.18497607 13816535
0.7889998 -0.60390198 -0.18465801 14079708
0.79000002 -0.60496163 -0.18543845 14144988
0.78900003 -0.59819293 -0.18289489 13882330
0.79004353 -0.5945611 -0.18506648 14342624
0.7905519 -0.58532959 -0.18523233 14408416
0.7904616 -0.57503134 -0.18494044 14540002
0.78900003 -0.56240606 -0.18635812 14737382
0.79000002 -0.56670207 -0.18439814 14540258
0.78899974 -0.55494612 -0.18486935 14671845
0.79000002 -0.55086654 -0.18127728 15263726
0.78900003 -0.54795277 -0.18548077 14539745
0.79000002 -0.54448617 -0.18479116 14540002
0.79111439 -0.53497165 -0.18523805 14803172
0.79316652 -0.52466404 -0.18534751 14934498
0.79299986 -0.5147047 -0.18466598 14539998
0.79299998 -0.50483418 -0.18546432 14671584
0.79299992 -0.49540919 -0.1847503 14474205
0.7933225 -0.43450305 -0.18497488 15000549
0.7926296 -0.4248741 -0.18517929 14737633
0.79203832 -0.41500756 -0.18523918 14869218
0.79422253 -0.63504291 -0.17494959 11317430
0.79400003 -0.62513638 -0.17484808 11515067
0.79303056 -0.61491519 -0.17532444 12041154
0.79227602 -0.6048944 -0.17539603 11975104
0.79312515 -0.59476721 -0.17502154 11580602
0.7952196 -0.58510262 -0.17538138 11646394
0.79556674 -0.57485712 -0.17590155 11975358
0.79403448 -0.5647009 -0.1757194 12436165
0.79326487 -0.55494118 -0.17474993 12040894
0.79319447 -0.54504007 -0.17457083 12040637
0.79352379 -0.53500646 -0.17499726 12303807
