# .PCD v0.7 - Point Cloud Data file format
VERSION 0.7
FIELDS x y z rgb
SIZE 4 4 4 4
TYPE F F F U
COUNT 1 1 1 1
WIDTH 961
HEIGHT 1
VIEWPOINT 0 0 0 1 0 0 0
POINTS 961
DATA ascii
0.78900003 -0.15305066 0.099705793 15724778
0.78900003 -0.14935654 0.099705793 15724778
0.78830761 -0.16313799 0.1065733 13948371
0.79111761 -0.16631696 0.10323841 11447981
0.78600001 -0.15475398 0.10560004 15856110
0.78509086 -0.14510453 0.105716 15987694
0.78600013 -0.13523227 0.10637236 16053486
0.79000002 -0.1338259 0.10168156 15987434
0.78596789 -0.12504154 0.10590146 15987179
0.78561765 -0.11496162 0.10548916 15921899
0.78610009 -0.10519004 0.10571064 16053484
0.78742307 -0.095174558 0.10531586 15987947
0.79000002 -0.092214309 0.10168156 15922154
0.78780949 -0.084843606 0.10613962 16119277
0.79057151 -0.08408343 0.10122538 15066588
0.78839988 -0.075416319 0.10701184 16053484
0.7910555 -0.07474491 0.10181574 14737622
0.788625 -0.065745898 0.10727315 16119278
0.79111761 -0.064237967 0.10225879 14803929
0.78870004 -0.055134647 0.10797615 15527143
0.79160011 -0.055337727 0.10281081 14541274
0.78900003 -0.045921005 0.10847934 15395556
0.79196423 -0.044902209 0.10351875 14277846
0.78900003 -0.034838628 0.1089411 14737626
0.79120028 -0.034935772 0.10368448 14408918
0.78900009 -0.024259996 0.10810153 14868956
0.79148 -0.024942063 0.10298048 13684935
0.78900003 -0.014520933 0.1089411 14408661
0.792 -0.014575397 0.10378764 13290692
0.79316682 -0.0053110337 0.10486536 12961470
0.79290003 -0.17515936 0.11504992 10460826
0.78655171 -0.16534422 0.11488723 12631999
0.77900004 -0.15171875 0.11637468 15856110
0.78125 -0.15630427 0.11445256 15724525
0.77900004 -0.14495604 0.11569082 15790317
0.78016669 -0.14403085 0.11167854 16053488
0.77900004 -0.13571113 0.11708387 15592680
0.78093755 -0.13446121 0.11388189 15921900
0.78179997 -0.12511531 0.11526642 15658215
0.78272009 -0.11518413 0.11540436 15658215
0.78381276 -0.10502309 0.11522203 15592422
0.78376687 -0.095156103 0.1146415 15526372
0.78538871 -0.08523877 0.11487787 15329250
0.78720009 -0.075300664 0.11514231 15000798
0.78800005 -0.065232381 0.11525957 15066334
0.78796673 -0.055084091 0.1152545 15066335
0.78822863 -0.045084175 0.11516063 14737627
0.7889998 -0.034838628 0.1144823 14342868
0.78833336 -0.024408262 0.11488831 14408404
0.78820688 -0.014633479 0.1151299 14013904
0.7889998 -0.0055265389 0.11480355 14211283
0.79000002 -0.0025182103 0.11092858 14145748
0.78867847 0.0051340652 0.11601718 13948111
0.79000002 0.0048794062 0.11092859 14343127
0.78820002 0.015016838 0.11621046 13882319
0.79000002 0.015051129 0.11092858 14474712
0.7882964 0.024860831 0.1166346 14013647
0.79033333 0.026159368 0.11159185 14145233
0.78800011 0.035304502 0.11710264 13684938
0.79049999 0.035416976 0.11192348 14211282
0.78760862 0.044827089 0.11676222 14276819
0.79062498 0.044445738 0.11170985 14672088
0.78821737 0.054890607 0.11701504 14342613
0.79066664 0.054860353 0.11194688 14474711
0.78837502 0.064620487 0.1178512 14539478
0.79107141 0.065338381 0.11279683 14211282
0.78849995 0.075013869 0.11810076 14671065
0.79188228 0.07506305 0.11315273 13947853
0.7882666 0.085140951 0.11806564 14803421
0.792 0.085194528 0.11294454 13158593
0.78800011 0.095258445 0.11802509 15198178
0.79093343 0.094687097 0.11290966 13027264
0.78823078 0.10501012 0.11834411 15592937
0.79238099 0.10537473 0.11320103 12895422
0.78900003 0.11107937 0.11817642 15066591
0.79330444 -0.17512792 0.12511703 10262934
0.78642309 -0.16558704 0.12494143 12434361
0.77900016 -0.1525698 0.12506744 15395558
0.78053337 -0.15725632 0.12494905 15263718
0.77899981 -0.14472808 0.12488502 15592937
0.77900016 -0.1362177 0.12397324 15658729
0.78016669 -0.13261665 0.12644257 15724265
0.78185302 -0.12533714 0.12507379 15526887
0.78410023 -0.1144679 0.12478503 15395044
0.78511995 -0.1045095 0.12494726 15526630
0.7858147 -0.094995074 0.12526399 15658215
0.78660727 -0.085043617 0.12498803 15592678
0.78780007 -0.075358577 0.12537438 15395043
0.78800005 -0.065232389 0.12540552 15000798
0.78800005 -0.055086419 0.12540554 14935005
0.78803235 -0.044793326 0.12523192 14671833
0.7889331 -0.034835454 0.12463046 14408661
0.78884828 -0.024927232 0.12503739 14013903
0.78896135 -0.014377966 0.1253456 13816524
0.78899974 -0.0052856174 0.12464111 13948110
0.78846872 0.0046375659 0.12513418 13816524
0.78800005 0.015013026 0.12540552 13684425
0.78773344 0.025149157 0.1253631 13618891
0.78647989 0.03523574 0.12516344 13750733
0.78603327 0.045337699 0.1250924 13882318
0.78663993 0.055502091 0.12518853 14144977
0.78676003 0.064717777 0.12520744 13947599
0.78596652 0.074771531 0.12508029 14079442
0.78523999 0.084814161 0.12496527 14539992
0.78509998 0.09490753 0.12494258 14803165
0.78555989 0.10507952 0.12501533 15263459
0.78799987 0.11428848 0.12492552 14606042
0.79033333 0.11805135 0.12084278 12829117
0.78900003 0.12031468 0.12741174 11711148
0.79200011 0.1248952 0.12480319 11711405
0.79327762 0.13489448 0.12531529 11711403
0.78883338 -0.17179292 0.13538642 9934229
0.7918824 -0.17651236 0.13507143 10066069
0.78565532 -0.16515507 0.13498856 13487052
0.77900004 -0.15192139 0.13450988 15526888
0.78125006 -0.15680745 0.13553426 15394791
0.77899992 -0.14472809 0.13491513 15329508
0.7790001 -0.13725109 0.13491516 15461092
0.7802 -0.13320045 0.13512377 15592422
0.78181249 -0.12488705 0.1350584 15658215
0.78263342 -0.1151721 0.13462648 15592422
0.78369462 -0.10523614 0.13480864 15657959
0.78524995 -0.09498968 0.13484626 15658215
0.7868529 -0.085126869 0.13556935 15724008
0.78788 -0.07566157 0.13490306 15592165
0.78803343 -0.065234959 0.13463497 15263200
0.78854156 -0.055124089 0.13456921 15000285
0.78885162 -0.045228116 0.1343649 14802906
0.79000002 -0.042896867 0.13866964 14605527
0.78900003 -0.0353004 0.13249117 14606040
0.79023075 -0.034465648 0.1371453 14013903
0.78900003 -0.024547849 0.13136974 14474455
0.79026109 -0.024759425 0.13606197 14277075
0.78900003 -0.014828778 0.13141371 13619146
0.79000002 -0.014442 0.13604157 14145490
0.78900003 -0.0046699303 0.13110587 13684938
0.79018193 -0.0053773862 0.13550715 13750732
0.78899992 0.0060430369 0.1328298 13684939
0.79013336 0.0037083165 0.13696694 13816525
0.78865206 0.015266068 0.13442065 13487818
0.79000002 0.012277024 0.13866964 13356232
0.78810006 0.025161374 0.13464686 13421768
0.78764009 0.035288557 0.13456905 13290439
0.78727591 0.045249376 0.13438037 13619147
0.7867406 0.055439495 0.13475649 13487817
0.78636664 0.064685479 0.13527142 13618634
0.78524989 0.074703731 0.13507849 13619148
0.78436667 0.084718615 0.13492589 14408663
0.78366697 0.094734818 0.13480508 14540251
0.78493327 0.10499569 0.13502353 14869215
0.78748155 0.11435091 0.13494955 14540505
0.78900003 0.12062252 0.13541569 11908782
0.79063642 0.12595016 0.13516344 11711660
0.79237032 0.13525736 0.13516887 11711403
0.78868747 -0.17306957 0.1449018 9934483
0.79061544 -0.17785287 0.14489907 10000018
0.78603852 -0.16550368 0.14512211 13487562
0.77900004 -0.15111086 0.14038612 15065823
0.78133345 -0.15515684 0.14521016 15461093
0.77900004 -0.14632377 0.14106998 14868444
0.78070849 -0.14481618 0.14579748 15460578
0.78151983 -0.13513346 0.14450113 15000028
0.78223336 -0.12518494 0.14463228 15066078
0.78284001 -0.11520319 0.14474407 15263201
0.78346699 -0.10520604 0.14486103 15066335
0.78456008 -0.095251255 0.14506228 14934749
0.78573328 -0.085276291 0.14527805 14934491
0.7872858 -0.075111456 0.14497206 15065822
0.78822225 -0.065249614 0.14481574 15328993
0.78899986 -0.056387696 0.14438713 15460836
0.79000002 -0.052349374 0.14647824 15329250
0.78900003 -0.049615134 0.14034118 14869212
0.79070991 -0.045183495 0.14482675 14934748
0.79188001 -0.034964856 0.14456342 14474454
0.79216659 -0.024778953 0.14461562 14079697
0.79188001 -0.014573843 0.14456266 14013904
0.79219985 -0.0053070551 0.14462183 13750732
0.79190004 0.0048896982 0.14456706 13290180
0.78900003 0.017670738 0.14218824 13290182
0.79040915 0.014385135 0.14589123 13224388
0.78877759 0.025182985 0.14491889 13158595
0.78859979 0.035332087 0.14488699 13355975
0.78849989 0.044556286 0.14486848 13355975
0.78800005 0.054542784 0.14490686 13290182
0.78748012 0.064776443 0.14560179 13487048
0.78546655 0.07472337 0.14522924 13224133
0.78332019 0.084605664 0.1448314 14211284
0.78286684 0.09463758 0.14474779 14211286
0.78320009 0.10476328 0.14480847 14671838
0.78685719 0.11466293 0.14489298 13816528
0.78900003 0.12123821 0.14495884 11842734
0.7904585 0.12701486 0.14522694 11777195
0.79200011 0.13546456 0.14479698 11777195
0.78900003 -0.17182915 0.15450199 9933714
0.79141182 -0.17651597 0.15515627 10130834
0.78560722 -0.16507474 0.15504007 14408150
0.78181487 -0.15552193 0.15512814 15526374
0.78223515 -0.14511262 0.15497306 15855336
0.7827335 -0.13534354 0.1548032 15262944
0.78275025 -0.12526768 0.1548053 15000028
0.7839396 -0.11486199 0.15529284 15131615
0.78503436 -0.10519476 0.15433928 15394787
0.78607404 -0.095025927 0.15474872 15394786
0.78664285 -0.085046194 0.15445872 15197407
0.78756011 -0.075335339 0.15483582 15131614
0.78820008 -0.065247864 0.15496056 15526372
0.78899992 -0.056772508 0.15534857 15723751
0.79000002 -0.052349374 0.15490331 15855593
0.79152942 -0.044921607 0.15496019 15263457
0.79299992 -0.035015248 0.15497591 14803163
0.79297197 -0.024804065 0.15497027 14671834
0.79283327 -0.014591325 0.15494296 14277076
0.79269981 -0.0053106388 0.15491584 13882318
0.79230535 0.0048921187 0.15483874 13421768
0.7906155 0.01491852 0.15522078 13224389
0.78899974 0.025350153 0.15499033 13224388
0.79000002 0.020599341 0.15901309 13355975
0.7889998 0.035349775 0.15511769 13290182
0.78887975 0.04457774 0.15509379 13487561
0.7881667 0.054685298 0.15495341 13355975
0.78736007 0.064766668 0.15479489 13421512
0.78535473 0.07486029 0.15457934 13158083
0.7828002 0.08533445 0.15494625 14211284
0.78209668 0.095282659 0.15452775 14211285
0.78206646 0.10461107 0.1546697 14606045
0.78611118 0.11415409 0.15495713 13882321
0.78900003 0.12113559 0.15511769 11777198
0.79078948 0.12653227 0.15556681 11711405
0.79264498 0.13547765 0.15505561 11645611
0.78900003 -0.17152131 0.16527653 9736075
0.79240006 -0.17597359 0.16506077 9999761
0.78525931 -0.16540439 0.16500196 14736856
0.78192294 -0.15519834 0.16492048 15394788
0.78246665 -0.14537042 0.16482368 15657960
0.78382784 -0.13477191 0.16523829 15460581
0.78400004 -0.12476226 0.16500808 14934236
0.7840386 -0.11516731 0.16501357 14934236
0.78518182 -0.10507234 0.16483659 15131614
0.78738904 -0.09467259 0.16493915 15328995
0.78800005 -0.084601976 0.16506706 15328737
0.78846663 -0.075422071 0.1651659 15065565
0.78897196 -0.065312713 0.16527086 15460579
0.7889998 -0.055566773 0.16537915 15657958
0.79000002 -0.051527418 0.16178718 15986923
0.79060018 -0.045086611 0.16468504 15131871
0.79164004 -0.034955014 0.16490124 14737628
0.79166663 -0.024762882 0.1649072 14803421
0.79179984 -0.014572466 0.16493532 14671835
0.79176003 -0.0053042946 0.16492766 14145491
0.79193324 0.0048911916 0.16496411 13816526
0.7907601 0.015064204 0.16472046 13684940
0.78899997 0.027535276 0.16293216 13290182
0.79000002 0.02342784 0.16564918 13422025
0.7889998 0.035601646 0.16384925 13421768
0.79000002 0.03354517 0.16826011 13553354
0.7888664 0.04457701 0.16524917 13619147
0.78802782 0.054676313 0.16507301 13619147
0.7877 0.064795382 0.16500551 13619147
0.78697151 0.074735142 0.16498542 13027010
0.78492004 0.084777258 0.16534261 14013905
0.78243345 0.09458375 0.16481736 14145493
0.78090006 0.10445494 0.165407 14540253
0.78489292 0.11437894 0.16474199 13224392
0.78870583 0.12200826 0.16548622 11645612
0.79018748 0.12766427 0.16436844 11645612
0.79148012 0.13551712 0.16486923 11579819
0.78866673 -0.17226976 0.17577094 10394781
0.79128569 -0.17625394 0.17448752 9868692
0.78440744 -0.16481648 0.17482129 14671066
0.78196537 -0.15547405 0.17494473 15000542
0.78222203 -0.14532556 0.17484365 15394788
0.78433341 -0.13494897 0.174898 15328995
0.78596002 -0.12486178 0.17476095 15065823
0.78492302 -0.1152992 0.1746721 15000030
0.78472418 -0.1052144 0.17435944 15065822
0.7871334 -0.094641551 0.17501985 15197407
0.78800005 -0.084601976 0.17521301 15262944
0.78879988 -0.075454138 0.17539033 15065308
0.78899974 -0.065645002 0.17523751 15263201
0.79000002 -0.060774446 0.17843184 15526118
0.78900003 -0.057926923 0.17174126 15263202
0.79000014 -0.054840934 0.1757348 15460580
0.78900003 -0.041118644 0.17765185 14606040
0.79000032 -0.045680914 0.17422588 15000286
0.78899986 -0.034838628 0.17635894 14671577
0.79000002 -0.03488278 0.17103422 14802906
0.78899986 -0.025326256 0.17682071 14671834
0.79012501 -0.02390527 0.17187025 14737628
0.78900003 -0.018215058 0.17912951 14671835
0.79037964 -0.014417886 0.17465656 14540249
0.79163337 -0.0053020106 0.17509419 14211028
0.79214692 0.0051100738 0.17493545 13750733
0.7913667 0.01507592 0.1750358 13684940
0.79063916 0.025242824 0.17487605 13553354
0.79036683 0.035410769 0.17481565 13619147
0.78900003 0.047124803 0.17405008 13684940
0.79000002 0.043444924 0.17631046 13684940
0.78879982 0.054729518 0.17539169 13684940
0.78847992 0.064859636 0.17532088 13750479
0.78796673 0.074962743 0.1752059 13158083
0.78636009 0.084932603 0.17484894 13882319
0.78257155 0.094730169 0.17479089 14079699
0.7808001 0.10444303 0.17544167 14540253
0.78526932 0.11409598 0.17481957 13224391
0.78877783 0.12130693 0.1743606 11645612
0.79068422 0.12641728 0.17473978 11579819
0.79273069 0.13516036 0.17448361 11645612
0.78845459 -0.17224228 0.18504615 12039093
0.79131252 -0.17769936 0.18486375 9868691
0.78500003 -0.16534089 0.18498097 15065825
0.78199995 -0.1553552 0.18486226 15263202
0.78223324 -0.14532728 0.18491793 15328995
0.78493935 -0.13455208 0.18505698 15328995
0.78693348 -0.12501608 0.18510842 15263202
0.78733355 -0.11494257 0.18520431 15263202
0.78770381 -0.10505832 0.18477915 15263201
0.78813332 -0.09476383 0.18446939 15263201
0.78800005 -0.084474742 0.18519996 15262944
0.78846657 -0.075421982 0.18546791 15131101
0.7889998 -0.066025577 0.18481278 15262687
0.79000002 -0.060774446 0.18398005 15262946
0.79000014 -0.055226229 0.18490475 15394532
0.78900003 -0.040841587 0.18236187 14606040
0.7900002 -0.04569469 0.1852604 15000286
0.78891653 -0.034681421 0.18449737 14540248
0.79000002 -0.038581591 0.18860355 14737626
0.7889598 -0.025306394 0.18407039 14540249
0.79000002 -0.021567073 0.18786378 14474456
0.78900003 -0.018215058 0.1819001 14474456
0.7905218 -0.01422588 0.1852691 14342870
0.79175997 -0.0053031715 0.18531695 14079698
0.79218745 0.0046599135 0.18506801 13816526
0.79171997 0.015082871 0.18530685 13619404
0.79110014 0.025257617 0.18516196 13487561
0.7904402 0.0354141 0.18500635 13684940
0.79000014 0.044641599 0.18490477 13684940
0.7889998 0.05538331 0.18438652 13750733
0.79000002 0.050652161 0.18675415 13882319
0.78858614 0.064995237 0.18533643 13816269
0.7881667 0.074981585 0.18539761 13157826
0.78680009 0.084979571 0.18507698 13882318
0.78309685 0.094513923 0.18494485 14013906
0.78231996 0.10464718 0.18493995 14606302
0.78731996 0.11416429 0.18486704 13355977
0.79000002 0.11861777 0.18767884 11711405
0.79320008 0.12467408 0.18491314 11645612
0.78854555 -0.17242996 0.19513655 11907250
0.79149997 -0.17751014 0.19486748 9933458
0.78451866 -0.16483954 0.19504748 14868447
0.78151613 -0.15508102 0.19495997 15526373
0.78280669 -0.14552049 0.19439533 15789544
0.78590006 -0.13496849 0.19498515 15657960
0.78700006 -0.125027 0.19525686 15394788
0.78763354 -0.11498508 0.19541332 15263201
0.78860706 -0.10477559 0.19506173 15197408
0.78894418 -0.094861761 0.1948155 15263200
0.788077 -0.084753118 0.19531034 15263200
0.78792 -0.075370431 0.19548476 15065565
0.78866649 -0.065286346 0.1947464 15394273
0.78899992 -0.056310736 0.19679204 15065566
0.79000002 -0.053905226 0.19283079 15394788
0.78900003 -0.045921009 0.1994472 15131873
0.79009128 -0.044975884 0.19467814 15066079
0.78900003 -0.033196792 0.19164847 14671063
0.79000002 -0.035587318 0.19644147 14606041
0.78900003 -0.028373908 0.19021188 14144721
0.79056281 -0.024726756 0.19521618 14539479
0.7924 -0.014582759 0.19474329 14408662
0.79259992 -0.0053102029 0.19479187 14145491
0.79168743 0.0051202737 0.19491367 13816525
0.79100025 0.015069869 0.19532268 13553353
0.79044473 0.025235608 0.19518562 13356232
0.78900003 0.038351253 0.19644572 13684939
0.79000002 0.034301747 0.19448799 13553610
0.7889998 0.044081353 0.19608893 13750475
0.79000002 0.046028648 0.19160883 13684940
0.78899974 0.055015568 0.19504684 13816269
0.79000002 0.050189808 0.19137767 13750733
0.78819239 0.064693533 0.19533937 13882062
0.78796673 0.07496313 0.19549651 13552584
0.78577775 0.085208513 0.19535933 13487047
0.78188574 0.094646469 0.19476965 14013905
0.78237933 0.10453027 0.19486652 14606043
0.78770006 0.11366542 0.194969 13356231
0.79028571 0.11839646 0.19580886 11579819
0.78850007 -0.17233612 0.2048585 12368054
0.79164708 -0.1777678 0.20502089 9867406
0.78485727 -0.16530992 0.20515917 14802397
0.78300011 -0.15463406 0.2052647 15460581
0.78555155 -0.14489825 0.20517226 15657958
0.785972 -0.13498342 0.20512186 15526372
0.7857666 -0.1248306 0.20506689 15394787
0.78641641 -0.11480829 0.20523597 15394786
0.78683341 -0.10473807 0.2053434 15328993
0.78726459 -0.094930574 0.20523876 15328993
0.7865001 -0.084786668 0.20548749 15263200
0.78673333 -0.075256571 0.20531805 15197151
0.78744459 -0.065185487 0.20550376 15328737
0.78833324 -0.055313993 0.20522337 15131616
0.78896528 -0.045154538 0.20510668 15066593
0.79000002 -0.040430997 0.20154938 14606042
0.78899986 -0.035864782 0.20539883 14671835
0.79000002 -0.032240774 0.20419142 14671835
0.79053152 -0.024494128 0.20503777 14474456
0.79269987 -0.014587234 0.20502062 14277076
0.79260594 0.0048096655 0.20513953 14079697
0.79128015 0.015075049 0.20558178 13684939
0.79033357 0.025232086 0.20533507 13422024
0.78899997 0.037481003 0.20541464 13816525
0.79000002 0.03308282 0.20478584 13553353
0.7889998 0.044585086 0.20498836 13816525
0.78879982 0.054729208 0.20493585 13881803
0.78778583 0.064999878 0.20526472 13947854
0.78666669 0.074837647 0.20530099 13355718
0.7845667 0.084799923 0.20481604 13816526
0.77900004 0.098729603 0.20056666 14277077
0.78135729 0.09445183 0.20509453 13684940
0.7815001 0.10468019 0.20465811 14671837
0.78728575 0.11329865 0.20524399 13289927
0.79033333 0.11835957 0.20471716 11514026
0.78858346 -0.17235424 0.21503411 13618634
0.79133338 -0.17758815 0.21485816 9605261
0.78603995 -0.1653606 0.21526138 14802393
0.78466672 -0.15496436 0.21488526 15526372
0.78576005 -0.14506406 0.21518242 15657958
0.78563321 -0.13492659 0.21514826 15328993
0.78556001 -0.12479693 0.21512902 15328993
0.78656685 -0.11482958 0.21540485 15328993
0.78644007 -0.104687 0.21537009 15328994
0.78583992 -0.095407866 0.2152046 15328994
0.78610003 -0.085317627 0.21527694 15197151
0.78655988 -0.075240418 0.21540396 15065564
0.78693348 -0.06514369 0.21550502 15394530
0.78746432 -0.054849982 0.21505669 15395043
0.78849995 -0.044967394 0.21501033 15198178
0.78899992 -0.036685698 0.21465831 14737627
0.79000002 -0.032528996 0.21533585 14408663
0.78900003 -0.020062122 0.2197649 14342870
0.79000026 -0.024711061 0.21449524 14342870
0.78900003 -0.018215058 0.2197649 14145491
0.79088014 -0.014554036 0.21473198 14408663
0.79303449 -0.0051825168 0.21454746 14079698
0.7931934 0.0047479095 0.2151808 13882319
0.7917999 0.015084114 0.21498328 13685197
0.79040033 0.025233982 0.21460357 13553354
0.78899986 0.036735069 0.215609 13750733
0.79000002 0.032620467 0.21449521 13553611
0.78896642 0.044583041 0.21513796 14013906
0.78811115 0.054681674 0.21490443 14013906
0.78729635 0.064555936 0.21519382 14145234
0.78566658 0.074743032 0.21515821 13487305
0.78406662 0.085235268 0.21557362 13882319
0.77900004 0.096905947 0.21880321 13882319
0.7816453 0.094516538 0.21429075 13816526
0.78217244 0.10450245 0.21495877 14606043
0.78754544 0.11381087 0.21516956 12434872
0.79000002 0.11861776 0.21449521 11514281
0.78900003 -0.17204903 0.22530608 14605786
0.79131258 -0.17630954 0.22492352 10329244
0.78639281 -0.16523743 0.22515258 14802650
0.78455561 -0.15494454 0.22495429 15000544
0.7845667 -0.14484333 0.22495721 15263713
0.78499991 -0.13481663 0.22508271 15197407
0.78489989 -0.1246937 0.22505358 15131614
0.78552938 -0.11494972 0.22501568 15263201
0.77900004 -0.10065647 0.22913723 14933979
0.78348398 -0.10476746 0.22473086 15197407
0.77862501 -0.095443055 0.22872271 15065821
0.78261536 -0.094875105 0.22368926 15263201
0.78472221 -0.085164554 0.22499961 15197150
0.78763998 -0.075343177 0.22491845 15000027
0.78684378 -0.064908691 0.22503589 15394786
0.78651732 -0.055045571 0.22535792 15328480
0.78730571 -0.04490009 0.22574088 15591652
0.78839988 -0.034811389 0.22513308 15394531
0.79000002 -0.032108676 0.22004344 14869212
0.78866655 -0.024361558 0.22562009 14802907
0.79000002 -0.02632929 0.22073695 14342870
0.78887486 -0.014672262 0.22542374 14342870
0.79000002 -0.013059814 0.2204133 14277077
0.78900009 -0.0066289362 0.22732106 14211541
0.79031581 -0.0045147501 0.22305174 14342870
0.79094464 0.0048858253 0.22493312 14013905
0.79073352 0.015064008 0.22487448 13421768
0.78900003 0.028885052 0.22622962 13421768
0.79003602 0.024166981 0.22414851 13290182
0.78879982 0.035340067 0.22524841 13553354
0.78808004 0.044532821 0.22504303 13882319
0.78790009 0.054667104 0.22499159 14079699
0.78696007 0.064734042 0.22472359 14277076
0.78613871 0.074787647 0.22540924 13552584
0.77900004 0.089611337 0.22427416 13816526
0.78287101 0.085084297 0.22503242 13816526
0.77868956 0.095169932 0.2249389 13882319
0.77900004 0.10055325 0.22609782 14343126
0.78340912 0.10562959 0.22512726 14737887
0.78824997 0.11305114 0.22486174 12500668
0.79089993 0.11801291 0.22566488 11448233
0.78853858 -0.1726997 0.23525614 13947601
0.79116672 -0.17770459 0.23503117 10065556
0.78618515 -0.16559528 0.23513545 14671323
0.7845667 -0.15494674 0.23506096 15526630
0.78460002 -0.14484908 0.23507077 15658216
0.78563315 -0.13492519 0.23538096 15657958
0.78507996 -0.12472273 0.2352149 15394786
0.78487998 -0.11550525 0.23515554 15263200
0.77900004 -0.10126436 0.23278452 15657445
0.78207695 -0.10558715 0.23516057 15394786
0.7786113 -0.094529375 0.23358053 15328993
0.78044456 -0.09495718 0.23768316 15329763
0.78240633 -0.085140087 0.23475553 15263200
0.78649998 -0.075234011 0.23471637 15000027
0.78635299 -0.065313622 0.23494446 15131613
0.78584611 -0.054865617 0.23523034 15263457
0.78510004 -0.044775557 0.23521863 15461092
0.78520012 -0.034670219 0.23432706 15263457
0.78635281 -0.02486572 0.23445484 15197664
0.78771883 -0.014841629 0.2353116 14868956
0.78855169 -0.0054089483 0.23517086 14737628
0.78899992 0.0031416083 0.23592667 14474455
0.79000002 0.0068609109 0.23325349 14079698
0.79000014 0.01505113 0.23483866 13816524
0.78899992 0.027499756 0.23523405 13487560
0.79000002 0.022580845 0.23404609 13421767
0.7882334 0.035314415 0.23523508 13487561
0.7873531 0.045142278 0.23518813 13619148
0.78712517 0.055189088 0.23467436 14013905
0.78673357 0.0647154 0.23478779 14145490
0.78579992 0.074756108 0.2354299 13619145
0.78329039 0.085663877 0.23485626 13948111
0.77900004 0.095447019 0.23229823 13947854
0.78090477 0.095052034 0.23622811 13948112
0.78266668 0.10462921 0.23523541 14672092
0.78823525 0.11270957 0.23496392 12500924
0.79149997 0.11791758 0.23528269 11514026
0.78850007 -0.17356701 0.2450574 14408150
0.79036367 -0.17837811 0.24470243 9735564
0.78638464 -0.1652908 0.24502137 14408150
0.78519428 -0.1550706 0.24535799 14737115
0.78561532 -0.14517802 0.24478279 15263716
0.78599989 -0.13498834 0.24468988 15262945
0.78591996 -0.12485562 0.24466528 14934236
0.78524983 -0.11463942 0.24537468 14802906
0.78407156 -0.10456955 0.24533682 14934492
0.78260005 -0.095015727 0.24546568 14934235
0.78391182 -0.084861286 0.24522835 15065821
0.78526664 -0.075116567 0.24537949 15131614
0.78524983 -0.06500373 0.2453737 14868699
0.78564 -0.054922 0.24457763 14474199
0.78468752 -0.044752404 0.24462686 14408406
0.78476006 -0.034650002 0.24430549 14408663
0.78519994 -0.025480004 0.24444172 14211027
0.78633332 -0.015389849 0.2447931 14276563
0.78830773 -0.0051379073 0.24519557 14408664
0.78899974 0.0048732292 0.2447003 14606298
0.78899974 0.015032077 0.24485952 13487817
0.79000002 0.015051129 0.24038687 14277332
0.78852767 0.02517497 0.2445524 13224643
0.78736001 0.035275258 0.24511248 13224387
0.78563333 0.04531455 0.24457479 13224648
0.78620005 0.055470482 0.24475136 13816527
0.78596294 0.064857058 0.24508657 13882319
0.78522211 0.074701317 0.24536617 13750732
0.78340018 0.085398652 0.24492724 13948112
0.78139997 0.095373258 0.24508716 13948112
0.78251863 0.10487955 0.24503005 14737374
0.78784615 0.11453757 0.24497968 11645357
0.79000002 0.11861777 0.24131158 11448233
0.78900003 0.12031468 0.24747086 11382183
0.79090637 0.12546642 0.24505588 11382440
0.78833336 -0.17322268 0.25464374 15066081
0.79059994 -0.17834765 0.25537637 9473163
0.78589642 -0.16545641 0.25493455 14803422
0.78499991 -0.15503128 0.25540483 15395044
0.78572404 -0.14492969 0.2548787 14802651
0.78602761 -0.13499296 0.25481924 14868444
0.78609979 -0.12488426 0.25484309 14802650
0.78546673 -0.11467035 0.25555804 14802649
0.78547996 -0.10455809 0.25556254 14802649
0.78548002 -0.095365107 0.2555629 14671064
0.78549987 -0.085252486 0.25556904 14736857
0.78543997 -0.075134307 0.25554886 14934492
0.78486657 -0.064972535 0.25536186 14868699
0.78606665 -0.054950718 0.25483221 14934749
0.78649986 -0.04485473 0.25524452 14474454
0.78696305 -0.034952443 0.25461227 14342870
0.78707159 -0.024948874 0.25443557 14145490
0.78696293 -0.01489113 0.25399804 13882576
0.78847998 -0.0052807294 0.25469118 13882319
0.78899974 0.0048732301 0.25485912 14079698
0.78836006 0.015019136 0.25465134 13947855
0.78800005 0.025158998 0.25453609 13487558
0.78736001 0.035275634 0.25433037 13684938
0.78645474 0.045612689 0.25454056 13816525
0.78603327 0.055457998 0.25482109 13553611
0.78516656 0.064769588 0.25509033 13553354
0.78379315 0.075038917 0.25500947 13684940
0.78238887 0.085421294 0.25546989 14013906
0.78146666 0.095381871 0.25516954 14474203
0.78225935 0.10443857 0.2549195 14737374
0.78774989 0.11348774 0.25427094 11447978
0.79049999 0.11807638 0.25688675 11316647
0.7917273 0.12452269 0.2549009 11316647
0.78861111 -0.17328373 0.26488766 14934495
0.79090905 -0.17833367 0.26523781 9538957
0.78616005 -0.16538492 0.26498443 14869214
0.78499991 -0.15503126 0.26459315 15855852
0.78556001 -0.14502592 0.26478213 15592166
0.78656673 -0.13508432 0.26512164 15131359
0.78728014 -0.12507233 0.26536238 14868444
0.78659987 -0.11483587 0.26513383 14802908
0.7867201 -0.10472259 0.26517341 14802907
0.78663993 -0.095506497 0.2651459 14737371
0.78599989 -0.085307263 0.26493031 14802651
0.78600001 -0.075187042 0.26493025 14868187
0.78589994 -0.065058038 0.26489729 14867929
0.78663987 -0.054990884 0.26514688 15394786
0.78656656 -0.044858817 0.26511997 14671576
0.78728586 -0.034564372 0.26476973 14671577
0.78738904 -0.024629707 0.26447538 14277076
0.78750014 -0.014493019 0.26451248 14145747
0.78786665 -0.0052777133 0.26463625 14277077
0.78808337 0.0048672105 0.26470816 14277077
0.78780013 0.015009059 0.2646139 14013905
0.78741688 0.025139879 0.26448444 13750733
0.78746682 0.035281539 0.26450112 13750990
0.78727293 0.045156527 0.26485544 14079698
0.78628004 0.055474531 0.26502421 14211282
0.78445464 0.065693714 0.26490968 13684683
0.78227592 0.07521005 0.26474762 13749963
0.77852648 0.086102374 0.26711038 13947856
0.78100002 0.084241092 0.26335812 13816271
0.77865016 0.094584711 0.26673546 14540252
0.78030014 0.096153259 0.26264316 14605789
0.78356004 0.10481782 0.26484126 14276825
0.78858346 0.11225189 0.26487848 11316393
0.79171425 0.11715652 0.26526847 11316647
0.78824997 -0.17343548 0.27514565 14605785
0.79070002 -0.17855527 0.27484268 9342349
0.78493333 -0.16512737 0.27467388 15263715
0.78427792 -0.15488708 0.2744455 15855852
0.78523332 -0.14496595 0.27478084 15921130
0.78622216 -0.13502488 0.27512681 15526115
0.78666663 -0.12497466 0.27528161 15263201
0.78605551 -0.11475653 0.27506825 15263201
0.78641379 -0.10474501 0.27503616 15065822
0.78651708 -0.095428042 0.27507228 14934236
0.78566647 -0.085272394 0.27493316 14868700
0.78493333 -0.075085863 0.27467492 14803165
0.78483343 -0.064969927 0.27463815 14736857
0.78586662 -0.054936584 0.27500263 15526886
0.78599977 -0.044826377 0.27505052 14869212
0.78609985 -0.034710106 0.2750853 14606041
0.78675884 -0.024768136 0.27445918 14343125
0.78684616 -0.014692799 0.27435583 14211539
0.78732008 -0.0052749244 0.27459124 14277077
0.78700012 0.0048608771 0.27447924 14211541
0.78668964 0.015114394 0.27513158 14079698
0.78547215 0.025075722 0.2748628 13750733
0.78416669 0.035133146 0.27440393 13750990
0.78508335 0.045284364 0.27472723 13948369
0.7852999 0.055406261 0.27480415 14277077
0.78487092 0.064917751 0.27498144 13816270
0.78248286 0.07516361 0.27517724 13684683
0.77725822 0.08541581 0.27542362 13684940
0.78000003 0.080596395 0.27203789 13289668
0.77765226 0.094287738 0.2748588 14539738
0.78000003 0.098856337 0.27751586 14934754
0.78530777 0.10505176 0.27480727 14342361
0.78900003 0.11107936 0.27517682 11052711
0.79228574 0.11613937 0.27517343 11250855
0.78769231 -0.17436084 0.28514546 13553101
0.79000002 -0.17913631 0.28384787 9276299
0.78253335 -0.16462255 0.28482655 15000547
0.78205889 -0.15471777 0.28443837 15790059
0.78406459 -0.14522211 0.28547317 15855339
0.78519988 -0.13485028 0.2848798 15394787
0.78476673 -0.12467273 0.28563967 15263201
0.78403032 -0.1148773 0.28512037 15657958
0.78497064 -0.10492162 0.28576672 15657958
0.78503221 -0.095370263 0.28552702 15460836
0.78400016 -0.085090518 0.28535885 15263201
0.78280014 -0.0748825 0.28492469 15000287
0.78144449 -0.064689182 0.28443021 14605785
0.78310019 -0.054741301 0.28503117 15657959
0.78444451 -0.044736821 0.28552049 15263458
0.78584611 -0.034839202 0.2853255 14869212
0.78755569 -0.02463311 0.28481361 14606040
0.78793341 -0.014501536 0.28494957 14277332
0.78783339 -0.0052778022 0.28491277 14408663
0.78683352 0.004857962 0.2845507 14342870
0.78483337 0.014950276 0.28529519 14145491
0.78247237 0.024978051 0.28480393 13882319
0.7790001 0.034445826 0.28855789 13882319
0.78091305 0.035226237 0.28300464 13816526
0.77900004 0.040372699 0.28992566 13750480
0.78269458 0.045148339 0.28488457 13948112
0.7834335 0.055275034 0.28515318 14277077
0.78358358 0.065373272 0.28520834 13947855
0.7786001 0.077717423 0.28649443 13157826
0.78199995 0.074001618 0.28450194 13881549
0.77669722 0.084549934 0.28493452 13882064
0.77707154 0.094850063 0.28498381 14605789
0.78000003 0.098856337 0.28116786 14803168
0.78555167 0.10508602 0.28500423 13816016
0.78900003 0.11107937 0.28625917 11184292
0.79283333 0.11572381 0.28517303 11250341
0.78900003 -0.18121839 0.29780331 9408142
0.79257703 -0.1857921 0.2945469 9408142
0.78596437 -0.17454639 0.29494566 13552845
0.77900004 -0.16022913 0.29539663 15394788
0.7813704 -0.16451295 0.29494005 14539996
0.77900004 -0.15749365 0.29448479 15329765
0.78023082 -0.15458094 0.29494962 15592680
0.7819714 -0.14535548 0.29516035 15658474
0.78375757 -0.13501965 0.29419404 15329765
0.78303587 -0.12498707 0.29528907 14934750
0.78219992 -0.115109 0.29477808 15197665
0.78234369 -0.10482801 0.29517469 15526629
0.77840012 -0.092683002 0.29699039 15461349
0.78140002 -0.095784344 0.29401755 15527143
0.77882367 -0.085975952 0.29661614 15461349
0.78105563 -0.083652861 0.29292408 15526886
0.77900004 -0.079988405 0.29904392 15263970
0.78159988 -0.074766532 0.29546639 15263457
0.77899998 -0.062533438 0.29643869 14342870
0.78025001 -0.066113956 0.29419652 14802907
0.77857697 -0.055830754 0.29572546 15263971
0.78066671 -0.053557251 0.29156089 15263972
0.77853858 -0.045731537 0.297324 15198177
0.78149998 -0.044385035 0.29305002 15198178
0.77900004 -0.03895621 0.29904392 14934235
0.78257149 -0.034657314 0.29506856 14803419
0.78400004 -0.025286619 0.29529434 14737627
0.78400004 -0.015234968 0.29558229 14408663
0.7839697 -0.0054184147 0.29510412 14540249
0.7838335 0.0048405384 0.29447234 14474456
0.78311551 0.014778422 0.29491174 14145748
0.78206658 0.024967531 0.29473004 13948112
0.77900004 0.037090123 0.29247874 13882319
0.7806471 0.034652613 0.29623735 14013905
0.77900004 0.040372699 0.29266113 13882319
0.78113341 0.04542242 0.29510814 14079698
0.78130001 0.055124044 0.29535252 14277076
0.77900004 0.068335377 0.29782817 13816012
0.7809 0.064479947 0.29453024 13947854
0.77783346 0.075286649 0.29548398 13421255
0.78025007 0.072402328 0.29130387 13947341
0.77597255 0.084719948 0.29515606 13881810
0.77593106 0.094584756 0.2949833 14606046
0.77900004 0.10055325 0.29448479 14540253
0.78476006 0.10512685 0.29493162 13355722
0.78900003 0.11107937 0.29457098 11185063
0.7924782 0.11601057 0.29518214 10988196
0.78800005 -0.18226497 0.30553514 9276299
0.79138464 -0.1875747 0.30450857 9342604
0.7836802 -0.17477132 0.30487278 13750737
0.78224236 -0.16555682 0.30522817 15395047
0.78195983 -0.15534669 0.3056733 15855339
0.78084391 -0.14484257 0.30489278 15723754
0.77900004 -0.13560982 0.30998585 15723753
0.78079998 -0.13500847 0.30430219 15657706
0.78183323 -0.12512034 0.30470631 15263459
0.78166658 -0.11503069 0.30464068 14869214
0.77875012 -0.10343508 0.30658114 15000800
0.78099996 -0.10694594 0.30317774 15066593
0.77679431 -0.094953448 0.30477381 15263970
0.77680016 -0.085216835 0.30456221 15395556
0.7783078 -0.075922549 0.30648497 15395557
0.78040016 -0.074103095 0.30250391 15263971
0.77807689 -0.064902097 0.3056224 14934752
0.78000003 -0.06822212 0.30216679 15132386
0.77661145 -0.055199735 0.30448797 15263972
0.77686691 -0.045213889 0.30458778 15066593
0.77750009 -0.035240516 0.30483505 14606041
0.7774002 -0.02522736 0.30479524 14671834
0.77770013 -0.01552585 0.30576363 14474458
0.78000003 -0.01374663 0.30155814 14343127
0.77820832 -0.0052127372 0.30617654 14277335
0.7807501 -0.0045435536 0.30131406 14474456
0.77866673 0.0019237116 0.3072699 14672092
0.78157139 0.0058087367 0.30388516 14474456
0.78283352 0.014914589 0.30509603 14145748
0.77900004 0.028518956 0.30998585 13949139
0.78197235 0.024964103 0.30475888 13817039
0.77900004 0.034293856 0.30968192 14014675
0.78118515 0.034930974 0.30462202 13882576
0.77900004 0.04310818 0.30998585 14211541
0.78133327 0.045150474 0.30492619 14079698
0.77900004 0.058001351 0.30937794 14079698
0.78062505 0.054923248 0.30499727 14145491
0.77811444 0.065045685 0.30510303 13948113
0.78000003 0.06051046 0.3049058 14079698
0.77644849 0.074649528 0.30458066 13355464
0.77491415 0.084734134 0.30550736 14013909
0.77537924 0.094581597 0.30528793 14408668
0.78507698 0.10488205 0.30497649 12829635
0.79000002 0.10937075 0.30881482 10987431
0.78794742 -0.18313903 0.3148092 9144713
0.79071426 -0.18802525 0.31596828 9276553
0.78395236 -0.17435902 0.3151049 13224137
0.7830373 -0.16513234 0.31505546 15000289
0.77900004 -0.15111086 0.31728044 15658730
0.78219235 -0.1553243 0.31519845 15724266
0.77826101 -0.14447248 0.31531405 15724523
0.7804001 -0.1466337 0.3118214 15724266
0.77851862 -0.13535509 0.31553075 15658474
0.78000003 -0.13121891 0.31220976 15657960
0.77900004 -0.12497185 0.31687522 15658217
0.78018528 -0.12475575 0.31424478 15526888
0.77841663 -0.11440176 0.31537142 15460837
0.78000003 -0.11539362 0.31068811 15132386
0.77676934 -0.10507924 0.31476122 14935007
0.78000003 -0.10930698 0.31038377 15066593
0.77494442 -0.09499342 0.31472024 15132129
0.77506661 -0.085027136 0.31476963 15263715
0.77572221 -0.07511162 0.31503499 15395301
0.7754336 -0.065100431 0.31491816 15000288
0.77491653 -0.055078696 0.31470838 15263716
0.77536666 -0.04512674 0.31489143 14869214
0.77583355 -0.035165362 0.31508207 14737372
0.77593356 -0.025179068 0.31512293 14408921
0.77600032 -0.015189999 0.3151494 14408920
0.77583331 -0.0051974123 0.31508011 14277334
0.77712512 0.0042918106 0.31554765 14408920
0.78075004 0.0089345649 0.31205231 14277334
0.77866673 0.01529073 0.31759983 14211541
0.78099996 0.014574938 0.31321779 14146005
0.7772426 0.025172325 0.31578907 13948370
0.78049999 0.022482345 0.31119141 14014675
0.77626687 0.034778889 0.31525472 14014163
0.77663887 0.044797499 0.31540501 14211287
0.78000003 0.048641495 0.31038377 14277077
0.77770019 0.054870203 0.31583601 14013652
0.78000003 0.053206485 0.31038377 14145491
0.77594459 0.064733706 0.31512475 13750480
0.77402782 0.075447805 0.31464839 13487051
0.77299994 0.085126109 0.31553382 14211289
0.77496153 0.094663911 0.31507671 14343133
0.78479993 0.10406526 0.31504816 12961222
0.79000002 0.10937075 0.31528774 10790051
0.78900003 -0.1813723 0.32196906 9408142
0.79145008 -0.18539678 0.32568663 9737617
0.78760004 -0.17472169 0.32438046 10131864
0.79000002 -0.17851985 0.32854179 10329754
0.78552383 -0.16507471 0.32475773 13092549
0.78420848 -0.15541217 0.32529557 12829636
0.77840006 -0.14552914 0.32068056 15987952
0.78262508 -0.14482771 0.32597467 13027016
0.77875006 -0.13738848 0.32082474 15856366
0.78381252 -0.13518585 0.3258965 14342875
0.78364718 -0.12514156 0.32457197 15855856
0.77875006 -0.11369036 0.32082474 15657960
0.78426665 -0.1149203 0.32640707 15395304
0.7778334 -0.10505679 0.32105497 15000544
0.78328568 -0.10544373 0.32662609 14737630
0.77749997 -0.09439522 0.32258585 15395044
0.78200006 -0.09562894 0.3269704 15132385
0.77691674 -0.084774889 0.32325402 15394788
0.78187501 -0.085317083 0.32874811 13683914
0.7766 -0.074833192 0.32394147 14933981
0.78033334 -0.076472543 0.32878414 13091520
0.77570003 -0.065124236 0.32411095 14408667
0.77543992 -0.055223271 0.324184 14607075
0.77673334 -0.045691662 0.32375461 14869474
0.78160006 -0.044026244 0.32895267 14014681
0.77750009 -0.035239156 0.32304117 14474713
0.7815001 -0.035420462 0.32744622 13948886
0.77700001 -0.025213908 0.32192278 14541023
0.78149998 -0.025359938 0.32653323 13948887
0.77750009 -0.015221502 0.32304117 14475230
0.78185719 -0.014653007 0.32785773 13489107
0.77713335 -0.0052065901 0.32379967 14212060
0.78225005 -0.0047839 0.32959172 13093583
0.77750009 0.0048032245 0.32304144 14343642
0.78187507 0.0048293695 0.32851928 13554130
0.77808338 0.015278836 0.32191691 14211541
0.7815001 0.014204147 0.32676148 14211284
0.77682352 0.02474804 0.32324186 14079955
0.78185713 0.024309894 0.32916537 13882061
0.77666664 0.034797199 0.32360443 14014162
0.78200006 0.03503615 0.3294864 13618376
0.7765556 0.044790711 0.32355812 14277080
0.78100008 0.045045238 0.32906505 13882067
0.77649999 0.054987129 0.32414168 13882580
0.78000003 0.051380493 0.32864371 13684944
0.77557695 0.06498424 0.32440898 12961478
0.7735334 0.075398572 0.32441184 13487308
0.77282625 0.08504761 0.32530862 14671583
0.77562499 0.093198135 0.32441923 14342877
0.78216672 0.098520719 0.32620272 13224397
0.78706676 0.10405521 0.32437402 10658721
0.7908572 0.10869648 0.32607779 10790303
0.78900003 -0.17213698 0.33120438 10329497
0.79130447 -0.17588978 0.33582464 10329754
0.78855002 -0.16468567 0.33289325 10329756
0.79012501 -0.16575472 0.33776531 10264217
0.78813332 -0.15472807 0.33391693 10329754
0.79079998 -0.15525016 0.33874801 10330524
0.78815395 -0.14550532 0.33349973 10001049
0.79137504 -0.14517501 0.33806905 10198685
0.78840005 -0.1348464 0.33181423 9342609
0.79133338 -0.13456523 0.33630171 10263963
0.78850001 -0.12526529 0.33130273 9671318
0.7917273 -0.12527339 0.33645049 10197913
0.78837508 -0.11601831 0.33171123 10197660
0.79090905 -0.11504321 0.33593449 10066329
0.78850001 -0.10496048 0.33314866 9934229
0.79149997 -0.10466482 0.33789083 10132121
0.78762507 -0.094703451 0.33393306 10197141
0.79066664 -0.096612483 0.33838263 10066582
0.78670007 -0.084738411 0.33543083 9934227
0.78550011 -0.075139917 0.33556378 9802898
0.77900004 -0.062663697 0.33004603 8686220
0.7842381 -0.065314762 0.33541819 9671828
0.77900004 -0.0568888 0.33004603 8752272
0.78441185 -0.054511413 0.33558506 9671829
0.78663641 -0.045028146 0.33546215 10132124
0.78693348 -0.034745656 0.3334102 11448240
0.79040003 -0.034899037 0.33857664 9737360
0.78738469 -0.024983104 0.33317488 11645876
0.79090005 -0.024739565 0.33805105 9277068
0.78717649 -0.014703573 0.3339473 9804701
0.79000002 -0.016388742 0.33840528 9080457
0.78687501 -0.0052716746 0.33545786 8619656
0.78680956 0.0050791432 0.33502489 9408913
0.78709996 0.014995295 0.33440334 10131608
0.78722221 0.025133256 0.33537552 9868433
0.78713328 0.035265982 0.33533773 10722716
0.7860589 0.045065556 0.33477223 10394783
0.78619993 0.055100389 0.33604765 9869209
0.77900004 0.065903842 0.33004603 10526882
0.78445005 0.064801589 0.3353911 10329757
0.77714294 0.075621143 0.33159921 11119017
0.78355557 0.074233361 0.33686912 9540241
0.77687502 0.085729532 0.33232918 14276825
0.78200006 0.084464408 0.3368091 13619151
0.77800006 0.091317616 0.33144367 14606050
0.78578949 0.096303791 0.33592623 12303294
0.78866673 0.10241672 0.33260354 10461344
0.7918824 0.10658129 0.33539355 10658718
0.79234612 -0.094559617 0.3448326 10066582
0.79104555 -0.08518146 0.34491608 10132375
0.78900003 -0.075474024 0.34167105 10066582
0.79088902 -0.074729472 0.3465018 10000789
0.78874999 -0.065295354 0.34248635 10000789
0.79028577 -0.064232036 0.34764665 10066581
0.78875005 -0.05583062 0.34225544 10132375
0.79084623 -0.055141322 0.34688619 10198167
0.79249996 -0.045051813 0.34533107 10000789
0.79274982 -0.0053108372 0.34531084 9408908
0.79279327 0.0049926797 0.34530342 9408652
0.79280764 0.024811737 0.34468201 9079944
0.79255998 0.044785693 0.34507397 9146251
0.78900003 0.067673378 0.34167105 8882053
0.78811115 0.075898267 0.3419019 9079690
0.79242855 0.074458256 0.34713382 9474700
0.78729999 0.08503662 0.34185794 10724514
0.79190916 0.085027121 0.34765184 10264215
0.78850007 0.092858672 0.34207022 11711155
0.79171425 0.095442079 0.34655568 10396060
