# .PCD v0.7 - Point Cloud Data file format
VERSION 0.7
FIELDS x y z rgb
SIZE 4 4 4 4
TYPE F F F U
COUNT 1 1 1 1
WIDTH 1112
HEIGHT 1
VIEWPOINT 0 0 0 1 0 0 0
POINTS 1112
DATA ascii
0.78570586 -0.085002199 0.075480953 14013642
0.7931 -0.08514905 0.071443439 12369587
0.77627277 -0.075576462 0.079096884 15593189
0.7856667 -0.075157113 0.076289319 14737879
0.79288244 -0.074644178 0.072240651 12171952
0.77639997 -0.06517949 0.07993786 15593446
0.78500009 -0.064984694 0.077142328 15133152
0.79273343 -0.064697258 0.072336629 11975344
0.77711111 -0.054323647 0.079403192 15329762
0.7855556 -0.055016324 0.075560674 13882830
0.79122227 -0.055724725 0.07117258 12040624
0.77722228 -0.045639474 0.079212524 15000798
0.78595454 -0.045075294 0.075060539 13553610
0.79133338 -0.044202983 0.070976973 11974575
0.77700001 -0.039765675 0.079999633 15066591
0.78552639 -0.035264716 0.07670889 14474712
0.79291677 -0.034547266 0.071889833 11777454
0.78581262 -0.025153995 0.077108808 14869470
0.79299998 -0.02480568 0.07235992 11580332
0.78594738 -0.014753314 0.076945566 14079953
0.79292303 -0.01502046 0.072068281 11185573
0.78587508 -0.0054955655 0.076999374 14079952
0.79249996 -0.0050448636 0.072182953 11119265
0.78694433 0.0048620296 0.077335373 14014157
0.79283345 0.0048989225 0.072345756 11185057
0.78772736 0.014673701 0.078085274 13882828
0.78833342 0.02424611 0.078705333 14540247
0.78828579 0.036109369 0.078788497 13948364
0.78840005 0.044550709 0.078404196 13487813
0.78775007 0.054655939 0.078339569 12895419
0.79329175 0.055040594 0.073313154 11119008
0.7881819 0.064500928 0.078130789 12434613
0.79284209 0.065413631 0.073126934 11119265
0.78883338 0.07350754 0.079063475 12829116
0.79296154 0.075081743 0.07442522 11119011
0.78900003 -0.17152131 0.088623412 11376257
0.77725005 -0.16168755 0.087756008 12296070
0.78638887 -0.16491917 0.085051268 11508613
0.79050004 -0.16814625 0.082776651 11050121
0.77529407 -0.1547693 0.086653568 12168095
0.78423077 -0.15551551 0.082294412 12237231
0.77407676 -0.14499772 0.085477665 14803679
0.7816667 -0.14522548 0.080784447 14540762
0.77365541 -0.13527384 0.084521249 14999772
0.76900005 -0.12036718 0.085476816 15000798
0.77115405 -0.12521996 0.084951058 13486533
0.76858348 -0.1147553 0.086479865 15132384
0.77000004 -0.11571681 0.081381939 14474455
0.76806676 -0.10493767 0.086270712 15066590
0.77099997 -0.10533836 0.081186809 14606297
0.76819986 -0.095064126 0.086285681 14737626
0.77200001 -0.094631396 0.0812921 14408915
0.76819217 -0.085450441 0.086838074 14474197
0.77155566 -0.084241584 0.082046464 14737368
0.7669 -0.075156361 0.087036967 14276306
0.77183336 -0.074733965 0.082176439 15394786
0.76734793 -0.065511756 0.087205015 14737370
0.77281833 -0.064552031 0.082527712 15330018
0.76900005 -0.057718731 0.089257322 14736858
0.77192879 -0.054607786 0.084636174 15460835
0.77308005 -0.044993225 0.085022613 15394784
0.77451438 -0.034974683 0.084399663 15329248
0.77516669 -0.025154108 0.084341273 15066333
0.77539986 -0.015099759 0.084496908 14276562
0.78000003 -0.018007282 0.080308519 14342870
0.7754001 -0.0051946654 0.084366672 13882060
0.77569991 0.0047928388 0.085310556 13750474
0.78116673 0.0048281644 0.080428638 14277332
0.77647626 0.014621017 0.086087875 13421765
0.78266674 0.015320833 0.081396192 14145489
0.77660865 0.024676416 0.086437568 13684936
0.78400004 0.025242878 0.081847116 14145746
0.77631259 0.034781769 0.086969182 13816267
0.78321427 0.035090555 0.082337521 14079953
0.77661121 0.044795148 0.087230682 14211026
0.78244448 0.045129851 0.082387894 14211283
0.77675003 0.054575369 0.087018177 14474455
0.78271425 0.055485345 0.082285717 14408920
0.77677786 0.064808048 0.087248884 14671835
0.78318757 0.064769514 0.082581058 14408919
0.77719998 0.074121401 0.088024408 14605786
0.78504556 0.075437576 0.083494216 14277077
0.77850008 0.081353232 0.089266494 14869214
0.78617388 0.084597155 0.085658178 14408666
0.79025 0.087668419 0.081826203 13618378
0.78883338 0.091973871 0.087373316 13816273
0.79163164 0.095552616 0.084430039 11513770
0.78693348 -0.17279457 0.095022283 11048066
0.79150003 -0.17716087 0.09446004 10721677
0.77514285 -0.16358809 0.095361724 12361347
0.78225005 -0.16868034 0.093355492 11637628
0.7725333 -0.15528272 0.094911054 11376005
0.76900005 -0.14076994 0.098378561 13881032
0.77118182 -0.14543736 0.094388723 14407378
0.76900005 -0.13416904 0.098678596 15526113
0.77083343 -0.13524063 0.093648352 15197149
0.76866663 -0.12403396 0.097375512 15526372
0.77038109 -0.1256514 0.092543215 14472913
0.76856005 -0.11490158 0.095323108 15855591
0.76759994 -0.1048739 0.095203802 15921641
0.76795983 -0.095035277 0.095248997 15855847
0.76733327 -0.085079297 0.095170483 15790310
0.76632005 -0.075099319 0.095044993 15658725
0.76656681 -0.065251112 0.095076121 15395554
0.76810724 -0.054850396 0.095522508 15724520
0.77000004 -0.051664997 0.090815455 14737370
0.76881826 -0.046382342 0.096991546 16053229
0.77063161 -0.043901976 0.093205236 14934749
0.77188891 -0.034984697 0.094830699 15198177
0.77313346 -0.025087969 0.094985239 14869212
0.77366686 -0.015143931 0.095049918 14473683
0.7736668 -0.0051828972 0.095049813 14473938
0.77411115 0.0047825053 0.095104471 14473937
0.77463329 0.014758518 0.095168546 14276558
0.77455539 0.024729554 0.09515851 13881800
0.77436668 0.034694076 0.095134668 13881802
0.77441669 0.044667438 0.095139794 14342355
0.77435493 0.054809384 0.095278233 14605783
0.77414292 0.064716056 0.094977662 14672091
0.77412504 0.074892722 0.095330738 14935006
0.77655011 0.0829686 0.095401801 15000799
0.78237504 0.087710641 0.093827501 14869214
0.78728569 0.092937477 0.095274538 13092803
0.79022223 0.097685494 0.09430968 11382440
0.78680009 -0.17288794 0.10495663 9800578
0.79110003 -0.17846105 0.10552664 10262671
0.77654546 -0.16303062 0.10391827 10455412
0.78200006 -0.16633901 0.10695962 9075307
0.77350003 -0.15532883 0.1048421 11839902
0.76628566 -0.14386462 0.10511678 14209743
0.77012503 -0.148488 0.10430616 12960188
0.76339388 -0.13508518 0.10425904 15854822
0.76347077 -0.12517606 0.10461733 16052714
0.76442862 -0.11504852 0.10477273 16118762
0.76511765 -0.10479702 0.10453057 15987434
0.76503134 -0.095007785 0.10495258 15921641
0.76445723 -0.084888443 0.10452297 15724518
0.76303226 -0.074949272 0.10459992 15724261
0.76358318 -0.064997546 0.10453062 15790312
0.76499999 -0.054777831 0.10448094 15790312
0.76706457 -0.045394294 0.10550365 15724264
0.77000004 -0.041210011 0.10181122 15987178
0.76888895 -0.03735029 0.10836404 15724265
0.77074087 -0.034097932 0.10448063 15657957
0.77136678 -0.025030559 0.10560017 15460834
0.7688334 -0.01265036 0.10915621 14671833
0.77160007 -0.015585491 0.10484909 15000797
0.76753843 -0.0047291042 0.10804943 14408917
0.77123541 -0.0054858141 0.10330018 14935002
0.76566666 0.0047291126 0.10750816 14473938
0.77144456 0.0047657094 0.10290298 15066075
0.76558822 0.01521701 0.10760172 14078924
0.77213347 0.014711044 0.10299538 15000281
0.76550001 0.024998082 0.10737105 13684166
0.77166659 0.024637513 0.1029325 14079179
0.75833338 0.038710129 0.10944035 13948110
0.76447827 0.034949251 0.10632566 13816008
0.77154547 0.035058301 0.10209654 13684679
0.75791663 0.045488793 0.10908414 14013133
0.76429999 0.044977054 0.10462749 14342609
0.77116662 0.044479039 0.10106283 14342868
0.75719994 0.055195749 0.10898092 13552326
0.7640416 0.054801896 0.10459176 14737367
0.77099997 0.055299949 0.10104098 14671833
0.75661105 0.064893067 0.10800734 13157569
0.76476467 0.065328024 0.10390393 14276816
0.7712 0.065243959 0.1010672 14671833
0.75417662 0.075018056 0.10776185 13158339
0.76387507 0.075017206 0.10356639 14276562
0.77099997 0.075154118 0.10104098 14671834
0.75521433 0.084347539 0.10793198 14145492
0.76400012 0.084454291 0.1048876 12895168
0.77345461 0.086178236 0.10218287 14211286
0.78100002 0.089841396 0.10052317 15329765
0.75700003 0.091512136 0.10983916 15066597
0.76324999 0.091370188 0.10761433 14013909
0.77600002 0.092538044 0.10460146 11908274
0.78538471 0.096289262 0.10391349 11908784
0.79000002 0.09827432 0.10168156 11580073
0.78800005 0.10171497 0.1078795 11382440
0.78880006 -0.17295548 0.11149891 9736844
0.79168427 -0.17571516 0.11555657 9671307
0.78761113 -0.1648691 0.11418101 9210242
0.79040003 -0.16738474 0.11764634 9671052
0.77560008 -0.15245055 0.11362727 12434098
0.78355563 -0.15688807 0.11593553 9867916
0.76507694 -0.14248963 0.11459339 14078674
0.77240008 -0.14784235 0.11533073 12631481
0.75868422 -0.13370977 0.1155981 15592423
0.76018196 -0.13678335 0.11289063 14802394
0.75793749 -0.12495687 0.11496289 15526628
0.76000005 -0.12429599 0.11027446 15789283
0.75816661 -0.11526952 0.11547881 15329763
0.76025009 -0.11365744 0.11075552 15921382
0.75860888 -0.10561399 0.1164031 15000799
0.7604546 -0.10446422 0.11147261 15724005
0.75899994 -0.095075995 0.11734122 14868700
0.76063156 -0.094784409 0.1123333 15329506
0.75899994 -0.084905431 0.11751007 14803164
0.76047063 -0.085311957 0.11254096 15395556
0.75895649 -0.075072348 0.11645736 15198177
0.76030773 -0.075742081 0.11141396 15922154
0.75899994 -0.065705992 0.11702764 15395814
0.76021069 -0.063727863 0.11255238 15987689
0.76103324 -0.054981459 0.11487649 15790569
0.76313883 -0.045305237 0.11519064 15724777
0.76538903 -0.034690142 0.11552732 15724263
0.76633346 -0.024867773 0.11567036 15263969
0.76519448 -0.014982153 0.11549808 14737627
0.7622 -0.0051088114 0.11504848 14277331
0.75870579 0.0057821292 0.11698207 13487303
0.76078957 0.0037140979 0.11263712 14342353
0.75739294 0.015757922 0.11578158 13158338
0.76066673 0.014493048 0.11096425 13881802
0.75570005 0.025010414 0.1158338 12829373
0.76020008 0.025160294 0.11030348 13684422
0.74880004 0.036703434 0.1188164 12961217
0.75423533 0.034257587 0.11446457 12895424
0.76000005 0.030492133 0.11027446 13552836
0.74828571 0.045411654 0.11783312 13684940
0.7524547 0.044840869 0.11333836 13619147
0.74730772 0.055617668 0.11596647 13618634
0.7521112 0.05443377 0.11167134 13552841
0.74554843 0.065661468 0.11515354 13092292
0.75075006 0.062633067 0.11068982 13289412
0.74423695 0.07474447 0.11467314 13552588
0.74458987 0.08458259 0.11460234 14934754
0.74600005 0.091928549 0.11522564 13684687
0.75300002 0.092793718 0.11102155 14671582
0.76333338 0.096150964 0.11135196 11974580
0.78650004 0.10244489 0.11043712 11711405
0.77800006 -0.15091689 0.12017146 13157565
0.78594118 -0.15473677 0.12507457 11447206
0.79175001 -0.15914464 0.12692994 9210246
0.7646001 -0.14115778 0.12526146 12367796
0.7728126 -0.146184 0.12513569 12631478
0.75800008 -0.13373034 0.12506744 15526630
0.76100004 -0.13871165 0.12467168 14210256
0.75700003 -0.1246914 0.12490243 15592936
0.75713331 -0.11496451 0.12492512 15527143
0.75799984 -0.10533671 0.12506743 15461351
0.75802767 -0.094693094 0.12507185 15132386
0.75823325 -0.084956288 0.12510471 14803421
0.75766677 -0.075138018 0.1250104 14935007
0.75808334 -0.064529173 0.1250796 15395558
0.75872725 -0.055381395 0.12639742 15724523
0.7601251 -0.053359874 0.12208138 15724523
0.7587778 -0.045050442 0.12785973 15724523
0.76044452 -0.045148619 0.12279967 15790316
0.75891662 -0.035730746 0.12832768 15658730
0.76065004 -0.034565836 0.12327762 15592937
0.75892311 -0.025174387 0.12856796 15329765
0.76076198 -0.02536498 0.12378266 15066850
0.75818181 -0.01451953 0.12711285 14540249
0.76064295 -0.015398805 0.12232298 14474713
0.75803709 -0.004881287 0.1255638 14079696
0.76000005 -0.0068705161 0.12094948 14079698
0.75744444 0.004676573 0.12497321 13948110
0.75488567 0.015135204 0.12467808 13684940
0.74875003 0.027192039 0.12770383 13224389
0.75100011 0.024100689 0.12453948 13224389
0.74768555 0.034497295 0.12523925 13092803
0.75000006 0.030090921 0.12111381 12763838
0.74655557 0.044806346 0.12492498 13619147
0.74491692 0.055170752 0.12465031 13619147
0.74280548 0.065447003 0.12458549 13290184
0.74125004 0.075042658 0.1254624 13947859
0.74303025 0.084844649 0.12473094 14935268
0.74507141 0.092188671 0.12517755 13027014
0.75066668 0.095138669 0.12473457 11316139
0.76900005 0.1010627 0.12598228 11514028
0.77700007 0.10393304 0.12638223 11448235
0.78840005 0.10767299 0.1269445 11448235
0.79150009 0.10896078 0.12379826 11514026
0.78900003 0.11846761 0.12925881 11316647
0.79296672 0.11504103 0.12494841 11514025
0.78900003 0.12493233 0.12925881 11448231
0.79296297 0.12504275 0.12453688 11448487
0.78900003 0.13139705 0.12925881 11514280
0.77850008 -0.15101388 0.13756171 12894396
0.78623074 -0.15478304 0.13488907 12368051
0.79100001 -0.15899387 0.13513888 9538184
0.76466674 -0.14206825 0.13511401 12828604
0.77366668 -0.1473611 0.13489412 12960446
0.75825 -0.13377379 0.13487208 14737629
0.7601667 -0.13855974 0.13432176 14473686
0.75810009 -0.12487233 0.13484536 14935009
0.75823998 -0.11513277 0.13487084 14869473
0.75799996 -0.1053367 0.13482714 14803423
0.75705713 -0.094445735 0.1354188 14737886
0.75700003 -0.084818013 0.13553534 14606299
0.75700003 -0.075071201 0.13553531 14737629
0.75681823 -0.064825498 0.13526013 14803421
0.75639403 -0.055130985 0.135665 15066594
0.75636125 -0.044906083 0.13541672 15263972
0.75696671 -0.035195634 0.13552667 15329765
0.75713897 -0.02545646 0.13555816 14935006
0.75569451 -0.014795088 0.13529825 14342870
0.75470006 -0.0050559929 0.13511947 14079698
0.75391674 0.0046555959 0.13497831 13948112
0.74900001 0.019530261 0.13848655 12961217
0.75197142 0.015078141 0.13450463 13948111
0.74764502 0.026211316 0.13569438 13290438
0.75025004 0.021758147 0.13169169 13882574
0.74613351 0.035174739 0.13533515 13158852
0.74505591 0.044716846 0.13513987 13290182
0.74327779 0.055048674 0.13481742 13158596
0.73900002 0.069439866 0.1357726 13355976
0.74116123 0.064603344 0.13434987 13092803
0.73851734 0.075951941 0.13630818 13684942
0.74024999 0.073455989 0.13166933 13684941
0.73880005 0.081873879 0.13763769 14276567
0.74162966 0.085571729 0.13390709 14803682
0.74426317 0.092771053 0.1351347 14540253
0.77600002 0.1056159 0.13802885 11711407
0.78728575 0.10873311 0.13503283 11579562
0.78811538 0.11464418 0.13486026 11448232
0.78773344 0.12473224 0.13458249 11448487
0.78900003 -0.16043893 0.14772943 9604489
0.79129171 -0.1648435 0.1444522 9802125
0.77633339 -0.1512007 0.14535673 12631225
0.7856667 -0.15645467 0.14415923 11973038
0.7640667 -0.14261532 0.14544573 13487049
0.77237505 -0.14756666 0.14461723 14473429
0.75894111 -0.13300644 0.14408733 14934750
0.76030773 -0.13735372 0.14591734 15263715
0.75888908 -0.12500216 0.14475676 15132130
0.75900012 -0.11524827 0.1447776 14934750
0.75858361 -0.10541932 0.14469858 15197922
0.75748378 -0.094770089 0.14520344 14934750
0.75700003 -0.08481802 0.14528218 14869214
0.75700003 -0.075071201 0.14528219 14606043
0.75636017 -0.065270349 0.14515898 14671579
0.75483316 -0.055420533 0.1448662 14671835
0.75406653 -0.044770081 0.14471897 14606042
0.75488001 -0.035098858 0.14487295 14474201
0.75471866 -0.025155725 0.14517269 14145492
0.75355554 -0.014751822 0.14550132 13750735
0.75233346 -0.0050409967 0.14526452 13750477
0.75113893 0.0046386993 0.14503467 13619147
0.7487272 0.017132549 0.14480881 13487818
0.75014293 0.012033691 0.14446732 13553354
0.74684846 0.025511712 0.14492148 13158853
0.74516684 0.035129413 0.14562698 13093060
0.74430549 0.044671725 0.14545849 13290182
0.74247223 0.05498898 0.14509994 12895424
0.73872232 0.067491673 0.14513642 13224388
0.74072218 0.06285736 0.1439874 13092547
0.73680568 0.075268887 0.14542849 13816527
0.73771429 0.083548106 0.14552538 14671839
0.7409001 0.08783105 0.14358075 14606046
0.74436015 0.093576565 0.14522348 14342875
0.75575 0.099321365 0.14592542 11776689
0.77633333 0.1068747 0.14475612 11579817
0.78233337 0.10830935 0.14281438 11579817
0.78786206 0.11461028 0.14490904 11448231
0.78856516 0.12434191 0.14299391 11382694
0.78880006 -0.16039824 0.1550779 9473675
0.79233342 -0.16571248 0.15462558 9671054
0.77520007 -0.15128252 0.15439984 13552328
0.78383344 -0.1566384 0.15501685 12565432
0.76352936 -0.14285703 0.15483889 14341591
0.77183336 -0.1482154 0.15565689 14736605
0.75882351 -0.13309045 0.15628995 15197666
0.76016682 -0.13707711 0.15404584 15592168
0.758111 -0.12487548 0.15525578 15329252
0.75763333 -0.11504106 0.15515694 15131616
0.75752771 -0.10527106 0.15513539 15065823
0.75697225 -0.094562046 0.15502197 15263202
0.75666684 -0.084780686 0.15495917 14935007
0.75694442 -0.075065434 0.15501727 15066593
0.75636685 -0.065270796 0.15489981 14803421
0.75566667 -0.055480823 0.15475619 14803421
0.75449973 -0.044797108 0.15451811 14540249
0.75399983 -0.03505832 0.15441462 14408918
0.75305557 -0.025320373 0.15480614 13948109
0.75166678 -0.014715235 0.1556935 13750476
0.74900001 -0.0015108071 0.15952763 13421768
0.75051725 -0.0051495489 0.15530518 13684684
0.74870586 0.0048813168 0.15781486 13684940
0.75000006 0.0044013271 0.15290239 13684940
0.74762845 0.015241876 0.15498303 13553354
0.75000006 0.01077752 0.1509618 13619147
0.74580026 0.025430793 0.15460467 13158596
0.74468005 0.035106186 0.15512064 13224389
0.74314284 0.044725016 0.15554464 13027011
0.73883337 0.057893131 0.15793853 13158596
0.74109995 0.054252412 0.15460531 13027010
0.73785299 0.065265328 0.1547637 13421768
0.74000001 0.060872063 0.15154749 13223876
0.73552948 0.075239919 0.15523979 14013908
0.73646438 0.084475659 0.15525492 14474203
0.74000001 0.08858972 0.15154749 14737375
0.73900002 0.091065019 0.15826276 14737632
0.74210006 0.093534872 0.15475507 14474460
0.75300002 0.098959967 0.15244001 11908531
0.77266669 0.10576776 0.1543131 11447976
0.78770006 0.1125587 0.1533861 11448488
0.78900003 -0.16043891 0.16527653 9144966
0.77571434 -0.15280984 0.16547497 14013135
0.78414291 -0.15709352 0.16439269 13158082
0.75900006 -0.14130849 0.16669188 15591654
0.76294446 -0.14443064 0.16428331 14473429
0.77150005 -0.14935558 0.16371588 15197409
0.75775015 -0.13457303 0.16544345 15197154
0.76000005 -0.13852938 0.16009133 16053235
0.75691676 -0.12467829 0.16564201 15263204
0.75670016 -0.11489903 0.16559479 15394789
0.75633353 -0.10510585 0.1655149 15066082
0.75578141 -0.094966069 0.16517319 15197410
0.7548824 -0.08520408 0.16540334 14934494
0.75588912 -0.074959971 0.16541763 15000543
0.75563335 -0.065207139 0.16536078 15066593
0.75477773 -0.055415757 0.1651724 14935006
0.75386101 -0.044759531 0.16497204 14737626
0.7525667 -0.034993313 0.16468723 14540248
0.74890006 -0.023601154 0.16774604 14276820
0.75092012 -0.025986841 0.16337965 14079697
0.7485925 -0.014231944 0.16677387 13881805
0.75000006 -0.015949104 0.16227673 13750219
0.74799991 -0.0048909159 0.16559172 13948112
0.75000006 -0.0085358787 0.16149639 13948112
0.74655557 0.0046092519 0.16512167 13618891
0.74530578 0.015071115 0.16484515 13881806
0.74463898 0.025517041 0.16469832 13223618
0.74400002 0.035074636 0.16455771 13223873
0.73880005 0.047974542 0.16807795 13027009
0.74170959 0.043925997 0.16497453 12895166
0.73702872 0.054709341 0.16486062 13355975
0.74000001 0.050477948 0.16107544 12961217
0.73469049 0.064733759 0.16507387 13750734
0.7344445 0.074600071 0.16502117 14013652
0.73563647 0.085564785 0.16482143 14408667
0.73749995 0.093182765 0.16484512 13947859
0.78800011 -0.16097394 0.1752135 9539469
0.76733333 -0.15064411 0.17780079 15525859
0.77380002 -0.15336578 0.17440976 14013135
0.78285712 -0.15814371 0.17511596 12105140
0.75782353 -0.1434557 0.17538941 14407895
0.7626251 -0.14748934 0.1735813 14013135
0.75599998 -0.13535613 0.17454979 15460327
0.75546426 -0.12475387 0.17486118 15394534
0.75551873 -0.11511163 0.17526008 15263203
0.7559337 -0.10504922 0.17516123 15263716
0.75536013 -0.095246188 0.175028 15132386
0.75382346 -0.08513736 0.17529456 15197409
0.75386101 -0.074759491 0.17556149 15065823
0.75283337 -0.064966597 0.17532066 15197408
0.74877781 -0.053124081 0.17778808 15065823
0.7514075 -0.055786539 0.17384844 15131614
0.7481429 -0.04429375 0.17610709 14934236
0.75050002 -0.045060784 0.17164283 14934492
0.74788892 -0.034579698 0.17530455 14802649
0.75000006 -0.036276944 0.17062636 14606041
0.74724394 -0.02523057 0.17502104 14473942
0.74658322 -0.014614983 0.17561439 13947855
0.74580014 -0.004997151 0.1754299 13882319
0.74483353 0.0045992006 0.17520355 13816270
0.74380559 0.015040262 0.17496152 13618633
0.73875004 0.028342046 0.17939454 12763836
0.74251419 0.02531944 0.17453122 13092032
0.73744446 0.036010798 0.17768484 13027009
0.74174994 0.034621745 0.17282715 12960702
0.73549992 0.045405641 0.17548247 13553354
0.74100006 0.040571667 0.17170012 13223874
0.7330001 0.054502584 0.17477624 13619404
0.73200029 0.064498179 0.17561153 13816528
0.73276329 0.074949838 0.17520709 13816784
0.73441666 0.08534462 0.17447141 14737886
0.73555553 0.093224019 0.17474225 14145495
0.78677779 -0.16244434 0.18598983 9342087
0.79360002 -0.16732268 0.18463132 9539723
0.76520002 -0.15201664 0.18625991 15196894
0.77225006 -0.15477674 0.18527368 13618118
0.78100002 -0.15881217 0.18188292 10986399
0.75561535 -0.1442652 0.18494943 14670810
0.76100004 -0.14940073 0.18256797 14736343
0.75269997 -0.13477656 0.18475795 15394790
0.75194609 -0.12502448 0.18503028 15592168
0.74900001 -0.11460656 0.18933581 15526374
0.75212502 -0.1150841 0.18457276 15394790
0.75265008 -0.10481219 0.18474451 15394532
0.74900001 -0.095318906 0.18933581 15460581
0.75261307 -0.095068797 0.18421774 15328995
0.74854547 -0.084348939 0.18842389 15262947
0.75170374 -0.085529335 0.18369311 15263202
0.74846667 -0.075101502 0.18744788 15000030
0.75129414 -0.074763551 0.18277521 15065568
0.74796146 -0.064948946 0.18604051 15131616
0.75025004 -0.066059589 0.18174791 15328995
0.74705547 -0.054848745 0.18446964 15065823
0.74633342 -0.045185309 0.18429175 14868444
0.74543613 -0.035467345 0.18480647 14802907
0.74416679 -0.025019966 0.18549788 14408405
0.7441389 -0.014566354 0.18549132 14013903
0.74379998 -0.004983753 0.18540676 14145490
0.74277771 0.004586244 0.18515094 13684940
0.73828572 0.016409559 0.18761364 13158594
0.74162501 0.014417333 0.1832736 13421767
0.73625731 0.02535025 0.18537085 13026751
0.74050003 0.022341998 0.18068613 13157823
0.73326313 0.035605498 0.18481122 13290183
0.73166698 0.045428365 0.18534671 13750991
0.73103356 0.055000227 0.18564956 13750733
0.73100036 0.064409934 0.18564129 13684940
0.73170608 0.074650466 0.18526517 13882320
0.73330545 0.085215248 0.18450934 14606299
0.73485714 0.092644215 0.18440929 13948113
0.74100006 0.095648222 0.18904823 12763838
0.77850008 -0.1601263 0.19770363 9342087
0.78625011 -0.16333421 0.19484459 9473673
0.79320008 -0.1677942 0.19493704 9539465
0.76344454 -0.15226665 0.19596519 14473685
0.77287507 -0.1567108 0.19514748 11710892
0.74842864 -0.1416761 0.1974498 15658218
0.75370836 -0.14503545 0.19368355 14342101
0.74748266 -0.13455878 0.19570735 15131876
0.75000006 -0.13787712 0.19192962 14999777
0.74728554 -0.12491555 0.19499619 15526631
0.74724984 -0.11488491 0.19479312 15460838
0.74675 -0.10502265 0.19475618 15395044
0.74650013 -0.095000766 0.19481662 15329252
0.74638247 -0.084759206 0.19458102 15263716
0.74581254 -0.075162239 0.19485585 15066080
0.74524999 -0.065183491 0.1944906 15066080
0.74434167 -0.054542884 0.194997 14803164
0.74360013 -0.04502051 0.19492789 14935006
0.73900002 -0.033495862 0.19891803 14408663
0.74247044 -0.035801608 0.19463283 14671835
0.74177766 -0.024939004 0.19532131 14342870
0.74166656 -0.014518122 0.19529198 14079697
0.73866671 -0.0035079215 0.19825165 14211027
0.74137497 -0.0053289416 0.19427581 14079696
0.73687881 0.0050462182 0.1960413 13618890
0.74066675 0.0027437648 0.19165976 13882061
0.73500001 0.014688539 0.19465114 13290181
0.732611 0.025103405 0.19462276 13092545
0.73123562 0.03512739 0.19451089 13487817
0.73100024 0.045585811 0.19505338 13882578
0.73100013 0.054997869 0.19505338 13750478
0.73100024 0.064409934 0.19505341 13553354
0.73121244 0.074933641 0.19464226 13882063
0.73227793 0.085095145 0.19453549 14606045
0.73375005 0.092137069 0.19492547 14211287
0.778 -0.16184476 0.20850392 9671050
0.78541678 -0.16461687 0.20482157 9473929
0.79180002 -0.16842277 0.20385709 9408393
0.75840002 -0.15102109 0.20591447 14342098
0.7639001 -0.15390766 0.20526202 14539476
0.77360004 -0.15839553 0.20478824 10789531
0.74645001 -0.14340097 0.20563856 14868700
0.75311112 -0.14804915 0.20447551 13355204
0.74389488 -0.13477096 0.20494981 15066338
0.74323076 -0.12503164 0.20526943 15263459
0.74341011 -0.11537918 0.2054095 15263459
0.7433334 -0.10503875 0.20529902 15263459
0.73900002 -0.09318129 0.20929813 15198179
0.74313891 -0.095007196 0.20452006 15329251
0.73900002 -0.08539623 0.20929813 15132388
0.742594 -0.0852677 0.20444171 15395046
0.73900002 -0.075016163 0.20929813 15066593
0.74241662 -0.075363405 0.20417701 15131873
0.73899996 -0.064018227 0.209051 14935007
0.74225712 -0.065045141 0.20400973 15066336
0.73841667 -0.05464657 0.20783561 14934751
0.74150002 -0.055482019 0.20332022 14934493
0.73650002 -0.045070022 0.20590162 14868444
0.74040002 -0.047598876 0.2017211 14736858
0.73561919 -0.035064716 0.20488699 14737115
0.73604763 -0.024745986 0.205006 14277077
0.73538095 -0.014395388 0.20481902 14211284
0.73417151 -0.004919719 0.20448378 13948112
0.73255575 0.0045236279 0.20489642 13816526
0.72900003 0.019008759 0.20987916 13158343
0.73158371 0.014793358 0.20462626 13487561
0.72900003 0.025369734 0.20910344 13290186
0.73067743 0.024901042 0.20368393 13158854
0.72900003 0.034733884 0.20853826 14014162
0.73046434 0.035536151 0.20327604 13685197
0.72900003 0.042901188 0.20987916 14277077
0.7307502 0.045571037 0.20439449 14277593
0.73100024 0.054997873 0.20446543 13882576
0.73100036 0.064409934 0.20446546 13619147
0.73069465 0.074645557 0.2043789 13882319
0.73091692 0.084936529 0.20444125 14474459
0.7318334 0.092752129 0.20469794 13421515
0.77520001 -0.16198988 0.21573663 9407624
0.78600001 -0.16719231 0.21524614 9539210
0.79000002 -0.16988929 0.21449521 9539209
0.74800003 -0.15035072 0.21885142 13157826
0.75566667 -0.15248325 0.21578224 14079440
0.76366675 -0.15628298 0.21508974 13092289
0.77100003 -0.15858364 0.21204269 9276039
0.7444483 -0.14429468 0.21504459 14210770
0.75100005 -0.14919563 0.21093863 13815754
0.73900008 -0.13335602 0.21641037 15000800
0.74085712 -0.13714667 0.21366253 14540250
0.73842883 -0.12511475 0.21530879 15000030
0.74000001 -0.12448974 0.21131368 15460581
0.73793763 -0.11485814 0.21558084 15066079
0.74059999 -0.11279944 0.21113761 15131616
0.73737061 -0.10467525 0.21541746 15197923
0.74000001 -0.10543384 0.21131368 15263202
0.73600012 -0.09498059 0.215289 15132131
0.73552376 -0.084994383 0.21519479 15198180
0.73538113 -0.074649453 0.2151514 15066337
0.73483801 -0.064853266 0.21475841 15000544
0.73397499 -0.055390287 0.214955 15000800
0.73294431 -0.045233537 0.21530116 14474200
0.7320835 -0.034896988 0.21504927 14606042
0.73158354 -0.024597131 0.21490254 14277077
0.73105574 -0.014310997 0.21474773 14145491
0.72900003 -0.0027504168 0.21798551 13685197
0.73057687 -0.0052234163 0.21401548 14013905
0.72900003 0.0045974534 0.21784329 13882576
0.73055547 0.0044805589 0.21336617 14013905
0.72860724 0.01546475 0.21622196 13553356
0.73036367 0.013137078 0.21151482 13487561
0.7281667 0.024953047 0.21560295 13224906
0.72850013 0.035196856 0.21570231 13882834
0.72900003 0.044038918 0.21540526 14145748
0.73007691 0.04822357 0.21308126 14211284
0.73063338 0.0549706 0.21462394 13882319
0.73049992 0.064365357 0.21458469 13618890
0.73011088 0.074586257 0.21447159 13684941
0.73086137 0.084929898 0.21469289 14474459
0.73217654 0.092898101 0.21492529 13947858
0.74100006 0.097382911 0.21506864 10987684
0.78840005 -0.17139088 0.22513334 9342087
0.79172003 -0.17656308 0.22497021 9342343
0.77520001 -0.16362672 0.22390819 9276555
0.78500015 -0.16855253 0.22468591 9342088
0.7475 -0.15112576 0.22483079 13421256
0.75575006 -0.15456527 0.22465651 13684683
0.76362509 -0.15840928 0.22520569 11974579
0.74312913 -0.14488889 0.22477673 14013649
0.7390002 -0.13496774 0.22520097 14803167
0.74000001 -0.13834856 0.22170781 13684687
0.73774308 -0.12485301 0.22522494 14737117
0.73551613 -0.11496074 0.22452861 14868959
0.73436093 -0.10525201 0.2246009 14803422
0.73360515 -0.095259085 0.22548448 14934751
0.7332499 -0.084732078 0.22569214 14934752
0.73244452 -0.074352019 0.22544453 14803166
0.73136693 -0.0648252 0.22511257 14934751
0.73083365 -0.055367906 0.22494872 14737372
0.72900003 -0.040722314 0.22865176 14342870
0.73065746 -0.045213319 0.22477162 14343127
0.72900003 -0.034749206 0.22865176 14013905
0.73060006 -0.03482547 0.22402114 14277078
0.72900003 -0.027922798 0.22865176 14013905
0.73041177 -0.024356492 0.22456683 13882322
0.72900003 -0.012468567 0.22552299 13882576
0.72999984 -0.01609344 0.22355376 13816784
0.72900003 -0.0048836702 0.22438526 13882576
0.72877789 0.0045008142 0.22431582 13750990
0.7280001 0.01454057 0.22477369 13487818
0.72728568 0.024995325 0.22543757 13224393
0.72725809 0.035000674 0.22486518 13619919
0.72886115 0.045453172 0.22434227 13882834
0.72900003 0.053330425 0.22713478 13685197
0.72999984 0.055573668 0.22351305 13948369
0.72999972 0.064321831 0.22469312 13619148
0.72900003 0.075516254 0.22770365 13750994
0.72999978 0.07422737 0.2235854 13947858
0.72900003 0.081299737 0.22865176 13817300
0.73073536 0.085117608 0.22466744 14343127
0.7316364 0.091792934 0.22480685 14408408
0.78736377 -0.17200492 0.23539361 9276807
0.79100007 -0.17728071 0.2349036 9211014
0.76700002 -0.16135204 0.23607498 10329239
0.77600002 -0.16607326 0.23531842 9211015
0.78150004 -0.16806138 0.23139659 9211015
0.74616671 -0.15172902 0.23490852 13092035
0.755 -0.15582548 0.23556384 13289668
0.76066667 -0.15823896 0.23324108 13355973
0.74263328 -0.14580135 0.23483723 13815759
0.7390002 -0.13556661 0.23438327 14276308
0.73758847 -0.12484959 0.23510255 14342617
0.73513335 -0.11506791 0.23487836 14474461
0.73399979 -0.10556119 0.23463878 14605789
0.73309988 -0.095012151 0.23508647 14474202
0.7330665 -0.084710911 0.23507626 14342614
0.73209393 -0.074101374 0.23508534 14474201
0.73163354 -0.064848438 0.23547393 14408663
0.73111153 -0.055389345 0.23530568 14277077
0.72900003 -0.042049669 0.23225461 14211284
0.73044425 -0.046059448 0.23588292 14079955
0.72900003 -0.035059497 0.23268558 13882319
0.7304284 -0.034329031 0.23813887 13224646
0.72900003 -0.027709471 0.23249161 13487307
0.73039263 -0.023640459 0.23568527 12961219
0.72900003 -0.012468567 0.23320273 13422025
0.73016655 -0.016097547 0.23642533 13224390
0.72863334 -0.0048821499 0.23450767 13422025
0.72772229 0.0044937097 0.23421478 13356233
0.72742862 0.014685526 0.2342401 13027011
0.72729027 0.024841046 0.23476101 12632509
0.7283715 0.035313874 0.23454568 13093062
0.72900003 0.045461081 0.23462497 13553869
0.72900003 0.051921796 0.23304017 13685197
0.72999978 0.055814255 0.2354297 13750990
0.73005533 0.064326659 0.23496477 13553611
0.72900003 0.075792082 0.23400435 13487822
0.72999996 0.072500341 0.23592329 13421771
0.72900003 0.081177831 0.23255256 13948888
0.73072433 0.085769735 0.23568118 14080472
0.73199999 0.09174563 0.2352498 13421770
0.74100006 0.095648222 0.23241559 11578792
0.79224992 0.11540281 0.23566283 11119268
0.79276001 -0.18533228 0.24494001 9211012
0.78671438 -0.17234208 0.24412598 9342086
0.79106253 -0.17741077 0.24476263 9276549
0.76325005 -0.16101292 0.24609578 11907501
0.77433342 -0.16621974 0.24528225 9276037
0.78175008 -0.16994523 0.24611105 9276293
0.74708343 -0.15279134 0.24481529 12829629
0.75683331 -0.15744153 0.2453521 12960700
0.74251723 -0.14577831 0.24505772 13355976
0.73888904 -0.13554682 0.24472621 14211285
0.73745465 -0.12516314 0.24464318 14211288
0.73574203 -0.11499532 0.24554648 14145496
0.73471445 -0.10541885 0.24494193 14013909
0.73433328 -0.095171742 0.24493824 13882322
0.73405546 -0.084825575 0.24484499 13684686
0.73364693 -0.074674517 0.2449626 13553099
0.73367995 -0.065030023 0.24557965 13553099
0.73296672 -0.055529613 0.24534115 13487306
0.73226672 -0.045190334 0.24510722 13224137
0.73246688 -0.034914136 0.24517484 12434619
0.73206675 -0.024613712 0.24504025 11645103
0.73113346 -0.014312599 0.24472687 12303290
0.72900003 -0.0045992355 0.24088241 12763841
0.7306841 -0.0049855127 0.2455664 12303288
0.72900003 0.0048905066 0.24137372 13027014
0.73068178 0.0046688672 0.24659668 12171958
0.72877783 0.01473724 0.24223126 12566459
0.73072219 0.014776756 0.24800958 11908786
0.72871435 0.024485143 0.24172269 12303287
0.73077273 0.025353599 0.24740472 11842736
0.72900003 0.034988765 0.24137372 12764095
0.73067999 0.03540495 0.2469693 12303801
0.72900003 0.042901188 0.24059798 13093060
0.73049986 0.045661662 0.245637 12566974
0.73084611 0.054855108 0.2448272 12895940
0.73081833 0.064626999 0.24508719 12961734
0.7307716 0.074532539 0.24533866 13158343
0.7317335 0.085032128 0.24492712 13619151
0.7355001 0.092357889 0.2451106 12763842
0.78900003 0.1092323 0.24839437 11185058
0.78900003 0.11551233 0.24820967 10987936
0.7911666 0.11586002 0.24290048 11053475
0.78883332 0.12490615 0.24741822 10987936
0.7910589 0.12498526 0.24266838 11119268
0.78900003 0.1327164 0.24720697 10922143
0.79033345 0.13578145 0.24418761 10987681
0.78588891 -0.17309523 0.25589192 9407621
0.79230011 -0.17743364 0.25425476 9342084
0.76583338 -0.16289943 0.25544149 9144452
0.77544451 -0.16797177 0.25591969 9341829
0.78000003 -0.16956478 0.25012597 9342084
0.74750006 -0.15252592 0.25475329 12369079
0.75433344 -0.15662883 0.25513533 12237491
0.76000005 -0.15987946 0.25527713 12829114
0.74336666 -0.14495797 0.25496981 13158853
0.73883337 -0.13395095 0.25220349 14342871
0.74076933 -0.13569179 0.25675565 13618892
0.73838735 -0.12460981 0.25434837 13948116
0.74000001 -0.12795444 0.25895339 13618894
0.73756689 -0.11458506 0.25551483 13882323
0.73692018 -0.10499539 0.25529081 13553358
0.73660004 -0.095465891 0.25517961 13684943
0.73580009 -0.085026771 0.25490227 13092807
0.73660016 -0.074771672 0.25518063 12961220
0.73696566 -0.064607881 0.25542521 13092803
0.73549998 -0.055059217 0.25466567 12895424
0.73526663 -0.045374539 0.25471792 13026757
0.73683339 -0.035120606 0.25526202 12500668
0.73596668 -0.024746513 0.25496215 11316392
0.73375767 -0.014129434 0.25466448 11448237
0.73316664 -0.0049122064 0.25484896 12040374
0.73290908 0.0042924718 0.25514892 12040374
0.73286659 0.014820763 0.25560185 11777459
0.73316675 0.025125315 0.2557067 11843251
0.73296678 0.035412703 0.25563681 12040372
0.73262978 0.045210958 0.25520203 12237754
0.73309076 0.054634631 0.25516042 11909047
0.73266673 0.064322263 0.25506398 12172218
0.73267752 0.074987695 0.2553699 12501186
0.73366654 0.084742077 0.25433603 13027272
0.7373333 0.09114603 0.25428474 13619151
0.7432 0.093497068 0.25572407 13290187
0.76900005 0.10286294 0.25740001 10987682
0.778 0.10588811 0.25767934 10987682
0.78866673 0.10918615 0.25290439 11053475
0.78836 0.11467982 0.25465134 10987682
0.78831035 0.12466528 0.25450951 10987681
0.79000002 0.12971419 0.25888091 10921889
0.78900003 0.13185883 0.25255027 10921888
0.79131585 0.13588011 0.2557058 10922145
0.78509104 -0.17351522 0.26495335 9210246
0.79140007 -0.17834367 0.26582313 9210245
0.76485717 -0.16167143 0.26470986 10987170
0.77411109 -0.16728082 0.26454794 9341831
0.74799997 -0.15078849 0.26219183 11711153
0.75458336 -0.15462387 0.26493445 11777200
0.76050007 -0.1582043 0.26790804 11514028
0.74571991 -0.14465818 0.26497257 12500668
0.74309671 -0.13460843 0.26506224 13158599
0.73900002 -0.12086149 0.26119849 14145238
0.74138451 -0.12525716 0.2653147 13289930
0.73900002 -0.11480644 0.26119849 13421772
0.74158335 -0.11520798 0.26645404 13158857
0.73899996 -0.10373436 0.2618905 13750993
0.74164993 -0.10514818 0.26699871 13092807
0.73859996 -0.094860397 0.26192212 13224135
0.74106252 -0.094850495 0.26724198 13224391
0.73849994 -0.085338451 0.26188678 13092547
0.74076468 -0.085345335 0.26692367 13158597
0.7387777 -0.07528089 0.26169664 13355975
0.74066669 -0.075061835 0.26649478 13158597
0.7388078 -0.063488871 0.26465684 13487562
0.74000007 -0.067817032 0.26699644 13553356
0.73833346 -0.055431809 0.26434967 13553868
0.74033338 -0.05175342 0.26860228 13619151
0.73841178 -0.046229608 0.2627202 13488078
0.74141675 -0.044452023 0.26769429 13685457
0.73900002 -0.035744876 0.26119849 13290186
0.74167997 -0.035248838 0.2663157 13224906
0.73876923 -0.023441534 0.26258081 11777201
0.74094117 -0.025983803 0.2668854 12435390
0.73706263 -0.014537977 0.2650989 11908788
0.73540002 -0.0049274806 0.26509207 12369339
0.73526675 0.0045418949 0.26504552 12369339
0.7361334 0.0148869 0.26535898 12040118
0.73676682 0.02524736 0.26558778 11974324
0.73655182 0.035437487 0.26539099 12171702
0.737077 0.044902399 0.26583284 12171704
0.73673332 0.054565944 0.26557583 12040119
0.73626667 0.064874083 0.26540881 12171706
0.73654997 0.074469678 0.26430193 12566463
0.74050003 0.07738167 0.26822966 12237498
0.73757142 0.083612263 0.26242158 12895686
0.74230772 0.085123606 0.26691419 12895429
0.74550003 0.090993389 0.26350176 12632258
0.778 0.10588811 0.26132429 10921889
0.78816676 0.10911692 0.26473865 10987682
0.78871411 0.11446873 0.26465923 10921889
0.79000002 0.11861777 0.26905262 10790303
0.78900003 0.12216174 0.26145574 10921889
0.79075003 0.12548845 0.26532918 10921889
0.7871111 -0.17316011 0.27533525 9144453
0.79175001 -0.17768109 0.2752074 9210245
0.76900005 -0.16177277 0.27180195 12170931
0.77390003 -0.16425709 0.27498037 10065555
0.78066665 -0.16910106 0.27470663 9078660
0.75775003 -0.15275529 0.27425554 11316650
0.76312506 -0.15651996 0.27575353 11447979
0.74754548 -0.14294153 0.2734476 11974326
0.75233334 -0.14672387 0.27628267 11645104
0.74574995 -0.13493602 0.27468494 12829634
0.74475002 -0.12472867 0.27562535 13158599
0.74466693 -0.11520176 0.2752133 12764356
0.74470001 -0.1052324 0.27541894 13224393
0.74420011 -0.094708063 0.27523416 13553100
0.74344003 -0.085040025 0.27495345 13290185
0.74223328 -0.075346135 0.27450666 13421771
0.74111092 -0.065109715 0.27447692 13684943
0.74227583 -0.054344509 0.27464294 13948116
0.74392009 -0.045037877 0.27513045 14080216
0.74456692 -0.035491034 0.27536869 13290700
0.74323344 -0.024991529 0.27487651 12566718
0.73835713 -0.012972534 0.2730715 12106681
0.74099994 -0.015807362 0.27675939 12172216
0.73755002 -0.0049411813 0.27363849 12304574
0.74000001 -0.0049573597 0.27887547 12040889
0.73831254 0.003804524 0.27294737 12698561
0.74064296 0.0054414826 0.27775607 12632514
0.73889995 0.01425104 0.27223381 12369084
0.74085009 0.01532924 0.27711558 12369341
0.73900002 0.025324553 0.27157858 11579311
0.74116659 0.025399486 0.27671412 12303291
0.73900002 0.034839623 0.27157858 12369080
0.74131256 0.034731954 0.27611756 12105909
0.73900002 0.044066355 0.27157858 12171703
0.74176192 0.044561986 0.27557302 12369083
0.73900002 0.055599768 0.27157858 11711154
0.74226332 0.054749314 0.27607283 12040889
0.73900002 0.061654814 0.27157858 11908535
0.74227279 0.065718606 0.27562842 11777462
0.74312496 0.075193286 0.2749826 12369343
0.74578267 0.083818868 0.27521214 12960966
0.75000006 0.088909 0.275621 12566464
0.755 0.090385459 0.27657709 11644591
0.77300006 0.097969167 0.27864456 10395547
0.77850008 0.10140054 0.276981 10724510
0.78722227 0.10673672 0.27557769 10856352
0.79000002 0.10937075 0.27737495 10790303
0.78900003 0.11107937 0.27148265 10922143
0.79033351 0.11512282 0.2757962 10856352
0.79281479 0.12440506 0.27506447 10856095
0.78866673 -0.17206453 0.28244567 9013380
0.77671432 -0.16261873 0.28336123 9737361
0.78588897 -0.16798556 0.28615499 8947844
0.76428574 -0.15260418 0.28419486 10987172
0.7725715 -0.15787448 0.28598538 10329499
0.75650007 -0.14423986 0.28391534 11842483
0.76140004 -0.1466293 0.28800961 10724002
0.74825001 -0.13375984 0.28110904 12697793
0.7529375 -0.13537186 0.2858476 12632256
0.7479167 -0.12494776 0.28273508 12698049
0.75130004 -0.12463357 0.28753233 12763585
0.74805886 -0.11471971 0.28376824 13158600
0.75083333 -0.11488689 0.28823128 13027014
0.74774998 -0.10511618 0.28343865 13224393
0.75060004 -0.10518835 0.28814167 13290186
0.74714291 -0.094707996 0.28381827 13158600
0.75000006 -0.098079823 0.28791136 12763842
0.74604547 -0.085099518 0.28417313 13158600
0.75000006 -0.086667359 0.28966713 12829635
0.74473339 -0.075308099 0.28420675 13224393
0.74427795 -0.065097705 0.2848472 13290186
0.74483341 -0.054683432 0.28505883 13619152
0.74540013 -0.045128182 0.28527465 13948118
0.74568766 -0.035762437 0.28483877 13619152
0.74513918 -0.025053594 0.28517509 12435131
0.7435807 -0.014697933 0.28528118 12237752
0.74248004 -0.0049744421 0.28502777 12698559
0.74250001 0.0045863762 0.28503457 12566976
0.74286658 0.015023454 0.28517488 12171960
0.74343336 0.025477374 0.28539291 11909305
0.74414819 0.035276722 0.2847648 12238012
0.74503046 0.044479407 0.28473827 12106425
0.74593347 0.055249535 0.28460804 11449522
0.74648005 0.06489978 0.28481716 11317680
0.7466799 0.074357651 0.28419295 12171962
0.75000006 0.073107123 0.28966713 11645361
0.74800009 0.082544461 0.28264114 12435392
0.75400007 0.085778862 0.28639653 13027015
0.75900006 0.090864323 0.28159374 11776434
0.76100004 0.091995679 0.28233221 12039350
0.77500004 0.098222643 0.28117979 10395545
0.787 0.10343191 0.28368884 10856096
0.79107147 0.10740297 0.28621879 10724510
0.79131997 0.115112 0.28525046 10724510
0.79186189 0.12484223 0.2849938 10790303
0.79248273 0.14483306 0.2848973 10856096
0.79330444 -0.1752871 0.29500312 9013635
0.77900004 -0.16022913 0.2917493 8487293
0.78673339 -0.16513948 0.29464561 8882051
0.79000002 -0.16927283 0.29741016 8947842
0.7743637 -0.15400459 0.29380408 9341577
0.78225005 -0.1576951 0.29845971 9078660
0.76442856 -0.14343001 0.29345188 11118760
0.77160007 -0.14678612 0.29728803 10262938
0.75760001 -0.13401456 0.29224846 12105912
0.76285714 -0.13599046 0.29693004 11514032
0.75607151 -0.1246653 0.29365879 11974070
0.76085722 -0.12570767 0.29869559 11711154
0.75482368 -0.11523695 0.29319674 12369084
0.76083344 -0.11463354 0.29919457 11776947
0.75564295 -0.10551491 0.29311317 12763842
0.76075 -0.1039359 0.29738086 12829378
0.75581819 -0.094819658 0.2928817 12698049
0.76280004 -0.096181318 0.29818219 12632256
0.75433344 -0.08451885 0.29310939 12764355
0.76066667 -0.085229635 0.29734829 13027784
0.74800003 -0.07505469 0.29099643 13092807
0.75490004 -0.074158177 0.29650992 12633026
0.76050007 -0.078979567 0.2990635 11777717
0.74784619 -0.064533897 0.29355007 12303035
0.75200003 -0.064891957 0.29818648 11316910
0.74783331 -0.054905117 0.29408395 12566208
0.75266665 -0.055260956 0.29950705 11317168
0.74776465 -0.044653144 0.29415995 13553360
0.75133342 -0.044608194 0.29897651 12237501
0.74764997 -0.034850962 0.29322442 13158345
0.75040001 -0.034892336 0.29860511 12896200
0.74743479 -0.024940224 0.29468873 12039863
0.75000006 -0.02960504 0.29844594 11646133
0.74627268 -0.014927852 0.29410738 11645361
0.75150001 -0.011190107 0.29904282 11711926
0.74561536 -0.0053988942 0.2929444 11842996
0.74577779 0.0037322892 0.29211184 11975093
0.75349998 0.0046444065 0.29719648 11777459
0.74610007 0.015787441 0.29235432 11842993
0.75466663 0.015265983 0.29794982 11777457
0.74554545 0.025152268 0.29223135 11251373
0.75160003 0.024877522 0.29732314 11382702
0.74728572 0.033979472 0.29261824 11382704
0.75428575 0.034547266 0.29737923 11317166
0.74788898 0.045763612 0.29177049 11514291
0.75400001 0.045078471 0.29650736 11711412
0.74825001 0.053670257 0.2907429 11053994
0.75316668 0.055636358 0.29486129 11054251
0.75411761 0.064941198 0.29489681 10199199
0.75526679 0.07485757 0.29418129 11185067
0.76099998 0.076853193 0.29926011 10593443
0.75733334 0.083278887 0.29249981 12369083
0.76225013 0.085233763 0.29551384 12895427
0.77000004 0.088576026 0.29919416 13816530
0.76900005 0.092061482 0.29340488 13355979
0.77200001 0.092420623 0.29635674 12895681
0.78700006 0.099743515 0.29751021 10527131
0.78900003 0.10184405 0.29272389 10658717
0.79118764 0.12550609 0.29481021 10724766
0.7900669 0.13527408 0.29496881 10790302
0.79257685 -0.17415676 0.3051846 9276807
0.78825009 -0.16190174 0.3030569 9013380
0.79043758 -0.16570503 0.30621111 9276807
0.77700001 -0.15072289 0.30009514 9078407
0.78614283 -0.15460286 0.30586284 9341832
0.79000002 -0.15879287 0.30881482 9474186
0.77580005 -0.14431757 0.30344751 10065815
0.78233337 -0.14626466 0.30825958 9407884
0.76725 -0.13401705 0.3012684 11316909
0.77411109 -0.1364738 0.30623081 10066842
0.76700002 -0.12544408 0.30341515 10856099
0.77219999 -0.12448587 0.30727991 9671567
0.76620007 -0.11633779 0.30309868 10724773
0.77266669 -0.11460903 0.30716518 10132638
0.76640004 -0.10559994 0.30138361 11118761
0.77400005 -0.1050667 0.30641368 11382191
0.77585709 -0.094972931 0.30666071 11776691
0.76800001 -0.084252611 0.3020128 12237498
0.77500004 -0.08472129 0.30718461 11317168
0.75900006 -0.072604284 0.30113888 11119787
0.76240003 -0.074717127 0.30302253 11514546
0.77166671 -0.077430479 0.30827177 10461858
0.75687498 -0.064870834 0.30229014 10988715
0.76230001 -0.064535126 0.3072682 9869977
0.75760001 -0.054735981 0.30413193 11053996
0.76160002 -0.055026144 0.30841067 10264480
0.75666678 -0.044393584 0.30429021 11777463
0.76025003 -0.046471097 0.30830935 10593187
0.75615382 -0.035568859 0.30416656 11580340
0.76033336 -0.031792104 0.30789772 12040635
0.75608331 -0.025419086 0.30352429 11645363
0.76100004 -0.028257733 0.3081677 11711156
0.75683337 -0.015403382 0.303233 10790567
0.76139998 -0.014009699 0.30654722 10856617
0.75716668 -0.0056599579 0.30159387 11579826
0.76300001 -0.0042130747 0.3054052 11250862
0.75900006 0.0073531857 0.30025047 11711407
0.76300007 0.0038289079 0.303619 11382190
0.77333337 0.0074928273 0.30954131 11119018
0.75900006 0.011795267 0.30025047 11448235
0.76050007 0.018939368 0.30262417 11053477
0.7732501 0.013826034 0.30950797 10987174
0.75900006 0.026009928 0.30202729 10264478
0.76400006 0.02671596 0.30544963 10527650
0.75900006 0.036670923 0.30025047 11119274
0.76287508 0.035072967 0.30357125 10790565
0.77200001 0.038202651 0.30900761 10461087
0.75900006 0.04466667 0.30025047 10329501
0.76360005 0.042793944 0.30314606 11119017
0.77300006 0.044585761 0.30940792 10197916
0.75900006 0.056216087 0.30025047 10264478
0.76344448 0.054854661 0.30320275 10921895
0.77216667 0.055380315 0.30907431 10132123
0.75900006 0.065100245 0.30025047 10330271
0.76222223 0.064879805 0.30251873 10461600
0.77100003 0.065227039 0.30860734 8947848
0.76475 0.074102148 0.30319783 10461857
0.77260005 0.076216765 0.30816293 9606548
0.76500005 0.080837339 0.30083308 10461857
0.77437508 0.085001245 0.30588344 10724772
0.77600002 0.091993518 0.30152553 13158598
0.78580004 0.09628652 0.30557588 10790305
0.79155999 -0.16466664 0.31498504 9803151
0.78880006 -0.15338175 0.31166953 9737103
0.79072231 -0.15595622 0.3156797 9803408
0.787 -0.14501208 0.31402209 9606031
0.79016668 -0.1458786 0.31843719 9935251
0.778 -0.13179427 0.31140924 9342859
0.78633332 -0.13550425 0.31674287 9540750
0.79000002 -0.13844942 0.31991127 9738385
0.77540004 -0.1250008 0.31036851 8816772
0.78481823 -0.1251803 0.31681412 9343628
0.7766 -0.11609844 0.31084886 8553861
0.78570008 -0.11525577 0.31670195 9145996
0.79000002 -0.11348246 0.31991127 9475215
0.78490007 -0.10484787 0.3138068 9671830
0.79100007 -0.10436504 0.31846446 8816262
0.78687507 -0.095532551 0.3138122 10527395
0.79183334 -0.095210224 0.31787527 9343121
0.77900004 -0.081812054 0.31180951 10461859
0.78560001 -0.08507704 0.31482372 10001307
0.79066664 -0.086124331 0.31894672 8619396
0.77514285 -0.074930713 0.3125996 9475218
0.78325003 -0.075844586 0.31809378 8684928
0.76800001 -0.066273592 0.31100234 8027516
0.77330005 -0.06492205 0.31550461 8619395
0.78100002 -0.069223747 0.31992337 9211271
0.76680005 -0.055405103 0.31231147 8553861
0.773 -0.054535177 0.31747058 8882310
0.76510012 -0.045246102 0.31251755 9803415
0.77179998 -0.044921346 0.31796154 8816776
0.76500005 -0.036241066 0.31225255 10987945
0.773 -0.034129802 0.31785405 10789796
0.77442867 -0.024351241 0.31671479 10921640
0.76900005 -0.01415285 0.3114073 10396066
0.77460003 -0.015167974 0.31549209 10396579
0.78100002 -0.016202034 0.31992337 10791594
0.77588892 -0.0051980447 0.31419957 10198687
0.78350008 -0.0043299226 0.31911325 9803929
0.77740008 0.0038967796 0.312989 10855847
0.78571427 0.0055117649 0.31791455 10263709
0.77700007 0.017530739 0.31282794 10395037
0.78487504 0.014266984 0.31715086 10263706
0.77683336 0.026922852 0.3139762 9079688
0.78250003 0.021319117 0.31687415 8948101
