# .PCD v0.7 - Point Cloud Data file format
VERSION 0.7
FIELDS x y z rgb
SIZE 4 4 4 4
TYPE F F F U
COUNT 1 1 1 1
WIDTH 1110
HEIGHT 1
VIEWPOINT 0 0 0 1 0 0 0
POINTS 1110
DATA ascii
0.78579998 -0.12507826 0.074277483 13290437
0.79150003 -0.12574014 0.070837416 12303797
0.77549994 -0.11502989 0.078025453 15066844
0.78653342 -0.11549983 0.073734649 12961727
0.79200011 -0.11390353 0.070947915 12369331
0.77510005 -0.1049908 0.078895465 15132638
0.7849375 -0.10482731 0.075413227 14277070
0.79318184 -0.10507355 0.071366087 12500403
0.77625006 -0.095150508 0.079012141 15264480
0.78641176 -0.094825298 0.075332746 14013642
0.79381824 -0.095024012 0.071592502 12566452
0.77690011 -0.08522898 0.07907775 15198687
0.78615385 -0.085251935 0.07598348 14474449
0.79353845 -0.084769279 0.072123356 12369073
0.77628571 -0.075816914 0.079665579 15527397
0.78507149 -0.074832678 0.077280171 15264223
0.77700001 -0.065231271 0.079999633 15330020
0.7859444 -0.065062933 0.077235267 15001824
0.77670008 -0.054478139 0.079239763 15198691
0.78580004 -0.054932155 0.075749367 13949138
0.79227281 -0.055725202 0.071621947 11974832
0.77700001 -0.0459047 0.079316065 15066591
0.78603846 -0.044687528 0.075118758 13488074
0.79085714 -0.044442888 0.070582107 12040368
0.78685009 -0.034743108 0.076403625 14277333
0.79120004 -0.03493413 0.071273558 11908780
0.78681815 -0.025029616 0.076232702 13948367
0.7922501 -0.024780564 0.071367621 11645609
0.78622723 -0.014971096 0.076509617 13619401
0.79279995 -0.014591572 0.071416527 11250852
0.78668416 -0.005366825 0.076533139 13553864
0.79190916 -0.0051371907 0.071589395 11185314
0.78744447 0.0048653134 0.07738582 14014158
0.79222226 0.0048956028 0.072290882 11119264
0.78840005 0.015021114 0.078404196 13882573
0.79339993 0.015116374 0.07332325 11645865
0.78850007 0.02517496 0.078414254 13882830
0.7883001 0.035319112 0.07839413 13290437
0.78850007 0.044556834 0.078414261 13487301
0.79354995 0.044841968 0.073336944 10987679
0.78850001 0.054709245 0.078414261 12960956
0.79333347 0.055045381 0.073317438 11119265
0.78871435 0.064088687 0.078831613 13158593
0.79369581 0.065530978 0.073955379 11185058
0.78900003 0.072291039 0.079388089 13684938
0.78900003 -0.17152131 0.087699875 11179904
0.79380959 -0.17558129 0.084470004 11315098
0.77680004 -0.16159418 0.087250255 12230278
0.78555 -0.16562387 0.085011259 11179652
0.79000002 -0.16896459 0.082262814 11115919
0.77530009 -0.15456672 0.086081691 12234147
0.78327268 -0.15577449 0.081643388 12170414
0.77475882 -0.14490815 0.085015185 14934752
0.78200006 -0.14620234 0.080514438 14277077
0.77324998 -0.13519205 0.084652826 14999773
0.76888895 -0.12154995 0.087564096 14802650
0.77086377 -0.12574655 0.084534891 13354948
0.76769245 -0.11484082 0.08602035 15132384
0.77000004 -0.1146653 0.08108151 14540247
0.76816666 -0.10495044 0.086281218 15000798
0.77183342 -0.10544968 0.081274554 14671833
0.7682175 -0.095301442 0.086599365 14737627
0.77225006 -0.0942114 0.081769079 14277075
0.76858824 -0.085904211 0.088129282 14671833
0.77116674 -0.084599361 0.083408549 14342868
0.76850009 -0.075312115 0.089018799 14474454
0.77170843 -0.074722789 0.083967321 14606295
0.76872736 -0.065844737 0.089127228 14342869
0.77180964 -0.064623281 0.084192641 15132639
0.76900005 -0.055918485 0.089617372 14606041
0.77165532 -0.054753553 0.08473938 15330018
0.7727201 -0.044971991 0.084981993 15329761
0.77446872 -0.035330411 0.084832557 15263968
0.78000003 -0.033528231 0.080308519 14935263
0.77503574 -0.025019908 0.084651403 15000798
0.78000003 -0.027137253 0.080308519 14869214
0.77564704 -0.015396255 0.084662177 14211282
0.78000003 -0.011616305 0.080308519 14079955
0.77628005 -0.0051991879 0.085374653 13816523
0.78140002 -0.0052337674 0.080452658 13948368
0.77666664 0.0044183941 0.086250961 13684937
0.78224999 0.0055957842 0.081606515 14014160
0.7766251 0.014567913 0.087004721 13552837
0.78285706 0.015175565 0.082300603 14013646
0.77616662 0.024779918 0.086269617 13816007
0.78350002 0.025015324 0.081584223 14145744
0.77605265 0.034578957 0.086400285 13882060
0.7833637 0.035430092 0.081819177 14145489
0.77700013 0.044819076 0.087273836 14145233
0.78316677 0.045173783 0.082464196 14145747
0.77815396 0.054482464 0.087684259 14474198
0.78394115 0.055633888 0.082976148 14277333
0.77800012 0.064908586 0.08829733 14737115
0.78399998 0.06499204 0.083633326 14540248
0.77828568 0.074173763 0.088720873 14802652
0.78556001 0.075432979 0.084035933 14342612
0.78623807 0.084400788 0.086466007 14671324
0.79071426 0.086200587 0.081940398 13487561
0.78900003 0.090761669 0.087699875 14737375
0.78699994 -0.17270154 0.095305644 10851456
0.79200011 -0.17720699 0.093727693 10590860
0.77529997 -0.16355643 0.095160969 12164482
0.78100002 -0.16795385 0.092294484 11374198
0.77273345 -0.15532218 0.094936103 11310983
0.76900005 -0.14016984 0.098978639 13815495
0.77197152 -0.14536013 0.094711497 14342097
0.76840007 -0.13394505 0.097821273 15328991
0.7711001 -0.13549872 0.093019351 15131612
0.76688468 -0.12445745 0.095663585 15197405
0.77033335 -0.12839098 0.091335535 13683138
0.76502961 -0.11500491 0.095986418 15592934
0.76537162 -0.10469583 0.095690727 15856104
0.76676011 -0.094885826 0.095099583 15855592
0.76710016 -0.085051417 0.095142029 15790055
0.76731992 -0.075196192 0.095168583 15658725
0.76773328 -0.065350533 0.095219575 15395555
0.76886225 -0.054740977 0.095484801 15593190
0.77000004 -0.052626371 0.090695284 14474456
0.76900005 -0.047457345 0.09627828 15922153
0.77015406 -0.044407699 0.094341643 15329761
0.77169436 -0.034975659 0.094807461 15132381
0.7730335 -0.025084725 0.094973236 15000282
0.77411115 -0.015152241 0.095104739 14342609
0.77433336 -0.0051873634 0.095130555 14408147
0.77480555 0.004786307 0.095188536 14473940
0.77499998 0.014765035 0.095212542 14276302
0.77375001 0.024701783 0.095059045 13881798
0.76900005 0.038054194 0.098978639 14144973
0.77265537 0.03461739 0.094704024 13947593
0.77355886 0.044885669 0.094819069 14407890
0.77493352 0.054675866 0.095201999 14605526
0.77519447 0.064674087 0.095234171 14737370
0.77503234 0.074816085 0.095360346 15000287
0.77668756 0.082413562 0.096327528 14934753
0.78292853 0.086662248 0.093567081 14868962
0.78766668 0.092659287 0.095744841 13158343
0.79075003 0.097134292 0.094063275 11448233
0.78780001 -0.1723682 0.10435113 9735038
0.7917273 -0.17666513 0.10577976 10065549
0.77650005 -0.1631252 0.10289863 10783862
0.7833637 -0.16646506 0.10616449 9666671
0.77391666 -0.15541266 0.10489845 11971230
0.76700002 -0.14387251 0.10561662 14210513
0.7705 -0.14801975 0.10386124 13091773
0.76336372 -0.13508099 0.10425599 15789542
0.76187092 -0.1252937 0.10484533 16184300
0.76103318 -0.11466619 0.10507766 16053226
0.76123995 -0.10489586 0.10510563 16119277
0.76324999 -0.095342785 0.10448584 15921899
0.7646668 -0.084782168 0.10467948 15724520
0.76366669 -0.074838907 0.10454169 15658727
0.76358336 -0.064997546 0.10453023 15790312
0.76611769 -0.054712683 0.10466605 15724775
0.76777273 -0.045746244 0.106824 15658726
0.7701 -0.043558724 0.10236509 15527140
0.76875007 -0.037318479 0.10861924 15592934
0.77078581 -0.034226585 0.10455561 15592934
0.77203852 -0.025190575 0.10499796 15330018
0.76840001 -0.011983856 0.10897434 14671833
0.77190346 -0.015605756 0.10506122 14935004
0.76769233 -0.0047290549 0.10807104 14540245
0.77158827 -0.0054877657 0.10334686 14803673
0.76726663 0.0041995468 0.10809371 14408145
0.77190471 0.0051551363 0.10348038 14934488
0.76566672 0.015480627 0.10840645 13947594
0.77214998 0.014710583 0.10389943 14802902
0.76542854 0.025417557 0.10644753 13684422
0.77115387 0.023716155 0.10231017 14144973
0.75833338 0.037525963 0.10914422 14210512
0.76390904 0.034873802 0.10416602 13881544
0.75783348 0.04548448 0.10818401 13881547
0.76426309 0.044788014 0.10297582 14671060
0.77000004 0.048919179 0.10090993 14802903
0.75709093 0.054865018 0.10872269 13618119
0.76331574 0.054699577 0.10463614 14802390
0.77088886 0.056195095 0.10162728 15131611
0.75628573 0.065373279 0.10846785 12894653
0.76266676 0.064640805 0.10518184 13947081
0.77100003 0.065227047 0.10194228 14473426
0.75552934 0.075152479 0.10795582 13158082
0.7651177 0.074843273 0.10374099 14473426
0.77166671 0.075219885 0.10112835 14802395
0.75538456 0.084309027 0.1081031 14211029
0.7632727 0.084714144 0.10538519 13092034
0.77330768 0.085896455 0.10245378 14276822
0.78200006 0.08995644 0.10065188 15395307
0.75700003 0.090624891 0.10983916 15198183
0.76425004 0.091488734 0.10775357 14145238
0.77600002 0.093938902 0.10558802 11842994
0.78553337 0.09661714 0.10367632 11776943
0.78640008 0.10187739 0.10784048 11579819
0.79286957 0.10573629 0.10446858 11579819
0.78769231 -0.16414556 0.11287586 8945784
0.7917273 -0.16621844 0.11690216 9736586
0.77610004 -0.15254942 0.11370027 12499123
0.78425002 -0.15672031 0.11631992 9999246
0.76530778 -0.14253277 0.11462724 14079443
0.77250004 -0.14786129 0.11534594 12433847
0.759 -0.13337196 0.11741436 15395045
0.76035011 -0.13574639 0.1133516 15328995
0.75889474 -0.12477022 0.11703315 15329509
0.76000017 -0.12544723 0.11194897 15657958
0.75875998 -0.11521192 0.11542232 15329508
0.76000005 -0.11540011 0.11027446 15921127
0.75881249 -0.10567174 0.11509728 15197921
0.76000005 -0.10383548 0.11027446 15987177
0.75890905 -0.095368266 0.11649554 14803420
0.76021433 -0.094076037 0.11170346 15395555
0.75899994 -0.085042112 0.11723667 14803421
0.76060003 -0.085221075 0.11214132 15527141
0.75899994 -0.075035743 0.11704966 15198178
0.76035291 -0.075665347 0.11200017 15790569
0.75899994 -0.064801671 0.11646414 15461349
0.76030773 -0.064377338 0.11141396 15987689
0.75900006 -0.057057001 0.11856931 15658730
0.7607308 -0.054617319 0.11421444 15790312
0.76249993 -0.045268252 0.11509354 15855849
0.76482868 -0.034791607 0.11557023 15724006
0.77000004 -0.030394508 0.11172543 14869214
0.76600021 -0.024856959 0.11651777 15263969
0.77044445 -0.024600083 0.11098774 14935006
0.76457149 -0.014842208 0.11553164 14803675
0.77000004 -0.019579004 0.11172543 14277075
0.76226652 -0.0051082438 0.11505847 14342867
0.75887501 0.0071295779 0.1178834 13486789
0.76125008 0.0040017432 0.11395238 14145231
0.75786966 0.015517881 0.11628893 12895422
0.76092315 0.015044232 0.11150364 13882314
0.75626659 0.025029872 0.11592161 12763579
0.76020002 0.025160294 0.11030348 13815752
0.75410271 0.034460284 0.11511048 12961216
0.74862498 0.0461361 0.1172771 13685197
0.75210005 0.044171415 0.1132617 13553611
0.74710715 0.055583749 0.11564717 13553611
0.75185716 0.054053511 0.1113547 13619147
0.74516672 0.06559705 0.11561885 13027012
0.75016671 0.064341627 0.11060381 13092803
0.74444747 0.074765235 0.11470332 13421515
0.74439996 0.084587604 0.11471325 14869218
0.745 0.091804624 0.11507001 13750735
0.75566673 0.092824243 0.11082245 14737632
0.76000005 0.094542384 0.11027446 13224393
0.78725004 0.10438466 0.11146305 11514027
0.79159993 0.10866616 0.11485908 11579817
0.77900004 -0.15111086 0.12032592 13157826
0.78583336 -0.15428112 0.12444502 11973039
0.79137504 -0.15837573 0.12663822 9210502
0.76500005 -0.14153166 0.12442648 12433591
0.77306676 -0.14634506 0.12543975 12630969
0.7580834 -0.13374485 0.12507991 15526374
0.76100004 -0.13871165 0.12467168 14210002
0.75749993 -0.12477376 0.12498316 15592680
0.75779992 -0.11506552 0.12503366 15527144
0.75799984 -0.10533671 0.12506743 15395558
0.75799984 -0.094689794 0.12506747 15066593
0.75803322 -0.084933795 0.12507275 14868957
0.75780547 -0.075151764 0.12503447 15000543
0.75797218 -0.064520031 0.12506157 15395557
0.75862086 -0.054930933 0.12532137 15724523
0.76000005 -0.051349856 0.12094949 15658730
0.75895834 -0.045356806 0.12692812 15724521
0.76016682 -0.044538811 0.12201387 15658730
0.759 -0.035735007 0.12834191 15592936
0.76065004 -0.034565367 0.1232775 15527144
0.759 -0.025518218 0.12878613 15264229
0.76068187 -0.025170034 0.12388926 15066850
0.75884199 -0.014246823 0.12759016 14540249
0.76047057 -0.015567245 0.12280399 14671835
0.75860876 -0.0048507703 0.12636332 14145490
0.76014292 -0.0058554718 0.12148057 14145491
0.75744444 0.0046761832 0.12497245 13947853
0.75494444 0.01526367 0.12456027 13684681
0.75181496 0.025075659 0.12531629 13158594
0.74889463 0.035490304 0.12702493 13224389
0.75000006 0.03329261 0.12359255 12895423
0.74797213 0.044890571 0.12516205 13684940
0.74538904 0.055204645 0.12472948 13553354
0.73866671 0.068255596 0.12850571 13355975
0.74237496 0.064811453 0.12433204 13224646
0.73874998 0.073884405 0.12823199 13750734
0.74063164 0.075524576 0.12407131 13948114
0.74262506 0.084778808 0.12481156 14869732
0.74423087 0.091911383 0.1248741 13093064
0.75300002 0.09543439 0.12159827 11316396
0.79200006 0.1087208 0.12511408 11448745
0.77900004 -0.15111086 0.13856246 12960445
0.7849167 -0.15348743 0.13486709 13092032
0.79155564 -0.15828359 0.13482511 9867919
0.76491672 -0.1421148 0.13515866 12894655
0.77383333 -0.14739285 0.13492358 12960447
0.75810009 -0.13374762 0.13484587 14737376
0.7601667 -0.13855974 0.13432178 14342104
0.75779992 -0.12482248 0.13479321 15000546
0.75820023 -0.11512633 0.1348642 14869215
0.75806671 -0.1053463 0.13483931 14803421
0.75799996 -0.094689794 0.13482712 14869214
0.75792009 -0.08492139 0.13481309 14671835
0.75666678 -0.075039327 0.13547486 14737628
0.75666678 -0.064408667 0.1354741 14869214
0.75736672 -0.054717556 0.13559946 15197924
0.75797141 -0.045128353 0.13558081 15263971
0.75833344 -0.03506298 0.13527897 15395299
0.75774986 -0.025477327 0.13566662 15066078
0.75644445 -0.014809023 0.13543177 14277334
0.75543326 -0.00506231 0.13524935 14079697
0.75313896 0.0046489071 0.13483764 14079697
0.74900001 0.016023416 0.13848655 12763838
0.75145721 0.015170145 0.13441235 13882318
0.74849993 0.026524672 0.13664028 13224390
0.75053853 0.023084067 0.13268742 13619145
0.74738234 0.034615528 0.13535489 13224388
0.74561125 0.044748951 0.13523918 13355975
0.73900002 0.059059791 0.13836761 12698045
0.74271423 0.054881345 0.13458923 13092803
0.73793119 0.065762341 0.13560559 13158596
0.74083346 0.061807573 0.1317725 13158596
0.7371667 0.075308792 0.13543248 13684942
0.73841667 0.083070651 0.1373928 14277079
0.74161905 0.086139202 0.13340008 14803937
0.74410003 0.092915952 0.13514146 13948373
0.76000005 0.099879913 0.13696206 11316396
0.78866673 0.10795557 0.13535874 11316903
0.79140002 0.1091947 0.13372676 11448490
0.77685726 -0.15121625 0.14597489 12630969
0.78600001 -0.15601142 0.14504299 12630712
0.79066676 -0.15892687 0.14248703 9669771
0.76378572 -0.14241758 0.14556229 13421257
0.77211118 -0.1473659 0.14456774 14539222
0.75899994 -0.13321404 0.14398789 15000543
0.76041675 -0.13741921 0.14623441 15329511
0.75897247 -0.12501611 0.14477243 15000543
0.75900012 -0.11524826 0.14477763 14934750
0.7589168 -0.1054644 0.14476216 15132386
0.7587502 -0.094783574 0.14473107 14868957
0.75819993 -0.084953263 0.14462516 14803421
0.75680012 -0.075053558 0.14524442 14606042
0.75584024 -0.065223888 0.14505984 14737629
0.75633347 -0.055527721 0.14515331 14737372
0.75667745 -0.044782188 0.14504728 14474457
0.75699997 -0.035388347 0.14471139 14474455
0.7559334 -0.02541738 0.14507605 14276820
0.7537142 -0.014629015 0.14540605 13882062
0.75236678 -0.005041298 0.14527139 13750733
0.74900001 0.0090097273 0.14900708 13619147
0.75025719 0.0045073549 0.14474 13684940
0.74870586 0.015397377 0.14477201 13553354
0.75000006 0.01077752 0.1413051 13487561
0.74714702 0.025396388 0.14452079 13224389
0.74600017 0.03536281 0.14530443 13223875
0.74447238 0.044681214 0.1454922 13290181
0.73900002 0.059059795 0.14442265 13092801
0.74166667 0.054061182 0.14494483 12895423
0.73811787 0.06493216 0.14480771 13158339
0.73561114 0.075147733 0.14548105 13882065
0.73675013 0.084446482 0.14558174 14606046
0.74066669 0.088669531 0.14214672 14474717
0.74311996 0.093421668 0.14498025 14277596
0.75625002 0.099387079 0.14602256 11645618
0.77750003 0.10764019 0.14830583 11514026
0.78500003 0.10867852 0.14329433 11579817
0.78800011 0.11093858 0.14661807 11448487
0.77577782 -0.15169793 0.15433457 13157570
0.78580004 -0.15703145 0.15448739 12630969
0.76359999 -0.143392 0.15521798 14276054
0.77183336 -0.1488186 0.15535881 14868447
0.75884199 -0.13345677 0.15638737 15197926
0.76009101 -0.137252 0.15396318 15329255
0.7585001 -0.12493907 0.15533438 15197925
0.75819993 -0.1151275 0.15527256 15066337
0.75769442 -0.10529403 0.1551687 14935007
0.75766659 -0.094648138 0.15516393 15066593
0.75766671 -0.08489272 0.15516399 15000800
0.75713891 -0.075085729 0.15505701 15000800
0.75673538 -0.064676397 0.1549754 14803421
0.75587523 -0.054942459 0.15479802 14803421
0.75558347 -0.044860687 0.15473679 14606042
0.7559334 -0.035148915 0.15480851 14343127
0.7544167 -0.025367731 0.15449744 13816783
0.75137854 -0.014829673 0.1554663 13750733
0.74900001 -0.003483407 0.15843174 13553354
0.75045466 -0.0055864737 0.15424602 13619405
0.74822587 0.0051006558 0.15557481 13684940
0.75000006 0.00164755 0.15166411 13553611
0.74691659 0.015103178 0.15471065 13618890
0.74575013 0.02555421 0.15446907 13223876
0.74510729 0.034940429 0.15464854 13289923
0.74409372 0.044876043 0.15532376 13026752
0.73871428 0.058048718 0.15733624 13158596
0.74168962 0.054122813 0.15473635 13092546
0.73653859 0.064959444 0.15501182 13355976
0.73422223 0.075006559 0.15551955 14013650
0.73518169 0.084991291 0.15564354 14474459
0.73800009 0.09229926 0.15557817 14737631
0.74174994 0.094664633 0.15277353 13750737
0.75400001 0.099091381 0.15000179 11777717
0.778 0.10770942 0.15204559 11448233
0.78800011 0.11093859 0.15492296 11448487
0.77528572 -0.1527257 0.16590473 14012882
0.78420007 -0.15652911 0.16334379 13025987
0.75900006 -0.14056814 0.16609959 16052207
0.76227278 -0.14454632 0.16462491 14342104
0.77100009 -0.14955902 0.16240688 15066340
0.75807697 -0.13483523 0.16514565 15066081
0.75739998 -0.12475845 0.16486207 15263203
0.75704002 -0.11495086 0.16478437 15263460
0.75690627 -0.1049637 0.16508716 15000543
0.75626481 -0.094734117 0.16529 15066593
0.75562489 -0.084995285 0.16557781 14935007
0.75613886 -0.074985527 0.16547066 14934751
0.7554 -0.065187 0.16530861 15066593
0.75408334 -0.055365641 0.16501944 14935007
0.75269437 -0.044689551 0.16471465 14803421
0.75276679 -0.035001282 0.16473117 14474456
0.74900001 -0.020798454 0.16829474 14210514
0.75140005 -0.025390688 0.16430664 14145236
0.74876916 -0.013848136 0.16662389 13816272
0.75000006 -0.016534356 0.16247182 13684430
0.74806648 -0.0050127264 0.16545583 13882319
0.74658334 0.0046097171 0.16512913 13553354
0.74547243 0.015074485 0.16488296 13816268
0.7447502 0.02552098 0.16472346 13158081
0.74419999 0.035084229 0.16460159 13092544
0.7383334 0.047482852 0.16820197 13092545
0.74230289 0.043892067 0.16446924 12894652
0.73580557 0.055020697 0.1652761 13355719
0.74033338 0.051078137 0.16172545 13420997
0.73371047 0.064466067 0.1653977 13750733
0.73314273 0.074774623 0.16566193 14079699
0.73453337 0.08558739 0.165158 14343130
0.73633343 0.093322977 0.16458699 13816531
0.74100006 0.097382911 0.1682319 11053226
0.78400004 0.10854008 0.16147611 11448233
0.78780013 -0.16093233 0.17516668 9473420
0.76675004 -0.15052958 0.17676668 15591396
0.77350003 -0.15348831 0.17416093 13815245
0.78300005 -0.15921886 0.17684963 9736337
0.75800014 -0.14325185 0.17551994 14539225
0.76170009 -0.14704332 0.17381898 14144209
0.75663894 -0.13526131 0.17443681 15460582
0.7557354 -0.12474325 0.17401943 15328995
0.75621885 -0.1151557 0.17456172 15262945
0.75650018 -0.10533826 0.17466718 15329252
0.75444001 -0.09512955 0.17481533 15131872
0.75396758 -0.085275494 0.17487669 15131617
0.7536 -0.074609004 0.17537543 14999775
0.74900001 -0.061711643 0.17823078 15263202
0.75177777 -0.065201111 0.17465073 15131617
0.74808335 -0.054340169 0.17582183 15197666
0.75058341 -0.056279585 0.17157833 15065823
0.74774188 -0.044704728 0.17534922 14868957
0.75000006 -0.044529032 0.1702752 14869214
0.74768168 -0.035241473 0.17603216 14671578
0.75000006 -0.034872331 0.1711531 14474456
0.74763411 -0.02502986 0.17511232 14408663
0.75000006 -0.02960504 0.1702752 14606299
0.74694586 -0.014740246 0.17553337 13882063
0.74610019 -0.0049989265 0.17550039 13882320
0.74500024 0.0045999698 0.17524193 13750733
0.74405557 0.015045419 0.17501901 13618889
0.73883337 0.026759544 0.17955899 12829373
0.74251431 0.025319507 0.17453074 13092288
0.73736846 0.036032271 0.17748955 13027009
0.74173683 0.034511164 0.17269175 12895423
0.73525006 0.045201063 0.17514913 13421769
0.74075007 0.040557537 0.17164218 13027008
0.73263168 0.054169755 0.17517468 13684687
0.73150039 0.064453989 0.17549178 13750736
0.73211122 0.074792586 0.17563887 13882321
0.73386097 0.085280262 0.17462659 14737885
0.73533338 0.092334628 0.17469102 14672092
0.74237502 0.09647885 0.17419207 12500669
0.7919355 -0.17539012 0.18433784 9539722
0.77900004 -0.16022913 0.18871292 9210246
0.78637505 -0.16405329 0.18520617 9539211
0.79072738 -0.16802563 0.18322091 9605261
0.76533335 -0.15204312 0.1853928 15131103
0.77412504 -0.15651171 0.18367466 12104624
0.75580776 -0.14430207 0.18513301 14605017
0.76100004 -0.14940073 0.18345837 14801882
0.75297499 -0.13460571 0.18478215 15328996
0.75258338 -0.12499113 0.18509848 15460838
0.75362498 -0.11544418 0.18494302 15460581
0.75432497 -0.10482638 0.18511274 15394788
0.75327766 -0.095128618 0.18526918 15328994
0.75275624 -0.085288793 0.18512316 15263203
0.74900001 -0.072962768 0.18889746 15132129
0.75182766 -0.075500593 0.18464579 14934238
0.74774992 -0.064465113 0.18532915 15065823
0.75016671 -0.068539627 0.18319096 15131616
0.74633348 -0.054795649 0.18429157 15000030
0.74537933 -0.045007445 0.1849281 14671835
0.74519074 -0.035521407 0.1848796 14671835
0.74466705 -0.025036778 0.18562283 14342870
0.74402791 -0.014564895 0.18546288 14013904
0.74343324 -0.0049814531 0.18531363 14145491
0.73900002 0.0083127664 0.1879613 13092803
0.74224246 0.0042405874 0.18467462 13684940
0.73775882 0.015543019 0.18625279 13355972
0.74108338 0.013829465 0.18155092 13552839
0.73566675 0.025208179 0.18509838 12961215
0.74000001 0.021027939 0.18013133 13420996
0.73340523 0.035548091 0.18469338 13290438
0.73190016 0.045469228 0.18526752 13685197
0.73110026 0.055005006 0.18566622 13685197
0.73100036 0.064409934 0.18564127 13619407
0.73125744 0.074582927 0.18558393 13882323
0.73291427 0.085293144 0.18453328 14606046
0.73425007 0.092198879 0.18474866 14277080
0.7438333 0.096013941 0.18541873 12500667
0.77475005 0.10725947 0.18587053 11513769
0.78780001 0.11275677 0.18789363 11382438
0.79320836 -0.17483835 0.19502103 9474184
0.78591663 -0.16441458 0.19498126 9473931
0.79000002 -0.16850224 0.19415176 9473930
0.76366669 -0.1526096 0.19482346 14473686
0.77400005 -0.15829679 0.19565222 11118499
0.74875003 -0.14086056 0.19803621 15197926
0.75365406 -0.14463951 0.19430915 14473431
0.74768007 -0.13460419 0.19628111 15132134
0.75042862 -0.13603325 0.19145302 14934753
0.74733329 -0.12484867 0.19590911 15395301
0.75000006 -0.12529416 0.19134437 15658217
0.74748152 -0.11485976 0.19575366 15460581
0.75062501 -0.11419431 0.19106372 15460580
0.74707144 -0.10525455 0.1960279 15394788
0.75033337 -0.1057364 0.191136 15394786
0.74683321 -0.095042981 0.195779 15328994
0.75000006 -0.095446177 0.19134437 15460579
0.74690324 -0.084475741 0.19534521 15328995
0.75000006 -0.086667359 0.19134437 15131360
0.74654841 -0.075078554 0.19496869 15000031
0.74510282 -0.064970471 0.19492051 14934495
0.74404782 -0.054626994 0.19504729 14737628
0.74324256 -0.04515741 0.19515102 14803422
0.74224985 -0.03538122 0.19544309 14671835
0.74208331 -0.02495015 0.19539994 14277079
0.73879993 -0.013251741 0.19799919 14079698
0.74130768 -0.014979735 0.19386418 14013906
0.73808354 -0.0042977161 0.19629246 14013905
0.74044448 -0.0061165406 0.19179504 14145491
0.73704886 0.0046561318 0.19506198 13684939
0.74000001 0.00023969999 0.19052546 14211284
0.73470259 0.014738503 0.19501492 13355974
0.73230571 0.025093295 0.19454221 13027008
0.73125744 0.035207659 0.19438718 13422024
0.73100024 0.045585815 0.1950534 13882575
0.73100013 0.054997873 0.19505335 13750731
0.7311669 0.06442412 0.19509844 13553353
0.73109704 0.074826114 0.19491318 13750734
0.73216677 0.085082613 0.19450644 14539995
0.73371428 0.092500865 0.19540827 14013395
0.74400002 0.096035451 0.19155532 11513518
0.77700001 0.10757098 0.19368824 11316902
0.78100002 0.10812475 0.19925325 11316901
0.77740002 -0.16171995 0.20561023 9670538
0.78600007 -0.16585466 0.20487808 9539209
0.79000002 -0.16803989 0.20154938 9539209
0.75833338 -0.15124439 0.2061919 14407633
0.76330006 -0.15396497 0.20456371 14539477
0.77222228 -0.15823366 0.20424341 10328725
0.74687505 -0.14291337 0.20584282 15263717
0.75284618 -0.14739569 0.20440406 13684171
0.74500018 -0.13492523 0.20489034 15066081
0.7440626 -0.12484653 0.20441462 15329251
0.74317944 -0.11512131 0.20534626 15263459
0.74304771 -0.10499765 0.20521966 15328995
0.74331719 -0.094701499 0.2051667 15328996
0.74277794 -0.085107855 0.20528923 15394534
0.73900002 -0.071556136 0.20929813 15000800
0.74232483 -0.075528815 0.20475948 15197155
0.73858333 -0.063879289 0.20817095 14934494
0.74174088 -0.065487541 0.20357485 15197409
0.73794448 -0.054564457 0.20707744 14803421
0.74085712 -0.055260044 0.20251395 14803422
0.73633343 -0.045243923 0.20548607 14737371
0.74000001 -0.047400013 0.20091957 14737628
0.73561901 -0.035064772 0.20488764 14737371
0.73554754 -0.02472976 0.20486684 14211284
0.73485726 -0.014386193 0.20467494 14145491
0.73375005 -0.0050779707 0.20485248 14013648
0.73258334 0.0045241569 0.2049042 13882062
0.73177791 0.014797583 0.20468014 13553097
0.72900003 0.027968422 0.20945251 13553611
0.73082888 0.024921425 0.20429376 13224388
0.72900003 0.032946009 0.20931029 13750733
0.73052937 0.035496768 0.2040807 13816526
0.73094481 0.045582671 0.20444967 14343383
0.73106688 0.055003203 0.20448379 13948111
0.73100036 0.064409941 0.20446543 13619146
0.73100036 0.074677654 0.20446549 13816527
0.73127812 0.084978856 0.20454253 14408667
0.73227787 0.092808716 0.20482396 13816273
0.77200001 0.10507149 0.20237893 11579816
0.77422225 -0.16206709 0.21443793 9341832
0.78590006 -0.16735576 0.21430345 9473416
0.79000002 -0.16988929 0.21449521 9539209
0.74849999 -0.15045121 0.21812099 13815243
0.75459999 -0.15321119 0.21488497 14144720
0.76444453 -0.15783326 0.21431273 10986658
0.74533337 -0.14452668 0.21510115 14276307
0.75100005 -0.14919563 0.21093863 14078415
0.74285722 -0.13466048 0.21461165 14803165
0.73888886 -0.12218887 0.21772292 15131616
0.74123073 -0.12549824 0.21393222 14934751
0.738276 -0.11454558 0.21612424 15131616
0.74050009 -0.11612483 0.21145588 15131616
0.73807156 -0.10515974 0.21545057 15131874
0.74000001 -0.10283531 0.21131368 15131616
0.73752952 -0.095331773 0.21512331 15132129
0.73754293 -0.085252672 0.21504718 15263459
0.74000001 -0.084645607 0.21131368 15263202
0.73676938 -0.074592575 0.21516137 15197409
0.73573685 -0.064804159 0.21498492 15065823
0.73452628 -0.055421684 0.21531168 15000544
0.73302776 -0.045238718 0.21532696 14408663
0.73244458 -0.034913655 0.21515577 14605785
0.73188907 -0.024607569 0.2149926 14211028
0.73122251 -0.014313739 0.21479723 14079699
0.73080021 -0.0048961183 0.21467339 14013906
0.73052788 0.0045121107 0.21459275 13948112
0.72900003 0.017302157 0.21743695 13290182
0.73041391 0.014151444 0.21376365 13553354
0.72846878 0.025441706 0.21563973 13224647
0.73000002 0.021769144 0.21119241 13290182
0.72858346 0.035201963 0.21572696 13882576
0.73000002 0.038687684 0.21016705 14408663
0.72900003 0.043541167 0.21755886 14079954
0.73017836 0.046084605 0.21351445 14277077
0.72900003 0.056554008 0.21841215 13948364
0.73051709 0.05490271 0.21444228 13948111
0.7306667 0.064380556 0.21463372 13684424
0.73041677 0.074617952 0.21456023 13750477
0.7313059 0.084982306 0.21482274 14474203
0.73240012 0.09248177 0.21531628 14408409
0.78820002 -0.17134739 0.22507672 9473673
0.77066678 -0.16212337 0.22457846 9144712
0.78383332 -0.16856317 0.22474408 9342087
0.74775004 -0.15117639 0.22490312 13487306
0.75683337 -0.15566976 0.22409175 13487563
0.76116675 -0.15834299 0.22537561 11250344
0.74331033 -0.14431314 0.2247965 14013650
0.73878574 -0.13441621 0.22764385 14606043
0.741 -0.13524923 0.22273621 14803424
0.73797077 -0.12481105 0.22567111 14605788
0.74075007 -0.12895149 0.22106516 15000800
0.73670602 -0.11470479 0.22487785 14868960
0.73565638 -0.10513774 0.22487067 14803168
0.73527789 -0.095294282 0.22459385 14868960
0.73449981 -0.084696494 0.2246725 14935008
0.73325628 -0.07463304 0.22522971 14802909
0.73226672 -0.064904511 0.2253888 14803165
0.73216683 -0.055468608 0.22535869 14671835
0.73188919 -0.045167621 0.22527392 14474456
0.73116696 -0.03485281 0.22505122 14277077
0.73083359 -0.024571817 0.22494875 13882319
0.72900003 -0.012563379 0.22779846 13948369
0.73039287 -0.014786392 0.22383583 13816783
0.72900003 -0.0043503563 0.22662517 13619406
0.72999996 -0.005500705 0.22212963 13750990
0.72900003 0.0042637186 0.22578464 13816783
0.73000008 0.005052573 0.2215082 13816783
0.72871429 0.015100707 0.22466165 13422025
0.73000002 0.010490119 0.22127518 13685197
0.72681564 0.024725622 0.22509861 13224392
0.72705704 0.035008382 0.22536655 13750735
0.72900003 0.045461081 0.22438523 13948112
0.72900003 0.055700686 0.22438529 13882317
0.72900003 0.065087035 0.22523852 13619147
0.73000002 0.065176293 0.22042069 13684166
0.72900003 0.071913414 0.2254661 13750736
0.72999984 0.076406494 0.22392 13816529
0.73136145 0.084988832 0.22511217 14342874
0.73223084 0.092143387 0.22504918 14079703
0.78800005 -0.17130391 0.2351665 9407623
0.76866674 -0.16170265 0.23749356 8881279
0.77250004 -0.16341621 0.23416056 9078660
0.78233337 -0.16824059 0.23530759 9341830
0.74650002 -0.1517968 0.23501271 13026751
0.75428575 -0.15514576 0.23481318 13421766
0.7604 -0.1581835 0.23493879 13223617
0.73900002 -0.14162162 0.23611331 14211284
0.74315381 -0.14643809 0.23462731 13619147
0.73748738 -0.13535728 0.23489593 14211284
0.73627782 -0.12472624 0.23524216 14277079
0.73569995 -0.11515538 0.23505861 14474460
0.73488903 -0.10556647 0.23480007 14539995
0.73408318 -0.095139496 0.23454279 14474202
0.73352933 -0.084967673 0.23461735 14408409
0.73206079 -0.074078433 0.23522037 14474201
0.73180026 -0.06486252 0.2355267 14408665
0.73200023 -0.055170119 0.23513345 14276824
0.73172253 -0.045157071 0.23550187 14013909
0.73116702 -0.034852814 0.23532312 13553358
0.73047215 -0.024560295 0.23509963 13092549
0.72896433 -0.014025605 0.23436959 13487818
0.73000002 -0.018220125 0.23580119 12961217
0.72760624 -0.0053396975 0.23425221 13421770
0.72732437 0.0045621111 0.23424487 13290439
0.72768557 0.014593574 0.23432304 12895424
0.7269333 0.024910348 0.23481168 12698045
0.72770971 0.03529888 0.23489808 13092806
0.72900003 0.044993147 0.23404692 13487819
0.73000002 0.048428662 0.23853549 13750990
0.72900003 0.055925261 0.23224461 13882318
0.73006666 0.054927815 0.23753203 13487820
0.72900003 0.065168291 0.23312147 13684940
0.73000008 0.064088792 0.23844229 13487564
0.72900003 0.072233409 0.23323826 13421769
0.73034984 0.076406866 0.23617177 13553358
0.73144466 0.084998749 0.23541236 14079960
0.73199999 0.091487654 0.23537621 13750481
0.78760004 -0.17121696 0.24518654 9276295
0.76485717 -0.16115774 0.24500819 12236722
0.7748 -0.16589856 0.24772573 9210501
0.78100008 -0.16795385 0.24313174 9276295
0.74716669 -0.15222459 0.24542941 12697788
0.7549091 -0.15624188 0.24512711 12895166
0.76000005 -0.15898988 0.24460208 12763066
0.73900002 -0.1416216 0.24476337 13750733
0.74291295 -0.14676195 0.24496172 13290182
0.73684382 -0.13517457 0.24491154 14277077
0.73600006 -0.12447562 0.24523938 14277077
0.73597151 -0.11445904 0.2456065 14145494
0.73548388 -0.10495799 0.24518262 13948116
0.7344721 -0.095190555 0.24498436 13816530
0.73386097 -0.084803276 0.24478009 13618894
0.73342419 -0.0746838 0.24502549 13553101
0.73384005 -0.065043829 0.24563345 13487308
0.73367727 -0.055500548 0.24541229 13355979
0.73293322 -0.045232099 0.24532992 13158602
0.73283333 -0.034931891 0.24529651 12369084
0.73200017 -0.024612015 0.24501762 11710897
0.72900003 -0.011283427 0.24102463 12171701
0.73088479 -0.014768366 0.24510381 12303288
0.72883338 -0.0045987046 0.24182291 12566459
0.73064709 -0.0048948415 0.24728 12040629
0.72870588 0.0043504499 0.24230789 12632511
0.73066664 0.0045129359 0.24799085 12172215
0.72894746 0.014965928 0.24246688 12500665
0.73041165 0.014519145 0.24800491 11974321
0.72874999 0.024546796 0.24200875 12303543
0.73044986 0.025373872 0.2475754 11842738
0.72900003 0.034833618 0.24137372 12961220
0.73056006 0.035468023 0.24692887 12238010
0.72900003 0.042901188 0.24059798 13027267
0.73066664 0.045798711 0.24581435 12566976
0.73112005 0.055007186 0.24472134 12895685
0.73136693 0.064442441 0.2448047 13092807
0.73163348 0.07474301 0.24489447 13092807
0.73243332 0.085112959 0.24516171 13422545
0.73319995 0.092066981 0.24541888 12238269
0.77400005 -0.17007239 0.25907362 9145221
0.78575009 -0.17265628 0.25426668 9276037
0.76281828 -0.16307169 0.25483859 9933968
0.77325004 -0.16764441 0.25474101 9341830
0.78100002 -0.16978218 0.25227499 9341830
0.74780005 -0.15241228 0.25432953 12303031
0.75569242 -0.15775341 0.25498053 12565689
0.74327594 -0.14508648 0.25503027 13289928
0.73829412 -0.13457347 0.25281656 14211029
0.74062502 -0.13608254 0.25743872 13421516
0.73790002 -0.12500146 0.25505388 14013905
0.74000001 -0.12795444 0.25981957 13750480
0.73700017 -0.11449604 0.25531819 13816529
0.73692012 -0.10499541 0.2552906 13684944
0.73643339 -0.095444947 0.25512213 13684687
0.7355333 -0.084996656 0.25480983 13027014
0.73566687 -0.074677244 0.25485486 12895428
0.73606914 -0.064527854 0.25511286 13026757
0.73584616 -0.055084765 0.25478569 12960964
0.73560017 -0.045395661 0.25483438 12895429
0.7367667 -0.035118286 0.25523931 12500667
0.73566663 -0.024736464 0.25485855 11316393
0.73338246 -0.014155023 0.2546722 11448237
0.73265392 -0.0050410451 0.25532988 12040629
0.73219997 0.004522407 0.25536925 11909043
0.73200023 0.014802534 0.25529918 11843250
0.73186678 0.025080418 0.25525287 11711922
0.73200011 0.03536642 0.25529903 12040631
0.73225939 0.045188379 0.25519934 12171959
0.73293936 0.054675948 0.25500345 11908789
0.73333311 0.064616054 0.25490677 12040889
0.7336666 0.074716069 0.25463197 12501697
0.73451841 0.08494202 0.25414026 12962506
0.74000001 0.08858972 0.25981957 11843512
0.73666668 0.092215657 0.25232613 13356751
0.74240005 0.092702731 0.25753373 13093836
0.77550006 -0.17040199 0.26411843 9079429
0.78600001 -0.17547274 0.26861039 9145221
0.79100001 -0.17936306 0.26522678 9145221
0.764 -0.16174395 0.26492929 11052450
0.77375007 -0.1677531 0.26669303 9145223
0.74800009 -0.15035073 0.26262999 11448237
0.75491667 -0.15483856 0.26446578 12040116
0.76033336 -0.15876269 0.26577345 12171445
0.74558336 -0.14448656 0.26483604 12500413
0.75000006 -0.14899696 0.26859796 11119017
0.74306244 -0.13462856 0.26519257 13158344
0.73900002 -0.12172649 0.26119849 14145238
0.74132001 -0.12533742 0.26542222 13224137
0.73872721 -0.11437184 0.26188847 13355722
0.74105257 -0.11535376 0.26694733 13224395
0.73866671 -0.10437908 0.26194569 13619151
0.74122226 -0.10474038 0.26719058 13093321
0.73849994 -0.094847083 0.26188678 13092807
0.7409333 -0.09516038 0.26708651 13092807
0.73811114 -0.084813863 0.26270965 13158600
0.74066669 -0.086311422 0.2677123 13158598
0.73812515 -0.074926905 0.26348302 13092807
0.74049997 -0.075170182 0.26866278 13092807
0.73830771 -0.064375468 0.26388076 13421772
0.74000001 -0.066022813 0.26848134 13487565
0.73847365 -0.05553703 0.26356134 13684687
0.74042863 -0.053245734 0.26814187 13684687
0.73857135 -0.046073787 0.2622827 13684944
0.74120003 -0.044988688 0.26729864 13816273
0.73900002 -0.035744876 0.26119849 13289928
0.74167997 -0.035249118 0.26631546 13421770
0.73854542 -0.023810262 0.26198128 12040115
0.74131578 -0.025519205 0.26695037 12434875
0.73753583 -0.014191804 0.26512387 11908786
0.74050003 -0.017962724 0.26866275 11842740
0.73539996 -0.0049284166 0.26509351 12369337
0.73493332 0.0045396015 0.26492524 12369337
0.73536676 0.014871513 0.26508304 12171704
0.73539996 0.025201185 0.2650955 11974326
0.73540008 0.03553069 0.26509553 12171705
0.73547995 0.045004304 0.2651242 12040632
0.7360999 0.054519616 0.26534739 11974837
0.73681492 0.064636 0.2652218 12040631
0.7374211 0.075106226 0.26345959 12566976
0.74050003 0.076226957 0.26808491 12106682
0.73800009 0.083456784 0.26142132 12698821
0.74294448 0.084888086 0.26684469 12830150
0.74533337 0.091555953 0.26227352 11975098
0.75300002 0.091908813 0.26967233 13158602
0.77400005 0.10353175 0.26994529 10526876
0.78900003 0.1092323 0.26871207 10921889
0.79025 0.10940535 0.26358694 10922144
0.78900003 0.11255702 0.26889679 10856096
0.79146439 0.11553001 0.26405412 10921888
0.78637505 -0.17325334 0.27449304 9079430
0.792 -0.17773661 0.27529693 9013636
0.76800001 -0.1615624 0.27144849 11973552
0.77409095 -0.16449629 0.27491504 9868176
0.78100002 -0.1688692 0.276041 9013124
0.75762504 -0.15272987 0.27354681 11316394
0.76362509 -0.15662369 0.27571052 11645357
0.7474001 -0.14323303 0.27291632 11579568
0.75255555 -0.14676851 0.27636275 11645361
0.74556673 -0.13502789 0.27515772 12895428
0.74451876 -0.12486225 0.2755464 13224393
0.74435723 -0.11532684 0.2751064 12764100
0.74443328 -0.10519447 0.27532116 13224392
0.7438668 -0.094666645 0.27511141 13553358
0.74315995 -0.085007913 0.2748509 13290186
0.74276674 -0.075398475 0.27470529 13355978
0.74236655 -0.064931445 0.27455682 13619149
0.74266654 -0.054523494 0.27466762 13882065
0.74400008 -0.045042995 0.27515939 14277081
0.74409997 -0.035469484 0.27519581 13421769
0.74330014 -0.024992205 0.2749005 12632509
0.73888886 -0.011484738 0.27345997 12106426
0.74123812 -0.015791638 0.27570704 12171960
0.73800009 -0.0048009641 0.27452475 12172732
0.74000001 -0.0084220665 0.27887547 12501440
0.73816693 0.0045603137 0.27473053 12698306
0.73866671 0.014155841 0.27384496 12369084
0.74055564 0.016806222 0.27812216 12434878
0.73899996 0.024459548 0.27201107 11645877
0.74111104 0.025397032 0.27640396 12304062
0.73900002 0.034839623 0.27157858 12105915
0.74139994 0.034952614 0.27593404 12171706
0.73887497 0.044347331 0.27196515 12237498
0.74112499 0.044482231 0.27604777 12237756
0.73900002 0.053869754 0.27157858 11777718
0.74173683 0.055166952 0.27587691 11843512
0.74251848 0.065715231 0.27499977 11843255
0.74367994 0.075104125 0.27504316 12238268
0.74560004 0.08350274 0.27479097 12961221
0.75133342 0.088188387 0.27669704 13027014
0.75666666 0.09117648 0.27629882 11448236
0.76440001 0.095812641 0.27625433 10856096
0.77350008 0.099843316 0.27792001 11119268
0.77533334 0.10280412 0.27494952 10921889
0.78522229 0.10789488 0.27508122 10856096
0.78853339 0.11286043 0.27501354 10856096
0.79018188 0.11780443 0.27508375 10856096
0.79253328 0.12456633 0.2754803 10856096
0.78825009 -0.17182003 0.28183585 9013637
0.77580005 -0.16138616 0.2840175 10263191
0.78454554 -0.16688371 0.28564578 9012611
0.76514286 -0.15277413 0.28400418 10986914
0.77400005 -0.15775208 0.28697762 10723742
0.75638473 -0.14400257 0.28423586 11776947
0.76099998 -0.14761922 0.28678951 11118504
0.7481429 -0.13386689 0.28219467 12631999
0.75316674 -0.13537548 0.28707197 12369341
0.74762499 -0.12445962 0.2832818 12764867
0.75028574 -0.12571879 0.28751943 12632511
0.74800003 -0.11471037 0.28374594 13158857
0.75050002 -0.11483666 0.28810331 12896197
0.74768746 -0.10510743 0.28341523 13224393
0.75040007 -0.10516033 0.2880649 13224393
0.74728572 -0.094892569 0.28387275 13158600
0.75000006 -0.096909314 0.28791136 12633024
0.74643481 -0.085078955 0.2844182 13224648
0.75000006 -0.087545238 0.28966713 12698049
0.74492848 -0.075306788 0.28403601 13158856
0.74467742 -0.06499216 0.28429592 13355978
0.74480575 -0.054681823 0.28504795 13553101
0.74520022 -0.045116149 0.28519759 13882322
0.74533355 -0.035765916 0.28485242 13619149
0.74488908 -0.025045289 0.28507927 12500413
0.7430625 -0.014765744 0.2849237 12106425
0.73900002 -0.0032206485 0.28022861 12961991
0.74127275 -0.0052033933 0.28503618 12567233
0.73900002 0.0028343946 0.28022861 12632769
0.7416153 0.0048490572 0.28522933 12501184
0.74306679 0.015028591 0.28525352 12171964
0.74411774 0.025705798 0.28504109 11843768
0.74483359 0.035114709 0.28505963 12238013
0.74481261 0.044594549 0.28450632 12237756
0.74533343 0.05520501 0.28437847 11711925
0.74627995 0.064883143 0.28473994 11317168
0.7467308 0.074268207 0.28437373 12040121
0.75000006 0.075740777 0.28966713 11382192
0.7481429 0.08230906 0.28269562 12500670
0.75441664 0.0859069 0.28577575 13092807
0.76000005 0.089204863 0.28819183 13750737
0.75900006 0.090864323 0.2807053 11316396
0.76000005 0.090984039 0.28285432 11974326
0.77366668 0.097449683 0.28492317 10658719
0.77766675 0.10098904 0.28214651 10856096
0.78630006 0.10628573 0.28546491 10724766
0.78855544 0.11296609 0.28476575 10724766
0.79000002 0.11779581 0.28497806 10724767
0.79175997 0.1244439 0.28540727 10724767
0.78729999 -0.16414975 0.29449052 8881282
0.79049999 -0.1676836 0.29605743 8947331
0.77537507 -0.15358533 0.29425028 9473421
0.78320003 -0.15779498 0.29735634 8815488
0.76450002 -0.14405271 0.2930299 10921383
0.77233338 -0.14680944 0.29768875 10066072
0.75737506 -0.13406385 0.29251611 11908789
0.76225007 -0.13604277 0.29685351 11514029
0.75562501 -0.12501843 0.29372358 12040116
0.76100004 -0.12446141 0.29926014 11645356
0.75470585 -0.11521841 0.2931515 12172216
0.76140004 -0.11561128 0.29941741 11645357
0.75526655 -0.10548806 0.29311958 12698049
0.76066667 -0.10303542 0.29734829 12697793
0.75581819 -0.094819017 0.29288149 12698049
0.76183337 -0.095167659 0.29780436 12500926
0.75583333 -0.0855648 0.29398796 12764096
0.76066667 -0.087010361 0.29734829 12962245
0.74759996 -0.075016424 0.29049033 13158598
0.75510001 -0.074178472 0.29623505 12830401
0.76050007 -0.078979567 0.2990635 11580591
0.74778569 -0.065154277 0.29206425 12172220
0.75212502 -0.065125495 0.2973119 11777717
0.7476154 -0.054552235 0.29332444 12632001
0.7511251 -0.054703314 0.29779625 12040121
0.74764287 -0.045264207 0.29375866 13422030
0.75144446 -0.04373626 0.29843548 12698049
0.7475 -0.034755927 0.29245237 13158597
0.75150001 -0.034942076 0.29816496 13093060
0.74711114 -0.025121368 0.29379952 12105910
0.75116676 -0.025258953 0.29891017 11316396
0.74550003 -0.014682157 0.29351678 11645618
0.75000006 -0.013803169 0.29844594 11448497
0.74471426 -0.005238595 0.29273441 11777719
0.75250006 -0.0076829381 0.29944074 11777719
0.74549997 0.0039075157 0.29211932 11843768
0.75325006 0.0055253287 0.29709738 11646133
0.74644446 0.015970046 0.29237244 11711669
0.75383335 0.015252448 0.29732755 11580340
0.74627286 0.025177617 0.29251671 11251374
0.75300002 0.024923857 0.29787692 10922408
0.74733335 0.034355782 0.29242846 11382704
0.75399995 0.034368992 0.29729474 11185323
0.74710011 0.045191184 0.29134554 11513777
0.75228578 0.045781828 0.2960864 11579827
0.74822229 0.054543838 0.2913163 11250604
0.75400001 0.055403695 0.29695293 10856104
0.74900001 0.062489111 0.29103431 10593445
0.75405014 0.064850837 0.29591572 10395552
0.75506675 0.074840635 0.29457349 11184812
0.76050007 0.077691898 0.2990635 10987434
0.75725001 0.083120257 0.2924684 12500415
0.76270008 0.085598938 0.29582182 13158344
0.76900005 0.092061482 0.29340488 13092807
0.77320004 0.093655668 0.29536408 11447981
0.78275001 0.098748371 0.29590154 10527132
0.78824997 0.10390195 0.29367688 10592924
0.7906 0.10704818 0.29683486 10527131
0.79173917 0.11541562 0.2949931 10658717
0.78850007 -0.16033725 0.30176842 9012867
0.79217404 -0.16511862 0.30579454 9144965
0.77700001 -0.15072289 0.30009514 8684672
0.7865001 -0.15454221 0.30573758 9145222
0.79050004 -0.15889338 0.30808556 9079685
0.77545458 -0.1443205 0.3034603 9803154
0.78150004 -0.14611082 0.30823463 9408651
0.76500005 -0.13228035 0.30083308 11579311
0.77450007 -0.13663898 0.30683881 10000532
0.76625001 -0.12442213 0.30311847 11250598
0.77219999 -0.12448446 0.30727991 9539979
0.76600003 -0.11541632 0.302573 10987427
0.77324998 -0.11333806 0.30724651 10658979
0.76639998 -0.10560181 0.30138364 11381419
0.774625 -0.10492693 0.30711564 11316140
0.77387506 -0.095762961 0.30568388 11644848
0.76900005 -0.080761835 0.30420634 11843510
0.77514285 -0.085038885 0.3076748 11513776
0.75900006 -0.071715876 0.30113888 10922404
0.76300007 -0.075032629 0.30310863 11448493
0.77166671 -0.077430479 0.30827177 10724514
0.75745451 -0.064073913 0.30286476 10922407
0.76200002 -0.065309286 0.30723619 10132890
0.75692326 -0.055501301 0.30324864 11053483
0.76140004 -0.055010758 0.30832967 10263967
0.75666672 -0.044925231 0.30375743 11777204
0.76000005 -0.045122754 0.30776274 11119530
0.75740004 -0.035215467 0.30405161 11777204
0.7610001 -0.034489915 0.3081677 11975096
0.75730002 -0.02617215 0.30383438 11842740
0.76125002 -0.024706913 0.30737931 11317167
0.75650007 -0.013918115 0.30280346 10987946
0.76116675 -0.014895539 0.30645326 10725031
0.75700003 -0.0056650839 0.30182371 11448755
0.76350009 -0.004669996 0.30605364 10660008
0.75900006 0.0055763526 0.30069467 11712183
0.76700002 0.0038348855 0.30610964 11383220
0.77400005 0.0084044794 0.30980816 10724521
0.75900006 0.012683683 0.30025047 11777719
0.76400006 0.016338227 0.30401692 10987688
0.7732501 0.013826034 0.30950797 10987434
0.75900006 0.026898345 0.30202729 10461857
0.76533335 0.028315932 0.30574611 10592930
0.75900006 0.03844776 0.30025047 11184810
0.76314294 0.034446124 0.30393299 10592929
0.77100003 0.037251875 0.30860734 9934739
0.75900006 0.042001426 0.30025047 10987174
0.76333338 0.044319261 0.30375162 10790310
0.77179998 0.043969918 0.30892754 10724514
0.76291674 0.054715399 0.30448183 10330272
0.75900006 0.069542333 0.30025047 11053224
0.76200002 0.064953417 0.30403402 9671571
0.76440001 0.073975392 0.30364281 10066330
0.77233338 0.078599364 0.30793697 9803156
0.76300001 0.080625996 0.30004659 10526884
0.77390009 0.085404046 0.30560231 11119018
0.78200006 0.08995644 0.30934897 10197917
0.77550006 0.091933653 0.30133125 13289929
0.78592861 0.096985444 0.30538109 10856098
0.79222214 0.10576578 0.30521953 10527131
0.79246145 -0.16499782 0.31512833 9803408
0.78875005 -0.152541 0.31201917 9606029
0.79089475 -0.1560504 0.31549978 9803408
0.78680003 -0.14488935 0.31419823 9540236
0.79033333 -0.14775954 0.31819603 9869201
0.778 -0.13179427 0.31140924 9474445
0.78600001 -0.13498461 0.31645563 9671823
0.79000002 -0.13660002 0.31991127 9869201
0.77540004 -0.12500079 0.31036854 9211273
0.78490919 -0.12519518 0.31685069 9540237
0.77649999 -0.11699368 0.31080884 8751236
0.78563637 -0.11511344 0.31647632 9145480
0.79000002 -0.11440716 0.31991127 9079685
0.78500003 -0.10504612 0.31421465 9276558
0.79066676 -0.10339714 0.31833026 8750469
0.78536373 -0.094846696 0.31352437 10855590
0.77800006 -0.081707031 0.31140924 10790054
0.78560007 -0.084526435 0.31574279 9671570
0.79050004 -0.086722121 0.31918788 8618880
0.77500004 -0.074914038 0.31280228 9145224
0.78233337 -0.076668538 0.31741765 8553086
0.76824999 -0.064496681 0.31200314 8224894
0.77442855 -0.065278597 0.31671515 8882308
0.7663334 -0.054468777 0.31242147 8619142
0.77327275 -0.055376366 0.31774724 9013640
0.76490921 -0.045006659 0.31235835 9935514
0.77219999 -0.04494416 0.31812632 8882310
0.76671427 -0.035387293 0.31253377 11251373
0.77309108 -0.034626491 0.3176721 10527905
0.77400005 -0.025111875 0.3161523 10790308
0.76900005 -0.015953092 0.3114073 10461859
0.77490002 -0.014807125 0.31525072 10330273
0.78000003 -0.018007282 0.31951374 10856615
0.77583343 -0.0058037359 0.31417641 10067616
0.7816667 -0.0046247044 0.31775633 10002078
0.7766667 0.0020728891 0.31269372 10067875
0.7855556 0.0057706754 0.31750175 10330531
0.77825004 0.015736168 0.31333119 10395296
0.78650004 0.014375004 0.31818959 9934744
0.77450001 0.02654285 0.3118214 10132122
0.78300005 0.024997408 0.31707665 8553090
0.77520001 0.034732424 0.31210321 10263704
0.78320003 0.035091788 0.3171576 8553343
0.77616668 0.044765089 0.3124924 10000534
0.78433341 0.045233596 0.31761652 8684929
0.77414292 0.055905454 0.31271604 9013894
0.78275001 0.05568593 0.3183507 9211014
0.77263641 0.064873219 0.31205985 9145479
0.78150004 0.065203123 0.31829867 9408393
0.77583337 0.074417494 0.31296417 9540237
0.78375006 0.075938985 0.31783974 9803408
0.77750003 0.081249893 0.31120908 9606031
0.78575009 0.085022978 0.31574193 10263705
