# .PCD v0.7 - Point Cloud Data file format
VERSION 0.7
FIELDS x y z rgb
SIZE 4 4 4 4
TYPE F F F U
COUNT 1 1 1 1
WIDTH 1111
HEIGHT 1
VIEWPOINT 0 0 0 1 0 0 0
POINTS 1111
DATA ascii
0.778 -0.15247934 0.0855662 15329507
0.78253341 -0.15766129 0.084598407 14408664
0.77563995 -0.14501305 0.085307166 16118764
0.77529997 -0.13496496 0.085270599 16184556
0.77624023 -0.12513405 0.085373059 16184556
0.77712524 -0.11504311 0.085128881 16184556
0.77872211 -0.10456962 0.084735185 16184556
0.77859992 -0.094529681 0.084722258 16184299
0.77868968 -0.085550599 0.084574573 15921384
0.78000003 -0.080699749 0.088829823 15723749
0.7790001 -0.077982388 0.082211584 16184557
0.78070837 -0.074147001 0.085714288 15921386
0.78155565 -0.064698189 0.085045949 15986924
0.78256679 -0.054705504 0.08515431 15394528
0.78350031 -0.04468257 0.085254759 15789540
0.78432149 -0.034827519 0.085016191 15855076
0.69400001 -0.021708198 0.089325324 12696755
0.78491998 -0.025471287 0.084490389 15920869
0.69572735 -0.015613331 0.088807248 13882314
0.70000005 -0.011244245 0.088458881 13750985
0.78469998 -0.015361113 0.084468834 15460575
0.70433331 -0.0080130165 0.089006484 13684677
0.71100003 -0.0014341574 0.089848943 13947079
0.78432006 -0.0052545462 0.084428981 15329246
0.78450012 0.0048464118 0.084447235 15197917
0.78583992 0.01497281 0.084589519 14803160
0.78673351 0.02511855 0.084683105 14474453
0.78564 0.035198014 0.084565833 14145489
0.78489995 0.04527225 0.084488265 14605271
0.78452003 0.05534998 0.084447421 14145234
0.78291708 0.065317839 0.085191451 14474199
0.78223324 0.075333498 0.085116342 14473942
0.78251618 0.084697857 0.08529266 15066337
0.78357178 0.094854817 0.085128509 15395305
0.78433341 0.1049156 0.085341744 15790063
0.78745836 0.1143992 0.084915698 16052979
0.79000002 0.11861777 0.081338115 16315890
0.78704166 -0.16480477 0.095464833 12631482
0.79033333 -0.16872723 0.093089223 10657692
0.77793336 -0.15272667 0.094665289 15394787
0.78130007 -0.15795997 0.09507443 14407894
0.77656019 -0.14518422 0.094499156 15790569
0.77660024 -0.13519147 0.094503976 15724775
0.77692026 -0.12524416 0.094542034 15987690
0.77706695 -0.11526247 0.09455929 16052713
0.77859098 -0.10595999 0.094661884 16052712
0.78000009 -0.10086176 0.095144719 15789796
0.77900004 -0.092389241 0.091876939 15921384
0.78030002 -0.095282562 0.09568467 15724003
0.77900004 -0.08819484 0.091147482 15986921
0.78135717 -0.084540665 0.095344894 15658211
0.78304011 -0.07490278 0.095287897 15526625
0.78410029 -0.06490849 0.095417731 15592419
0.78460002 -0.054849114 0.095477909 15065561
0.783167 -0.044666089 0.095302127 15262425
0.70400006 -0.031746522 0.097535752 11972775
0.71000004 -0.034674596 0.09969531 12104105
0.78340757 -0.034386799 0.094921783 14999252
0.69468981 -0.024060212 0.095246546 12828341
0.70000005 -0.029270083 0.097471796 12038312
0.78511101 -0.025611944 0.094040781 15591645
0.6944167 -0.015215185 0.095066197 14474709
0.78669572 -0.015117317 0.092930391 15986661
0.69800001 -0.0095780883 0.098008752 14408917
0.70488006 -0.00649714 0.09429004 14474453
0.71224999 -0.0020602674 0.096259475 14277074
0.78731823 -0.005190819 0.093463011 15591903
0.7177 0.00090551923 0.094898924 14211023
0.72257149 0.003862967 0.09687148 14276817
0.73416668 0.0074021067 0.097069941 14408401
0.74366671 0.008365781 0.098037131 14276814
0.77675009 0.0084352177 0.095428124 15526624
0.78545833 0.0045426823 0.092973471 15394782
0.74700004 0.01073441 0.099644482 14672085
0.75600004 0.011750986 0.099075206 14276557
0.76550007 0.014584939 0.098523468 15131866
0.77491671 0.014915146 0.096712269 15395038
0.78483343 0.015156233 0.092439592 15066073
0.77600002 0.021143777 0.09897013 15000280
0.78473526 0.025272649 0.094299257 14540245
0.7857666 0.035205297 0.094700143 14277075
0.7861715 0.045214042 0.094618283 14408148
0.78583866 0.055264849 0.094858438 14276305
0.78477782 0.064962201 0.095296897 14211026
0.78378594 0.074891068 0.095575728 14210257
0.78236669 0.085418805 0.095205173 14802908
0.78280008 0.095546491 0.095256642 15066337
0.78300017 0.10473561 0.095281534 15461097
0.78563339 0.1142896 0.094680719 15987443
0.78900003 0.12031468 0.095088132 15197927
0.79218197 0.12527207 0.095048718 12105908
0.78900003 -0.17152131 0.10617051 10526104
0.78628004 -0.16541454 0.10488434 12499637
0.77878582 -0.15237191 0.10427577 15197665
0.78150004 -0.15731435 0.1056191 14868442
0.77733356 -0.14532828 0.10460214 15460580
0.77775007 -0.13539127 0.1046595 15131357
0.77799982 -0.1252422 0.1048403 15131356
0.77745724 -0.11519113 0.104489 15328990
0.77857155 -0.10658886 0.10394295 15263198
0.78086668 -0.10199352 0.10623587 14868696
0.78228569 -0.095171921 0.10494187 14737110
0.78265738 -0.084812932 0.10518732 14539730
0.78300029 -0.074836865 0.10552119 14539731
0.78327799 -0.064840823 0.10539751 14802388
0.77800006 -0.052567597 0.10924359 14472392
0.78307396 -0.054945905 0.10485829 14801872
0.74700004 -0.041727804 0.10926138 12368047
0.76850003 -0.044729047 0.10970871 12827826
0.77700013 -0.045373976 0.10773447 14143685
0.78231573 -0.045244645 0.10281189 14933457
0.70607698 -0.032196727 0.10461379 11973033
0.71400005 -0.035204712 0.10527565 11907239
0.72266674 -0.03698498 0.10655314 11841703
0.77550006 -0.039688908 0.10616761 13748670
0.78162509 -0.036799282 0.10197516 14735822
0.69390321 -0.024042375 0.1049264 13486530
0.70083332 -0.029304927 0.10579213 11907496
0.69300002 -0.015183323 0.10460871 14737370
0.69700003 -0.0095643662 0.1052125 14079184
0.7044667 -0.006693264 0.1049627 14013903
0.71458334 -0.0022747878 0.10535684 13816525
0.71900004 0.00023289771 0.10264225 13684938
0.72420001 0.0031239835 0.10558678 13684938
0.73166674 0.0079455832 0.10530613 13948366
0.73575002 0.011004373 0.10632157 14079695
0.74446148 0.014051893 0.10533758 14540246
0.7544167 0.017027324 0.10504956 14605781
0.7626667 0.018398905 0.10262155 14802902
0.76537508 0.022197597 0.10634539 15066075
0.77472728 0.025810393 0.10416362 15066075
0.78100008 0.028896898 0.10113183 14606040
0.77900004 0.031254437 0.10847218 14868955
0.78540015 0.035268549 0.10483859 14342868
0.78800005 0.044528581 0.10511357 14277075
0.78780007 0.054659817 0.10508752 14145490
0.78679991 0.064720228 0.10495446 14079697
0.7851333 0.074691363 0.10473134 14144976
0.78319252 0.084803872 0.10433189 14539221
0.78303361 0.09496358 0.10475697 15000030
0.78365397 0.10468351 0.10474651 15394788
0.78616005 0.11436475 0.10486892 15855340
0.78900003 0.12031468 0.10524698 13881809
0.79227281 0.12562369 0.10517576 12171700
0.78725004 -0.16492449 0.11445916 12762811
0.79000002 -0.16988929 0.1164768 10525848
0.77900004 -0.15192139 0.11465234 15789031
0.78200001 -0.15695877 0.11541244 15262945
0.77893102 -0.14487232 0.11478225 16381424
0.78000003 -0.14034888 0.1168284 16250095
0.77900004 -0.13530588 0.11151161 15328993
0.78036839 -0.13474143 0.11611473 15855335
0.77899998 -0.12401661 0.11146819 15066075
0.78039134 -0.12508929 0.11609343 15394526
0.7790001 -0.1151849 0.11230185 14868696
0.78093338 -0.1145557 0.11684769 14671060
0.77900004 -0.10916685 0.11120766 14999769
0.78262079 -0.1049331 0.11551715 14408145
0.7846297 -0.095056243 0.11527801 14408145
0.78503221 -0.085350074 0.11556734 14276302
0.78332001 -0.074933112 0.11549173 14341324
0.77769226 -0.063470423 0.11690017 14472651
0.78126675 -0.066445343 0.11372573 14604494
0.76900005 -0.050157707 0.11878131 13353657
0.77479422 -0.05507458 0.11513661 13946306
0.74650002 -0.041699871 0.11574718 12301740
0.75475007 -0.044593334 0.11657993 12367019
0.76328576 -0.047233619 0.11508977 12893363
0.77166671 -0.048525155 0.11196492 13156277
0.70600003 -0.03117373 0.11235571 12301740
0.71375006 -0.033607632 0.11274982 12170409
0.72420007 -0.03604839 0.11355489 12104360
0.69309098 -0.024216505 0.1150674 13750216
0.70000005 -0.029270083 0.11303957 11972776
0.69325006 -0.015188967 0.11438453 14540247
0.69711113 -0.0090206936 0.11583747 14145490
0.70489478 -0.0054111839 0.11513195 14408661
0.71288896 -0.0018075883 0.1145557 14671833
0.71783334 0.00079319364 0.11731815 14671833
0.72488248 0.0037344869 0.11485535 14277075
0.73218179 0.0078735687 0.1152774 14079695
0.73600006 0.011315432 0.11344092 13816267
0.74355567 0.013977425 0.11465342 13947852
0.75580001 0.019002926 0.11461769 14079437
0.76380002 0.022421999 0.11297395 14605523
0.77368432 0.026946228 0.11512109 14737109
0.77833343 0.031227687 0.11293536 15657954
0.78544009 0.03585887 0.11536165 14671573
0.78800005 0.044528577 0.11525955 14539734
0.78800005 0.054674551 0.11525957 14408148
0.78720009 0.064752847 0.11514238 14211027
0.7848056 0.074659243 0.11479136 14211284
0.78386682 0.084666029 0.11465312 14473942
0.78411448 0.094655775 0.11482178 14934237
0.78324151 0.10489497 0.11471941 15197409
0.78520006 0.11422516 0.11484672 15723754
0.78846663 0.12183382 0.11575738 12829119
0.79076928 0.12670876 0.11431077 12106162
0.787875 -0.16401637 0.12503976 13288898
0.79033333 -0.16811079 0.12485334 10130835
0.77883345 -0.15199037 0.12485835 15657702
0.78287506 -0.15724921 0.12493331 15197151
0.77858323 -0.14464961 0.1248172 16250093
0.77900016 -0.1362785 0.12604006 16315629
0.7802 -0.13332218 0.12392058 16250093
0.78157574 -0.12532707 0.124883 15921128
0.78279996 -0.11519581 0.12457938 14999513
0.78416675 -0.10529836 0.12479663 14078667
0.78580761 -0.095191367 0.12519933 14013130
0.78582758 -0.085130937 0.12493322 14275531
0.77900004 -0.070870131 0.12762055 12827828
0.78276014 -0.075101569 0.12479064 14275274
0.77625936 -0.065240607 0.12494878 13419965
0.78000003 -0.069135115 0.12048038 14472651
0.76762509 -0.050518081 0.12485778 13288122
0.77254176 -0.055969205 0.12490389 13091000
0.74800003 -0.041783664 0.12079084 11972519
0.75616676 -0.04312925 0.1253543 12827315
0.76188892 -0.0469216 0.12600446 13156280
0.69300002 -0.031140486 0.12921397 12893879
0.74550003 -0.039462186 0.12300733 11906726
0.69211757 -0.024651261 0.12572996 14078924
0.69382513 -0.01536568 0.12479327 14474455
0.69725007 -0.0087505868 0.12483881 14408663
0.70400006 -0.004186695 0.12559427 14671834
0.708 0.00022933459 0.12759097 14934493
0.71504354 0.0030761566 0.12521797 14868699
0.72049999 0.0078229643 0.12815577 14934236
0.73500001 0.0088413209 0.12385349 14935259
0.75542861 0.014144326 0.12401141 14606294
0.76333338 0.017225102 0.12505354 14408915
0.77000004 0.017373964 0.12884998 14672087
0.76900005 0.020051764 0.12418203 14343122
0.77554554 0.024685906 0.12540406 14474451
0.7815001 0.029525233 0.12528643 14605781
0.78584009 0.03521372 0.12506253 14605780
0.78832 0.044547316 0.12545748 14671318
0.78823334 0.054690238 0.12544361 14605270
0.78788 0.064810187 0.12538689 14473685
0.78543335 0.07471776 0.12499816 14473686
0.78304017 0.08457654 0.12461634 14605271
0.78320026 0.094676562 0.1246411 14868444
0.78166652 0.10505512 0.12556116 15000543
0.78312004 0.11414279 0.12484756 15592937
0.78826314 0.12272925 0.12457272 12303287
0.79049999 0.12794629 0.12487849 12040370
0.78850007 -0.16310668 0.13471457 14933723
0.79069996 -0.16726409 0.13509065 10393750
0.77900004 -0.15192139 0.13450989 15131362
0.78333342 -0.15735529 0.13525662 14868445
0.77867997 -0.14543334 0.1344229 15855081
0.78060007 -0.1411877 0.1373858 15789286
0.77900004 -0.13743347 0.13217968 16118250
0.78157151 -0.13461858 0.13588499 15986665
0.78345478 -0.12512824 0.13518834 15986666
0.78502774 -0.11460422 0.13504195 14867671
0.78593326 -0.10461734 0.13519789 14472652
0.78654546 -0.094990611 0.1350491 14604238
0.78530294 -0.084816098 0.13533533 14472651
0.78218514 -0.075029612 0.13505885 14143430
0.77704173 -0.065086789 0.13442643 12893364
0.78000003 -0.069135115 0.13874033 13748415
0.76800001 -0.050092477 0.13121216 13748417
0.77371877 -0.055223886 0.13513543 12893621
0.76531255 -0.044322308 0.13411748 12959158
0.77160007 -0.04635505 0.13869156 12959414
0.69386673 -0.031937707 0.13511547 12697014
0.76650006 -0.039228305 0.13723919 12564399
0.6927501 -0.02491463 0.13538562 14145231
0.6943056 -0.015213205 0.13514636 14408662
0.6979 -0.0089226346 0.13410413 14211284
0.70375997 -0.004181393 0.13519432 14342870
0.70816666 0.00022938858 0.1350822 14473942
0.71532142 0.0050256094 0.13488893 14605272
0.72000003 0.0086608864 0.13902396 14276565
0.72455561 0.011169333 0.13604259 14671064
0.73250008 0.013098825 0.13629495 15065821
0.74800003 0.016002024 0.13830166 15395040
0.76350003 0.01454625 0.13133644 15132381
0.77414286 0.017856553 0.1338181 15263967
0.77676928 0.021935198 0.13383064 14869209
0.78315794 0.026986012 0.13612022 15066588
0.78723997 0.035274476 0.13450117 15132383
0.78899992 0.043607231 0.13382216 14869212
0.79000002 0.046722174 0.13705142 14803419
0.78899986 0.055759817 0.1335994 14737112
0.79000002 0.052778978 0.13737506 14605783
0.78863984 0.064872131 0.13473913 14539477
0.78660601 0.075081542 0.13489437 14408406
0.78470004 0.084755026 0.13498698 14671065
0.78355581 0.094718263 0.13478725 15000029
0.78188449 0.1047972 0.13527374 15065821
0.7838462 0.11438258 0.13547164 15592424
0.78850007 0.12116196 0.13471457 12237240
0.79166663 0.1262839 0.13525651 12106164
0.78850007 -0.16310668 0.14486697 14933722
0.79066664 -0.167257 0.14526427 10196370
0.78240746 -0.15523854 0.14506964 15328224
0.77900004 -0.14746356 0.14038612 15723238
0.78090918 -0.1452184 0.14516203 15986664
0.78356677 -0.13456711 0.14487815 15920615
0.78556007 -0.1247972 0.14524651 15789031
0.78599989 -0.11474789 0.14532766 14538704
0.78539985 -0.10454857 0.14521544 14077894
0.78403997 -0.0951913 0.14496246 14143687
0.78180009 -0.084722571 0.14533284 14143429
0.78100002 -0.074709386 0.14531566 13814208
0.77866668 -0.062941216 0.14154181 12959156
0.78081822 -0.065883391 0.14553453 13419450
0.7775501 -0.054539431 0.1440405 12696240
0.78050011 -0.055779841 0.1482698 12564654
0.77491313 -0.045340009 0.1447809 12893620
0.69400012 -0.031907752 0.14636657 13223101
0.69366682 -0.024945477 0.14530618 14277074
0.69575864 -0.015832076 0.14521042 14408662
0.70074999 -0.011256292 0.14679116 14211284
0.70530301 -0.0055168937 0.14511859 14079697
0.70900005 0.00022965853 0.14104944 13948112
0.71549994 0.0035266574 0.14523865 14277077
0.72100008 0.0081913341 0.14632957 14277077
0.7269091 0.011221432 0.14507665 14342871
0.73320007 0.015344867 0.14551829 14605784
0.7438572 0.018650714 0.14598976 14737369
0.75349998 0.018765036 0.14284533 15789543
0.74800003 0.02125527 0.14880815 15394786
0.75700003 0.021511015 0.14793923 15263200
0.76100004 0.022515435 0.14783135 15526627
0.77533334 0.024051232 0.14557344 15658212
0.78470582 0.02716542 0.14433087 15658212
0.78833324 0.035321228 0.14483581 15657957
0.78899992 0.042491749 0.14575924 15328993
0.79000002 0.046737593 0.14434116 15263200
0.79008371 0.054818809 0.14515778 14802906
0.7889998 0.065471105 0.14495884 14539734
0.79000002 0.061286233 0.14514256 14605527
0.788091 0.074722208 0.14521191 14539990
0.78684008 0.084985211 0.14548403 14605270
0.78373337 0.094737992 0.14490882 15000028
0.78100002 0.1055117 0.14518556 15131357
0.78394997 0.11496171 0.14494923 15657701
0.78850007 0.12116197 0.14486697 12171186
0.79143757 0.12613145 0.14482674 12040370
0.78850007 -0.16310668 0.15501937 14933210
0.79049999 -0.16722155 0.15541255 10327957
0.78296292 -0.15561898 0.15501615 15130846
0.78137505 -0.14493902 0.15510455 15986923
0.78275013 -0.13500148 0.15457478 15920872
0.78469688 -0.12543695 0.15527171 15657187
0.78603321 -0.11475287 0.15453461 14275276
0.78424144 -0.10426952 0.15494226 13946310
0.78273356 -0.095031969 0.1548017 13420223
0.78135484 -0.084952176 0.1552669 13880257
0.78128004 -0.074734606 0.15542927 13551293
0.78234291 -0.064632662 0.15485534 13616829
0.77900004 -0.051265862 0.15634307 12762033
0.7814545 -0.055628356 0.15471439 12827569
0.77840006 -0.047856484 0.15412907 12630447
0.69406074 -0.034340024 0.15535988 13025723
0.69355577 -0.024939988 0.15502511 14474196
0.69611424 -0.015506959 0.15533912 14408663
0.70066667 -0.011254954 0.15251301 14474456
0.70518178 -0.006116943 0.15459254 14145492
0.71000004 -0.0014321404 0.15703854 14211284
0.71619046 0.0026330915 0.15493481 14277076
0.72225004 0.0077039436 0.15538095 14540247
0.72742862 0.010940769 0.15371585 14671834
0.73282146 0.01592922 0.15546684 14803420
0.74000001 0.019295586 0.15068132 14934235
0.73900002 0.020999525 0.15826276 14737115
0.74469239 0.022638818 0.15552269 14802649
0.75599998 0.024670595 0.15358627 15460066
0.76480001 0.026389882 0.1535812 16118765
0.77375007 0.028100844 0.153247 16052973
0.78300005 0.029581904 0.15118739 15724776
0.77600002 0.031913631 0.15748906 15855594
0.78527999 0.035773601 0.15467539 15724521
0.78800005 0.044529986 0.1549194 15329763
0.78861523 0.054717246 0.15560897 15000028
0.79000002 0.054813325 0.15161547 14934235
0.78843993 0.064856812 0.1550062 14671063
0.78803343 0.074969083 0.15492728 14605271
0.78703994 0.085007094 0.15473133 14802649
0.78358334 0.094718978 0.15496935 14933979
0.77900004 0.10511238 0.15801476 14934494
0.78052002 0.10513419 0.15432714 15065823
0.784087 0.11486095 0.15486985 15657958
0.78850007 0.12116196 0.15501939 12040113
0.79231244 0.12638748 0.15484101 11974577
0.78831255 -0.16376032 0.16559304 14143694
0.79042858 -0.16760266 0.16385695 10327701
0.78353846 -0.15580609 0.16483703 14670552
0.78132355 -0.14526673 0.16522859 15657446
0.78185695 -0.13499622 0.16528295 15657188
0.7836563 -0.1254077 0.16507195 15459296
0.78622216 -0.11478002 0.16469401 14275275
0.78561538 -0.1047192 0.16527572 14209481
0.78324008 -0.095095575 0.16498795 13617344
0.7789287 -0.083497934 0.16616225 13485500
0.78070587 -0.086938061 0.16412972 13485500
0.77890486 -0.076591954 0.16667807 13616829
0.78035724 -0.073472738 0.16307367 13551549
0.78174984 -0.064942516 0.16501504 13617085
0.77900004 -0.05080995 0.16044629 12762033
0.78162485 -0.05479439 0.16480009 13288378
0.69450009 -0.041233882 0.16519243 12235438
0.77900004 -0.048986297 0.16135812 12630448
0.78000003 -0.04904918 0.16430426 12564656
0.69362867 -0.03457154 0.16475934 13354177
0.69352794 -0.024938697 0.16475999 14539735
0.69596875 -0.015705336 0.16483007 14211541
0.70033336 -0.011249599 0.16719742 14145748
0.70483339 -0.0063646999 0.16480547 14211029
0.71016669 -0.0014324766 0.16538896 14211283
0.71644449 0.0019138312 0.16517344 14408662
0.72329408 0.0069123874 0.16480999 14606040
0.72900003 0.010475749 0.1638009 14737626
0.73310715 0.015322401 0.16527462 14803418
0.73850006 0.020985316 0.16334337 14803162
0.7438333 0.024237938 0.16558433 14737369
0.75314289 0.027951578 0.16443923 14737114
0.75850004 0.030431949 0.16776524 15132128
0.76320004 0.032410927 0.16719851 15526629
0.77521437 0.035512187 0.16497752 15856107
0.78200006 0.038087666 0.16319764 15856107
0.77900004 0.040372699 0.16956456 15658728
0.78588241 0.045061719 0.16483659 15724521
0.78706264 0.055184525 0.16463764 15329507
0.78643328 0.064692274 0.164737 14868699
0.78655541 0.074828491 0.16476196 14539478
0.78573334 0.084866405 0.16459045 14802649
0.78228128 0.094790816 0.1651262 15131614
0.77899992 0.10450451 0.16530935 14868957
0.78000003 0.10829064 0.16369559 15000543
0.78359103 0.11490901 0.16505779 15329764
0.78850001 0.12116197 0.16517179 11842734
0.79276919 0.12660334 0.16556403 11908784
0.78811771 -0.16438547 0.17513053 13420998
0.79000002 -0.16840978 0.17454807 10131093
0.78341395 -0.15525925 0.17495281 14868188
0.78190321 -0.14500107 0.17521662 15723238
0.78170359 -0.13536941 0.17523716 15788774
0.78274286 -0.12513284 0.17509122 15459295
0.78535473 -0.11480089 0.17480144 14275276
0.78596002 -0.10462217 0.17475925 14209481
0.78476 -0.095279939 0.17449465 13814466
0.77900004 -0.083270982 0.17211768 13353657
0.78169566 -0.085518733 0.17651829 13222584
0.7790001 -0.075843737 0.17221713 13551290
0.78100008 -0.07448037 0.17708632 13682620
0.78176451 -0.064499803 0.1750114 13682620
0.78266692 -0.054713268 0.17494264 13551035
0.69349998 -0.041522909 0.17426132 12367279
0.78300005 -0.049237832 0.17960033 14077634
0.692119 -0.034612104 0.17495672 13749704
0.6928919 -0.025024004 0.17449485 14539734
0.69588882 -0.01642287 0.17464103 14277077
0.7011112 -0.011808331 0.17558867 14211284
0.70612013 -0.0068413364 0.1746605 14211284
0.71211118 -0.0021761602 0.17612216 14540249
0.71753848 0.0013971707 0.17466481 14474200
0.72444999 0.0065172529 0.17515537 15000542
0.73394299 0.014876859 0.17507157 15066335
0.74426931 0.024372745 0.17533873 14737627
0.75099999 0.028372938 0.17225878 14737625
0.75623071 0.031297121 0.17549667 14803418
0.76415384 0.035066567 0.17486279 15132125
0.77237505 0.037769388 0.17354195 15461091
0.77611762 0.042256974 0.17620201 15263712
0.78238094 0.047004003 0.1737857 15461349
0.785074 0.055189233 0.17496832 15461351
0.78600001 0.064655997 0.17476833 15197922
0.78579992 0.074756652 0.17472409 14802906
0.78384382 0.085519858 0.17514677 14934492
0.77900004 0.097716466 0.17604865 14935007
0.78104752 0.093414918 0.1738385 15131872
0.77896422 0.10478215 0.1748319 14868957
0.78000003 0.1098123 0.1779992 15000288
0.78300017 0.11482242 0.17501651 15197923
0.7884286 0.12194233 0.17557135 11908527
0.79121435 0.12673965 0.17447113 11974320
0.7880556 -0.16281082 0.18506403 14342101
0.79042858 -0.16760264 0.18579866 11117990
0.78421438 -0.15448676 0.18486145 15065823
0.78280014 -0.14451742 0.18505245 15526372
0.78280789 -0.13514498 0.18519591 15657445
0.78417259 -0.12533483 0.18525137 15327710
0.78464514 -0.1149952 0.18448018 14209482
0.78514707 -0.10516021 0.1849031 14077639
0.78589994 -0.095415734 0.1848655 13748930
0.78466666 -0.085164569 0.1854956 13419708
0.78368014 -0.074965976 0.18526314 13551034
0.78254849 -0.064635612 0.18516992 13682362
0.77900004 -0.05354543 0.18871291 13879741
0.78134775 -0.055257637 0.18462658 13682619
0.69394118 -0.042013656 0.18459356 12827832
0.78200006 -0.04917495 0.18120164 13419704
0.69350016 -0.03468103 0.18504915 13947339
0.69397146 -0.024839152 0.184478 14474197
0.69621742 -0.016991448 0.18478103 14276819
0.70133346 -0.012085409 0.18467622 14276818
0.7065416 -0.0072106007 0.18480442 14671834
0.713 -0.002206766 0.18562295 14606042
0.71814287 0.0013143375 0.18549624 14737629
0.7240417 0.0063149352 0.18471605 14869214
0.72866672 0.010470959 0.18760674 14277077
0.73297071 0.015183377 0.18482649 14803163
0.73875004 0.020992421 0.18587917 14802906
0.74410337 0.02577734 0.18473327 14802649
0.74849999 0.030030737 0.18132369 14671064
0.75492311 0.032874364 0.18511613 14671063
0.76372725 0.037149068 0.18476738 15263199
0.77050006 0.039932176 0.18484944 15855335
0.77582616 0.044163004 0.18458579 14605267
0.78114289 0.049105387 0.18570478 14539732
0.78442854 0.05554568 0.18484671 15132129
0.78599989 0.064656004 0.18488856 15197922
0.78605533 0.074781567 0.18490158 15066334
0.78371882 0.085333399 0.18492503 14868699
0.77900016 0.09729673 0.1841538 15066335
0.78061545 0.09331084 0.18538004 15197663
0.77899992 0.10420057 0.18506558 15000030
0.78000003 0.1098123 0.18530317 15197409
0.78380954 0.11507212 0.18502843 15197410
0.78821057 0.12233225 0.18497126 11908526
0.79041672 0.12808712 0.18484813 11842990
0.78821063 -0.16338776 0.19497406 14473686
0.79028571 -0.16783646 0.19448517 10460313
0.7839601 -0.15508646 0.19538184 15394788
0.77900004 -0.14108077 0.198743 16118509
0.78158808 -0.14542495 0.19455817 16052716
0.77900004 -0.13743347 0.198743 15921129
0.78171426 -0.13497026 0.19453149 16052715
0.78379434 -0.12564786 0.19510688 15460065
0.78479314 -0.11473054 0.1945823 14275274
0.78523064 -0.10473589 0.19495839 13946053
0.78587997 -0.095412634 0.19497839 13814212
0.78599989 -0.085307255 0.19500872 13617346
0.78495997 -0.075089239 0.19475096 13156535
0.77900004 -0.061751872 0.19691937 13616315
0.78221446 -0.065867849 0.19459224 13551034
0.70400006 -0.050862342 0.19938551 12301484
0.77814293 -0.056566458 0.1947924 13551033
0.69625926 -0.043424226 0.19496097 13091003
0.70133334 -0.048481602 0.19753622 12367279
0.69411922 -0.034712173 0.19496205 13947083
0.69430006 -0.025129382 0.19476886 14473684
0.69700009 -0.017721253 0.19495542 14407891
0.70184213 -0.013000398 0.19496933 14079184
0.70679992 -0.0065506431 0.19504839 14079441
0.71114284 -0.0016718917 0.19498673 14079698
0.71683335 0.0026843147 0.19504631 14276822
0.72200006 0.007721114 0.19446035 14671321
0.72740006 0.011135398 0.19562593 15065822
0.73333341 0.016195478 0.19467463 14934235
0.73866671 0.020990053 0.19191217 14737371
0.74459267 0.025233116 0.19519176 14671063
0.74849999 0.030030737 0.19359063 14671063
0.75523078 0.032753993 0.19539426 14736856
0.76393336 0.037929107 0.19489646 15065821
0.77540916 0.044731047 0.19510141 14408145
0.78133339 0.049639199 0.19476277 14342352
0.7833001 0.055267498 0.19525255 14408147
0.78453326 0.064597711 0.19549826 15197408
0.78531015 0.074868515 0.19470975 15263200
0.78407151 0.084882699 0.19511889 15131871
0.77900004 0.098729603 0.19144839 15132384
0.78190917 0.094158038 0.19526935 15329763
0.77900004 0.10435254 0.19501974 15263971
0.78000003 0.10829064 0.19565046 15263973
0.78413635 0.11482236 0.1950461 15592684
0.78858346 0.12163645 0.19488008 11711150
0.79100001 0.12630866 0.19519195 11908784
0.78793752 -0.16379833 0.2050578 13882065
0.79000002 -0.16803989 0.20524819 10197657
0.78296429 -0.15561672 0.20505372 15065823
0.7790001 -0.14429197 0.20579973 15789032
0.7802223 -0.14810123 0.20291048 15986410
0.77838713 -0.13559026 0.20557997 15657445
0.78033334 -0.13188367 0.20151861 15789031
0.77900004 -0.12849757 0.208226 15394530
0.78193557 -0.12451497 0.20468485 15196894
0.78303361 -0.11523159 0.2043528 14077896
0.78297234 -0.10514083 0.20433556 13748930
0.78333342 -0.095102496 0.20442954 13617343
0.7848056 -0.085175961 0.20481467 13617343
0.78469998 -0.075064555 0.20478815 13288121
0.77883339 -0.061738659 0.20508249 13419705
0.78185707 -0.066426076 0.20522325 13353656
0.70083332 -0.050633561 0.20531934 12433585
0.77700007 -0.057212427 0.20418555 13354167
0.69602931 -0.043964628 0.20474721 13223616
0.70033336 -0.04895794 0.20381017 12630708
0.69411123 -0.03471154 0.20552248 13881290
0.69457895 -0.024805734 0.20536147 14473684
0.69699997 -0.017721253 0.20474556 14276305
0.70199996 -0.012916645 0.20511717 14013647
0.70650005 -0.007210908 0.20505416 14671577
0.71136373 -0.0023419289 0.20525666 14934749
0.71730429 0.0027184079 0.20505168 15263714
0.72116679 0.0078319581 0.20509134 15263714
0.72685719 0.011662789 0.20549285 15197664
0.73283333 0.016754042 0.20454602 15000028
0.73728573 0.021197619 0.20658799 14605527
0.74462503 0.025451133 0.20485991 14605013
0.75611764 0.032111816 0.20529215 14737111
0.76408339 0.037218619 0.20477198 15131868
0.7705 0.039932176 0.20649625 15329247
0.77611113 0.045613904 0.20520484 14539476
0.78000003 0.049554493 0.20265011 14078926
0.78167993 0.055153079 0.20491681 14802649
0.78246868 0.065511465 0.20477805 14802906
0.78296673 0.07540451 0.2043353 14671321
0.78256243 0.085210279 0.20480283 14868957
0.77900004 0.097716466 0.20705077 15132386
0.7807619 0.09416496 0.20476103 15000544
0.77900004 0.10368995 0.20443283 15000800
0.78030008 0.10839374 0.20674665 15198180
0.78509533 0.11517365 0.20510998 15461097
0.78850007 0.12116196 0.2048585 11711151
0.7923125 0.12638688 0.20492019 11908527
0.78805876 -0.16404729 0.21516153 14342873
0.79000002 -0.16803989 0.21449521 10921382
0.77900004 -0.15111086 0.21697955 15723239
0.78248 -0.15589347 0.21487075 14605272
0.77899992 -0.14505373 0.2153513 15723239
0.77811104 -0.13494928 0.21470897 15525859
0.77863169 -0.12657467 0.21486253 14999771
0.78038472 -0.12144612 0.21497554 14210252
0.78196657 -0.11507322 0.2150607 14012102
0.7824167 -0.10506642 0.21518546 13748673
0.78280014 -0.095038123 0.2152902 13682880
0.78280586 -0.084961519 0.21529011 13617087
0.77900004 -0.070870131 0.2188032 13551038
0.78210342 -0.074941292 0.2149374 13551038
0.77795005 -0.064128689 0.21604741 13156278
0.78110009 -0.067953013 0.21280797 13090485
0.70436841 -0.053236015 0.21580711 12368049
0.77645457 -0.058741294 0.21527795 13288120
0.69622219 -0.043422505 0.21480812 13420994
0.70074999 -0.048372544 0.21589537 12960442
0.69499987 -0.034755543 0.21554711 13684167
0.69516653 -0.024998514 0.21559876 14407891
0.69731247 -0.017933695 0.21442904 14342868
0.70200002 -0.013245167 0.21525161 14474454
0.70660001 -0.0064389626 0.21539433 15066334
0.71112502 -0.0018499403 0.21347079 15000028
0.71668971 0.003130734 0.21529697 15132127
0.72077781 0.0081083979 0.21426167 15132128
0.72557896 0.012039921 0.21514969 15000285
0.73116672 0.017354883 0.21478128 14737113
0.73570585 0.02253017 0.21525244 14473684
0.74357146 0.026851209 0.21444568 14473683
0.74799997 0.030010676 0.21710034 14539731
0.7557143 0.032347672 0.21440999 14802390
0.76372737 0.036821112 0.21500102 15065817
0.77100003 0.03995809 0.2138488 15263196
0.77603573 0.045416627 0.21524306 14605267
0.77900004 0.051314622 0.2188032 14736856
0.78179306 0.055287026 0.21485302 14737113
0.78211093 0.065251052 0.21509917 14802906
0.78199977 0.075311035 0.21506919 14737370
0.77900004 0.088395566 0.21758743 14737371
0.78143328 0.084645502 0.21424156 14868701
0.77841669 0.095161885 0.2151453 15198179
0.78000003 0.091552362 0.21178009 15066593
0.77861124 0.10293409 0.21535122 15395558
0.78046161 0.10861313 0.21471623 15461353
0.78545457 0.11518233 0.21509875 15395304
0.78872734 0.12111267 0.21465403 11711150
0.79200006 0.12645292 0.21468958 11908527
0.78800011 -0.16392659 0.22502054 14474457
0.79016668 -0.16807534 0.22471415 11776690
0.77880013 -0.15180156 0.22585671 15526373
0.78283334 -0.15705112 0.22476691 14474199
0.77793741 -0.14509884 0.22464824 15657702
0.77861756 -0.13527352 0.22528863 15591908
0.7790001 -0.12801127 0.22397022 15131101
0.78047365 -0.12302765 0.22517957 14144206
0.78223991 -0.11511377 0.22520643 13814979
0.7827667 -0.10511371 0.22535759 13682880
0.77900004 -0.092298061 0.22928919 13617343
0.78233331 -0.095135361 0.22507818 13617087
0.77900004 -0.087283015 0.2297451 13748415
0.7814666 -0.084817126 0.22498189 13682624
0.77850008 -0.071554102 0.22504108 13419451
0.78018749 -0.076229513 0.22438703 13551038
0.71433336 -0.061642498 0.22739764 12367535
0.77696168 -0.065719023 0.22480653 13222329
0.70566672 -0.054293495 0.22479947 12565428
0.71099997 -0.059690394 0.22633357 11973291
0.77600002 -0.059697431 0.22462153 13091000
0.696926 -0.043888912 0.22475521 13486275
0.70062506 -0.048773486 0.224261 13091772
0.69531411 -0.034748312 0.22529617 13223103
0.6951943 -0.024999417 0.22537221 14211025
0.69749993 -0.01843432 0.22518633 14737626
0.70191306 -0.013628714 0.22486989 14737626
0.70644742 -0.0054684062 0.22514464 15066591
0.70833331 0.00022944256 0.22714353 15000798
0.71474284 0.0045445436 0.22493944 14869212
0.72000003 0.0086608864 0.22161508 14540247
0.72439998 0.012280706 0.22559205 14540247
0.73105884 0.017453203 0.22476763 14408405
0.73606253 0.022642406 0.22483516 14539990
0.74394453 0.028111186 0.22491901 14539732
0.75625008 0.03300029 0.22480072 14473939
0.76588893 0.03730588 0.22527774 15131868
0.77587891 0.044843242 0.225026 14736854
0.77900004 0.05222645 0.22450212 14671064
0.78041184 0.056351572 0.22457221 14868443
0.78123343 0.06518025 0.22491755 14868443
0.78199983 0.07531102 0.22513784 14736856
0.77882361 0.087874651 0.22486617 14473942
0.78100002 0.08252649 0.22484995 15000028
0.77680016 0.09481243 0.22454828 15000545
0.77706075 0.10444013 0.22487113 15395305
0.78033334 0.10985923 0.22283046 15526891
0.78513646 0.11513605 0.22512037 14935009
0.78900003 0.12031468 0.22530608 11579564
0.79213643 0.1252646 0.22485381 11842734
0.7877059 -0.16375738 0.23480655 14474201
0.79040003 -0.16812496 0.2349571 12500412
0.77784622 -0.15214922 0.23570737 15394786
0.78199995 -0.15730953 0.23441313 14802394
0.77623367 -0.14512311 0.23528738 15526373
0.77675015 -0.13521688 0.23544332 15526116
0.77807683 -0.12508121 0.23556463 14604756
0.78000009 -0.12368669 0.23072477 14341327
0.77720696 -0.11512678 0.23661616 13814723
0.78100002 -0.11493188 0.23124819 13748929
0.77725011 -0.10520651 0.23665501 13617343
0.78115392 -0.10510881 0.23150471 13683135
0.77645731 -0.095048927 0.23548369 13683135
0.78000003 -0.097438022 0.23004003 13683135
0.77759254 -0.085504115 0.23519306 13682878
0.78000003 -0.08146058 0.23049653 13682622
0.7790001 -0.074821383 0.23597597 13616829
0.78004754 -0.075661078 0.23422813 13682365
0.71700007 -0.062353525 0.23424031 12104877
0.72300005 -0.064082935 0.23437524 12630707
0.73250002 -0.066211939 0.23660755 12893879
0.77850008 -0.066952899 0.23483862 13551037
0.70559263 -0.053920053 0.23452279 12894906
0.71162498 -0.059119273 0.2361131 12104877
0.69789481 -0.042855203 0.2332571 13223358
0.70100003 -0.046852414 0.23658776 13421250
0.69702971 -0.034665581 0.23523006 12762807
0.69602752 -0.02503036 0.23541962 13486789
0.69726932 -0.016785597 0.23552474 14474453
0.70128578 -0.012319358 0.23379408 14803419
0.70492303 -0.0056058392 0.23527142 14737626
0.70792317 0.0009946425 0.2349146 14606040
0.71419239 0.0061548352 0.23525378 14606040
0.71899998 0.010812961 0.23633575 14474454
0.72428 0.01468721 0.23530449 14474454
0.73087502 0.018416505 0.23372991 14277075
0.73491669 0.023038497 0.23537518 14408661
0.7437501 0.028320402 0.23479906 14408148
0.74900001 0.031804219 0.23843162 14342098
0.75400001 0.032804675 0.23413382 14539477
0.76281828 0.036939144 0.23519637 15000027
0.77066678 0.039940815 0.2381115 15460579
0.77569562 0.043839894 0.23429547 14736856
0.78071433 0.048817303 0.23704 14342098
0.78227997 0.055194937 0.23437746 14671063
0.78310353 0.065176867 0.23449802 14802649
0.7832309 0.075216793 0.23480368 14671063
0.77899998 0.089090295 0.2344345 14605785
0.78147995 0.08418642 0.23501426 14868443
0.77628583 0.094943628 0.23498033 15066338
0.7755999 0.10452687 0.23496667 15329512
0.77900004 0.11149517 0.23886338 15329769
0.78452384 0.11517958 0.23478352 14079700
0.78900003 0.12031468 0.23454142 11776941
0.78657138 -0.16415837 0.24538924 14277339
0.79000002 -0.16877964 0.24482544 11579827
0.77700007 -0.15373132 0.24544592 15132129
0.78142864 -0.15837727 0.24300285 14211029
0.77479994 -0.14485534 0.2448297 15526885
0.7749666 -0.13490656 0.24488176 15526114
0.77571422 -0.12524511 0.24453379 14670549
0.77483326 -0.11493297 0.24484016 13814980
0.77507997 -0.10498771 0.24491796 13617600
0.77556676 -0.09506692 0.24507307 13683135
0.77703577 -0.085047305 0.24495099 13617342
0.74650002 -0.07140857 0.24899444 13419967
0.75300002 -0.072030343 0.24763401 13551552
0.76666671 -0.073935397 0.24764276 13485757
0.77637941 -0.076273158 0.24450685 13551549
0.78000003 -0.0737001 0.24099599 13616829
0.71700001 -0.061569132 0.24487728 12235694
0.72233337 -0.064023845 0.24431193 12235950
0.73362505 -0.067174606 0.24641608 12235693
0.74350005 -0.069381043 0.24451035 13354429
0.76700002 -0.06977842 0.2405705 13485756
0.77800006 -0.068349957 0.24098359 13616829
0.70578575 -0.054005329 0.24520896 13092285
0.71128571 -0.059001703 0.24545707 12696500
0.69875002 -0.041077413 0.24206483 12828856
0.70134377 -0.045389164 0.24542585 13223614
0.69811106 -0.034518737 0.24408425 12499379
0.70000005 -0.038009886 0.24796022 12828600
0.69762087 -0.025003338 0.2448294 12302514
0.70000005 -0.02763137 0.24905272 11776425
0.69820011 -0.016690034 0.24408171 14211023
0.70030773 -0.012635791 0.24638793 14736854
0.70372218 -0.0055310857 0.24515779 14474453
0.70760006 0.002053092 0.24529418 14803419
0.71272224 0.0070008286 0.24495405 14671833
0.71806252 0.011580679 0.24539113 14606040
0.72334796 0.016806068 0.24498379 14474454
0.72866672 0.020705892 0.24731047 14277075
0.73276675 0.024946334 0.24486727 14342868
0.74240005 0.029439528 0.24223891 14145489
0.74733335 0.03173345 0.24402089 14277075
0.75600004 0.033871263 0.24154487 14210512
0.76155561 0.03649969 0.24420793 14671063
0.77060002 0.039937358 0.24530904 15591909
0.77625006 0.043981805 0.24494781 14605270
0.78140008 0.048729502 0.24508663 14408148
0.78343356 0.055276506 0.2448069 14605783
0.78474188 0.064730436 0.24536391 14737369
0.78448576 0.07476142 0.24500452 14605527
0.7784546 0.088554092 0.24614969 14408663
0.78200001 0.083775371 0.2445876 14540247
0.77596432 0.094709083 0.24493761 15000289
0.77520001 0.1049053 0.24465366 15329512
0.77900004 0.11149517 0.24524616 15329770
0.78517652 0.11573619 0.24464954 13355978
0.78900003 0.12031468 0.24470025 11842733
0.78531033 -0.1650864 0.25518289 13421515
0.77586222 -0.15401265 0.2549977 15131104
0.77400011 -0.14470544 0.25454339 15657958
0.77386129 -0.13471504 0.25449723 15592165
0.77446663 -0.1248491 0.25469548 14801878
0.77394462 -0.11480032 0.25452456 13880516
0.77446657 -0.10490415 0.25469667 13617344
0.77563894 -0.09507598 0.25508234 13617344
0.77560008 -0.085087374 0.25506848 13617087
0.73600006 -0.070404157 0.25841203 12038315
0.74440008 -0.071558371 0.25438869 13288380
0.75614291 -0.074608453 0.25435761 13354173
0.76488894 -0.077149421 0.25502795 13485759
0.77283335 -0.079054385 0.25295112 13616831
0.71456248 -0.062815517 0.25527403 12564916
0.7251429 -0.066214241 0.25435331 11906474
0.73328578 -0.068427876 0.2540195 12235182
0.70626473 -0.054921132 0.25512344 14144716
0.71000004 -0.059606437 0.25177956 13223358
0.70364523 -0.045206022 0.25513548 14144973
0.70253342 -0.03513414 0.25489262 13486787
0.69900006 -0.021864599 0.25033328 11710377
0.70094126 -0.025402484 0.25537372 13683910
0.70069462 -0.015353809 0.25504145 13486532
0.70389193 -0.0055567781 0.25524634 14079953
0.70714283 0.0031882711 0.25525847 14342869
0.71130002 0.0080573615 0.25423709 14277077
0.71653849 0.012689109 0.25499579 14342869
0.7215001 0.017970234 0.25501001 14145490
0.72766668 0.021530777 0.25463673 14145489
0.73365229 0.026976954 0.25475109 14079696
0.7456001 0.032010533 0.25759679 14013903
0.76479995 0.03713375 0.25600168 14605782
0.77654171 0.043736432 0.25500101 14671832
0.78050005 0.049129762 0.25393915 14671832
0.78196657 0.055172488 0.2553317 14737882
0.77900004 0.068639323 0.25892356 14869214
0.78200006 0.065025978 0.25507173 14737628
0.77877778 0.076013058 0.25783655 14868700
0.7817142 0.074847519 0.25372285 14671577
0.77709997 0.085507609 0.2555005 14408150
0.78066665 0.081882991 0.25155747 14606041
0.77436113 0.095420569 0.25466034 15065825
0.77500004 0.10535879 0.25471619 15329253
0.78468192 0.11498735 0.25488207 13487564
0.78900003 0.12031468 0.25393558 11645611
0.78866673 -0.17144884 0.26767465 9868176
0.77842861 -0.16141321 0.26576105 14868444
0.78495246 -0.16644673 0.26483414 12236983
0.77477425 -0.154916 0.26529831 14933723
0.77239418 -0.14489932 0.26510751 15658214
0.77206075 -0.13481203 0.26449975 15657699
0.77236384 -0.12500302 0.26509774 14999258
0.77227277 -0.11496226 0.26457348 13814981
0.7731213 -0.10521483 0.26535833 13551551
0.77405566 -0.094882965 0.26543158 13551551
0.764 -0.080236726 0.26824304 13419963
0.77368003 -0.085457057 0.26483238 13551549
0.71900004 -0.070461169 0.26927826 11972521
0.72350007 -0.071746685 0.26926458 11907242
0.73300004 -0.070117183 0.26250815 11643555
0.74850005 -0.075104378 0.26718286 13354171
0.75585717 -0.076603428 0.2646313 13354171
0.7615 -0.078191489 0.26290643 13485757
0.71403843 -0.064195052 0.26554927 12565428
0.72412503 -0.068420768 0.26440987 11710119
0.73100001 -0.069925867 0.26521602 11315359
0.70694596 -0.055283565 0.26516503 13486530
0.70597208 -0.045220502 0.26522562 13881290
0.70502692 -0.035148397 0.26502624 13223104
0.70158321 -0.025233459 0.26521933 13486276
0.70075011 -0.015356001 0.26490429 13881544
0.7037999 -0.0055095265 0.26509053 14079696
0.70746428 0.0034265744 0.26495728 14540249
0.71085721 0.0083134603 0.26551527 14408664
0.71649998 0.013657995 0.2651045 14211284
0.72171438 0.018577993 0.2640202 14014161
0.72650003 0.020928755 0.26329777 14079954
0.73354554 0.025302036 0.26519835 13948367
0.74225008 0.02977998 0.26669329 14079182
0.74650007 0.032573607 0.26472348 14210512
0.75600004 0.035641074 0.26897693 14144460
0.76300001 0.038355801 0.26670191 14802904
0.77100003 0.03995809 0.26528913 14934489
0.77684867 0.045007419 0.264819 15000282
0.78000003 0.049554493 0.26108193 14935259
0.77900004 0.053138275 0.26877129 14934749
0.78082609 0.055409852 0.2647745 15000284
0.77829033 0.06554763 0.26556379 14671578
0.78079998 0.061303385 0.26281098 14737626
0.77673346 0.074802801 0.26453236 14868445
0.77560014 0.084651679 0.26489791 14605529
0.773278 0.095287606 0.26516756 14934751
0.77535993 0.10524508 0.26475438 15263972
0.78000003 0.1098123 0.26838589 15724523
0.78619051 0.11542259 0.26516843 13290182
0.78844452 -0.17222144 0.27539352 9736589
0.77744448 -0.16253969 0.27438188 14670550
0.78381819 -0.1673945 0.27486718 9933455
0.77296156 -0.15551232 0.27480215 14539222
0.76799995 -0.14452635 0.27350193 15657960
0.77059996 -0.14623328 0.27597705 15461094
0.76800013 -0.13608979 0.27347001 15592164
0.77000004 -0.13206024 0.27359748 15526882
0.77096671 -0.12518539 0.27430326 15328992
0.77146161 -0.11512565 0.27461892 13749702
0.77200001 -0.10531773 0.27454638 13551807
0.77231032 -0.094825745 0.27471754 13485758
0.76433343 -0.080871813 0.2743367 13485757
0.77109528 -0.085710734 0.27443227 13419964
0.71684617 -0.071025148 0.27479452 11644325
0.74700004 -0.074953876 0.27102104 14012100
0.75700003 -0.077729419 0.27287698 13485756
0.76075006 -0.079895407 0.27689987 13288380
0.70900005 -0.061182268 0.27482787 13486529
0.71300006 -0.065769009 0.27492276 12565170
0.70670587 -0.05500162 0.27508697 13552323
0.70599985 -0.045222178 0.2751525 13749445
0.70505714 -0.035378903 0.27490333 13091517
0.70226461 -0.025063779 0.27510026 13289154
0.70141673 -0.015371389 0.27500933 13881802
0.7040832 -0.0055361059 0.27495432 13881803
0.70741677 0.0027158919 0.27487579 14145491
0.71108335 0.0077221761 0.27547023 14145491
0.71653336 0.013657915 0.27489483 14211284
0.7208572 0.018796431 0.27503374 14145491
0.72609091 0.021252643 0.27563995 14079698
0.73380953 0.025684226 0.27473772 14013904
0.74200004 0.02976995 0.27528232 13948110
0.74650002 0.032398731 0.27590677 13882317
0.75466669 0.035190389 0.27419356 13947596
0.76277781 0.038938906 0.27495638 14934234
0.77451724 0.045461904 0.27487293 15000540
0.77860874 0.05469808 0.27488077 14935006
0.78025001 0.056877285 0.2748664 14803420
0.77820832 0.06492319 0.27414617 14605785
0.78033334 0.065101691 0.27946121 14606042
0.77668017 0.074796975 0.27451822 14474456
0.77469712 0.084496938 0.27485898 15132389
0.7730335 0.095259123 0.27503762 15330024
0.77600002 0.10414354 0.27427536 15461352
0.78133339 0.10878035 0.27494302 15329511
0.78631246 0.11335191 0.27481332 13947855
0.79071426 0.11819661 0.27656931 11513513
0.78866673 -0.17144884 0.28244647 9539981
0.77900004 -0.16114096 0.28171921 13552069
0.78627771 -0.16602547 0.28547674 10460056
0.79000002 -0.16988929 0.28847137 9605772
0.7757501 -0.15396386 0.28311852 14540251
0.78240001 -0.1554341 0.28862721 11119018
0.77454549 -0.14530019 0.2834895 15263974
0.78133339 -0.14516002 0.28896496 9933974
0.77506256 -0.13492195 0.28279379 15526629
0.78250003 -0.13576494 0.28893992 10789281
0.77590001 -0.12507835 0.28241605 15658726
0.78183341 -0.12512036 0.28731957 15066593
0.77616668 -0.11512917 0.28251293 14144462
0.78200006 -0.11507928 0.28738084 13553353
0.77636373 -0.10466571 0.28283313 13420993
0.78200006 -0.10519316 0.28774744 11908784
0.77526319 -0.094410777 0.28338021 12762550
0.78133339 -0.096691586 0.28896496 7829106
0.77494448 -0.085718706 0.28479496 11183263
0.71705556 -0.072323687 0.28477663 11578532
0.70900005 -0.061182268 0.28130102 13486528
0.71308005 -0.06507846 0.28528973 12696758
0.70763344 -0.05499227 0.28445855 13618114
0.71033335 -0.059080381 0.28875902 13683907
0.70613873 -0.045231823 0.28512549 13552065
0.70563877 -0.035289161 0.28492305 13025466
0.70324987 -0.025293462 0.28505552 13420994
0.70205534 -0.015385621 0.28512034 13750472
0.70433325 -0.0055385618 0.28494462 13947853
0.70745832 0.0027161983 0.28482839 14342612
0.71166676 0.0077288025 0.2856895 14276562
0.71720004 0.014389854 0.28524891 14210770
0.72000003 0.018774085 0.28145149 14211284
0.72419053 0.022360431 0.28518036 14276564
0.73304766 0.027780084 0.2843394 14144977
0.73900002 0.031379595 0.28714868 13157824
0.74485719 0.03337504 0.28506508 13618888
0.7544167 0.03704166 0.28548038 13881802
0.76174998 0.039478697 0.28261191 14210256
0.76560003 0.041470513 0.28672284 14013133
0.77490479 0.045695968 0.28442612 12104623
0.78050005 0.049586259 0.28774375 10394006
0.77900004 0.051922504 0.28141528 14605272
0.78361106 0.055595364 0.28583598 13223875
0.78472733 0.065050691 0.2854664 13026496
0.77866673 0.076812096 0.28068724 13092290
0.78399998 0.074630797 0.28599599 12565946
0.77641183 0.085674696 0.28340411 13487308
0.78233337 0.083277613 0.28780887 11908529
0.77483344 0.094800211 0.2842997 14671579
0.77675003 0.10185413 0.28363514 15066336
0.78422225 0.10714543 0.28615871 14737629
0.78815389 0.1125226 0.28439164 13948113
0.78850007 -0.16249178 0.29223114 10395037
0.78760004 -0.15462241 0.29368144 10131864
0.79150009 -0.1560058 0.29797548 10592668
0.7877273 -0.14492327 0.29418126 9408397
0.79166669 -0.14522536 0.29834649 9868945
0.787 -0.13423996 0.29229027 8420992
0.79209095 -0.13459903 0.29766569 9013638
0.78710014 -0.12504405 0.29202053 8092537
0.79189998 -0.12487793 0.29750946 8882305
0.78720003 -0.11436827 0.29261142 8224121
0.79125005 -0.11597642 0.29749596 8881791
0.78742856 -0.10508205 0.29319653 8158329
0.79100001 -0.10529512 0.29809526 8882049
0.7867648 -0.094436847 0.29509494 8552828
0.71847057 -0.072091512 0.29500389 11775912
0.71537048 -0.065149181 0.2950238 12697014
0.70817399 -0.053399269 0.29477668 13946565
0.71121424 -0.058520146 0.29573795 13618114
0.70636106 -0.045247026 0.29513654 13354943
0.70538878 -0.035277084 0.29472992 12960442
0.70339477 -0.02547056 0.29524046 13223872
0.70263863 -0.015397981 0.29522717 13684425
0.70418918 -0.005560352 0.29491881 13816524
0.70714283 0.0039689336 0.29505995 14079440
0.7105 0.0085466104 0.29353803 13816267
0.7157436 0.014290676 0.29507545 14013390
0.71900004 0.020431202 0.29873413 14671063
0.72350013 0.024010982 0.29506499 14013391
0.73111111 0.028762903 0.29435182 13618631
0.73549998 0.031576749 0.29559591 13618630
0.74458337 0.034524415 0.29483458 14079180
0.75424999 0.03865106 0.29395449 14539732
0.75880003 0.041102175 0.29661769 14671317
0.76366669 0.042757913 0.29434231 14802902
0.77413338 0.046406426 0.29487604 12500149
0.78140002 0.049643438 0.29447511 9276551
0.78724998 0.054810204 0.29474634 9276808
0.79025006 0.058530938 0.29781261 9539979
0.78885716 0.064100102 0.29227525 8619139
0.79123086 0.065514334 0.29661664 9342858
0.78860009 0.075761467 0.29239124 8816257
0.79128581 0.074749179 0.29688141 9473673
0.78671426 0.085628085 0.29358867 9803153
0.79049999 0.084764071 0.29821506 10197909
0.78580004 0.095082395 0.2957738 10723741
0.78755558 0.10534653 0.29475087 11973809
0.70841676 -0.05311726 0.30345777 13815751
0.71130002 -0.058052052 0.30352697 13223614
0.70631266 -0.044881959 0.30457187 13485760
0.70552766 -0.035283737 0.30469826 12828343
0.70394295 -0.025199717 0.3055442 13289153
0.70299971 -0.015406509 0.30525228 13815754
0.70424998 -0.0055390429 0.30496931 14408147
0.70700002 0.0044823871 0.30517653 14342612
0.70900005 0.01018835 0.30702761 14277077
0.71363896 0.014858167 0.30462188 13948110
0.71871424 0.021625364 0.30558529 13750731
0.72327274 0.026715666 0.30435142 13684940
0.73100001 0.029328614 0.30115297 13948112
0.72900003 0.030954976 0.30886206 14079698
0.73336369 0.032079015 0.30414897 13948113
0.74466664 0.036505919 0.30503586 14408405
0.75150007 0.038947478 0.30167764 14539987
0.75699997 0.041004669 0.30565867 14671575
0.76366669 0.044051319 0.3047674 14605525
0.77392322 0.048333939 0.30475551 14013387
0.77800006 0.051248748 0.30776504 13816523
0.78618753 0.053977516 0.30490404 9868945
0.79145455 0.0587052 0.30517173 9671821
0.70300001 -0.017875377 0.31101227 13947339
0.7050001 -0.0030724725 0.31024671 13025725
0.70600003 0.00022868675 0.31068677 10854556
0.71350002 0.015273914 0.31064314 10395547
0.71700001 0.020374369 0.31049195 11053477
0.74650002 0.036940776 0.31190813 12566459
0.7536667 0.039059769 0.31402525 11842736
0.75750005 0.041031756 0.31295756 11250088
0.76412499 0.044300206 0.31368181 10921377
0.77237505 0.048167899 0.3145839 10855582
0.77649999 0.051149935 0.31444442 10066066
0.78616667 0.055984814 0.31518587 10000786
0.79050004 0.05947445 0.31363556 9934994
0.76800001 0.04160051 0.32358766 9737360
0.77446669 0.046185073 0.32474229 10066581
