# .PCD v0.7 - Point Cloud Data file format
VERSION 0.7
FIELDS x y z rgb
SIZE 4 4 4 4
TYPE F F F U
COUNT 1 1 1 1
WIDTH 1111
HEIGHT 1
VIEWPOINT 0 0 0 1 0 0 0
POINTS 1111
DATA ascii
0.77900004 -0.10916685 0.092059307 16053740
0.78100014 -0.10454745 0.095233642 15856105
0.78175986 -0.094913572 0.09513095 15658468
0.78133333 -0.084799521 0.095079347 15724005
0.78308016 -0.074905761 0.095292389 15394784
0.78440011 -0.064932659 0.095454074 15526368
0.78492296 -0.05473005 0.095304571 15131609
0.78413904 -0.044721894 0.09449932 15196889
0.70460004 -0.031773485 0.097619072 11840934
0.78403336 -0.034618538 0.094485082 14999252
0.69451863 -0.02386532 0.095474549 12696757
0.70025003 -0.029280536 0.097506903 11972777
0.78593332 -0.025071491 0.093919404 15591645
0.69422227 -0.015210763 0.095039725 14540245
0.78819054 -0.014329567 0.093365654 15986660
0.69866675 -0.0095872357 0.095648982 14540503
0.70526087 -0.0056523941 0.094723321 14343123
0.71149999 -0.0017121864 0.095742047 14145744
0.78854543 -0.0051988284 0.093608089 15460573
0.71789998 0.0010741374 0.095763206 14145743
0.72225004 0.0040422017 0.097191036 14211537
0.73400003 0.0062535875 0.097909197 14408915
0.74400002 0.0077892188 0.097504921 14211279
0.75100005 0.0090337852 0.098419949 14539731
0.76300001 0.0056057405 0.096420176 14736595
0.77420008 0.0078618955 0.096746005 15328988
0.78661549 0.0047129984 0.093311138 15394523
0.76366669 0.012166269 0.098886013 14539730
0.77509093 0.014934144 0.097616315 15329246
0.78466672 0.015124649 0.092943676 15066074
0.77650005 0.020247329 0.099033311 15132125
0.7861715 0.025235455 0.094612122 14474709
0.78763336 0.035288539 0.094925664 14211283
0.78745466 0.044999447 0.094653778 14277076
0.78624243 0.054967821 0.095009133 14145490
0.78428566 0.065103583 0.09524326 14211027
0.78396326 0.075091168 0.095605269 14144978
0.78274089 0.084950879 0.095047697 14606042
0.78260726 0.094934218 0.095430717 15066592
0.78315395 0.10489944 0.095088929 15395558
0.78646666 0.11440895 0.094781891 15921902
0.78900003 0.12031468 0.096011654 14737628
0.79272729 0.12519073 0.094692968 12303286
0.793091 -0.17519952 0.10486426 10394773
0.78739125 -0.16532545 0.10479219 12433843
0.79000002 -0.16988929 0.10815448 10722713
0.77846158 -0.15226859 0.10384285 15263202
0.78200012 -0.15707262 0.1056858 14802652
0.77793568 -0.14526395 0.10471418 15526373
0.78000003 -0.14034888 0.10861143 15526371
0.77835011 -0.13503985 0.10246084 15065821
0.78007698 -0.13544624 0.10784968 15197406
0.77870578 -0.12488869 0.10478667 15000283
0.78000003 -0.12026295 0.10952442 15066075
0.77891684 -0.11690453 0.10238261 15460577
0.78052628 -0.1137073 0.10632975 15394784
0.78180546 -0.10498318 0.10520452 15066075
0.78253329 -0.095006451 0.10530206 14671316
0.78259373 -0.084822901 0.10473738 14539730
0.78377283 -0.074638061 0.1052999 14605010
0.78546643 -0.065020807 0.10477526 14802388
0.78489661 -0.054744672 0.10545599 14736594
0.75000006 -0.041895386 0.10882348 12433840
0.76800001 -0.043800995 0.10963733 12762805
0.77688897 -0.045013756 0.10767048 14144200
0.7828182 -0.045230072 0.10333762 14802129
0.70636362 -0.03194274 0.10459885 11907497
0.71514285 -0.034928773 0.10567872 11710117
0.72399998 -0.037053216 0.10674971 11710117
0.73900002 -0.039550904 0.1089574 11775910
0.74300003 -0.039764982 0.10780779 11973289
0.77650005 -0.039740086 0.10630334 13815493
0.78200006 -0.036817886 0.10110955 14735823
0.69343752 -0.023979384 0.10502649 13420737
0.70083338 -0.029304927 0.10579135 11907498
0.69262159 -0.015283373 0.10470475 14671832
0.69816667 -0.0095803747 0.10538881 14013903
0.70550007 -0.0063737961 0.10484484 13882317
0.71418184 -0.0021977886 0.10484471 13816524
0.71866673 0.00051332172 0.10371718 13619402
0.72404766 0.0041978764 0.10562257 13684938
0.731875 0.008376495 0.10383236 14277331
0.73440003 0.010898413 0.10724632 14079696
0.74536365 0.014201352 0.10592592 14408660
0.75609094 0.016980849 0.10568134 14672088
0.76383346 0.018425034 0.10367183 14605524
0.77200001 0.018322725 0.10117203 15197661
0.76566666 0.022356587 0.10720941 14868953
0.77479994 0.024923664 0.10462163 15131868
0.78233337 0.027423268 0.10130501 14672087
0.78726923 0.035136357 0.10522589 14474196
0.78883982 0.044575389 0.10522611 14277075
0.78726673 0.054620948 0.10501625 14079697
0.78551996 0.064615302 0.10478336 14210770
0.78503323 0.074684151 0.10471794 14210514
0.78344464 0.084822603 0.10491358 14408406
0.78303063 0.094740964 0.10495069 14869212
0.78440011 0.10492466 0.10463393 15198435
0.78680003 0.11445767 0.1049538 15658987
0.78900003 0.12031468 0.10524698 13948113
0.7927826 0.12565687 0.10502472 12106163
0.78734785 -0.16459386 0.11496329 12959675
0.79000002 -0.16988929 0.11462738 10656664
0.77899998 -0.15163192 0.11563653 15789545
0.7818948 -0.15668523 0.11470292 15065822
0.7790001 -0.14605437 0.11518656 16250095
0.78025007 -0.14130685 0.11412597 16118764
0.78084016 -0.1350168 0.11512576 15724005
0.77900004 -0.12649155 0.11120766 15066075
0.78064287 -0.12479947 0.11536015 15263454
0.78167987 -0.11503117 0.11525103 14802903
0.78306693 -0.10515273 0.1154552 14342609
0.78416014 -0.09520299 0.11561717 14342352
0.78464711 -0.085268103 0.11504127 14341840
0.78417253 -0.074886635 0.11485814 14341581
0.77771431 -0.062951222 0.11830468 14144458
0.7831381 -0.065367967 0.11362766 14604751
0.76800001 -0.050092477 0.11862683 13223356
0.77514827 -0.054661043 0.11609633 13683649
0.78183335 -0.056488346 0.11161097 14604750
0.74600005 -0.041671943 0.11452918 12104874
0.75488889 -0.044527445 0.11600939 12236204
0.76342869 -0.047240932 0.11510616 12697012
0.77249998 -0.048126325 0.1116346 13552064
0.70600003 -0.03117373 0.11235571 11908009
0.71375006 -0.033607632 0.11274865 12105132
0.72400004 -0.036040492 0.11351605 12039595
0.73371428 -0.038534611 0.11430822 12039082
0.74100006 -0.039657943 0.11879427 12104874
0.6927222 -0.024646204 0.11524037 13684164
0.70000005 -0.029270083 0.11140085 11710117
0.69316214 -0.015252325 0.11478589 14606039
0.69700003 -0.0095643662 0.11500069 14079696
0.70466667 -0.006129059 0.11504672 14342868
0.7134546 -0.0020447937 0.11429545 14803675
0.71850008 0.00051326776 0.11658615 14540502
0.72509092 0.0033262915 0.11384928 14277074
0.73215383 0.0070952605 0.11533285 14342866
0.74100006 0.0089134956 0.11966045 14539731
0.73600006 0.011439006 0.11282451 13816267
0.74460006 0.01401527 0.11536288 14144974
0.75520003 0.018634256 0.11382084 14145232
0.76000005 0.01981709 0.11739115 14078926
0.76440001 0.022440454 0.11270235 14342868
0.77520013 0.026750958 0.11489727 14671576
0.78100002 0.029506344 0.11789352 14211282
0.78692591 0.035194244 0.11493135 14802905
0.7889998 0.044585094 0.11448231 14408661
0.78788245 0.054881971 0.11497182 14342868
0.78596663 0.064651541 0.11496357 14211027
0.78538871 0.074717775 0.1148791 14211028
0.78460711 0.084547929 0.11509158 14342613
0.78345484 0.094624557 0.11501042 14803164
0.78326672 0.10477166 0.11456481 15066593
0.78556675 0.11427904 0.11490071 15592681
0.78866673 0.12087928 0.11627892 13224389
0.7917223 0.12567532 0.11456671 12106163
0.78768754 -0.16409281 0.12501036 13354690
0.79016668 -0.16838355 0.12482641 10394005
0.77850008 -0.15192573 0.12480491 15460325
0.782125 -0.15709832 0.12481526 15131359
0.77759385 -0.14503427 0.12443008 16249838
0.77871996 -0.13639858 0.1256053 16249838
0.78000009 -0.13243623 0.12372659 16118252
0.78206062 -0.12540507 0.1249603 15920872
0.7834233 -0.11507558 0.12482064 14999770
0.78424144 -0.1051512 0.12468272 14013130
0.78596419 -0.094830029 0.12528072 14012873
0.78637046 -0.084836595 0.12494292 14275788
0.78359258 -0.074758463 0.12510999 14077894
0.77623075 -0.065101415 0.12506777 13091769
0.78050005 -0.069179431 0.12147062 14472653
0.76800001 -0.051531266 0.12402149 13157048
0.77213049 -0.056181043 0.12500033 13025719
0.74750006 -0.041755736 0.12158564 11578529
0.75583339 -0.043848053 0.12514986 12827826
0.76275009 -0.048266243 0.12570046 13222584
0.69333339 -0.031155983 0.12927638 12697527
0.73500007 -0.037616182 0.12213675 11907238
0.74533337 -0.039889861 0.12385225 11775651
0.69202936 -0.024648603 0.12571363 13882058
0.69365799 -0.015198492 0.12500672 14408918
0.69754547 -0.0088282591 0.12526341 14343126
0.70476007 -0.0042540152 0.12482703 14606297
0.71000004 -0.0014321404 0.12130291 14935259
0.70850003 0.00022949657 0.12685061 14738140
0.71484619 0.0020361168 0.124827 14672089
0.72049999 0.0052923234 0.12646788 14737368
0.73500001 0.0071206735 0.12041219 14935259
0.74633336 0.011307743 0.12110462 14539731
0.75550002 0.012925625 0.12465241 14802903
0.76354545 0.016663183 0.12574054 14671317
0.76800001 0.020025689 0.12402054 14473938
0.7751112 0.023644214 0.12516916 14539731
0.78240001 0.028645301 0.12542802 14671317
0.78777772 0.035503186 0.12495962 14605526
0.78899974 0.044585086 0.12464115 14539991
0.78862494 0.054485571 0.12515904 14474454
0.78744006 0.064773716 0.12531811 14342868
0.78720003 0.074889138 0.12527975 14342870
0.78527999 0.084816426 0.12497339 14277077
0.78290015 0.094641037 0.12459406 14737371
0.78199977 0.104798 0.12503912 14935007
0.78337926 0.11415058 0.12523806 15329765
0.78836364 0.1239105 0.12521142 12237749
0.79030001 0.12883851 0.1235504 11974577
0.79199988 0.13560624 0.12511359 11974577
0.78850007 -0.16310668 0.13471457 14999773
0.79089993 -0.16730663 0.13512412 10262419
0.77888894 -0.15189984 0.13449118 15131101
0.78394455 -0.15747762 0.13536207 14868188
0.77828568 -0.14492002 0.13485757 15789031
0.77875012 -0.13693301 0.13418856 15920617
0.78072739 -0.13267012 0.13604537 15920617
0.78281826 -0.12502457 0.13507652 15986409
0.78558326 -0.11468482 0.13513726 14933718
0.78653342 -0.10469807 0.13530132 14276042
0.7869119 -0.09488745 0.1351463 14473164
0.78584379 -0.084716201 0.13540703 14406858
0.78292865 -0.075094648 0.13500436 14143430
0.77658337 -0.065048896 0.13434689 12893620
0.78000003 -0.069135115 0.13874033 13617342
0.76800001 -0.050092477 0.13121216 13354170
0.77384382 -0.055401471 0.1354413 12893619
0.76525003 -0.047226209 0.13209133 13222584
0.77287507 -0.046565041 0.13815334 13090998
0.69390911 -0.031969119 0.13391258 12762807
0.69288892 -0.024918485 0.13541298 14145487
0.69475007 -0.015222162 0.13523303 14342870
0.69800001 -0.0095780883 0.13396084 14211284
0.70363337 -0.0048161927 0.13487415 14277078
0.708 0.00022933459 0.13504945 14276823
0.71479177 0.00442264 0.13508737 14474201
0.72185719 0.0086832261 0.13514648 14671578
0.72600007 0.011000335 0.13734595 14671321
0.73260003 0.011898851 0.13545194 14737369
0.74700004 0.015107431 0.13724357 15263200
0.75300002 0.014346203 0.13570057 14539731
0.76412505 0.015234418 0.1332335 15460833
0.77200007 0.018022293 0.13370322 15263454
0.77627778 0.02226443 0.13454407 15066075
0.78353333 0.027892949 0.13594547 15066075
0.78784007 0.035300512 0.13460256 15132125
0.78899997 0.042738024 0.13380542 14935006
0.79000002 0.046645116 0.13604964 14737627
0.78899992 0.055884767 0.13317025 14671835
0.79000002 0.053319573 0.13710475 14540249
0.78874993 0.065035947 0.13460442 14342869
0.79000002 0.061286233 0.13866964 14408663
0.78839993 0.075003542 0.13469847 14408406
0.78670377 0.085174926 0.13481857 14737371
0.78444457 0.094826549 0.13494295 15000286
0.78340751 0.10458513 0.13527271 15000287
0.7840001 0.11518446 0.13513362 14935007
0.78839999 0.12483885 0.13469782 11974578
0.79000002 0.12971419 0.13497084 11908784
0.79131997 0.13549078 0.13519582 11908784
0.78819048 -0.164142 0.14502984 13157056
0.79040003 -0.16849485 0.14465936 10196627
0.77900004 -0.15111086 0.14038612 14867929
0.78256005 -0.1552524 0.14542307 15328224
0.77900016 -0.14529255 0.14316502 15789031
0.78013331 -0.14414661 0.14765228 16117996
0.77900004 -0.1383453 0.14038612 15789031
0.78156006 -0.13513887 0.14487372 15920617
0.78380013 -0.12543161 0.14492248 15854824
0.78609985 -0.11476221 0.14534679 14407632
0.78516001 -0.10451812 0.14516966 14078152
0.78299999 -0.094868623 0.14535706 14143687
0.78147233 -0.084816858 0.14540109 14077893
0.78143328 -0.074750595 0.14539577 13814208
0.77833337 -0.062914401 0.14148135 12959413
0.78072733 -0.065544724 0.14568271 13485500
0.77737057 -0.054816909 0.14521727 12630449
0.78000003 -0.058179155 0.14969629 12301484
0.77591306 -0.045475468 0.14512151 12959414
0.69249994 -0.032361254 0.14733091 13289153
0.69316679 -0.02492561 0.14520116 14276818
0.69570374 -0.016115734 0.14527948 14408663
0.70066673 -0.011528072 0.14622658 14211284
0.70568568 -0.0054751378 0.14492217 14013905
0.70900005 0.00022965853 0.14187934 13947859
0.71546429 0.0040690158 0.14532462 14211030
0.72000003 0.0086608864 0.14576608 14277080
0.72475004 0.011265248 0.14503236 14342615
0.73258829 0.015676588 0.14543833 14605785
0.74283338 0.018212223 0.14430231 14867930
0.74700004 0.021226853 0.14860921 15000030
0.75400001 0.021425765 0.14823666 15065308
0.76050007 0.022501228 0.1477354 15854824
0.77463645 0.023827948 0.14503621 15657700
0.78421432 0.027795596 0.14486541 15724005
0.78849995 0.03532885 0.14486641 15592677
0.78900009 0.042234279 0.14655402 15395299
0.79000002 0.046004318 0.14421785 15066591
0.79000038 0.054813322 0.14514257 14737626
0.78900003 0.067013711 0.14456303 14342869
0.79000008 0.064341769 0.14526315 14474455
0.78899974 0.075333267 0.14495884 14474199
0.79000002 0.070533261 0.14514256 14606042
0.78764296 0.084874995 0.1450385 14342357
0.78519994 0.094917297 0.14517893 14934492
0.78352022 0.10480349 0.14486744 14934493
0.78426933 0.11430169 0.14486685 15329251
0.78836364 0.12340686 0.14450639 12040371
0.7902 0.12826727 0.14591977 11974577
0.7920385 0.13539976 0.14473459 11842991
0.79326922 -0.17423947 0.15467164 10197139
0.78818744 -0.16419607 0.15472749 13288385
0.79000002 -0.16803989 0.15623897 10262677
0.78285193 -0.15559813 0.15499371 15130847
0.77900016 -0.14572676 0.15497535 15986410
0.7802223 -0.14262064 0.15521771 15986410
0.77900004 -0.1383453 0.15862264 15723238
0.78153574 -0.13487349 0.15456328 15854824
0.78438234 -0.12574022 0.1548572 15591907
0.78700012 -0.11489491 0.15472586 14209996
0.78396302 -0.10415605 0.15453672 13880516
0.78174067 -0.095115088 0.15511507 13551549
0.77900004 -0.083027825 0.15588716 13814208
0.78025001 -0.085064881 0.15499623 13814464
0.78072011 -0.074680559 0.15531799 13551293
0.78179395 -0.064935163 0.1548851 13616829
0.77805012 -0.053846676 0.15496837 12696755
0.78000003 -0.058179155 0.15426126 13025976
0.77600002 -0.046738803 0.15462072 12630706
0.69312513 -0.034156255 0.1550312 12959931
0.69347245 -0.024936959 0.15500684 14408405
0.69611752 -0.015634842 0.1553566 14277334
0.70050001 -0.011252277 0.15329628 14342870
0.70521873 -0.0062646726 0.15468641 14014162
0.71000004 -0.0014321404 0.15620747 14211284
0.71630436 0.0029357986 0.15489654 14277078
0.72150004 0.0080042481 0.1551926 14605786
0.72710001 0.011130853 0.1550341 14671580
0.73315996 0.016376931 0.15505308 14802909
0.74441665 0.022173347 0.15593515 14737114
0.75433332 0.024378678 0.15477668 14671321
0.7663334 0.027758313 0.15663725 16118509
0.77450007 0.028353624 0.1540758 16052459
0.78266668 0.029569311 0.15203641 15920873
0.77639997 0.031878177 0.15845513 15855337
0.78588462 0.035425838 0.15478359 15855079
0.78836 0.044549488 0.15499036 15526371
0.78851992 0.054895338 0.15576048 14868443
0.79000002 0.053888619 0.15161547 14803162
0.78855997 0.064866684 0.15502977 14539992
0.78853321 0.075016849 0.1550246 14408663
0.78711998 0.08501526 0.15474714 14737627
0.78466672 0.094852641 0.15518409 14868699
0.78236663 0.10464966 0.15472899 15000285
0.78442866 0.11391736 0.15480855 15526885
0.78850007 0.12116196 0.15501939 11974320
0.79146671 0.12625168 0.15560369 11974577
0.78804761 -0.16340943 0.16468179 13683914
0.79000002 -0.16803989 0.1645613 9802381
0.78321737 -0.15528211 0.16522208 14671066
0.7790001 -0.14381625 0.16211797 15657445
0.78049999 -0.14517261 0.16648723 15657446
0.77900004 -0.1383453 0.16135812 15723238
0.7807309 -0.13478503 0.16530186 15591906
0.78437495 -0.12529114 0.16488032 15460063
0.78819442 -0.11506727 0.16510881 14341066
0.78714287 -0.10497939 0.1652187 14275272
0.78299999 -0.094926745 0.16514762 13617086
0.7787692 -0.084943518 0.16544652 13419963
0.78049999 -0.088821739 0.16212532 13485756
0.7790001 -0.079076581 0.16500543 13617086
0.78163642 -0.074019656 0.16514756 13616829
0.78266674 -0.064791821 0.16486698 13616829
0.77855563 -0.052199099 0.16238077 12893621
0.78106248 -0.055858713 0.16544414 13354170
0.69399995 -0.041320242 0.16591671 12169646
0.77700001 -0.047647882 0.161247 12565169
0.69354302 -0.034567893 0.1647858 13223360
0.69361126 -0.024941986 0.16477893 14408662
0.69587874 -0.015615765 0.16494742 14211287
0.70000005 -0.011244245 0.16711707 14079701
0.70456666 -0.0063616647 0.16474257 14145492
0.71016669 -0.0014324766 0.16538894 14277077
0.71622223 0.0019133692 0.16512156 14342870
0.72244453 0.0070031974 0.16486531 14737370
0.72820008 0.010464253 0.1653268 14803420
0.73279315 0.015625041 0.1650068 14737627
0.73900002 0.020999523 0.1651828 14737115
0.74535292 0.024571083 0.16511387 14802907
0.75542861 0.028035594 0.16493508 14933979
0.76100004 0.028750738 0.16030197 16381935
0.75900006 0.030452011 0.16787642 15065564
0.76450008 0.031868543 0.16580828 15592165
0.7750001 0.03524407 0.16506349 15987178
0.78287506 0.037825756 0.16261508 15921644
0.77900004 0.040372699 0.16956456 15921130
0.78561127 0.045110594 0.16486675 15724264
0.78638721 0.055304602 0.16457728 15460579
0.78636652 0.064687103 0.16472311 14868444
0.7871111 0.074881412 0.16487867 14539736
0.78583324 0.084876969 0.16461189 14737369
0.78479993 0.094870679 0.16531508 14935005
0.78227997 0.1046382 0.16478445 14737627
0.78470379 0.11435808 0.16488479 15395299
0.78846157 0.12136905 0.16537659 11842734
0.79100007 0.12617646 0.16507785 11908784
0.79300004 -0.17481656 0.17478897 10196882
0.78800005 -0.16484913 0.17521301 12894401
0.79000002 -0.16958106 0.17473303 10262424
0.78396565 -0.15517917 0.1750122 14737629
0.78199977 -0.14522441 0.17516044 15657959
0.78199983 -0.13514893 0.17530279 15657446
0.78418201 -0.12574105 0.17486483 15394014
0.78843325 -0.11510125 0.17530909 14341066
0.78816009 -0.10491644 0.17524834 14143688
0.78456008 -0.095257342 0.17481641 13683136
0.77869248 -0.084023513 0.17356482 13156791
0.78100014 -0.086665235 0.1771733 13288378
0.7790001 -0.078529485 0.17412367 13551293
0.78061903 -0.073539704 0.175136 13616829
0.78209692 -0.065362155 0.17431051 13616829
0.77900004 -0.052633602 0.17868282 13748158
0.78195238 -0.054141492 0.17334373 13616572
0.69400012 -0.04192096 0.17438139 12235696
0.69274366 -0.034458511 0.17474 13683912
0.69294608 -0.02502601 0.17450875 14474197
0.69574082 -0.016419448 0.17478591 14277077
0.70112509 -0.011671995 0.17559239 14145492
0.70612001 -0.0068412423 0.17466001 14079700
0.7116667 -0.0021750035 0.17601243 14408664
0.71711767 0.0018152291 0.17515467 14605786
0.72277784 0.0070066876 0.17509203 15000542
0.72857147 0.010713391 0.17539832 15000541
0.73341376 0.015815265 0.17509165 15066078
0.73900002 0.020999525 0.17902291 15065821
0.74412012 0.024497448 0.17514113 14803163
0.75166672 0.028398125 0.17241091 14737371
0.75636363 0.030991716 0.17557605 14802906
0.76371437 0.034603994 0.1747894 15131871
0.77262503 0.037781764 0.17359959 15526629
0.77661914 0.042763554 0.17588253 15329249
0.78187501 0.047729399 0.17350566 15461349
0.78437048 0.055140629 0.17481244 15527142
0.78651994 0.064698778 0.17488407 15263714
0.78609997 0.07478524 0.17479096 14802649
0.78511536 0.084940538 0.17478286 14802905
0.78294468 0.094645813 0.17500348 15000798
0.78173327 0.10456634 0.17473319 14803677
0.78432149 0.11390153 0.17498396 15001056
0.78864288 0.12197535 0.17561984 11842991
0.79042864 0.12661314 0.1742994 11843247
0.7931875 0.13465121 0.17485687 11843246
0.79291302 -0.1751202 0.18526383 10065554
0.78803998 -0.1638615 0.18518373 13421258
0.79000002 -0.16951939 0.18490475 9999766
0.78434485 -0.1545577 0.18471995 15000544
0.78207994 -0.14438498 0.18488151 15460836
0.78199983 -0.13521673 0.184863 15657189
0.78433347 -0.12526675 0.18491335 15130844
0.78722233 -0.11492447 0.18517433 14143946
0.78766692 -0.10484955 0.185279 13946310
0.7859655 -0.095552228 0.18503882 13748930
0.7834335 -0.085031845 0.18520483 13354171
0.78132004 -0.074741051 0.18470445 13419706
0.77832007 -0.064688198 0.18493934 13551036
0.78000003 -0.068769917 0.18512058 13551035
0.77618748 -0.055738036 0.18422395 13616829
0.69527787 -0.042276878 0.18525366 12630964
0.69330561 -0.034673046 0.18499561 13881546
0.69377792 -0.024947917 0.18458037 14408661
0.69587493 -0.016877292 0.18486707 14277075
0.70100003 -0.012079665 0.18458688 14277076
0.70625013 -0.0072072805 0.18472721 14671835
0.71230769 -0.0022048291 0.18544309 14671835
0.71780956 0.0023153492 0.18553062 14737628
0.72112501 0.0071989922 0.18439808 14803421
0.72649997 0.011718313 0.18534508 14606042
0.73228568 0.016893545 0.18461806 14737627
0.73699999 0.021519102 0.18572494 14737627
0.74445844 0.026388653 0.18491918 14671320
0.74874997 0.030917479 0.18576752 14605782
0.75516671 0.032806415 0.18411487 14606038
0.76320004 0.036698036 0.18452038 15066075
0.77066678 0.039339956 0.18459116 15723749
0.77580959 0.043499488 0.18469504 14539475
0.78155565 0.048840992 0.18516575 14605781
0.78475004 0.055567853 0.1849227 15132384
0.78626674 0.064677939 0.1849501 15132385
0.78611094 0.074786395 0.18491405 15000543
0.78541374 0.08470469 0.18490957 14803164
0.78246683 0.094586022 0.18497348 15131872
0.77900004 0.10274164 0.1888953 14934751
0.78040004 0.10468157 0.18463024 14803167
0.78492594 0.11439195 0.1851455 15395560
0.78854555 0.12142077 0.18422848 11711405
0.79057139 0.12623964 0.18530355 11908783
0.79337937 0.134371 0.18492785 11777198
0.78810525 -0.16346307 0.19494832 14407893
0.79000002 -0.1680399 0.19507647 9999762
0.78388 -0.15507084 0.19536114 15394532
0.77900004 -0.14199258 0.198743 16052716
0.78145444 -0.14543425 0.19437777 16052459
0.78139991 -0.13511173 0.19478001 15986410
0.78363645 -0.1256559 0.19492206 15525345
0.78541368 -0.11482065 0.1947352 14275275
0.7852692 -0.10474193 0.19496697 13880516
0.78563994 -0.095382936 0.19491857 13748930
0.7856999 -0.085276075 0.19493471 13617087
0.78314286 -0.074720606 0.19488952 13156279
0.77766681 -0.064250275 0.19502129 13419449
0.78079998 -0.069206022 0.19554743 13485242
0.708 -0.051151328 0.19886091 12301486
0.77549994 -0.056587908 0.19484752 13419450
0.69680005 -0.041862205 0.19506241 13289151
0.70264709 -0.046512201 0.19619818 12367793
0.69341028 -0.034866769 0.19513676 13881803
0.69368309 -0.024845265 0.19495784 14342868
0.69625002 -0.016885558 0.19474566 14145490
0.70146149 -0.012150466 0.19500321 13948110
0.70632005 -0.0072422405 0.19488335 14079697
0.71090907 -0.0023405866 0.19513859 13882319
0.71725005 0.0027547777 0.19516139 14211283
0.72116679 0.0078319591 0.19496371 14540248
0.72661549 0.011752632 0.1945373 14803420
0.73205 0.01694895 0.19507642 14803165
0.73716664 0.021812042 0.19497293 14605785
0.74431586 0.026749061 0.19484395 14408663
0.74820006 0.030369386 0.19508773 14474713
0.75578582 0.033993598 0.19471064 14672090
0.76312506 0.037990838 0.19513476 14869212
0.7750001 0.043797776 0.19499773 14539988
0.78241664 0.04879269 0.19503509 13750472
0.78492302 0.055240531 0.19495218 14473941
0.78515989 0.064586721 0.19479963 15198177
0.78533328 0.074712649 0.19484219 15132384
0.78431028 0.085091494 0.1953463 15066590
0.77900004 0.098273695 0.19737527 15527141
0.78187108 0.094130203 0.19433701 15395298
0.7790001 0.10370322 0.1953444 15329763
0.78057152 0.10911018 0.19522905 15132643
0.78478259 0.11456591 0.19470613 15395561
0.78890002 0.12103826 0.19443485 11579566
0.79158825 0.12572631 0.19541436 11842990
0.78793758 -0.16379833 0.20505777 14013392
0.79000002 -0.16803989 0.20524819 10000532
0.77900004 -0.15111086 0.20877311 15394788
0.7826668 -0.15576413 0.20483296 15065824
0.77887088 -0.14438026 0.20541464 15723752
0.78000003 -0.14856586 0.20173712 15789544
0.7788462 -0.13733585 0.20641707 15657703
0.78061116 -0.13335112 0.20483856 15526373
0.78320599 -0.12522885 0.20498997 15262430
0.78373349 -0.11533521 0.20453484 14077896
0.78316706 -0.10516705 0.2043881 13748930
0.78426671 -0.095214941 0.2046739 13617344
0.78555536 -0.085259341 0.20501181 13551551
0.78377777 -0.075182043 0.20505837 13222585
0.77766681 -0.06377247 0.2048756 13353656
0.78070009 -0.068284169 0.20539074 13222584
0.70400006 -0.050862342 0.20431508 12367537
0.77524984 -0.056918304 0.20504579 13353913
0.69637924 -0.043344971 0.20532103 13355202
0.70162505 -0.048023157 0.20281579 12565173
0.69416666 -0.034715034 0.20553975 13815754
0.69427788 -0.024966219 0.20557232 14408148
0.69657898 -0.017538257 0.20440818 14145490
0.70206666 -0.012699377 0.20530258 14079697
0.70666671 -0.0072120242 0.20510274 14606041
0.71200007 -0.0022684063 0.20498367 14803420
0.71743476 0.002718552 0.20508841 15197920
0.7210834 0.0078307604 0.20506538 15263457
0.72623533 0.011939643 0.20587945 15132127
0.73186362 0.016750287 0.20439464 14869212
0.73675007 0.021799617 0.20520711 14539991
0.74338895 0.026348092 0.20502816 14342611
0.74800003 0.030010676 0.20484276 14342611
0.75533336 0.032861292 0.20469052 14737370
0.76358342 0.037492935 0.20404376 14934749
0.77033335 0.039923538 0.20735288 15066334
0.77563161 0.044503629 0.20514768 14539990
0.78100002 0.049009103 0.20473695 14210767
0.78375876 0.055426665 0.2047006 14474453
0.78433347 0.065019533 0.20494267 14606041
0.78424257 0.075025566 0.20441839 14474711
0.78262508 0.085215859 0.20481955 14803420
0.77813661 0.096134514 0.20522767 15066592
0.78025007 0.092038207 0.20454077 14737627
0.77836359 0.10461401 0.20520496 15066595
0.78066665 0.10990616 0.20282255 14540507
0.78500003 0.11523551 0.20506653 15395562
0.78862506 0.12095015 0.20558274 11448239
0.79215789 0.12607017 0.20492932 11777198
0.78805882 -0.16404729 0.21516153 14408407
0.79000002 -0.16803989 0.21449523 11119013
0.77900004 -0.15141481 0.21485193 15394532
0.78242856 -0.15649019 0.21522874 14605018
0.77792001 -0.14543913 0.21485712 15592166
0.77823323 -0.13547559 0.21494322 15460323
0.7787779 -0.12594838 0.2164108 14867416
0.78123534 -0.12335696 0.21275939 14604500
0.78149998 -0.11500532 0.21492833 13946311
0.78197217 -0.10500628 0.21506007 13683137
0.78233349 -0.094980992 0.21515773 13617087
0.78350013 -0.085034758 0.21547864 13551294
0.7828334 -0.074886709 0.21529499 13485244
0.77805012 -0.064228855 0.21562167 13221814
0.78100008 -0.068702035 0.21361741 13221814
0.70500004 -0.053165812 0.21576321 12302513
0.7761429 -0.058670681 0.21488646 13287864
0.69668424 -0.042782038 0.2144818 13420995
0.70121431 -0.047731288 0.21536472 13092030
0.69508314 -0.034760132 0.21557337 13618631
0.69502759 -0.024994008 0.21555573 14211283
0.69735289 -0.018018354 0.21497945 14277075
0.7024762 -0.013316694 0.21500717 14539991
0.70679998 -0.0070488118 0.21520185 14934492
0.71125007 -0.0021274081 0.21475686 14935005
0.71705556 0.0039689885 0.21529537 15066848
0.72000003 0.0086608864 0.21234465 15132384
0.72444457 0.013245259 0.21522182 14803419
0.73109996 0.018379239 0.21407697 14474454
0.73505563 0.022516659 0.21534723 14342868
0.74350011 0.027222237 0.21492355 14473684
0.74800003 0.030010676 0.21359818 14474197
0.7561819 0.032916613 0.21464615 14803161
0.76433343 0.037031218 0.21587265 15000539
0.77100003 0.03995809 0.21114139 15263200
0.77576929 0.043914143 0.21510002 14802904
0.78080004 0.049605317 0.21565397 14408148
0.78311121 0.055050477 0.21486533 14671833
0.7839002 0.0654011 0.21467562 14803419
0.78388488 0.075562842 0.21488118 14606040
0.78252792 0.085433871 0.21521407 14868956
0.77723819 0.095904179 0.21492898 15198179
0.78000003 0.091552362 0.21543208 15066592
0.77681834 0.10457306 0.21504812 15329512
0.78395456 0.11479653 0.21518736 15395305
0.78850007 0.12116196 0.2150109 11645359
0.79133338 0.12623042 0.21485724 11777198
0.787875 -0.16378549 0.22532983 14474200
0.79000002 -0.1680399 0.22466694 12039861
0.77872735 -0.15188691 0.22552066 15263202
0.78276473 -0.15723456 0.22481807 14539479
0.77723348 -0.14531088 0.22467263 15657703
0.77708364 -0.13527587 0.22463137 15591654
0.77877414 -0.12513095 0.22450387 14670293
0.78000003 -0.12117594 0.22821404 14077897
0.7790001 -0.11463781 0.22427416 13880516
0.78006667 -0.11479493 0.22458157 13814724
0.78103346 -0.10487987 0.22486025 13617344
0.78156 -0.094887592 0.22501221 13617344
0.78270018 -0.084948212 0.22534005 13551551
0.77863652 -0.071665987 0.22549492 13551294
0.78106254 -0.07631629 0.2246391 13485501
0.7122857 -0.062419597 0.22626969 12236204
0.73200005 -0.066594273 0.22959273 13617344
0.77675015 -0.06547147 0.2247294 13156793
0.70642424 -0.054802198 0.22487591 12434098
0.71000004 -0.059606437 0.22850983 12104875
0.77625 -0.059716657 0.22438955 12959158
0.6976667 -0.042239688 0.22454156 13420993
0.70126319 -0.047383234 0.22487538 13223614
0.69575745 -0.034622956 0.22518535 13157566
0.69519979 -0.025115935 0.2252581 14276563
0.69793755 -0.017745189 0.22472945 14803420
0.70200008 -0.01308992 0.2250244 14803419
0.70652783 -0.0057854783 0.2251386 15066591
0.71000004 -0.0014321404 0.22186133 15132384
0.70900005 0.00022965853 0.22901788 15001055
0.71497363 0.0045156567 0.22508235 14803676
0.72380012 0.013120166 0.22505039 14408919
0.7305454 0.018272266 0.22524935 14277075
0.73527282 0.023403924 0.2250607 14342868
0.74469227 0.028807942 0.22458687 14408404
0.75500005 0.03265075 0.22521605 14539477
0.76458335 0.036944285 0.22548805 15000026
0.77556527 0.043121167 0.2248615 14868441
0.78100008 0.048806474 0.22525626 14211282
0.78382152 0.055501916 0.22507191 14671835
0.78496766 0.064748712 0.22492549 14737627
0.7841177 0.074648365 0.22509934 14606042
0.78190017 0.085365742 0.22510873 14606042
0.77811539 0.095252261 0.22542153 14934752
0.78000003 0.091552354 0.22273606 14671835
0.77737951 0.10455102 0.22493742 15395305
0.78033334 0.10985923 0.22648557 15592682
0.78460002 0.11505779 0.22496685 14803424
0.78871435 0.12079883 0.2244339 11777200
0.79178953 0.12562157 0.22512718 11777198
0.78768754 -0.1638622 0.23507214 14539994
0.79000002 -0.16803989 0.23483868 12565948
0.77753341 -0.15240578 0.23537844 15197668
0.78200001 -0.15760912 0.23429106 14605531
0.77593344 -0.14506696 0.23519748 15460837
0.77626497 -0.1353461 0.23503125 15460578
0.77866679 -0.127804 0.23465914 15131356
0.78071433 -0.12272147 0.23521164 14275789
0.78204012 -0.11508489 0.2343051 13748930
0.78205699 -0.10488821 0.23509309 13617600
0.78189999 -0.094929099 0.23517506 13617344
0.78230578 -0.084906198 0.23529598 13551551
0.778889 -0.071873158 0.23518279 13551293
0.78078943 -0.076229379 0.2348897 13551551
0.71675003 -0.062062316 0.2348765 11907497
0.72266668 -0.064620696 0.2373786 12302255
0.73400003 -0.066776216 0.23708779 12894133
0.77768755 -0.066882931 0.23459429 13485500
0.70630777 -0.053831618 0.23482442 12894648
0.71137506 -0.058890227 0.23561357 12170669
0.69819999 -0.041617431 0.23304889 13289406
0.70139998 -0.046080112 0.23562635 13355456
0.69697243 -0.034810498 0.23492306 12631479
0.69616205 -0.02492463 0.23531084 13552582
0.6973573 -0.016798077 0.23551781 14474197
0.70107156 -0.012315749 0.23372233 14869212
0.70474994 -0.0055400459 0.23506506 14803419
0.70783335 0.00092007592 0.23526765 14540504
0.71418524 0.0059981314 0.23514487 14540505
0.71900004 0.010612581 0.23617549 14408918
0.72388458 0.014646057 0.23545088 14408918
0.73042858 0.01855774 0.23349626 14342868
0.7343334 0.023674313 0.23509379 14408661
0.74316674 0.029093383 0.23483141 14342355
0.74800003 0.031761758 0.2363594 14276305
0.75450003 0.03292501 0.23134628 14671063
0.76363641 0.036979634 0.23544873 15000028
0.77540898 0.04291505 0.23503798 14868697
0.78158349 0.048740726 0.23508252 14079440
0.78408015 0.055322681 0.23491517 14606042
0.78492588 0.064975508 0.23537172 14606042
0.78358644 0.075018421 0.23476464 14474456
0.77900004 0.089611337 0.23795155 14736858
0.78147054 0.085050389 0.23483169 14540249
0.77750009 0.095247023 0.23532151 15000800
0.78000003 0.091552362 0.23186603 14606042
0.7769357 0.10416191 0.23547104 15263719
0.78075004 0.10991789 0.23300196 15395304
0.78517401 0.11518183 0.2349986 14145236
0.78875005 0.12073832 0.23585092 11842734
0.79205006 0.12588249 0.23461115 11711405
0.79307407 -0.17516138 0.24482368 9868692
0.78656 -0.16480966 0.24530233 13816528
0.79000002 -0.16942693 0.24316098 10461089
0.77716666 -0.15386628 0.24535023 15262945
0.78133339 -0.15857562 0.24293 14013390
0.77515984 -0.14492273 0.24494439 15592166
0.77575004 -0.13481602 0.24478865 15525859
0.77790487 -0.12661515 0.24546388 14868185
0.78121424 -0.12214709 0.2447675 14144460
0.78276694 -0.11519251 0.24459843 13749444
0.7782858 -0.10373174 0.24697199 13552064
0.78105551 -0.10651083 0.24335231 13552064
0.77762079 -0.095414214 0.24578212 13551807
0.78000003 -0.093238235 0.24136119 13617344
0.7778402 -0.085332669 0.24578832 13617343
0.78016669 -0.084673174 0.24104749 13551551
0.74600005 -0.071360737 0.24795349 13157563
0.75700003 -0.074185118 0.24983905 13420735
0.76533335 -0.074401699 0.24839973 13420733
0.77604014 -0.076269291 0.24506944 13551550
0.78000003 -0.075526096 0.24099599 13551551
0.71708328 -0.061741885 0.24505836 12170415
0.72260004 -0.064047478 0.24355873 12104620
0.73322225 -0.067280568 0.2465679 12236463
0.74175006 -0.069217734 0.24393395 13420734
0.77900004 -0.068134651 0.24068701 13551551
0.70622212 -0.053903725 0.24538672 13026494
0.71149999 -0.058900721 0.24564923 12828089
0.70197141 -0.044945095 0.24496506 13092030
0.69813341 -0.034205399 0.24261406 12302514
0.70055556 -0.036035709 0.24724688 12697271
0.69759268 -0.024694087 0.24462931 12236978
0.70000005 -0.028723845 0.24850647 12170927
0.69768012 -0.016105792 0.24463519 14276303
0.70000011 -0.011478347 0.2455412 14802903
0.70349997 -0.0055287513 0.24508087 14474454
0.70764703 0.0016923564 0.24563296 14671833
0.71290481 0.0065930299 0.24505857 14737627
0.7183125 0.011794671 0.24505739 14540505
0.72290915 0.016931685 0.24481125 14343125
0.72785717 0.021170488 0.24727727 14145746
0.73275012 0.025706455 0.24472488 14277075
0.74050003 0.029709768 0.24179256 14276305
0.74620003 0.031685326 0.24452543 14276562
0.75900006 0.035782509 0.24516864 14539477
0.7615 0.036348671 0.24329688 14539733
0.77100003 0.03995809 0.2400202 15197407
0.77570003 0.042931531 0.24538548 14671576
0.78163642 0.048495397 0.24516056 14342611
0.78420007 0.055331305 0.24504632 14540248
0.78394473 0.065402061 0.24496616 14606041
0.78210342 0.075192884 0.24454772 14474199
0.77852392 0.08660432 0.24644081 14539735
0.78040004 0.082951583 0.24379812 14539992
0.77621448 0.094545789 0.24469173 15000544
0.77528113 0.10484013 0.24464011 15263975
0.77840006 0.11140928 0.24596699 15395562
0.78338885 0.11548933 0.24438392 13092808
0.78833336 0.12247002 0.24521038 11711149
0.79043758 0.12782073 0.2449147 11579819
0.79280007 0.13562107 0.24445237 11514026
0.79289997 -0.1853618 0.2551899 10658461
0.78900003 -0.17152131 0.25670615 9736591
0.79171997 -0.17648995 0.25484699 9868946
0.77900004 -0.16022913 0.25801173 13882317
0.7850371 -0.16529097 0.25473246 13290442
0.77589667 -0.15401961 0.25500876 15197408
0.77420008 -0.14474322 0.2546083 15723493
0.77408344 -0.1347533 0.25456947 15657444
0.77571869 -0.12470673 0.25487706 14670549
0.78100002 -0.12041713 0.25044665 13947079
0.77681476 -0.11519133 0.2567786 13749701
0.78133339 -0.1148296 0.25192437 13683907
0.77630019 -0.1051556 0.25529572 13486271
0.78000003 -0.10930698 0.25012597 13420735
0.7752499 -0.095029414 0.25495166 13617344
0.77474201 -0.084877141 0.25498828 13486016
0.73580009 -0.070385024 0.25661492 12564916
0.74525005 -0.072163947 0.25337571 13288893
0.75524998 -0.075120918 0.25500724 13288894
0.76428574 -0.077712014 0.25479734 13420479
0.77219999 -0.078929648 0.25196171 13420734
0.71366674 -0.062888272 0.25520623 12433844
0.72525007 -0.066618405 0.25485 11972780
0.73199999 -0.068307891 0.25357878 11775144
0.70616663 -0.055110123 0.25510323 13947851
0.71000004 -0.059606437 0.25094849 13618375
0.70336366 -0.045280065 0.25474194 14079436
0.70256239 -0.0349291 0.25520939 13486786
0.69900006 -0.021864599 0.25033328 11447461
0.70102942 -0.025406377 0.25540537 13618116
0.69900006 -0.017773667 0.25033328 12565428
0.7003032 -0.015122717 0.25527126 13618373
0.70372963 -0.0055545522 0.25518742 14079954
0.70719999 0.0028144023 0.25545421 14343126
0.71130764 0.0076609771 0.25448245 14145748
0.71700001 0.013005513 0.25491762 14277332
0.72109097 0.018189393 0.25455973 14211539
0.72641182 0.022245962 0.25454465 14145489
0.73147053 0.027536793 0.25511125 14014158
0.7385 0.031358365 0.25669849 14408146
0.74650002 0.033445634 0.25685203 14210511
0.764 0.037213709 0.25513804 14605013
0.77662975 0.044094753 0.25537407 14671320
0.78049999 0.048977595 0.25241703 14540246
0.78210008 0.055182751 0.25537452 14737369
0.7821945 0.065255642 0.25540537 14737626
0.77881259 0.07625708 0.2561259 14868442
0.78050005 0.073730186 0.25276509 14671320
0.77733344 0.085115254 0.25522423 14473942
0.77488226 0.095217839 0.25504544 14935007
0.77493542 0.10500576 0.25447169 15198181
0.77900004 0.11149517 0.25254077 15461356
0.78400004 0.11496909 0.2557672 13158600
0.78875005 0.12120009 0.25362483 11579820
0.79160011 0.12553132 0.25582424 11514026
0.78900003 -0.17178516 0.26567763 9802898
0.79155564 -0.17640345 0.26464093 9737104
0.77880007 -0.16091746 0.2650561 14539732
0.78528565 -0.16634262 0.26486099 12303288
0.77470005 -0.15505576 0.26529023 14802392
0.76812506 -0.14293253 0.26811957 15658215
0.77200019 -0.14542963 0.26414579 15657958
0.76746154 -0.13629469 0.26793954 15591909
0.77163994 -0.13443622 0.26326573 15723238
0.77247065 -0.12516348 0.26510084 15064794
0.77317137 -0.11481394 0.26499927 13683908
0.77300018 -0.10488193 0.26521561 13420735
0.77282846 -0.094862208 0.26488203 13354943
0.76466674 -0.080306739 0.26548448 13354942
0.77241677 -0.085868061 0.26479378 13354943
0.71720004 -0.070957109 0.26826653 11907498
0.72200006 -0.070755169 0.26702139 12169900
0.73133343 -0.071097054 0.26418987 10262418
0.74700004 -0.074953876 0.26577294 13354428
0.75550008 -0.076988973 0.26497185 13223356
0.76100004 -0.079030901 0.26452059 13354941
0.70900005 -0.061182272 0.26719287 13157821
0.71348149 -0.065039508 0.26522657 12170928
0.72420007 -0.068599306 0.26342636 11841706
0.73100001 -0.069925867 0.26350474 11315361
0.70652765 -0.05518271 0.26515841 13552323
0.70505559 -0.045163378 0.2648825 13947338
0.70388901 -0.035202459 0.264992 13223358
0.70125008 -0.025220623 0.26509193 13420994
0.70052797 -0.01535087 0.26482019 13947336
0.70388877 -0.0055340226 0.26526546 14079695
0.70748162 0.0032993688 0.26502481 14540247
0.71075004 0.0081340875 0.26535654 14408661
0.71565616 0.013537868 0.2648803 14211284
0.72033334 0.018782776 0.26556024 13882575
0.72600007 0.021651968 0.26493019 14013904
0.7332381 0.026808288 0.26496655 14079439
0.73900002 0.031379595 0.26119849 14276559
0.74437505 0.032480739 0.26593003 14013644
0.75900006 0.037559342 0.26826745 14737110
0.76400006 0.038703378 0.26467845 15131613
0.7766667 0.045217279 0.26475716 14803162
0.77900004 0.052682362 0.26735798 14934749
0.78079998 0.055912487 0.26463872 14803419
0.77862501 0.066022821 0.26646885 14671322
0.78083342 0.063011326 0.26334003 14671834
0.77696699 0.074825421 0.26461112 14803164
0.77566689 0.084685273 0.26507589 14606042
0.77347255 0.095311202 0.26523337 14869470
0.7754547 0.10472082 0.26500571 15263972
0.78000003 0.1098123 0.26290792 15724270
0.78674996 0.11502559 0.2648381 13618892
0.79033333 0.11866781 0.26639166 11381929
0.78800005 -0.17130391 0.27482802 9605517
0.79162508 -0.17580101 0.27516571 9605774
0.77700001 -0.16163673 0.27462953 14341582
0.78381252 -0.16672799 0.27428141 11380899
0.77334625 -0.15558952 0.27493936 14407634
0.76766676 -0.14448179 0.27372772 15461350
0.77028573 -0.14839043 0.27431718 15395557
0.76704168 -0.13532086 0.27350476 15461093
0.77000004 -0.13133921 0.27756315 15527142
0.76900005 -0.12936839 0.27450231 15460836
0.77117872 -0.12489627 0.27431411 15197407
0.77246159 -0.11527488 0.27497497 13749702
0.77241379 -0.10537507 0.274694 13486528
0.77221429 -0.094980381 0.27494046 13420221
0.76533341 -0.080976836 0.27766949 13420218
0.77068192 -0.085860029 0.27403614 13288634
0.71650004 -0.071055427 0.27437991 11644326
0.74700004 -0.074953876 0.27102104 13880001
0.75633335 -0.07766097 0.27263591 13486010
0.76099998 -0.079921663 0.27253738 13420218
0.70900005 -0.061182268 0.27051243 13223356
0.71317863 -0.065007396 0.27556399 12565428
0.70724243 -0.055163156 0.27496025 13486528
0.70587486 -0.044801638 0.27469105 13618115
0.70435286 -0.035420112 0.2747536 13026235
0.70136112 -0.025224168 0.27498713 13289408
0.70116681 -0.015365619 0.27491018 13947338
0.70422214 -0.0055373618 0.27528238 13947596
0.7074815 0.0031765089 0.27453226 14079696
0.71077776 0.0079959109 0.27618229 14211282
0.71632141 0.013774572 0.27509996 14145490
0.72000003 0.018774085 0.27555212 14145490
0.72515386 0.021654127 0.27523619 14079697
0.73387504 0.026801931 0.27520278 14013647
0.74000001 0.029689707 0.27367839 13816783
0.74508333 0.032511894 0.27555454 13685195
0.75742859 0.036977589 0.27581066 14342868
0.76333332 0.039560754 0.27426612 14803417
0.77479327 0.045476608 0.27497143 14869211
0.77850008 0.054776728 0.27500752 14935005
0.78000003 0.056858476 0.27325523 14737370
0.77822226 0.065228082 0.27465713 14539992
0.78000003 0.062336456 0.27934185 14935005
0.77596313 0.074929982 0.27466652 14473943
0.77430296 0.084289819 0.27499387 15197925
0.77283359 0.095234089 0.27496544 15330021
0.7759524 0.10466264 0.2749505 15263973
0.7857222 0.11287139 0.27474657 14342614
0.79088891 0.11813477 0.27542356 11447722
0.78900003 -0.17152131 0.28256503 9605775
0.79306257 -0.17565802 0.28541109 9671569
0.77900004 -0.16114096 0.28171921 13946827
0.78633332 -0.16593365 0.28508958 10591387
0.79000002 -0.16988929 0.28847137 9605521
0.77650005 -0.15380794 0.28308913 14737118
0.78260005 -0.1554729 0.28760272 12434365
0.77456248 -0.14515074 0.28272474 15395303
0.78220004 -0.14440797 0.28928548 10263197
0.77500004 -0.13517906 0.28289136 15395557
0.78250003 -0.13576494 0.28893992 10592672
0.77609098 -0.12461171 0.2825684 15592166
0.78250003 -0.1252255 0.28756461 15198179
0.77710009 -0.11526582 0.28285354 14013390
0.78320009 -0.11525681 0.28782183 13553610
0.77688891 -0.10483092 0.28287724 13421764
0.78242862 -0.10441581 0.28780052 12106165
0.77568746 -0.094629914 0.28302056 13223614
0.7816667 -0.095512778 0.28878391 8487550
0.77475011 -0.085788772 0.28404039 11709604
0.71754998 -0.072420478 0.28494579 11578533
0.71429634 -0.065051474 0.28522858 12696757
0.70821744 -0.054123849 0.28405431 13617858
0.71063638 -0.058601722 0.28656405 13683138
0.70642859 -0.045133274 0.28512415 13552066
0.70500004 -0.035258159 0.28466484 13091515
0.70208317 -0.025250658 0.28513202 13420738
0.70149994 -0.015372859 0.28489563 13750218
0.70377767 -0.0055338629 0.28499413 13816269
0.70725006 0.0031292792 0.2852765 14211284
0.71100003 0.0078877751 0.28475767 14211283
0.71688896 0.014504623 0.28498825 14145232
0.7238636 0.022501597 0.2850351 14145490
0.73252946 0.027980411 0.28473234 13948110
0.73800009 0.031337135 0.28762218 13158594
0.74476933 0.033506926 0.28482991 13487301
0.75466675 0.036956035 0.28499401 13619143
0.76125002 0.039452784 0.28376138 13948366
0.76620001 0.041503012 0.28694895 13948366
0.77484214 0.045414399 0.28427094 11908269
0.78099996 0.049618024 0.2870149 11184802
0.77900004 0.052226447 0.28080741 13882317
0.78316665 0.055563748 0.28536865 13421766
0.77900004 0.069551148 0.28080741 13619147
0.78352183 0.065166973 0.28531256 12895680
0.77777779 0.075308613 0.28198603 12434106
0.78192317 0.074881688 0.28721374 11710637
0.77577782 0.085505426 0.28348228 13158601
0.78150004 0.082884438 0.28841755 11644587
0.77444452 0.09492778 0.28440854 14606043
0.77664292 0.10323797 0.28398395 14737629
0.78128576 0.10712021 0.28712001 14079443
0.78650004 0.11434518 0.28506821 11974325
0.79000002 0.11861777 0.28199846 11447978
0.78887504 0.12237356 0.28875294 11119268
0.79321438 0.12520595 0.28393295 11316391
0.78850007 -0.16126078 0.29161543 10395296
0.7927143 -0.16557039 0.29503348 10395290
0.78766674 -0.15504724 0.29233289 10000282
0.79270005 -0.15469754 0.29781005 10723995
0.7881819 -0.14500806 0.29435048 9473422
0.79260004 -0.14447203 0.29869825 9867918
0.78711116 -0.13425836 0.29233164 8355455
0.79200006 -0.13458353 0.29763144 9013636
0.78780013 -0.12515409 0.2922799 8026745
0.79190004 -0.12487747 0.29750973 8882050
0.78733331 -0.11494392 0.29210654 7895414
0.79109097 -0.11507017 0.29712078 8816256
0.78771436 -0.10511907 0.29330292 8093307
0.79100001 -0.10529514 0.29809526 8750463
0.7874667 -0.094499655 0.29479954 8290684
0.79039997 -0.094850637 0.29897973 8619134
0.7853334 -0.085847475 0.29381987 8355705
0.71829414 -0.071975067 0.29512948 11709864
0.72000003 -0.077301294 0.29999235 10723224
0.7155 -0.065038495 0.29494673 12762551
0.7084375 -0.052323751 0.29527792 14012361
0.71142864 -0.057349682 0.29523128 13749445
0.70670277 -0.045381833 0.29512236 13420480
0.70505559 -0.035260666 0.29459167 13025465
0.70311099 -0.025286742 0.29542577 13354945
0.7027775 -0.015400927 0.29528558 13618631
0.70417136 -0.0055150911 0.29490519 13816524
0.70699996 0.004205063 0.29523805 14013904
0.71000004 0.0085405959 0.2916705 13684940
0.71571052 0.014351496 0.29489303 13882318
0.71900004 0.020431202 0.29873413 14277077
0.72355181 0.023897542 0.29515845 14013903
0.7313 0.028656606 0.29459861 13487815
0.73571432 0.031487223 0.29571193 13487815
0.74476469 0.034910481 0.29512811 13750988
0.75362504 0.038398027 0.29503697 14211537
0.75866669 0.041094948 0.29834175 14408914
0.76366675 0.042559966 0.29553595 14408915
0.7743572 0.04609248 0.29544765 13027006
0.78150004 0.048965044 0.2938289 9211270
0.78692591 0.055320501 0.29512677 9342856
0.78800005 0.064819492 0.29512244 9014150
0.78727996 0.074419677 0.2952964 9277064
0.79000002 0.079780273 0.29956782 9934994
0.78641176 0.08547812 0.29463789 9934738
0.79000002 0.084403791 0.29956782 10263959
0.78561115 0.094966337 0.296069 10395291
0.78594738 0.10532625 0.2954216 11513514
0.78789997 0.11461534 0.29416248 10987682
0.79000002 0.11491896 0.29956782 11053475
0.78871429 0.1227775 0.29406914 11119268
0.79041183 0.12706073 0.29624131 11185317
0.71899992 -0.072024122 0.3043848 11841192
0.72000003 -0.075615764 0.30252066 11315361
0.71692604 -0.065289564 0.30474037 12499379
0.70836377 -0.052836742 0.303435 13881544
0.71158338 -0.058075879 0.30342528 13223615
0.70654851 -0.044806276 0.30457804 13420736
0.70555538 -0.035285085 0.30471015 12631735
0.70394117 -0.025123969 0.30541819 13223358
0.70299983 -0.015405991 0.3052521 13881290
0.70511425 -0.0054753902 0.30492043 14277075
0.70738709 0.0037584102 0.30504701 14408662
0.71000004 0.0085405959 0.3066296 14408663
0.71443248 0.014478919 0.30476469 14211026
0.7187857 0.021627394 0.30561557 13619147
0.72330004 0.026654903 0.30432647 13816526
0.73049998 0.029308554 0.30180147 13882318
0.72900003 0.030954976 0.30886206 13290182
0.73291665 0.031981219 0.30365041 13948110
0.74493748 0.036650561 0.30492684 14474453
0.75050008 0.038895652 0.30127972 14474708
0.75760001 0.041747905 0.30590245 14606038
0.76387507 0.044508476 0.30441022 14474195
0.77335709 0.048100241 0.30437303 14013643
0.77720004 0.05119605 0.30562693 12895164
0.78576005 0.055887319 0.30450401 9737101
0.78899992 0.064040817 0.30325216 9671565
0.79049999 0.066322394 0.30753049 9671822
0.78900003 0.071367502 0.30103567 9934737
0.79145467 0.074875578 0.30525935 9934994
0.78900003 0.098149925 0.30103567 10790304
0.78900003 0.10184405 0.30103567 10921889
0.79300004 0.10505067 0.30544376 11053218
0.70533329 -0.03307173 0.31094351 12172471
0.70450002 -0.026987305 0.31112576 13158336
0.70199996 -0.01784995 0.31056988 14144206
0.70559996 -0.0047255056 0.31051072 13224389
0.70900005 0.0068687862 0.31034717 12369080
0.71000004 0.0085405959 0.31078491 11974069
0.71485716 0.014821449 0.31099635 11381931
0.74500006 0.036287535 0.31157067 13355973
0.75000006 0.038869739 0.3107363 12040115
0.75800002 0.041058838 0.31316471 11249828
0.76385719 0.043678995 0.31468862 10394777
0.77242857 0.048042085 0.31435043 10986656
0.77600002 0.051117003 0.311517 9999248
0.78585714 0.056505091 0.31472689 9934738
0.79157698 0.064975724 0.31520396 9869201
0.77571434 0.046429522 0.32398564 10000787
