# .PCD v0.7 - Point Cloud Data file format
VERSION 0.7
FIELDS x y z rgb
SIZE 4 4 4 4
TYPE F F F U
COUNT 1 1 1 1
WIDTH 658
HEIGHT 1
VIEWPOINT 0 0 0 1 0 0 0
POINTS 658
DATA ascii
0.79316008 -0.14457473 0.11508318 11315620
0.79341388 -0.13462606 0.11453981 12564908
0.79316133 -0.12492608 0.11417834 13024943
0.78885716 -0.11476972 0.11841854 12697012
0.79180962 -0.11493397 0.11409133 12564652
0.78900003 -0.10687409 0.11817642 12960184
0.79248017 -0.1046712 0.11394127 12697010
0.79282373 -0.095054306 0.11431818 12631733
0.78900003 -0.088403463 0.11817642 11644324
0.7931034 -0.085022353 0.11398023 12434608
0.78872734 -0.14275858 0.12635976 12038570
0.79110527 -0.14624761 0.12394964 11117983
0.7874074 -0.13506001 0.1253752 12763061
0.79000002 -0.1347506 0.1201756 11974065
0.78586489 -0.12514403 0.12530212 12960698
0.78671426 -0.11493053 0.12440499 12762805
0.78733337 -0.10480447 0.1243727 12697011
0.787857 -0.094862357 0.12432504 12631476
0.78745168 -0.084721088 0.12454125 12828597
0.78779978 -0.075359076 0.12444758 12697011
0.79000002 -0.070021458 0.1201756 12500398
0.7871998 -0.06516616 0.12527353 12368303
0.79000002 -0.064473256 0.1201756 11710372
0.78716004 -0.0550276 0.12526745 12697008
0.79000002 -0.055226229 0.1201756 11183000
0.78699994 -0.044883419 0.1252417 12631216
0.79000002 -0.045054507 0.1201756 10787983
0.78699982 -0.034750316 0.12524171 12434093
0.79000002 -0.034882784 0.1201756 11380631
0.78753322 -0.024632892 0.1253279 12105130
0.79000002 -0.024711059 0.1201756 11316899
0.78823817 -0.014682154 0.12614472 11776936
0.79033333 -0.014133713 0.12104826 11777451
0.78850001 -0.0052822679 0.12640685 11644580
0.79059994 -0.005295868 0.12119158 12960183
0.78833336 0.0048691127 0.1273033 12038311
0.7907778 0.0048847306 0.12214359 12170154
0.78839999 0.015020957 0.12731406 12039083
0.79133332 0.015077469 0.12222893 11974576
0.78874999 0.025183821 0.12829432 11711148
0.79204363 0.025086716 0.12338432 11119011
0.78900003 0.034558173 0.12873107 11579309
0.79254174 0.035507571 0.12380318 11117982
0.78900003 0.044585086 0.12925881 10329240
0.79248011 0.04478202 0.12425692 11447466
0.78900009 0.055163726 0.12841922 9868944
0.79188001 0.054757189 0.12342382 11710632
0.78866673 0.064875364 0.12735711 11249823
0.79113346 0.065077797 0.12219821 11512994
0.78874993 0.074576676 0.12760165 12303285
0.79084206 0.075383127 0.12264066 11250595
0.78900003 0.084296949 0.12925881 10394258
0.79218525 0.085497573 0.12428061 11513252
0.79276663 0.094906412 0.12522809 12829112
0.79271436 0.10497565 0.12535542 12566457
0.78684616 -0.14477406 0.13527884 11249569
0.79000002 -0.14954583 0.13219672 10196882
0.77836365 -0.13342959 0.13679247 12762807
0.78210527 -0.13591099 0.13284752 12631991
0.77835023 -0.12519941 0.13616855 12303028
0.7808001 -0.1236752 0.13248441 12960699
0.77900004 -0.11737329 0.13765062 13420994
0.78161532 -0.11460013 0.13388722 12894392
0.78238899 -0.10506175 0.13458249 13091515
0.78316671 -0.095082864 0.13471569 13091517
0.78361136 -0.08504799 0.13479324 12960186
0.78283334 -0.074885063 0.13465825 12696756
0.77900004 -0.063575521 0.13810654 12040370
0.78158075 -0.064967215 0.13376474 12104876
0.77900004 -0.057192739 0.13856246 11448230
0.78185201 -0.054452863 0.13398102 12368303
0.7819705 -0.044865698 0.13429415 12236717
0.78203142 -0.034872197 0.13474886 12368305
0.78356665 -0.025425283 0.13478464 12368563
0.78497237 -0.015364747 0.13502631 12039597
0.78543341 -0.0052614114 0.13510622 12236462
0.78555566 0.0048520202 0.13512671 11973548
0.78586656 0.01497285 0.13517968 11842476
0.78661096 0.02511524 0.13530834 11184290
0.78713346 0.035266764 0.13539939 11776168
0.78736359 0.044995155 0.1356903 11249569
0.78706056 0.055027392 0.13513547 11644586
0.78670019 0.064713433 0.13532504 11381412
0.78652751 0.074826851 0.13529453 11776941
0.78676665 0.084979258 0.13533416 11250339
0.7866112 0.095091328 0.13530605 13222846
0.78805268 0.10424771 0.13609229 15591647
0.79050004 0.10782145 0.13297364 13552067
0.79340011 -0.1548392 0.1448402 10328466
0.78650004 -0.14527875 0.14485389 11117982
0.79000002 -0.14954583 0.14976607 10262673
0.7786876 -0.13350506 0.14317897 12300975
0.78058338 -0.13603906 0.14676297 12697014
0.77886677 -0.12665194 0.14279363 12040115
0.78049999 -0.1236281 0.14659522 12237494
0.78136009 -0.11498455 0.14447166 12894906
0.78203338 -0.10501368 0.14459597 12631480
0.78268021 -0.095023744 0.14471552 12566198
0.78280026 -0.084960908 0.1447365 12828343
0.78144002 -0.074752346 0.14448597 12170929
0.77894139 -0.065072693 0.14262827 11974577
0.78066677 -0.065692425 0.14814903 11973806
0.77874982 -0.055351682 0.14489882 11645354
0.77803463 -0.045408729 0.14491957 12236719
0.78000003 -0.041745204 0.14056632 11579046
0.77885181 -0.035605434 0.1462341 12499889
0.78011119 -0.034445617 0.14119503 12631734
0.78076673 -0.025334578 0.14527228 12302768
0.78232265 -0.015460184 0.14482351 11842221
0.7826401 -0.0052429182 0.14470512 11579304
0.7827335 0.0048349928 0.14472269 11842733
0.78280014 0.01491461 0.14473501 11974576
0.78410012 0.025035771 0.1449746 11842992
0.78463995 0.035154339 0.14507379 11842220
0.7847665 0.045264952 0.145097 11907755
0.78432 0.055337273 0.14501432 11513252
0.78389293 0.065071858 0.14513178 11447461
0.7840001 0.075094908 0.14475115 12171182
0.7829656 0.085324675 0.14514312 11380125
0.77900004 0.097817779 0.14950438 14998997
0.78156662 0.094846509 0.14486982 12498348
0.78531033 0.10511399 0.14481309 14932690
0.78855562 0.11204268 0.14682503 14012617
0.79100007 0.11621219 0.14448582 12303028
0.79328132 0.12491529 0.1456791 11974577
0.78768748 -0.1438089 0.15463006 11710376
0.79100001 -0.14891317 0.15592237 10394260
0.78285182 -0.135571 0.15533552 12171698
0.78145164 -0.12491182 0.1552866 12171700
0.78256673 -0.11516166 0.15476996 12500407
0.78363919 -0.10522999 0.15498234 12565684
0.78393358 -0.095176347 0.15503959 11973805
0.78338933 -0.085024521 0.15493153 12104877
0.7827003 -0.074872389 0.15479603 12170671
0.78161281 -0.064853102 0.15531908 12235692
0.77890927 -0.053788181 0.15263666 12499377
0.78042859 -0.055080008 0.15708721 12104367
0.7783159 -0.045107692 0.15378612 12104615
0.78000003 -0.04600586 0.15852191 12631991
0.77890915 -0.036050394 0.15404585 12039595
0.78000009 -0.033299983 0.15768501 12303277
0.77900004 -0.027102463 0.15132803 12895929
0.78100008 -0.025266165 0.15552615 11646892
0.78237146 -0.015182645 0.15486176 11646383
0.78203309 -0.0052390248 0.15466337 11579562
0.78199977 0.0048299953 0.1546568 11512742
0.78189981 0.014897043 0.15463647 11775658
0.78286141 0.024995543 0.15482652 11513769
0.78300029 0.035080958 0.15485464 11250854
0.78316706 0.045172751 0.15488835 11447208
0.78296691 0.05524132 0.15484819 11513000
0.78202748 0.065244459 0.15466212 11447462
0.78213322 0.075324029 0.15468241 11907755
0.78168559 0.085212767 0.15472449 9932939
0.77900016 0.09613809 0.15516733 14012872
0.78000003 0.091856696 0.1545656 13223099
0.77900004 0.10091798 0.15570478 13156540
0.78229171 0.10548411 0.15456015 14538191
0.78804165 0.11448327 0.15508252 12829115
0.79000002 0.11861777 0.15161547 12171956
0.79100007 0.12473689 0.15530632 11974320
0.78777272 -0.14426468 0.16535395 11973294
0.79057139 -0.14912561 0.16388606 10393747
0.78319991 -0.13542797 0.16497831 12763064
0.78226662 -0.1251895 0.16478224 12368821
0.78392875 -0.11477148 0.1653305 12171700
0.78492588 -0.10489205 0.16513863 12631478
0.78463995 -0.095263787 0.16528238 12499379
0.7832669 -0.085011937 0.16499214 12434097
0.78308022 -0.074907444 0.16495343 12303028
0.78286684 -0.064808145 0.16490898 11908270
0.78223991 -0.054684602 0.16477753 11512488
0.78153837 -0.045275863 0.16477066 11513512
0.78083879 -0.035009224 0.16471745 12171434
0.7812143 -0.025545638 0.16514787 12105900
0.78250009 -0.015315708 0.16483085 11974830
0.78256011 -0.0052434118 0.16484378 11515052
0.78130305 0.0050733769 0.16507721 11776942
0.78104001 0.014881547 0.1645238 11644072
0.78270024 0.02499138 0.1648736 11118240
0.7837202 0.035113871 0.16509008 11184548
0.78446674 0.045247767 0.16524687 10788250
0.7839601 0.055310469 0.16514 10460056
0.7827335 0.065303013 0.1648818 11052706
0.7826401 0.075372763 0.16486168 11578534
0.78196657 0.085374899 0.16471936 10853785
0.77900004 0.096905947 0.16044629 14406858
0.78154546 0.095144302 0.16513047 14012615
0.78356004 0.10481539 0.16505744 13749958
0.78819054 0.11333919 0.16471265 12105906
0.79028571 0.11813227 0.16541441 11909040
0.79291672 -0.15497665 0.17514373 10130835
0.78762501 -0.14525825 0.17528327 12170414
0.79000002 -0.14954583 0.17103422 9867406
0.78386223 -0.13516133 0.17505321 13091258
0.78355908 -0.12539557 0.17487445 12828343
0.78499991 -0.1146019 0.17454596 12236462
0.78571999 -0.10458929 0.17470612 12697013
0.78530777 -0.095204152 0.17482638 12368049
0.78316706 -0.085000731 0.17505504 12171183
0.78407425 -0.075204484 0.17474873 12630706
0.78469694 -0.064709634 0.17497902 12631989
0.78300011 -0.054738522 0.17501646 12499120
0.78199977 -0.044598266 0.17479426 12237233
0.78171408 -0.034713991 0.17505758 11974316
0.78151852 -0.025156001 0.17519495 11908265
0.78224999 -0.015311329 0.17484933 11710116
0.78223318 -0.0052408339 0.17484538 11316133
0.78193921 0.0045798412 0.17519698 10724515
0.78263336 0.014911794 0.1749375 10921633
0.78448385 0.024900498 0.17460993 11381924
0.78535998 0.035186779 0.17462677 11776426
0.78516656 0.04528708 0.17458335 11908271
0.78499991 0.055385251 0.17454602 11447720
0.78496146 0.064782359 0.17439625 10987169
0.7843104 0.074771568 0.17452064 11381670
0.78265733 0.085318752 0.17481154 11184032
0.78293121 0.095184639 0.17484596 14078407
0.78663999 0.10522652 0.17491253 14407888
0.78887504 0.11175442 0.17471553 12039855
0.79088891 0.11648994 0.17534114 11974575
0.78900003 -0.1512036 0.18651776 9933456
0.79252017 -0.15626189 0.1846033 9999506
0.78755176 -0.14527102 0.18509434 11973291
0.78462511 -0.13498411 0.18513894 12433841
0.78365409 -0.12435377 0.18504064 12236206
0.78480554 -0.11457291 0.18460667 13025209
0.78526664 -0.10452946 0.18471526 12959672
0.78506899 -0.095443062 0.18482752 12762035
0.78326696 -0.085011475 0.18516262 12302768
0.7840001 -0.074797235 0.18474396 12234922
0.78351533 -0.065112963 0.18471885 12105133
0.78223985 -0.054684687 0.18491927 12235692
0.78186643 -0.044590499 0.18483083 12499377
0.78187978 -0.034524247 0.18483406 12303541
0.78179985 -0.025369769 0.18481499 12171698
0.78153324 -0.015298543 0.18475145 12499375
0.78199983 -0.0052387239 0.18486297 11776168
0.78199977 0.0048299949 0.18486299 11842221
0.78292012 0.01491699 0.1850803 11776174
0.78442866 0.025177306 0.18464835 10987425
0.78509986 0.035175197 0.18467551 11446686
0.78522205 0.045290455 0.18470466 11710631
0.78516656 0.055397168 0.184692 11842730
0.78509986 0.064581737 0.18467647 12302253
0.78558326 0.074736811 0.18479167 12039340
0.78456008 0.084738657 0.18546975 11578789
0.78437501 0.09505333 0.18508065 14472909
0.78784007 0.10486929 0.18462065 14736596
0.79000002 0.10937075 0.18767884 11776171
0.78900003 0.11107937 0.18097657 11907757
0.79216003 0.11553384 0.18533795 11908527
0.78900003 -0.1512036 0.19021188 9932684
0.79251999 -0.15559542 0.19514218 10196369
0.78769231 -0.14556631 0.19521569 12762036
0.78452003 -0.13565397 0.1946412 12828342
0.78302902 -0.12539099 0.19505729 12762805
0.78416675 -0.11447787 0.19455414 12368819
0.7850399 -0.10449971 0.19477077 12434358
0.78491998 -0.095297873 0.1947405 12236720
0.78370029 -0.085057512 0.19443867 12894648
0.78356028 -0.074953645 0.19440472 12302771
0.78293782 -0.064584546 0.19459283 12105133
0.78206652 -0.054672427 0.19494957 12039087
0.78128129 -0.045128733 0.19498247 12170667
0.78108835 -0.035134435 0.19448948 12039853
0.78126663 -0.025353068 0.19474882 11382953
0.78138894 -0.015297106 0.19477962 11907242
0.78179985 -0.0052364473 0.19488186 12234922
0.78263909 0.0048355344 0.19509105 12104106
0.78364015 0.014930895 0.19442523 11908781
0.78453338 0.025048237 0.19464627 11711402
0.78472 0.035157546 0.1946917 11709863
0.7846334 0.045256875 0.19466928 11315103
0.78448004 0.055347804 0.19463089 11579304
0.78424019 0.064512916 0.19457087 11972779
0.78563327 0.074742243 0.19491695 12301741
0.78519988 0.084808633 0.19480953 12038827
0.78397077 0.094558075 0.19515079 14473166
0.78818184 0.10467577 0.19504604 15328474
0.79000002 0.10937075 0.19507647 11514024
0.79263997 -0.15517195 0.20533891 10130832
0.78770363 -0.14522204 0.20506077 12565170
0.78427285 -0.13511021 0.20481719 12499634
0.78367871 -0.12482548 0.20517929 12566197
0.78488886 -0.11458511 0.20483939 12566456
0.78499991 -0.10449457 0.20486797 12566197
0.78499991 -0.095306091 0.20486797 11842478
0.78486103 -0.085183941 0.20483242 12367790
0.78493321 -0.075085007 0.20485093 12170670
0.78476477 -0.065180957 0.2050778 12302770
0.78344011 -0.054768771 0.20537941 12302773
0.78223324 -0.044612542 0.2050622 12303026
0.78199983 -0.034529544 0.20500042 12499633
0.78199983 -0.025376163 0.20500039 11776431
0.7816999 -0.015302936 0.20492218 11448237
0.78175986 -0.0052362727 0.20493713 11579562
0.7823 0.0048330575 0.20507841 11579305
0.78410012 0.014940363 0.20463072 11513509
0.78499991 0.025063215 0.20486791 11118752
0.78499991 0.035170559 0.20486797 11382441
0.78497213 0.045276266 0.20486087 11381669
0.78523326 0.0554021 0.20493002 11514027
0.78526664 0.064595833 0.2049392 11842735
0.78486103 0.074667193 0.20483109 12104876
0.78393346 0.084671587 0.20458768 12170155
0.78409398 0.095019415 0.20520608 14408144
0.78799999 0.10435241 0.20499222 14868439
0.79000002 0.10937075 0.20524819 11711145
0.78874999 -0.15269472 0.21677095 10986142
0.79133338 -0.15679879 0.21403137 9867661
0.78655183 -0.14527854 0.21501526 12828600
0.7832002 -0.13542408 0.21539786 12959928
0.78406262 -0.12570429 0.21506259 12500149
0.78496659 -0.11459692 0.21496622 12237232
0.78499991 -0.10449457 0.21497536 12762805
0.78499991 -0.095306091 0.21497536 12697013
0.7850666 -0.085205719 0.21499392 12565426
0.78499991 -0.075091392 0.21497536 12236461
0.78486663 -0.064973317 0.21493822 12236206
0.78418535 -0.054617364 0.21515864 12104620
0.78266692 -0.044637777 0.21525227 12039596
0.78173321 -0.034518003 0.21499445 12565172
0.78146672 -0.025358777 0.21492049 11907761
0.78125 -0.015293704 0.21486163 11250602
0.77900004 -0.0061304527 0.2188032 10461338
0.78078586 -0.00516504 0.21440718 11184548
0.78161103 0.0048288275 0.21496126 11448233
0.78256685 0.014910602 0.21522407 11514023
0.78448486 0.024798121 0.21533327 11315614
0.7850399 0.035172537 0.2149865 11644841
0.7856999 0.045319252 0.21516792 11185061
0.78600001 0.055455804 0.2152492 11250596
0.78600001 0.064656004 0.21524924 11250600
0.78506666 0.074684776 0.21499377 11842222
0.78310025 0.084582523 0.21537112 12302000
0.78519368 0.0947771 0.21520667 14604753
0.78849995 0.10336237 0.21474728 15065817
0.79075003 0.10808713 0.21516238 12040112
0.79313803 -0.16493751 0.2250118 10460311
0.78792 -0.15439324 0.22536503 10656920
0.79000002 -0.15879287 0.22096813 9999247
0.78406894 -0.14488229 0.22497092 12499891
0.78223991 -0.13525768 0.22520623 12894392
0.78347099 -0.12516639 0.22491185 13091258
0.78396976 -0.11486761 0.2245338 12565169
0.78469694 -0.10495394 0.2252454 12434354
0.78499991 -0.095306091 0.2250827 12631220
0.78508323 -0.085207485 0.2251063 12105902
0.78489995 -0.075082287 0.22505373 12564655
0.78372252 -0.064879313 0.22471507 12433584
0.78321445 -0.05494893 0.22489676 12105132
0.78183997 -0.045505594 0.22509041 12236720
0.77900004 -0.035080947 0.22906126 12958645
0.78037047 -0.035270873 0.22426203 12563889
0.77900016 -0.024998248 0.22722006 12367279
0.78024995 -0.025546888 0.22360587 12302257
0.77900016 -0.015104747 0.2277295 11250853
0.78023523 -0.015434567 0.22269529 11645612
0.7790001 -0.0049807583 0.22601853 11514796
0.78000009 -0.0060078949 0.22273605 11448746
0.77900004 0.00086021709 0.22913723 11382438
0.78086215 0.0049823569 0.22468382 11251623
0.78219992 0.014903367 0.22519545 11185059
0.7834549 0.025265636 0.22505572 11381151
0.78479993 0.035162535 0.225025 11644066
0.78536105 0.045299154 0.22518471 11973804
0.78563315 0.055430483 0.22526295 11775655
0.78589994 0.064647391 0.22534023 11513256
0.78483331 0.074662954 0.22503451 10920346
0.78244013 0.084511004 0.22526436 12566199
0.78546882 0.094844215 0.22492863 14276815
0.78900003 0.10237179 0.22451448 15196889
0.79135001 0.1070592 0.22523578 12368820
0.78900003 -0.16043893 0.23454139 9802379
0.79236376 -0.16593359 0.23503286 10394518
0.78696555 -0.15462886 0.235016 10854296
0.7829259 -0.14434068 0.2349755 12697783
0.78199977 -0.13521674 0.23520659 12829112
0.7826668 -0.12525409 0.235406 12696757
0.78280008 -0.11519738 0.23453015 12827825
0.78343362 -0.10520176 0.23471938 12697524
0.78440011 -0.095233433 0.23500857 12631731
0.78383344 -0.085071906 0.23483779 12302769
0.78456002 -0.075049385 0.23505764 12434098
0.78296804 -0.064669318 0.23475835 12039341
0.78179985 -0.054653786 0.23514557 11973034
0.7790001 -0.043515343 0.23703973 11710379
0.78030002 -0.046328943 0.23332484 12039598
0.77883333 -0.035301074 0.23516531 12302255
0.78000003 -0.039919212 0.23004003 12894906
0.77900004 -0.025278807 0.23536809 12367534
0.78000003 -0.025311261 0.23095304 12827315
0.77893329 -0.015247414 0.23519562 12105903
0.77900004 -0.0052186265 0.2352161 11974575
0.7790001 0.0014128392 0.23505031 11711148
0.78082615 0.0067713363 0.23489332 12105906
0.78237033 0.014703489 0.23480941 11514540
0.78400028 0.025032844 0.2348917 11382440
0.78476 0.035160366 0.2351186 11250596
0.78499991 0.045277897 0.23519 11381669
0.78519994 0.055400301 0.23524994 11644328
0.78527993 0.064596221 0.23527443 12170670
0.78436673 0.074618764 0.2350003 10723224
0.78316015 0.084590346 0.23463947 12895165
0.78684372 0.095239431 0.23510925 14606037
0.78900003 0.10184405 0.23454142 15263712
0.79119056 0.10689222 0.23492691 12566457
0.78900003 -0.16043893 0.24192965 9802381
0.79173917 -0.16502957 0.2451068 10066067
0.78766662 -0.15448509 0.24505597 11051934
0.79000002 -0.15879287 0.24963389 9211016
0.78351855 -0.14472197 0.24500418 12565942
0.78187978 -0.13519615 0.24523787 13027265
0.78223324 -0.12518413 0.24534869 12894654
0.78300029 -0.11522622 0.24467292 12434355
0.78300041 -0.10514486 0.24467236 12367794
0.78296691 -0.095059521 0.24466147 11908527
0.78263915 -0.084941849 0.24455826 12697013
0.78386682 -0.074981026 0.24494161 12631992
0.78297174 -0.064948827 0.24479392 12499379
0.78135991 -0.054624587 0.24507436 12105135
0.77895838 -0.044500913 0.24538474 11710635
0.78000003 -0.048744846 0.24495232 11907757
0.77738899 -0.035236262 0.24473841 11513510
0.7774002 -0.025226654 0.2447405 11710373
0.7771669 -0.015213158 0.24466687 11841960
0.77826667 -0.0052116071 0.24501429 11973290
0.77900004 0.0008602172 0.24433433 12104619
0.78104538 0.0062391907 0.24522519 12104618
0.78275025 0.015110401 0.24492157 12170927
0.78363919 0.025020177 0.24486917 11711662
0.7840668 0.03512913 0.24500258 11842474
0.78486115 0.045271356 0.24525267 11973549
0.78549987 0.055420525 0.24545187 11316139
0.78529012 0.064774558 0.24553517 11908014
0.78382874 0.074698061 0.24479873 10394004
0.78336698 0.084614046 0.24478592 13618370
0.78725803 0.095025927 0.24496152 15262424
0.78900003 0.10184405 0.24008258 15329763
0.79178274 0.10518955 0.24503955 12697785
0.78799999 -0.15316597 0.25453556 11842733
0.79050004 -0.15819985 0.25603861 9934739
0.78306895 -0.144509 0.2551524 12369075
0.7816999 -0.13516393 0.25524479 12697783
0.78234285 -0.12533231 0.25532493 12368305
0.78364027 -0.11531989 0.25496146 12894650
0.78310031 -0.10515887 0.25478658 13091257
0.78300017 -0.095063254 0.25475404 12237232
0.78205538 -0.08487884 0.25536191 12433326
0.78260028 -0.074861571 0.25553831 12170926
0.78191674 -0.064730905 0.25531447 12170413
0.77900016 -0.053241491 0.25649199 12236203
0.78060001 -0.055788469 0.25275442 12302511
0.77900004 -0.045338988 0.25527623 12368049
0.77846658 -0.035286676 0.25510225 11381924
0.77696019 -0.025212985 0.25460786 11512735
0.77663368 -0.015202277 0.25450164 11841956
0.7776401 -0.0052077365 0.25483036 12038309
0.7790001 0.0015786258 0.25610518 12037797
0.78095835 0.0065010455 0.25439361 11840932
0.78251737 0.014783203 0.2553539 11775395
0.78230536 0.024976505 0.25544256 11249824
0.78203321 0.035037879 0.2553544 11316388
0.78277802 0.045151226 0.25559556 11643557
0.78289688 0.055110428 0.25547612 11381930
0.7825557 0.065287158 0.25552207 12565945
0.77866679 0.076356374 0.25683734 10327953
0.78150004 0.074347794 0.25345078 9999503
0.77875006 0.080923147 0.25747275 11907755
0.78188461 0.084947065 0.2548117 13947080
0.78703231 0.094880104 0.25499439 15460317
0.79266667 0.10502892 0.25519088 11908014
0.78776473 -0.15292175 0.26487362 12237492
0.79090905 -0.15796684 0.26523778 10263703
0.77900004 -0.14085282 0.26690206 12434099
0.78200012 -0.14550753 0.2644529 12303284
0.77900004 -0.1383453 0.26804185 12434098
0.7806958 -0.13467149 0.2647309 12565940
0.78193533 -0.12498976 0.26521322 12170156
0.78210014 -0.11509384 0.26452917 12565426
0.78258342 -0.10508808 0.26469335 12893877
0.78266698 -0.095023245 0.26472148 12303282
0.78176647 -0.084848322 0.26533255 12893364
0.78160006 -0.074766614 0.26527557 12697012
0.77899998 -0.063575521 0.26882342 12235433
0.78034788 -0.065672338 0.26429507 12235435
0.77879989 -0.055225585 0.26536813 12301997
0.77806664 -0.045285296 0.2649855 12170412
0.77777779 -0.035253696 0.26488742 11514020
0.77706695 -0.025216384 0.26464757 11184285
0.77700025 -0.015209567 0.26462519 11710117
0.77746683 -0.0052078078 0.26478365 11907242
0.77870369 0.0034941132 0.26550901 11907243
0.78012508 0.0086993827 0.26409101 12038571
0.78173071 0.015035666 0.26510939 12169900
0.7821331 0.024972236 0.26545852 11907497
0.78244013 0.035055958 0.26556355 11645608
0.78209978 0.045110125 0.26544708 11841446
0.78161538 0.055287722 0.26506943 11250338
0.77900016 0.068008058 0.26663902 12697786
0.78109998 0.063610904 0.2644667 11776942
0.77710027 0.074836627 0.26465759 10525331
0.77757704 0.083639212 0.26559049 13684679
0.78125006 0.088270374 0.26447165 14605269
0.78600001 0.095441893 0.26459175 15328734
0.78876919 0.10323507 0.26614732 11579048
0.79052949 0.10748516 0.26460439 11645098
0.78721744 -0.15375037 0.27543584 11381926
0.7906 -0.15854359 0.27277201 9473930
0.78230453 -0.14466773 0.27499366 12105133
0.78112501 -0.13491239 0.27441308 12236975
0.78139997 -0.12505159 0.27435696 12696756
0.7813201 -0.11497921 0.27432913 12302254
0.78149992 -0.10477135 0.27473271 12762036
0.78110003 -0.094833128 0.27516237 12302770
0.78072238 -0.084734187 0.27502987 12301741
0.77900004 -0.070870131 0.27533641 12105901
0.78059274 -0.075076774 0.2748833 11974317
0.77900004 -0.06539917 0.27533644 12039338
0.78000003 -0.069135115 0.27021191 13158844
0.77886659 -0.055360392 0.27528945 12499376
0.7776401 -0.045261431 0.27485675 12564402
0.77693361 -0.035215542 0.27460587 11710633
0.77700019 -0.025213905 0.2746295 11053472
0.77706695 -0.01521103 0.27465338 11315875
0.77700019 -0.0052052285 0.27462947 11382185
0.77837938 0.0046528419 0.27524197 11579051
0.78000003 0.009382627 0.2711249 12038317
0.77900004 0.012561991 0.27852783 10855332
0.78057694 0.015224194 0.27434608 11578280
0.78177768 0.024961574 0.27540109 11052189
0.78251863 0.034856409 0.27515322 11250594
0.78209984 0.04510982 0.27460068 11972775
0.77900004 0.058609232 0.27898374 12698554
0.78075874 0.054959185 0.27488574 11973804
0.77781492 0.06586799 0.27572492 12171443
0.78037506 0.061681088 0.27239636 11448749
0.77570969 0.074879445 0.27522597 10657431
0.77514279 0.084760569 0.27474776 14276303
0.77643746 0.092953175 0.27624482 15394784
0.78342116 0.096976995 0.27342018 14933722
0.78806257 0.10345422 0.27519366 11579305
0.79030001 0.10848758 0.27563089 11448233
0.78900003 -0.16043893 0.28256503 9737358
0.78811109 -0.15479285 0.28518689 10263703
0.78736001 -0.14528604 0.28559515 11052961
0.78668195 -0.13510412 0.28450224 11381412
0.78638107 -0.12519041 0.28426301 11907755
0.78648001 -0.11485382 0.28513041 11907759
0.78499991 -0.10508236 0.28488863 12434101
0.78324997 -0.095096655 0.28509432 12368562
0.78187513 -0.084860303 0.28459156 11973034
0.78140002 -0.074748188 0.28441876 11841448
0.77900004 -0.064715296 0.28149125 11250082
0.78158826 -0.064969517 0.28647888 12105134
0.77900004 -0.056280911 0.28141528 11316134
0.78164703 -0.054104149 0.28650117 11908527
0.77870005 -0.044228509 0.28197557 12104365
0.78137493 -0.045820627 0.28703922 11776428
0.77791315 -0.035062276 0.28303054 11710379
0.78033346 -0.035370115 0.2882908 12368820
0.7779566 -0.025006875 0.2837595 11383209
0.78000003 -0.028050251 0.28847185 12828600
0.77811766 -0.015018344 0.28477761 11449261
0.77733356 -0.0052073058 0.28475782 11777972
0.77819431 0.0048082788 0.28507316 11777716
0.77899998 0.01463893 0.28499508 11974322
0.78000003 0.017599601 0.28847185 12434355
0.77900004 0.023351938 0.28607574 11118238
0.78018183 0.025407804 0.28447044 11776168
0.77900004 0.031254437 0.28536654 11052190
0.78065389 0.035468716 0.28435329 11118755
0.78105569 0.045050524 0.28428793 11513253
0.77890015 0.056230962 0.28605899 11513511
0.7803334 0.052620038 0.28372294 11512738
0.7769708 0.064605154 0.28488937 11579307
0.77444124 0.07570111 0.28524208 10855583
0.77346677 0.085353166 0.2851488 14671317
0.77535713 0.094514176 0.28513238 14539733
0.78150004 0.099046454 0.28079325 12039602
0.78694451 0.10465286 0.28520295 11513769
0.79057139 0.10892146 0.28418428 11448233
0.79290909 -0.14503461 0.29519227 10592668
0.79290479 -0.13497932 0.29431114 10000530
0.79278946 -0.11520072 0.2946724 10000531
0.78900003 -0.10354938 0.29216978 9013893
0.79186672 -0.10590445 0.29644698 9737102
0.78823525 -0.0941801 0.29368973 10657174
0.79033333 -0.095748618 0.29804978 9934223
0.7871905 -0.084777921 0.29376751 10855581
0.79000002 -0.084816694 0.29956782 10328979
0.78724998 -0.075306617 0.29392138 10657690
0.79000002 -0.074644975 0.29956782 9671306
0.78742856 -0.065316513 0.29438251 10394520
0.79000002 -0.064473256 0.29956782 9013635
0.78744441 -0.054944709 0.29511988 10658203
0.79000002 -0.057075635 0.29956782 9539209
0.78645843 -0.044855207 0.29546741 10986655
0.78480005 -0.034654107 0.29484543 10526874
0.78380001 -0.025435859 0.29446998 10329495
0.78325009 -0.01569834 0.29481238 10855325
0.78286666 -0.0052446853 0.29503414 10789789
0.7828182 0.0051676859 0.29568291 10987426
0.77900004 0.018488863 0.2917493 12105388
0.78164989 0.014708392 0.29539859 11250596
0.78158629 0.025049794 0.29467845 11382178
0.78239989 0.035054348 0.29485908 11185060
0.78246677 0.045131084 0.29488385 11119010
0.77900004 0.057241496 0.29220521 11645610
0.78164709 0.054395709 0.29575801 11250596
0.77745014 0.065497637 0.29344553 11776943
0.78060001 0.063479066 0.29783076 9934227
0.77536005 0.075104073 0.2944541 10329753
0.77447629 0.08520662 0.29471961 14211023
0.77661544 0.093534097 0.29407513 14605526
0.78185719 0.097785756 0.29674321 12237237
0.78684205 0.10447847 0.2948817 11382183
0.79000002 0.10937075 0.29494432 11382183
0.79142308 0.11498578 0.29476288 11447976
0.79274994 -0.09508761 0.30455643 10724508
0.78900003 -0.043282349 0.30156341 9473931
0.79147631 -0.045359921 0.30639437 9934992
0.78861547 -0.0343954 0.30245182 9145479
0.79058337 -0.035371672 0.3076556 9803663
0.78866649 -0.024669357 0.30275559 9211272
0.79075003 -0.024733255 0.3081831 9803921
0.78850007 -0.014511732 0.30176845 9144451
0.79128581 -0.014827869 0.3073349 9277065
0.78820008 -0.0052809608 0.3016535 9670538
0.79109091 -0.0049625183 0.30671746 9013894
0.78805876 0.0049216044 0.30360812 9013383
0.79088885 0.0039568129 0.30854556 9540236
0.78744996 0.015001965 0.3050561 8882310
0.78779167 0.025153369 0.30518833 8487291
0.78785008 0.035297897 0.30521056 9079428
0.78776199 0.044778325 0.30504492 9606032
0.78778249 0.054858208 0.305305 10328981
0.78542852 0.064868405 0.30423135 11381672
0.77800006 0.076745547 0.30048138 9539211
0.78459996 0.074456707 0.30634165 8617854
0.77780002 0.084012635 0.30040413 12500405
0.78437507 0.085065655 0.30639169 11579047
0.78655559 0.095393747 0.30491385 12434870
0.79000002 0.09827432 0.30881482 11645355
0.78833342 0.10298898 0.30201229 11184804
0.79161114 0.10609489 0.30635774 11316390
0.79245001 0.015097223 0.31441522 9474443
0.79214287 0.035223477 0.31442481 9408650
0.79189998 0.044749785 0.31419581 9342857
0.79220825 0.05496572 0.31431857 9342600
0.78900003 0.065826312 0.31027099 10789277
0.79180962 0.064956531 0.31579283 9539979
0.788625 0.075948171 0.31243148 9671566
0.79118758 0.074807025 0.3169207 9803665
0.78880006 0.085199818 0.31203896 10066323
0.79166675 0.08551053 0.31688148 10658717
0.78900003 0.091685206 0.31027099 11249827
