# .PCD v0.7 - Point Cloud Data file format
VERSION 0.7
FIELDS x y z rgb
SIZE 4 4 4 4
TYPE F F F U
COUNT 1 1 1 1
WIDTH 914
HEIGHT 1
VIEWPOINT 0 0 0 1 0 0 0
POINTS 914
DATA ascii
0.42138907 -0.13396807 -0.041945424 15065051
0.42353332 -0.12480052 -0.042970512 14275018
0.42492974 -0.11490539 -0.043004192 14012362
0.42503834 -0.10499063 -0.042920236 14340039
0.42499998 -0.095008142 -0.042628251 14078154
0.42606387 -0.084916599 -0.042782269 14144464
0.42745104 -0.075338863 -0.042853408 14013903
0.42786369 -0.065515362 -0.042203669 14669520
0.42754173 -0.055264395 -0.042141158 14341065
0.42796177 -0.045057215 -0.04198315 13618374
0.43000001 -0.040126223 -0.044311475 12104107
0.42899999 -0.03835908 -0.040860772 14341838
0.43006262 -0.033944111 -0.042724222 14079438
0.43071422 -0.024777904 -0.042694103 13355201
0.43282604 -0.014237317 -0.042423423 13025982
0.43418181 -0.0067415279 -0.042154524 12237492
0.43583336 0.0026928845 -0.040831428 11842991
0.4205834 -0.14144035 -0.034687027 15789799
0.41900012 -0.13220222 -0.031162068 16645620
0.42052272 -0.13557255 -0.035473052 16250607
0.41900003 -0.1293413 -0.030916844 16776693
0.42091677 -0.12491239 -0.035075661 14539474
0.42236927 -0.11489327 -0.035226654 14406864
0.42373827 -0.10487085 -0.035139043 14406864
0.42422986 -0.09470576 -0.035277151 13882060
0.42471957 -0.084871948 -0.035318021 14209740
0.4248772 -0.075039141 -0.03524103 14210511
0.42505285 -0.064921625 -0.035061881 14145231
0.42524981 -0.055189468 -0.034973927 14079180
0.42555526 -0.045189518 -0.034892 14078154
0.42656171 -0.035360917 -0.034932803 13880776
0.43000001 -0.030563165 -0.039278284 13026238
0.42750007 -0.025849573 -0.03405083 13487045
0.42999998 -0.023780344 -0.03831958 13092545
0.42845458 -0.016850056 -0.031691615 12829888
0.43065161 -0.014643359 -0.036193881 13618376
0.43270513 -0.0054634726 -0.034874059 13289412
0.43510473 0.0043262159 -0.034631096 12763067
0.43851835 0.014155985 -0.033365685 12566462
0.44000003 0.017947638 -0.035630096 12566205
0.43900001 0.020696336 -0.030851027 12039345
0.44148281 0.025095917 -0.03359146 12697274
0.44447231 0.033390526 -0.032157309 13157311
0.44900003 0.043066055 -0.030853042 13224641
0.45087504 0.047514498 -0.03102597 12895419
0.45240003 0.051830132 -0.031157369 12961469
0.42010352 -0.14155154 -0.025250863 15065306
0.41899997 -0.13251284 -0.027352959 16447474
0.42000005 -0.13601297 -0.024093995 16052202
0.41900009 -0.12875277 -0.027581831 16249580
0.42056012 -0.12446424 -0.024868207 14077639
0.42175755 -0.11472594 -0.025093487 13814984
0.42377558 -0.10488012 -0.025412379 13617605
0.42454967 -0.094777144 -0.025360532 13157825
0.42447978 -0.084824301 -0.025358398 13289408
0.42407981 -0.074819647 -0.025336033 13224387
0.4227941 -0.064832494 -0.025370615 13421507
0.42196134 -0.054846559 -0.025114471 13618115
0.41900003 -0.040571071 -0.020617537 12961215
0.42154098 -0.044844899 -0.025280887 14144715
0.41900003 -0.039099738 -0.020617537 12500918
0.42196912 -0.034813032 -0.025284545 14012616
0.42341006 -0.025134701 -0.025305392 13421253
0.42548871 -0.015296845 -0.024927907 13815497
0.42753857 -0.0062022125 -0.023890184 13354950
0.43021438 -0.0030611511 -0.027356828 12696248
0.42899999 0.00094239862 -0.020507023 13684942
0.43196821 0.0048937663 -0.025019942 12500667
0.4354848 0.014894559 -0.025030242 12696247
0.4384599 0.023156904 -0.023978803 12238009
0.44056749 0.026848473 -0.026531035 13159372
0.44376671 0.034954716 -0.024958799 12698049
0.44782853 0.044765264 -0.024691543 13093061
0.45036361 0.048452783 -0.028487327 13487556
0.44899997 0.052325893 -0.022093732 13553356
0.45088536 0.055363156 -0.025286283 13355717
0.45312777 0.064249769 -0.022567505 13750729
0.45703331 0.07472983 -0.021632832 13618116
0.45900005 0.081947073 -0.02110832 12829630
0.46000001 0.084862642 -0.021199176 12698300
0.42128572 -0.14124748 -0.015866041 15789029
0.42078495 -0.13501984 -0.015438852 15920359
0.42102763 -0.12503752 -0.015294989 14078668
0.42293659 -0.11470948 -0.015363388 13618119
0.42467964 -0.1047464 -0.015429185 13749446
0.4249796 -0.094874136 -0.01544011 13354687
0.42432979 -0.084797457 -0.01541887 13420222
0.42260662 -0.074845716 -0.015483968 13223871
0.41880006 -0.062219463 -0.011392044 12763576
0.42082566 -0.065504245 -0.015600245 13224128
0.41795072 -0.054385699 -0.013511234 13223615
0.42026836 -0.056328762 -0.017969051 13683652
0.41738936 -0.045017805 -0.014939045 13487045
0.42000002 -0.047058877 -0.019683514 13551293
0.41710457 -0.0350357 -0.01495986 13552065
0.41999999 -0.031327236 -0.019683514 12696496
0.41750661 -0.025275487 -0.014071548 13224386
0.42040011 -0.023482636 -0.018600579 12697787
0.41847065 -0.017785355 -0.012006009 13553095
0.42144597 -0.01458773 -0.015976029 13223617
0.42406169 -0.0054241261 -0.015276164 13092289
0.42720902 0.0036362812 -0.014188352 12632769
0.4301154 0.0076914476 -0.016711416 12895684
0.42900002 0.010181929 -0.010062338 10262932
0.43255553 0.014877553 -0.014753686 12697018
0.43689793 0.025115585 -0.014771111 12827832
0.4390001 0.031854294 -0.012205488 13419454
0.44141036 0.035733655 -0.015601594 12631482
0.44494441 0.044939578 -0.015126811 13092290
0.44832507 0.054278843 -0.014859868 12960705
0.45014289 0.058706708 -0.017634144 12961479
0.44900003 0.060409486 -0.011757746 12369079
0.45193335 0.0649997 -0.015075645 13421514
0.45551854 0.074801296 -0.014954552 13881291
0.45855168 0.083863251 -0.014273992 13880777
0.46034998 0.088035032 -0.016726056 13947595
0.45900002 0.090408966 -0.010765998 13882574
0.46133965 0.094274364 -0.014002409 13751247
0.46200001 0.10127461 -0.011377137 14671065
0.42340741 -0.14138469 -0.0053710309 15920359
0.42275029 -0.13503774 -0.0048814686 15789029
0.42237544 -0.12503861 -0.0050403071 14341839
0.42440465 -0.11511039 -0.0049845031 13617602
0.4249723 -0.10482077 -0.0049932329 13552323
0.42449501 -0.094893366 -0.0051011224 13420480
0.42267993 -0.085059889 -0.0049036974 13420478
0.41877785 -0.072194137 -0.0012721334 13092028
0.42089009 -0.075723499 -0.005619233 13420220
0.41735709 -0.064413413 -0.0044791289 13157562
0.4201667 -0.068799466 -0.0084620481 13025206
0.41498202 -0.054758426 -0.0048848195 13091772
0.41346356 -0.044876136 -0.0048687723 13092801
0.41321644 -0.03512593 -0.0049097012 13814721
0.41365823 -0.025000272 -0.0048307599 13092800
0.4160561 -0.015071106 -0.0047702217 13158078
0.41999999 -0.0110072 -0.009523497 13159365
0.41781637 -0.0066486932 -0.0025362242 13158338
0.42106569 -0.0041430281 -0.0068728998 13289670
0.42409322 0.0045161922 -0.0048517077 12632512
0.42755106 0.01243825 -0.003475222 12367023
0.43068635 0.016906245 -0.0055772983 12499896
0.43436992 0.025062706 -0.0046018749 13223360
0.43837687 0.033725023 -0.0039588059 13092033
0.44037923 0.03796817 -0.0061004758 13355201
0.44336683 0.044780664 -0.0046945899 13027267
0.44717768 0.054589067 -0.004734715 13092549
0.44900015 0.061178043 -0.0045977188 13157315
0.45101699 0.066183947 -0.0048523438 13683398
0.45392209 0.074534833 -0.0048031169 13486277
0.45703354 0.084678859 -0.0048379558 13618120
0.45895222 0.092318386 -0.0039605997 13421254
0.46027067 0.097057723 -0.0056565381 13619404
0.46121743 0.10131497 -0.0053765653 13684427
0.42490011 -0.14170654 0.0058504487 15394015
0.42354169 -0.13502266 0.0053117392 15723236
0.42296025 -0.12511533 0.0054278439 14801618
0.42447242 -0.11512937 0.0054450263 13551294
0.42432967 -0.10480198 0.0053341212 13355459
0.42265612 -0.095012777 0.005530287 12894904
0.41872731 -0.081225388 0.0086245574 12236714
0.42102265 -0.085548416 0.0049950834 12828857
0.41740698 -0.074507348 0.0055682911 12828599
0.42022228 -0.07867346 0.0019482619 13092798
0.41487515 -0.065145753 0.0053971387 12894905
0.4086923 -0.051974531 0.0085918102 12697270
0.41185218 -0.055571295 0.0047429274 13223358
0.40824273 -0.044482563 0.0066689327 13222586
0.41061112 -0.046141967 0.0025171076 13289923
0.40795001 -0.035262726 0.0065079294 13485502
0.41034609 -0.034486596 0.0017542533 13880516
0.40822247 -0.025639256 0.0069115004 12567486
0.41085705 -0.023932973 0.0024991585 12895680
0.40876919 -0.018343087 0.0087409122 13222583
0.41207683 -0.014523839 0.0049056872 13158079
0.41539586 -0.0052457396 0.0053624641 12632510
0.41800001 0.0016041531 0.0068277465 11844022
0.42123538 0.0060423189 0.0046622264 12894394
0.42553592 0.014637764 0.0054185847 12697019
0.43000001 0.019265402 0.00098722253 12563629
0.42859995 0.020808617 0.006935969 12699589
0.43182901 0.02563427 0.0047142552 12566977
0.43680239 0.034917682 0.0050893901 12567235
0.4390001 0.040855203 0.007016018 12303545
0.44177154 0.045417681 0.0048983321 12961990
0.44576547 0.054856088 0.0052604862 13158853
0.44893998 0.063162215 0.0056335223 13421252
0.45068568 0.068033367 0.0043796944 13749703
0.45343027 0.075435661 0.0053259372 13552324
0.45563021 0.085016124 0.0053677144 13814208
0.45827276 0.094462506 0.0054388065 13683138
0.46000001 0.098861933 0.0014150547 14143432
0.45900005 0.10021403 0.0066950708 12498613
0.45999998 0.10094388 0.0019175932 14011079
0.42560002 -0.1413426 0.015423699 15262685
0.42447752 -0.13501027 0.015384527 15657184
0.42325011 -0.12520219 0.015338269 14342353
0.4237735 -0.11512881 0.015243536 13355459
0.42269176 -0.10496649 0.0154406 13749700
0.41900003 -0.0904328 0.019271851 11840673
0.42111355 -0.095126003 0.015132247 13222586
0.41768566 -0.084070854 0.015762916 13026236
0.42028576 -0.08813408 0.012911581 12960187
0.41496977 -0.075116836 0.015077497 12631219
0.40873918 -0.062064685 0.017620606 13157563
0.4117792 -0.065658614 0.014074398 12828855
0.40708846 -0.05457633 0.015474869 12763062
0.41028574 -0.05845743 0.011095625 13158079
0.40490156 -0.044989709 0.015215138 13156791
0.40404105 -0.03486551 0.015107177 13092802
0.40479591 -0.024960801 0.015082461 12698556
0.40706223 -0.015370945 0.015516725 13354945
0.41025004 -0.011511629 0.011145791 13816525
0.40866664 -0.0079988567 0.017001918 13091774
0.41193429 -0.0042514172 0.014227512 12960963
0.41633335 0.0044387216 0.01547996 12303545
0.42028576 0.0090619391 0.01248992 12433586
0.41900003 0.010925475 0.01910837 12500158
0.42293671 0.015061819 0.015165463 12566720
0.42717549 0.022493409 0.015818518 12370882
0.4306809 0.027277878 0.013728359 13159111
0.43434417 0.034884401 0.014833367 13092032
0.43841657 0.04248029 0.015116979 13157309
0.44093883 0.047607724 0.014471424 13157569
0.44437781 0.055285703 0.015061864 13289927
0.44838157 0.064523742 0.015433834 13355206
0.45007136 0.069308825 0.013977295 14014164
0.45259741 0.075328812 0.014875433 13486536
0.45482719 0.085332684 0.014886255 13223107
0.45775017 0.094987765 0.014981581 13355203
0.45900002 0.10007972 0.011799075 11775664
0.42500013 -0.14142704 0.025706928 15459550
0.4239777 -0.13485338 0.025288539 15459291
0.42228034 -0.12491659 0.025186012 14473167
0.42202041 -0.11496203 0.025169391 13288123
0.41900003 -0.10122255 0.029080717 14605009
0.42088303 -0.10504036 0.024862571 13486530
0.41794363 -0.094332904 0.025955021 12894135
0.4202728 -0.097401522 0.022206862 12893362
0.41550013 -0.084954269 0.02499312 12631220
0.40859997 -0.071927615 0.028358281 12039339
0.41216847 -0.075511865 0.024435012 12894134
0.40700018 -0.064722337 0.025166128 12630961
0.41022226 -0.06879814 0.021641877 13157308
0.40329808 -0.054999612 0.02519233 12565169
0.39869457 -0.04363535 0.028215008 13618373
0.40093237 -0.045204382 0.02369545 12763578
0.39844444 -0.035481468 0.028336894 13093057
0.40041173 -0.03482813 0.023345144 12501436
0.39857149 -0.026562348 0.028706213 12829368
0.40082809 -0.024749825 0.02424321 12829885
0.40340713 -0.015071132 0.025138168 12960701
0.40721235 -0.0054857135 0.025156375 12763583
0.41063643 -0.0017017069 0.021391345 12041405
0.40877774 0.00087711465 0.028583579 12960706
0.41329724 0.0052708485 0.024782505 12698046
0.41772091 0.012872732 0.02606291 12435393
0.4213036 0.017223766 0.024319327 12304836
0.42606813 0.024844665 0.025354533 12631997
0.43000004 0.028996231 0.021287749 13354946
0.42900002 0.030267864 0.028100938 11447207
0.43235049 0.035210498 0.024666343 13026756
0.43748087 0.044731922 0.025465604 12895940
0.44009095 0.048939589 0.02236452 12369081
0.4431164 0.055011973 0.025173834 13289410
0.44808644 0.065187268 0.02515386 13552582
0.44900003 0.070570283 0.02783433 13157315
0.45199993 0.07542821 0.024827382 13487046
0.4545556 0.085280508 0.024985192 13618116
0.45714769 0.093994007 0.024503525 13092030
0.42507416 -0.1410937 0.034699745 15722978
0.4238556 -0.13481575 0.035206415 15196377
0.42106086 -0.12460177 0.034928497 14209480
0.41881821 -0.11172648 0.038129687 14670546
0.42067081 -0.11541 0.034447033 13288891
0.4177613 -0.10435624 0.035406381 13092542
0.42007697 -0.10849275 0.031903692 13224386
0.41548043 -0.095047474 0.034873642 12697015
0.40879998 -0.081788063 0.038133897 12630448
0.41210353 -0.085721307 0.034473367 12499891
0.40706411 -0.074416183 0.03545798 12302769
0.41054547 -0.078764848 0.031958919 12566199
0.40328988 -0.065039158 0.03520887 12630963
0.39778131 -0.053621519 0.036804751 12434612
0.4006938 -0.056824356 0.033326793 12302512
0.39644223 -0.045021448 0.035339575 12564913
0.39546272 -0.035052255 0.035152569 12959670
0.39625609 -0.024913054 0.035224751 13157307
0.39768848 -0.016306737 0.037126321 12828859
0.40084735 -0.013671848 0.032648075 13091772
0.40351811 -0.005056499 0.034923878 12698305
0.40744308 0.0028752834 0.035867732 12894911
0.41155317 0.0078028841 0.034089051 12566713
0.41587099 0.014559456 0.035265539 11908790
0.42050004 0.019191589 0.032746233 12960707
0.41900003 0.02073434 0.038726099 14276050
0.42354336 0.025226474 0.035141811 12894913
0.42765126 0.032200623 0.035809588 12567489
0.43129313 0.036857851 0.033993095 12763325
0.43635556 0.045098633 0.035219461 12829631
0.4390001 0.051077928 0.036014155 12368821
0.44185519 0.055947192 0.034591965 12894651
0.44653323 0.064966001 0.034995977 13618374
0.44900006 0.071529992 0.036586024 13946824
0.45146772 0.076230213 0.034480207 13814987
0.45409873 0.085193962 0.035059106 13420739
0.45605406 0.092686825 0.034745615 13027008
0.42537937 -0.14137265 0.045720089 14802135
0.42346916 -0.13513388 0.04503008 14867157
0.41900009 -0.12051333 0.046082754 12500148
0.42057601 -0.12568879 0.044714831 14604752
0.41793975 -0.11465503 0.045161657 13156536
0.42000005 -0.11855357 0.040714748 11643302
0.41581017 -0.10511551 0.04489873 12959415
0.40885714 -0.091343172 0.048795443 11184549
0.41234779 -0.095228441 0.044686209 12762035
0.40745866 -0.084617667 0.045265451 12170412
0.41030008 -0.088235386 0.04128335 12170414
0.40348122 -0.074891627 0.04521399 12367792
0.39769819 -0.063095815 0.046494983 12170926
0.40085706 -0.06655062 0.043279856 12038054
0.39500877 -0.055009034 0.045227818 12697012
0.392463 -0.044896547 0.044994988 12959668
0.38899997 -0.033871822 0.048930198 13882059
0.39171055 -0.034873866 0.044343244 12761778
0.38900003 -0.028407885 0.049006086 13618372
0.39223054 -0.024551334 0.044809684 12762807
0.39499187 -0.014591558 0.045192286 12829374
0.39778578 -0.0075183646 0.046095852 13027269
0.40061185 -0.0034933612 0.0440435 12172220
0.40496561 0.0047310535 0.04516029 12500928
0.41025001 0.0094969599 0.041038249 13357520
0.40863636 0.011177287 0.047898781 11711670
0.4136875 0.01558033 0.04466537 12236982
0.41760975 0.022240993 0.046021786 12697791
0.42189065 0.026963338 0.044329844 12764352
0.42681432 0.034245551 0.045281872 12960958
0.43009996 0.038803335 0.043980133 13158595
0.43391106 0.044845909 0.045179769 12763581
0.43820593 0.051737696 0.045053694 13553353
0.44140825 0.056959212 0.044455733 13158081
0.44515735 0.064716801 0.045256048 13486534
0.44874999 0.072917663 0.045655105 13552582
0.45063153 0.077629663 0.044008106 13552839
0.45332205 0.085049838 0.045080476 13157825
0.45414829 0.091461904 0.045302633 12565687
0.42510724 -0.14110748 0.055425901 15722978
0.42298752 -0.13503562 0.054937482 14867157
0.41860721 -0.12176565 0.056607656 12038313
0.420481 -0.12641157 0.05429484 14932434
0.41670972 -0.115035 0.055141635 12959672
0.41284603 -0.10498594 0.054925121 12893880
0.40780622 -0.093672357 0.05593371 12368306
0.41082856 -0.097609639 0.05304049 13025981
0.4043054 -0.084937379 0.054896589 12302255
0.39785424 -0.072812274 0.056502059 12499892
0.40084991 -0.076867871 0.054107491 12038826
0.39507613 -0.06502115 0.054915413 12301999
0.389 -0.052145649 0.058537621 12893873
0.39166957 -0.055332739 0.054489214 12105646
0.38813263 -0.044734001 0.0561831 12894392
0.39046434 -0.046624236 0.051529326 11975091
0.38709113 -0.035216808 0.054795958 12567228
0.38739693 -0.025430758 0.055063277 12369850
0.39025003 -0.021456022 0.050572075 12499123
0.38841513 -0.017063215 0.057333559 12895941
0.39146668 -0.014117324 0.053485043 12763581
0.39511755 -0.0054642148 0.055276405 12632513
0.40000001 -0.0011189753 0.050860062 12237499
0.39805263 0.0014054076 0.057951055 12895941
0.40255341 0.0054762331 0.054470632 12501185
0.40719607 0.012489996 0.055488072 12368827
0.41196001 0.017437777 0.053907875 12499897
0.41595411 0.024118654 0.055569384 12698048
0.42065006 0.028645407 0.05276183 13156801
0.42438704 0.034931894 0.055052515 12566719
0.43000001 0.039398156 0.050312471 13816524
0.42783335 0.041037079 0.057289585 13027010
0.43218181 0.045519408 0.05475736 13157826
0.4374117 0.053651236 0.055393565 13223877
0.44029161 0.058207478 0.053920105 13486276
0.44364718 0.064848304 0.055144057 13552068
0.44801259 0.074431658 0.055105574 13224390
0.45000002 0.078803964 0.051774699 12829889
0.44900003 0.080450788 0.059052508 14080207
0.45192304 0.08493875 0.054840576 13421767
0.45411116 0.091100067 0.052424278 13092029
0.42399999 -0.14159738 0.065615095 14670034
0.41900009 -0.13069002 0.068030089 16182758
0.42171612 -0.13534558 0.064664751 14867155
0.41748136 -0.12461636 0.06533853 14209226
0.42045459 -0.1290748 0.061721958 16051171
0.41494241 -0.11507605 0.064901561 12169900
0.40851229 -0.10198632 0.066153966 11645096
0.41135091 -0.10654095 0.064449534 12170671
0.40566024 -0.0948883 0.065067552 12367790
0.39825004 -0.081623293 0.067805409 12169640
0.40175003 -0.085605167 0.064350672 12105134
0.39589804 -0.074847445 0.065184526 12104619
0.40000001 -0.079465047 0.061784808 12565428
0.38878945 -0.06200505 0.067812592 11776426
0.39186049 -0.065833189 0.06422513 12236204
0.38759175 -0.054903187 0.065267265 12104360
0.39000005 -0.058191359 0.060810816 13157561
0.38463041 -0.044839863 0.065178603 12696243
0.3831135 -0.034855679 0.064996205 12894391
0.38306046 -0.024982601 0.064985931 12764096
0.38543841 -0.015247717 0.065063417 12895683
0.39000002 -0.010829636 0.06024019 11183523
0.38815224 -0.00785302 0.066904806 12830404
0.3918809 -0.0040066033 0.063976705 12369602
0.39635134 0.0035493721 0.065589704 12171707
0.40072724 0.0081482157 0.06382636 11974329
0.40474772 0.014757198 0.065101862 12566973
0.41 0.019009216 0.060769927 12829115
0.40837497 0.021045618 0.067737795 12369592
0.41382983 0.025447845 0.064698584 12633281
0.41784003 0.03163356 0.06668967 12829889
0.42229995 0.03610554 0.064596817 12895680
0.42705673 0.043074809 0.065621577 12961219
0.43085715 0.047692385 0.064098857 12829887
0.43592137 0.055282731 0.065078974 13026752
0.43895012 0.061797697 0.06728702 13487043
0.44194376 0.066188544 0.064281195 13749959
0.44564363 0.075121932 0.065304622 13618376
0.44880566 0.082418524 0.065382451 13224134
0.45065007 0.086603217 0.063382857 12960441
0.45200002 0.090088323 0.060822651 11250080
0.42324999 -0.14130555 0.074290454 14867671
0.4186191 -0.13076422 0.075159989 15327962
0.42133343 -0.1360262 0.07494206 14472398
0.4160423 -0.12454703 0.074777916 13617345
0.41299984 -0.11512026 0.074961588 12564659
0.40740928 -0.10448263 0.07559479 12695727
0.4107143 -0.10858468 0.071817271 12827316
0.39866671 -0.090710945 0.078999944 13222582
0.40314281 -0.095266342 0.0749164 12301998
0.39645639 -0.084275424 0.075525373 12564141
0.40022728 -0.088496618 0.072508685 12564653
0.38890907 -0.071716458 0.078445703 11709606
0.39240944 -0.07546106 0.074629642 11907498
0.38774148 -0.064867608 0.075371876 12039085
0.39025003 -0.068620801 0.071241207 12104620
0.38428783 -0.055010267 0.074967898 11907498
0.3784546 -0.042163324 0.078188971 11578277
0.38142607 -0.045533817 0.074397296 12302000
0.37701106 -0.034810264 0.07702478 7895670
0.38062271 -0.035048291 0.072122537 12498606
0.37679398 -0.025255265 0.076942667 8552830
0.38054901 -0.024401197 0.072037399 12434356
0.37850007 -0.017524282 0.07832595 12171444
0.38181645 -0.014484162 0.074287623 12697530
0.3854959 -0.0054290397 0.075258121 12763584
0.39033332 -0.0013960056 0.070952296 13159629
0.38850003 0.0013255078 0.077824488 12565178
0.39357683 0.0052957791 0.074276522 12499896
0.39754546 0.012123349 0.076566808 12500669
0.40174681 0.016423056 0.074408621 12500670
0.40711311 0.023041228 0.075638697 13027524
0.41174418 0.027326584 0.073929451 12370109
0.41585141 0.03321496 0.075211473 13027011
0.42096788 0.038349252 0.073794506 13027270
0.42502189 0.044693429 0.075317517 12829633
0.43000004 0.049128991 0.071619637 12500662
0.42900002 0.050604872 0.078566849 12960960
0.4328315 0.055037525 0.074762121 13355461
0.43785474 0.063400239 0.075646341 13683909
0.44044825 0.067947023 0.0734348 13420994
0.44339094 0.074777499 0.075068228 13027011
0.44701958 0.083025075 0.074829273 13093060
0.42234379 -0.14162061 0.0853163 14933718
0.4177857 -0.13227388 0.085881494 14801619
0.42098114 -0.13711327 0.084418282 14341323
0.41428575 -0.12491512 0.085242502 13617343
0.40832567 -0.11270953 0.086699411 13354688
0.41144997 -0.11683501 0.083777867 11578019
0.40482563 -0.10489038 0.084941924 12367536
0.39746666 -0.092936866 0.085876867 12170157
0.40108511 -0.097302906 0.083923385 12498863
0.38900003 -0.080193855 0.088133939 10393226
0.39352342 -0.085102119 0.084981374 12038569
0.38761389 -0.074259974 0.0854709 12367534
0.39055556 -0.078250125 0.082064696 12367020
0.38435987 -0.064998001 0.084927835 12630963
0.3786957 -0.052183509 0.08813443 12631737
0.38135234 -0.055646703 0.084535062 12302257
0.37718582 -0.04440314 0.085348152 10854552
0.38033339 -0.048550725 0.081648469 12630704
0.37209779 -0.034762528 0.084863022 2896429
0.37200001 -0.024764907 0.084705517 3290933
0.37691045 -0.015349815 0.085277602 12039599
0.38033336 -0.011352214 0.081005722 12960962
0.37851736 -0.0079126535 0.087554745 12433585
0.38183501 -0.0044610966 0.084193066 12434102
0.38640541 0.0041759689 0.085630476 12499640
0.39128575 0.0081108417 0.081984408 12040117
0.38880005 0.010320136 0.088816121 11051677
0.39486188 0.014715149 0.085310012 12894653
0.40027276 0.018956335 0.082015239 13158080
0.398375 0.021229807 0.088461958 11908531
0.40437737 0.025247946 0.084901057 12895167
0.41050002 0.02968364 0.081424892 13421769
0.4085333 0.031438451 0.087713078 13223874
0.41370738 0.035223067 0.084816903 13158338
0.41823533 0.040854868 0.086945117 12960962
0.42267475 0.045543876 0.084823869 13158341
0.42748782 0.052082293 0.085676461 13027012
0.43123335 0.056945857 0.084591731 13420485
0.43617442 0.064717166 0.084855199 13355718
0.44000003 0.069155738 0.080323875 12631734
0.4390001 0.070586838 0.087428682 13685972
0.44205078 0.075158045 0.084586002 12895683
0.44558534 0.082273751 0.084876053 13158596
0.41881827 -0.14087237 0.097224005 15130070
0.4206073 -0.14274345 0.094963074 14209484
0.41572097 -0.1345737 0.095259309 14537933
0.4201667 -0.13888213 0.09112934 14801106
0.40855178 -0.12272002 0.097602323 11642525
0.41163373 -0.12565869 0.093831107 13814722
0.40616509 -0.11486791 0.095438659 12499634
0.41016671 -0.11909285 0.091520749 11775392
0.39783341 -0.10250559 0.097211048 12104105
0.4015696 -0.10605672 0.094008334 12695985
0.38900003 -0.090332486 0.098940395 11181973
0.39463159 -0.095011458 0.095018543 12235949
0.38788608 -0.083809204 0.096207112 11841192
0.3916586 -0.087068297 0.092739664 11775659
0.3837752 -0.074905731 0.095138758 12368050
0.37845102 -0.063042074 0.097663097 12828602
0.38121593 -0.065838605 0.093542524 12630965
0.3776238 -0.05461897 0.095183827 12302000
0.3801429 -0.058993258 0.091135725 12498606
0.37532303 -0.044946685 0.094795264 10197396
0.36831319 -0.032895107 0.095801093 2699051
0.370855 -0.037116442 0.09405499 2764586
0.36834615 -0.025831262 0.095903598 2764589
0.37025636 -0.022948332 0.092439227 2830640
0.37482479 -0.01480349 0.095075004 11183776
0.3769373 -0.005410241 0.095124118 11973553
0.3804445 -0.0014600754 0.090924874 12959418
0.37816283 0.0022856495 0.097547509 12171444
0.38237739 0.0057959901 0.094218552 12500155
0.38662505 0.013311106 0.096015759 12500152
0.39205453 0.017118741 0.093409553 12763068
0.39587176 0.023137614 0.095700085 12764097
0.40143591 0.027579371 0.094074525 12566717
0.40614304 0.033130679 0.095933802 12895424
0.41221055 0.037517726 0.093810439 12303545
0.41687045 0.042735096 0.09547013 12829632
0.4216401 0.047597814 0.094300099 12895426
0.42593908 0.054332078 0.095540576 13289669
0.43019998 0.058954619 0.093237832 13552585
0.43415955 0.065200493 0.095003836 13618633
0.43870002 0.072752342 0.095876016 13486791
0.44120407 0.07727357 0.094557442 13092291
0.44375011 0.082038015 0.094118245 12237494
0.41635847 -0.14237331 0.10527571 15262168
0.42000002 -0.14439841 0.10027025 14012104
0.40853846 -0.13148241 0.10820016 15393240
0.41331398 -0.13547951 0.10467331 14472397
0.40623242 -0.12470386 0.10517775 12761264
0.41050005 -0.1291201 0.1013651 15460063
0.39761537 -0.11203686 0.10759702 12433587
0.40201166 -0.11586165 0.1042522 12696499
0.39462367 -0.10462677 0.1050552 12499123
0.40000001 -0.1088058 0.10080177 11906732
0.3874177 -0.093488678 0.10624893 12302258
0.39141306 -0.097063519 0.10294336 12696759
0.38354686 -0.084930599 0.10501521 12499638
0.37832904 -0.07373891 0.10629724 12960445
0.38075507 -0.077098317 0.10299515 12565173
0.37743071 -0.065439552 0.10490307 12631480
0.37481308 -0.054882769 0.10458683 12631479
0.37333092 -0.045313194 0.10479593 9999506
0.36589238 -0.034619022 0.10527974 2501673
0.37040001 -0.039507139 0.10264792 2500391
0.36554915 -0.025214532 0.10512457 2632743
0.37 -0.020668389 0.10045978 2829352
0.36875004 -0.019735314 0.10400415 8880250
0.37297469 -0.014655895 0.10455991 10657436
0.37379435 -0.0050886148 0.10486832 12105652
0.37609988 0.0048144981 0.10528908 12895169
0.38033336 0.0092250751 0.101583 12633283
0.37827277 0.012655419 0.10772261 13355465
0.38277057 0.015997829 0.10418018 13027009
0.38670692 0.022573166 0.10614112 13093318
0.39354792 0.026700338 0.10370164 12698303
0.40000001 0.02915819 0.1001775 11184806
0.39660874 0.031738516 0.10723532 13356230
0.40433761 0.036085542 0.10461031 12895681
0.41050002 0.039533474 0.10040411 9998472
0.40805265 0.041359972 0.10782328 12632506
0.41453412 0.045334727 0.10486622 13026751
0.42033336 0.049008805 0.10149731 13817040
0.41839999 0.051166676 0.10782081 13092544
0.42336163 0.055437706 0.10488193 13487044
0.42753577 0.061978575 0.10638941 13486533
0.43204549 0.066180095 0.10427413 13487044
0.43714446 0.074262708 0.1053677 13158081
0.44000003 0.078573324 0.10166059 12697275
0.43900001 0.080303341 0.10429242 11447976
0.44050002 0.080577731 0.10155337 11908527
0.41278577 -0.14191976 0.11131549 14735825
0.40760002 -0.13350728 0.11276587 14538704
0.41091666 -0.13831061 0.11180893 13880773
0.40354905 -0.12513542 0.11260499 11577765
0.39695239 -0.11442052 0.1127992 12960703
0.40009096 -0.11882114 0.11195027 11380643
0.38900003 -0.10027382 0.11131014 12434618
0.39264104 -0.10605599 0.11183822 12039087
0.38526833 -0.094410248 0.11199269 11710122
0.37899998 -0.081208102 0.11251523 9867662
0.38124999 -0.085675038 0.11165821 11907243
0.37857148 -0.074766211 0.11161827 12565174
0.3804445 -0.071027316 0.11507246 9737875
0.37829545 -0.064104944 0.11229358 12104878
0.38084441 -0.066268288 0.11630448 10262933
0.37601206 -0.054783612 0.1139687 10723483
0.36860004 -0.040609635 0.11198702 4144959
0.3738592 -0.046430163 0.11341739 9079433
0.36369649 -0.034823917 0.11434235 2304550
0.36363921 -0.024921047 0.11440225 2566438
0.36712503 -0.01905592 0.11584435 8027770
0.37386745 -0.013877804 0.11504009 9277580
0.37359142 -0.0051036919 0.11478691 9934998
0.37493551 0.0048406194 0.11468863 10592929
0.37761343 0.01370434 0.11392647 11711667
0.38102552 0.017964441 0.1158519 11448236
0.38552934 0.024824595 0.11483181 13158855
0.39112502 0.029083623 0.11134369 13553356
0.389 0.030405317 0.11700173 13882323
0.39442086 0.0344676 0.11530431 13421771
0.40140906 0.038275536 0.11210196 12961473
0.39809999 0.040669762 0.11815312 13553868
0.4052501 0.0442889 0.11537952 13355976
0.41228577 0.048084702 0.11290105 13355976
0.41576004 0.053608168 0.11599981 13356489
0.42100012 0.0577191 0.11307976 12961473
0.42510977 0.064095631 0.11560848 13159110
0.43042102 0.068552345 0.11304507 13093058
0.42900002 0.070774496 0.11915717 12829116
0.43400002 0.074673101 0.11482669 12895165
0.43900001 0.080303341 0.11097252 11842734
0.359 -0.031749845 0.12758839 2370599
0.36004007 -0.035755821 0.1281319 2633513
0.359 -0.028878393 0.12772846 2501416
0.36027777 -0.024691457 0.12853415 2632489
0.37549999 -0.012677885 0.12112781 8093045
0.37500003 -0.0041856375 0.12132276 8816001
0.37729704 0.0052505061 0.12242497 9673369
0.38000003 0.0099085448 0.12452501 9607066
0.37900001 0.010769716 0.12064831 8689559
0.38262501 0.015040944 0.12324222 10725025
0.3880294 0.022971751 0.12290934 9671823
0.39243141 0.026450343 0.12611669 10132117
0.395127 0.034431189 0.12380687 11184552
0.40054548 0.037041426 0.12861551 8355452
0.39800003 0.040786654 0.12237769 13092807
0.40436009 0.045972362 0.12503602 12632769
0.40854168 0.051659111 0.12650442 13750989
0.41332054 0.056336377 0.12445608 13816783
0.4172647 0.062194377 0.12656379 13816271
0.4226 0.066497147 0.12416014 13750477
0.42689836 0.073384389 0.12589602 13421255
0.43057141 0.075378783 0.12144043 12632767
0.36800003 -0.040801793 0.13696104 7499364
0.37020001 -0.041305333 0.13916664 9340799
0.36470014 -0.034484103 0.13383885 1646875
0.37059993 -0.035709936 0.13931739 1120016
0.36379018 -0.024290746 0.13492957 1907738
0.37 -0.02846398 0.13943774 660236
0.39600003 0.02617678 0.13103126 11184547
0.40208337 0.028683834 0.1350617 9737362
0.39900002 0.030019362 0.13075125 11052700
0.40392002 0.034481768 0.13342673 10461337
0.40786955 0.0438492 0.13220552 9079176
0.41263339 0.046184134 0.13589783 9672341
0.40900001 0.052410692 0.1307728 14079955
0.41371432 0.054693557 0.13419658 10592670
0.421 0.057303447 0.13919196 9539462
0.41785002 0.063918024 0.13323757 13750479
0.42040008 0.067026705 0.13500686 12565949
0.42409676 0.073776625 0.13364922 13421514
0.36425 -0.040979981 0.1464113 5261891
0.37016669 -0.041041821 0.14123328 8813943
0.36437404 -0.035295784 0.14666261 857359
0.37068349 -0.034459796 0.14238438 923151
0.36263925 -0.024693871 0.14586964 1512720
0.37072724 -0.028204745 0.14259082 725772
0.36000001 -0.018611532 0.14821702 6170150
0.42400002 0.0577114 0.14092888 10855577
0.42500001 0.061326019 0.14126125 11709085
0.36096159 -0.041028991 0.15488021 1515288
0.35900006 -0.032215375 0.15897252 857360
0.3604615 -0.036993295 0.15654418 989201
0.35900006 -0.027897896 0.15860009 988434
0.36000004 -0.023480849 0.1582834 1054485
0.34560615 -0.04161492 0.168093 2304547
0.35652944 -0.040830437 0.16518253 724746
0.36075002 -0.041159388 0.16265902 2765354
0.34647796 -0.0349814 0.16797622 2172962
0.35572526 -0.034605492 0.16433242 1514777
0.36025009 -0.037975378 0.16113377 1121553
0.34620446 -0.025093839 0.16809905 2041379
0.35560527 -0.025705652 0.16485536 1448985
0.36000007 -0.024521915 0.1613487 1777945
0.34675002 -0.01916655 0.1674037 2106145
0.35525 -0.019844448 0.165884 1185045
0.33816671 -0.04118875 0.17867619 2567720
0.34179172 -0.04174611 0.17365377 2566949
0.33848491 -0.03645727 0.17793545 2172962
0.34169698 -0.03493268 0.17349701 2239012
0.33886963 -0.024345731 0.17726979 2107170
0.34134844 -0.025189171 0.17345391 2107427
0.33850002 -0.01970122 0.17709327 2238246
0.34060001 -0.019451376 0.1743886 2304811
0.77850008 -0.15101388 0.24873313 13814976
0.78350008 -0.15473682 0.24941413 12499631
0.77622223 -0.14491977 0.24810688 13815746
0.77500004 -0.13556446 0.24826309 13948106
0.77450007 -0.12455075 0.24805987 13356485
0.77466673 -0.11490843 0.24841571 14145743
0.77399999 -0.1066542 0.24820192 13948621
0.78850007 -0.16033725 0.25561938 11051162
0.79466665 -0.16606444 0.2569339 9473670
0.7766 -0.15137359 0.25612429 12497578
0.78357154 -0.15593222 0.25493875 11906212
0.77499998 -0.14489286 0.25486997 12300712
0.7743333 -0.13479824 0.25465238 12433584
0.77413344 -0.12479529 0.25458714 11842475
0.77413899 -0.11482929 0.2545889 11776938
0.77400011 -0.10484225 0.25454375 11382696
0.77480626 -0.095647536 0.25518873 11382184
0.78809094 -0.16226736 0.26479486 9605001
0.79362506 -0.16730495 0.26493815 9342600
0.77566671 -0.1528025 0.26559514 12367791
0.78344446 -0.1584951 0.26467785 11775910
0.7736668 -0.14464344 0.26530012 12696755
0.77361131 -0.13467151 0.26528051 12038826
0.77346689 -0.12468815 0.26523092 11972519
0.77330589 -0.11470512 0.26517585 11644327
0.7737335 -0.10480581 0.26532277 11382185
0.77406681 -0.095608793 0.26507527 11645872
0.78871435 0.12712996 0.26479036 11053223
0.79037499 0.1246858 0.26779285 8487808
0.78563637 -0.1641915 0.27517012 9539725
0.79039997 -0.16886473 0.27381286 9276808
0.7755385 -0.15407565 0.2750189 11710636
0.78100002 -0.15881217 0.27055833 10592667
0.77312011 -0.14454114 0.27506796 12368820
0.77300018 -0.13456534 0.27502537 12039596
0.77300012 -0.12461251 0.27502537 11579300
0.77289683 -0.11480042 0.27486327 12039082
0.77296168 -0.10491013 0.27515072 11315876
0.77346677 -0.094810463 0.2751902 11382181
0.77400005 -0.088534735 0.2735692 11513509
0.76800001 0.068569042 0.27864009 12632256
0.76871437 0.074418306 0.2774851 12764098
0.77000004 0.078962244 0.27636144 11053734
0.76900005 0.082700215 0.27828282 13290184
0.77030003 0.086086683 0.27713007 13355714
0.77336371 0.094070628 0.27811632 11841705
0.77900004 0.10055325 0.27898374 9276807
0.79100001 0.10950918 0.27957779 12961221
0.79353863 0.12493362 0.27476409 9606028
0.79351729 0.13509691 0.27502683 9934993
0.79324996 -0.17523476 0.28501484 9276809
0.78634787 -0.1651088 0.28441644 9539724
0.79000002 -0.16988929 0.28754666 9211016
0.77574998 -0.15336058 0.28508246 12105650
0.78125006 -0.15886301 0.28619277 11841967
0.77270031 -0.14446296 0.28486601 11974577
0.77218753 -0.13498871 0.28444982 11974577
0.77197063 -0.12508447 0.28480849 11776940
0.77156669 -0.1153504 0.28444758 12434867
0.77172208 -0.10543638 0.28450483 12172210
0.77168745 -0.095157415 0.28426555 12171956
0.77100003 -0.089996502 0.28604579 11974576
0.76708341 0.067589417 0.28459314 10395810
0.76825017 0.074888363 0.28502584 10461345
0.76885712 0.083645143 0.28580749 11645355
0.77025002 0.087703489 0.28373846 11512997
0.77325004 0.094385557 0.28506872 12301484
0.77883339 0.10053175 0.28530452 12302257
0.78585714 0.10573671 0.2858167 12434871
0.79000002 0.10937075 0.28199846 13421767
0.78900003 0.11181819 0.28847566 10790047
0.79229623 0.11559843 0.28422198 10987680
0.7938 0.12476394 0.28520852 11250851
0.79480654 0.13458608 0.28524318 11316646
0.78723085 -0.16348392 0.29440656 9473932
0.79057139 -0.16763304 0.29555494 9145223
0.77577782 -0.15291125 0.2948786 12829371
0.78228575 -0.15855157 0.29611784 11579307
0.77166665 -0.14407022 0.29482406 13289922
0.77053344 -0.13503824 0.29489124 12302770
0.77030575 -0.12507987 0.29480344 12104619
0.77065527 -0.11533806 0.29478282 12236205
0.77133334 -0.10538359 0.29429671 12302769
0.77113044 -0.09566357 0.29398462 12434869
0.77000004 -0.089879774 0.29018125 9211271
0.76800001 0.068569042 0.2912254 7830911
0.76888889 0.07644894 0.29406282 9538954
0.77000004 0.074606001 0.2978422 11314847
0.76895005 0.083955102 0.29518616 11973291
0.77000004 0.088576026 0.29468772 12368306
0.77333337 0.094396867 0.2950573 12302769
0.778 0.10042417 0.29501927 11710636
0.78540003 0.10598204 0.29506332 11579050
0.78900003 0.11200289 0.2954945 10855841
0.79058826 0.11674747 0.29489252 10987682
0.79291999 0.12462744 0.29510897 11119268
0.78811121 -0.16230918 0.30397657 9342603
0.79146159 -0.1666422 0.30568069 9474444
0.77675003 -0.1520398 0.30181637 9802896
0.78415394 -0.15592647 0.30610725 9737102
0.77518749 -0.14492799 0.3039352 9670796
0.77504778 -0.13479091 0.30556664 9933708
0.77419055 -0.12506281 0.30522904 10196622
0.77504545 -0.11520945 0.30487049 10722193
0.77522224 -0.10540943 0.30203098 10656402
0.78200006 -0.10775658 0.30843362 10723222
0.77550006 -0.098690756 0.30133125 10656403
0.76866674 0.076027744 0.30647373 8946301
0.77000004 0.077760518 0.30820706 8156011
0.76900005 0.083878554 0.30224243 12631223
0.77050012 0.085800417 0.30634642 10788763
0.77450013 0.094469205 0.30512717 10855329
0.77900004 0.10055325 0.30177939 13422023
0.78545839 0.10545539 0.30504417 11119269
0.78900003 0.11107936 0.30472982 10790304
0.79166669 0.11622377 0.30549484 10856096
0.78900003 -0.16043893 0.31027099 9671822
0.78785717 -0.15335704 0.31298429 10197396
0.79188889 -0.15628944 0.3165583 10460825
0.78576922 -0.14464404 0.31424025 10066323
0.79025 -0.14496966 0.31908721 10395288
0.78629416 -0.13530719 0.31635857 10066581
0.78525019 -0.12509224 0.31603971 9671567
0.78647053 -0.11508583 0.31534505 10000788
0.79000002 -0.11379069 0.31929478 10000532
0.78742868 -0.10560477 0.31202385 10460824
0.79290909 -0.10503449 0.31720915 10461083
0.78900003 -0.098562315 0.31211805 9012865
0.76900005 0.074059054 0.3114073 9867911
0.77154547 0.078245826 0.31342769 10065034
0.77386963 0.084927224 0.31488001 10722968
0.77683336 0.094063044 0.31336793 10987425
0.78228575 0.097056828 0.31783316 10592925
0.78712511 0.10544655 0.31483218 10724511
0.79000002 0.10937075 0.31991127 10987684
0.78900003 0.11107937 0.31211805 10658718
0.79139137 0.11544695 0.31539956 10856098
0.79361916 -0.1351036 0.32615769 10461081
0.79304355 -0.12485609 0.32566813 10395288
0.79340911 -0.11464676 0.32551682 10263702
0.77649999 0.077508628 0.32171562 10131855
0.78366667 0.077917121 0.32713282 10395543
0.77833343 0.084677041 0.32126021 9670280
0.78400004 0.086515792 0.32551387 10658203
0.78677779 0.095317096 0.32495406 10592924
0.79000002 0.097349614 0.32915828 10724510
0.78833342 0.10298899 0.32231283 10658717
0.79112506 0.10617049 0.32615623 10790303
0.79316664 0.11553586 0.3250646 10921889
0.79260701 0.12477364 0.32527319 10987939
0.79296654 0.13484415 0.3248255 11119269
0.78887504 0.077358127 0.33630812 10263959
0.79000002 0.079163812 0.33778882 10395545
0.78870004 0.084633961 0.33194065 10527130
0.79050004 0.086044669 0.3367694 10592924
0.78900003 0.090761669 0.3305887 10592924
0.79280955 0.094826244 0.33554581 10658718
0.79331821 0.12443359 0.33476296 10922659
0.79464006 0.13419956 0.33481529 10988195
0.78900009 0.077496402 0.34418979 10329754
0.79000002 0.079780273 0.34395349 10395546
0.78900003 0.081526354 0.34721226 10395547
0.79044467 0.085514955 0.34469485 10592924
0.79392862 0.095249072 0.3450653 10790303
0.78522229 0.077258751 0.35800555 10198938
0.78853339 0.084186539 0.35709715 10462109
0.79053843 0.086669177 0.35301322 10462109
0.79193336 0.094809145 0.35498762 10790303
0.77900004 0.075022109 0.36469543 10198168
0.78190917 0.077633284 0.36289188 10395803
0.78590006 0.084891103 0.36442578 10527133
0.7887333 0.092331775 0.3649433 10593181
0.79006666 0.096679807 0.36494386 10724766
0.79168755 0.10508993 0.36472598 10790559
0.7877143 0.086532712 0.37391382 10527388
0.79000002 0.0890273 0.37909219 10592924
0.78900003 0.091223434 0.37260938 10724767
0.79111123 0.09512224 0.37581915 10659230
0.79326922 0.10453931 0.3747361 10790560
0.79152948 0.086801894 0.38593259 10461596
0.79292005 0.094927318 0.38495019 10724510
0.79100007 0.087002635 0.39480957 10462109
0.79212135 0.094999574 0.3952775 10593438
0.79354286 0.1046082 0.39533007 10659230
0.78900003 0.087067544 0.40724182 10461597
0.79000002 0.088498898 0.40419123 10527646
0.78900003 0.090761669 0.40631828 10658719
0.79037517 0.094775885 0.40509894 10527647
0.79226667 0.10505028 0.40490988 10593696
0.78866673 0.088261358 0.41045412 10592926
0.78883338 0.093204856 0.41454265 10527390
0.79031253 0.09657938 0.41451037 10658975
0.79205877 0.10524116 0.41465351 10527647
0.79389989 0.11548723 0.41534221 10593696
0.78900003 0.094455793 0.42109478 10462110
0.79087496 0.09745758 0.42487308 10593696
0.79090339 0.10477795 0.42414144 10527903
0.79150003 0.11499599 0.42449582 10593696
0.79263997 0.12458222 0.42489293 10593696
