# .PCD v0.7 - Point Cloud Data file format
VERSION 0.7
FIELDS x y z rgb
SIZE 4 4 4 4
TYPE F F F U
COUNT 1 1 1 1
WIDTH 1114
HEIGHT 1
VIEWPOINT 0 0 0 1 0 0 0
POINTS 1114
DATA ascii
0.77733332 -0.15139546 0.08852639 11249830
0.78642118 -0.15468466 0.084938273 11315621
0.79033333 -0.1582434 0.081988901 11579560
0.76600003 -0.1423146 0.088727452 14277079
0.77493757 -0.14499554 0.085792139 12961218
0.78527284 -0.14547274 0.08201807 11579306
0.76346153 -0.13476011 0.087949991 14737628
0.7743333 -0.13509685 0.084795885 14343126
0.78640002 -0.13579282 0.082069851 12106163
0.76154554 -0.12503439 0.088292859 14869214
0.77335727 -0.12518659 0.085437663 14869469
0.78500009 -0.12356246 0.082886629 13224642
0.79120004 -0.12680669 0.081088975 11711402
0.76260012 -0.11436406 0.08779557 15066593
0.77381819 -0.11518877 0.084773771 14737885
0.78500009 -0.11470817 0.081841916 13224388
0.75900006 -0.10369886 0.088807367 15461351
0.76340008 -0.10471381 0.086099096 15198436
0.77408338 -0.10560697 0.082866937 14803677
0.78250003 -0.10691015 0.080565915 11513769
0.75900006 -0.094814688 0.088807367 15330022
0.76217645 -0.09494745 0.085710883 15264229
0.77375001 -0.094844639 0.082380407 14606811
0.75900006 -0.085042112 0.088807367 15330022
0.76333338 -0.085408881 0.085853592 15066850
0.77441669 -0.084504724 0.082902618 14672604
0.7828334 -0.084962606 0.080600239 11711662
0.75900006 -0.075269535 0.088807367 15066597
0.76209104 -0.075169042 0.086571343 15066851
0.7743333 -0.074977413 0.083345085 14804190
0.78440011 -0.075033531 0.080761537 11382182
0.75900006 -0.064608537 0.088807367 14803425
0.76275015 -0.064924918 0.086564898 14541536
0.77372736 -0.065120175 0.083940573 14475226
0.78511119 -0.064277142 0.081444986 12369333
0.75900006 -0.054835957 0.088807367 15198183
0.76400006 -0.055197902 0.08670608 15133413
0.77410007 -0.055384487 0.084410951 14738655
0.78610003 -0.054953359 0.081853554 12566456
0.75833327 -0.04502536 0.088729352 15000804
0.76349998 -0.045330554 0.086649917 15198437
0.77350003 -0.045624431 0.084768854 15264229
0.78633338 -0.042083383 0.082801424 13882319
0.75849998 -0.036154211 0.088748857 15066597
0.76350009 -0.034828745 0.087544478 14935267
0.77340007 -0.035054374 0.085963793 14869216
0.78783339 -0.034173381 0.083265662 11514028
0.79339999 -0.035029639 0.081688181 11579820
0.76366669 -0.025572501 0.088753834 14671839
0.77271432 -0.024816656 0.087309159 14935265
0.78683335 -0.024611033 0.084696062 11448236
0.76400012 -0.014956072 0.0884948 14277594
0.77437508 -0.015158916 0.086525351 14409690
0.78650004 -0.017237324 0.08466018 11053224
0.76420009 -0.0051173721 0.088517778 14409437
0.77300006 -0.005178432 0.086826235 14014932
0.78671426 -0.0044793757 0.084155507 11186092
0.76391673 0.0047170357 0.088485055 14343644
0.77359998 0.0055026575 0.086167678 14147036
0.78591675 0.0051603713 0.083060123 11383728
0.79299998 0.0024172373 0.081025057 10725280
0.76274997 0.015423304 0.088350691 14409438
0.77319998 0.01473129 0.085941553 13818072
0.78600007 0.014159466 0.082556672 11252142
0.79000002 0.016900534 0.081338115 10791075
0.76160002 0.025208738 0.088218249 13949144
0.77162504 0.023731818 0.086218804 13686486
0.78516674 0.023237275 0.083287232 11120558
0.79359996 0.025339667 0.080962688 10790305
0.76366669 0.035115466 0.088456579 13685973
0.77266669 0.03462033 0.086486019 13620436
0.78562504 0.034512643 0.08341305 10592674
0.76500005 0.045024455 0.089509398 14343644
0.77400011 0.045033049 0.087192714 14014936
0.78591663 0.045328539 0.083980538 11316652
0.76700002 0.055013049 0.089743406 14212059
0.77372736 0.055084083 0.087894335 14014679
0.78463644 0.054856706 0.085122935 12632510
0.76860005 0.065025404 0.089930609 14342876
0.77463633 0.065039225 0.087832585 14146008
0.78490919 0.065065123 0.085487902 12698304
0.76900005 0.072258808 0.089977421 14737891
0.77454549 0.075087711 0.087987311 14211802
0.78560007 0.075288072 0.085295804 12632509
0.79272729 0.074991018 0.082628109 10658719
0.77650005 0.083569139 0.088430457 14277339
0.78558332 0.085005559 0.086243331 12040374
0.78700006 0.090993367 0.088395253 11711152
0.78900003 -0.16043893 0.092317529 10197141
0.77580005 -0.15158127 0.094587512 11184038
0.78554553 -0.15706453 0.095088609 10526105
0.75900006 -0.14012393 0.095914699 14869218
0.76328576 -0.14321618 0.095049836 14277081
0.77142864 -0.14757872 0.094129607 12500413
0.75789303 -0.13447091 0.095454805 15329766
0.76000005 -0.13793631 0.091296606 14606299
0.75747234 -0.12476863 0.094830662 15198179
0.75796545 -0.11515189 0.095046364 15263972
0.76000005 -0.11362094 0.090703547 14737628
0.75780559 -0.10531051 0.09487325 15263971
0.75733334 -0.094607003 0.094814353 15527144
0.75713336 -0.084833041 0.09478993 15263972
0.75733346 -0.075103536 0.09481521 15000802
0.75738889 -0.064470924 0.094822012 15000802
0.75739998 -0.054720584 0.094823979 15000803
0.75719446 -0.044956341 0.094799116 14672094
0.75726664 -0.035209969 0.094807938 14803680
0.75772226 -0.025473893 0.094864212 14474458
0.75811112 -0.014840279 0.094912142 14145750
0.7572 -0.0050732871 0.094798118 14014165
0.75752777 0.0046794619 0.094838254 14277338
0.75774294 0.015450159 0.094992712 14342874
0.76000005 0.01092122 0.090703547 14343644
0.75746661 0.025070449 0.094832107 14079702
0.75782865 0.034714624 0.095004022 13816531
0.76000005 0.039388001 0.090703547 14080474
0.75850004 0.045252658 0.096396603 14146265
0.76037508 0.045415659 0.09141548 14343644
0.75870591 0.054992672 0.09723492 14277338
0.76066679 0.055093635 0.092206918 14212058
0.75899994 0.064758547 0.098374926 14408667
0.76095665 0.065462172 0.09337125 14342874
0.75900006 0.074477978 0.098678663 14342875
0.7616666 0.075306788 0.093785129 14408925
0.77066666 0.077829413 0.090172432 14080474
0.75900006 0.080203325 0.099468365 14606046
0.7626428 0.084542654 0.096176624 14869219
0.7728889 0.086296812 0.091435447 14803427
0.76825005 0.091971695 0.09753193 14935011
0.77461535 0.094546765 0.096070841 13816015
0.78325009 0.096981652 0.094855458 12829632
0.79100007 0.097782254 0.09131626 11382440
0.77600002 0.10016602 0.099879615 15395307
0.78700006 0.1026932 0.097976342 11710895
0.79303449 -0.16510592 0.10501552 10131348
0.77639997 -0.15242407 0.1053852 9933712
0.78520006 -0.15691203 0.10474032 9999762
0.75900006 -0.14190076 0.10479885 14078676
0.76560009 -0.14582685 0.10570991 13552332
0.77150005 -0.14875472 0.10382092 11710382
0.75426489 -0.13509923 0.10481676 15132131
0.7525937 -0.12517494 0.10501116 15395558
0.75375009 -0.11533254 0.10495192 15263972
0.75419438 -0.10480718 0.10501433 15000800
0.7552942 -0.094610035 0.10496098 15000800
0.75553155 -0.084985092 0.10542373 15066593
0.7558614 -0.074957646 0.10524985 15001056
0.75633359 -0.06438005 0.10531577 14672091
0.75656688 -0.054660462 0.10534683 14737627
0.7562502 -0.044900533 0.1053021 14869213
0.75640023 -0.035169672 0.10532335 14540250
0.7565558 -0.025436295 0.10534519 14277080
0.75597245 -0.014799353 0.10526317 13750737
0.75436664 -0.0050557107 0.10503947 13487308
0.75388891 0.0046572136 0.10497192 13882322
0.75519449 0.015274154 0.10515337 13882323
0.75576669 0.025015432 0.10523381 13684944
0.75577796 0.034746215 0.10523488 13619151
0.75622225 0.045389794 0.10529735 14079959
0.75686669 0.055172458 0.10538741 14014166
0.75669438 0.064901739 0.10536216 14079702
0.75678784 0.075138845 0.10561804 14079703
0.75857145 0.083372153 0.10541533 14671840
0.76033342 0.088255294 0.10399321 15000548
0.76385188 0.094696045 0.10499964 15395562
0.77266669 0.09913332 0.10186183 15987699
0.76833338 0.10157517 0.10908484 15987701
0.77440006 0.1040714 0.1054705 14408411
0.78500009 0.10715101 0.10256436 11645102
0.79200006 0.10964764 0.1000849 11447976
0.78785717 0.11223679 0.10641085 11118501
0.7762 -0.15166003 0.11443792 10261907
0.78583342 -0.15642667 0.11493951 9801869
0.79000002 -0.15879287 0.11832619 9802381
0.75900006 -0.14190076 0.11457144 13749709
0.76316667 -0.14446634 0.11520097 12828608
0.77066678 -0.14799182 0.11452643 11709869
0.75403035 -0.13455741 0.11518645 14737115
0.75250018 -0.12483089 0.11535332 15066336
0.75213909 -0.11508746 0.11529665 15000800
0.75275016 -0.10460594 0.11538969 15066593
0.75389987 -0.095059507 0.11556498 15066593
0.75438869 -0.08540801 0.11564007 14803421
0.75567758 -0.075081185 0.11512484 14803423
0.75629646 -0.064869307 0.11485089 14671837
0.75585741 -0.055178683 0.11517087 14408664
0.7541998 -0.044653337 0.11548595 14539995
0.75448263 -0.035201605 0.11550204 14540250
0.75600034 -0.025417356 0.11500345 14408409
0.75516671 -0.014784959 0.11487766 13947859
0.75330001 -0.0050483299 0.11547461 13158086
0.75155544 0.0046424763 0.11520656 13224136
0.75313902 0.015231282 0.11544841 13618894
0.75316674 0.024928208 0.11545192 13422029
0.75333345 0.034633894 0.11547788 13290442
0.75399989 0.045255911 0.11558114 13487565
0.75416654 0.054975271 0.11560645 13684688
0.75338894 0.06461826 0.11548726 13684688
0.75481814 0.075107545 0.11530428 13882067
0.75846165 0.085406885 0.1151044 14671841
0.76000005 0.089204863 0.11116404 14277082
0.76120001 0.094695233 0.11490252 14869220
0.76680005 0.10167205 0.11485013 15198185
0.77399999 0.10715953 0.1150214 13684688
0.78723073 0.11494417 0.1142254 11119269
0.79100007 0.1187679 0.11477061 11185061
0.77650005 -0.15153775 0.12448719 10196628
0.78500015 -0.15516625 0.12361612 9670282
0.79166675 -0.15912788 0.12506084 9736588
0.75788891 -0.14228453 0.12593311 13355465
0.76275009 -0.145505 0.12540053 12894401
0.75412118 -0.13510856 0.12487768 14276822
0.74900001 -0.12425039 0.12971945 14935007
0.75103712 -0.12497951 0.12512004 14934493
0.75080562 -0.11488298 0.12563522 14868957
0.75129038 -0.10494175 0.12517767 14803164
0.75200015 -0.095210902 0.12515141 15066593
0.75306672 -0.085257307 0.12513325 14737628
0.75468558 -0.074713469 0.12464392 14868957
0.75503349 -0.06515497 0.12457439 14737628
0.75466657 -0.055406753 0.12451485 14474456
0.75409663 -0.044915169 0.12513481 14408666
0.75492299 -0.03496312 0.12524036 14605789
0.756639 -0.025437893 0.12484387 14342617
0.75630569 -0.014806335 0.12478885 13947859
0.75400001 -0.0050531141 0.12529065 13355465
0.75250012 0.0046464233 0.12504144 13092550
0.75206673 0.015208645 0.12496792 13159113
0.75204003 0.024890959 0.12496414 13290699
0.75270021 0.034605902 0.12507413 13356236
0.75396657 0.045253579 0.12528484 13092807
0.75447989 0.054998837 0.12537149 12961221
0.75416654 0.064684317 0.12531951 12961221
0.75481814 0.075588383 0.12494361 13421516
0.75800002 0.085423619 0.12506682 14277339
0.75900006 0.090864323 0.12523244 14145753
0.76119053 0.095456876 0.12495704 14606304
0.76608342 0.10157657 0.12460765 15198181
0.77281249 0.10688237 0.12513554 13223878
0.78658336 0.11519214 0.12441319 11184804
0.79000002 0.11861777 0.12479911 11119011
0.78800005 -0.16208032 0.13757883 9670795
0.76733333 -0.15064411 0.1346886 10131348
0.77450007 -0.15507528 0.13745418 9670028
0.78500003 -0.15870474 0.13502569 9670539
0.75604999 -0.14347711 0.13554159 13223623
0.76233339 -0.14847326 0.13470365 12631228
0.74900001 -0.13214079 0.13585642 14605789
0.75147623 -0.136392 0.13408445 14342616
0.74870002 -0.12507637 0.13492478 14671581
0.74899989 -0.11479714 0.13589455 14803422
0.75000006 -0.11413252 0.13215005 14803421
0.74900001 -0.10759285 0.13585642 14934751
0.75015789 -0.10373826 0.13426332 14934239
0.75061107 -0.095523886 0.13438971 14935008
0.75050008 -0.084967963 0.13436931 14803421
0.75171441 -0.074671008 0.13445923 14671835
0.75238723 -0.065095529 0.13484839 14737628
0.75352776 -0.055320952 0.13491327 14671835
0.75388879 -0.044760171 0.13497764 14474458
0.75469995 -0.035089541 0.13512032 14606046
0.75572222 -0.025407238 0.13530266 14474202
0.75580549 -0.014795833 0.13531862 14013652
0.75466657 -0.0050581112 0.13511758 13684687
0.75280565 0.0046480834 0.13478526 13158600
0.75180578 0.015203733 0.13460708 13158601
0.75196683 0.024889033 0.13463585 13092807
0.75347227 0.034641683 0.13490492 12961734
0.75538898 0.045339841 0.13524908 13553358
0.75616688 0.055121124 0.13538712 13355979
0.75611138 0.064852148 0.13537723 12961221
0.75611132 0.075474195 0.1353776 13027015
0.75755554 0.08517579 0.13514198 13882325
0.759 0.091752745 0.13500503 14540511
0.76105565 0.096456766 0.13447946 14277338
0.76563644 0.10143617 0.13488001 14737630
0.77347064 0.10719306 0.13512911 12105908
0.78672737 0.11528139 0.13491374 11185060
0.79000002 0.11861776 0.13497084 11185060
0.79342312 -0.17420143 0.14505409 9539211
0.77900004 -0.16022913 0.1467689 9605004
0.78593343 -0.16362278 0.1449433 9604747
0.79042858 -0.16786686 0.14455862 9605004
0.76700002 -0.15237422 0.14539878 10854818
0.77466673 -0.15692137 0.14383489 9604492
0.75585717 -0.14409778 0.14480922 13552331
0.7610001 -0.14940073 0.14515908 12434107
0.74899995 -0.13264176 0.14437304 14803167
0.75093752 -0.13698943 0.14521658 14408408
0.7483331 -0.12501571 0.14449494 14671837
0.74900013 -0.11460658 0.14462355 14737373
0.74899983 -0.10536123 0.14573935 14803167
0.75000006 -0.10400552 0.14174405 14737629
0.74900001 -0.097949035 0.14800513 14868704
0.75000006 -0.094810471 0.14399926 14934753
0.75000006 -0.084911607 0.14481658 14803167
0.75000006 -0.075254902 0.14481662 14671580
0.75027782 -0.065621383 0.14486927 14671836
0.75186121 -0.055198982 0.14517225 14606042
0.75138897 -0.044612799 0.14508018 14474202
0.74900001 -0.035702545 0.14842261 14671582
0.75104165 -0.034701001 0.1440617 14474203
0.75155568 -0.025266567 0.14511231 14342873
0.75261116 -0.014731188 0.14531617 14079445
0.75326663 -0.0050456887 0.1454448 13816530
0.75286126 0.0046497267 0.14536801 13553357
0.75250024 0.015218396 0.14529881 13224393
0.75310725 0.024738101 0.14510192 13027015
0.75399989 0.034664609 0.14470643 13092808
0.75586689 0.045367803 0.14506429 13355980
0.75687999 0.055173688 0.14525886 13158600
0.75700003 0.064928696 0.14528216 13355980
0.75696665 0.075558491 0.14527594 13487567
0.75821429 0.085636906 0.14494561 14013653
0.75900006 0.091530636 0.14322287 14408669
0.76114291 0.095620289 0.14556813 14211290
0.76650006 0.10140835 0.14396521 14474462
0.77321434 0.10575747 0.14528963 12303290
0.78630763 0.11438635 0.14481534 11185315
0.79114288 0.11826096 0.1457485 11119522
0.7924062 -0.17475677 0.15526599 9473674
0.78516674 -0.16303501 0.15451212 9538954
0.79000002 -0.16751149 0.15610687 9473418
0.76600003 -0.15217556 0.15508009 10789278
0.7753334 -0.15765989 0.15515499 9604747
0.75545841 -0.14389607 0.15471323 13749708
0.76059997 -0.1493222 0.15487738 13157826
0.7488094 -0.13348497 0.1554798 14737118
0.75066668 -0.13800019 0.15461013 14671581
0.74805528 -0.12496914 0.15494798 14802910
0.74836099 -0.11450902 0.15501067 14802910
0.74863327 -0.1049101 0.15506776 14802653
0.74899983 -0.095945135 0.15627126 15065827
0.75000006 -0.094568297 0.15377106 15000291
0.74899995 -0.084297396 0.1582752 15000291
0.75000006 -0.08523082 0.15335605 14934754
0.74899989 -0.075154558 0.1577742 14737375
0.75000006 -0.075254895 0.15271756 14671582
0.74899989 -0.065510727 0.15689749 14737375
0.75000006 -0.06559819 0.15183969 14803168
0.74899995 -0.055025265 0.15672214 14737375
0.75000006 -0.054983806 0.15175986 14671582
0.74899983 -0.045266666 0.15498465 14474203
0.75000006 -0.043274917 0.15560207 14408410
0.74900001 -0.035622843 0.15203573 14605789
0.75000006 -0.03441029 0.15715317 14474203
0.75016665 -0.025220521 0.15538627 14342617
0.75081241 -0.014476315 0.15497077 14013652
0.75151736 -0.005154876 0.155513 13947859
0.75128567 0.0047645969 0.15549062 13618893
0.75163645 0.015016286 0.15528943 13487563
0.75355554 0.025138736 0.15481339 13092552
0.75463867 0.034693763 0.15454669 13224395
0.7557779 0.045363832 0.15477988 13421517
0.75690001 0.055175051 0.15500885 13289930
0.75675011 0.064906053 0.15497738 13158344
0.75700003 0.074847043 0.1548861 13553359
0.75851858 0.083639435 0.15504397 14145496
0.7601667 0.088631369 0.15627116 14540255
0.76327997 0.094958 0.15506576 14408667
0.76850003 0.10099699 0.15198749 14934754
0.77444452 0.10470396 0.15527648 13092805
0.78100002 0.10995308 0.15171655 11119268
0.78621429 0.11266316 0.15535794 11119267
0.79209095 0.11809023 0.15521948 11053474
0.78627276 -0.16273147 0.16512589 9473418
0.79139996 -0.1674118 0.16485551 9473418
0.76900005 -0.15277156 0.16558763 12433850
0.77780002 -0.15816148 0.16566542 9473418
0.7549566 -0.14368512 0.16502123 13749967
0.76133341 -0.14946616 0.16482791 13091780
0.74859995 -0.13356085 0.16478756 14670812
0.75000006 -0.13816975 0.16559316 14342104
0.74772191 -0.12491434 0.16538112 14736605
0.74760592 -0.11479092 0.16511603 14605019
0.74748468 -0.10522719 0.16556615 14802398
0.7476666 -0.095149226 0.16536704 14868448
0.74744427 -0.084622711 0.16531816 14999777
0.7475664 -0.075010106 0.16534582 14802654
0.74827754 -0.065447681 0.16550373 14802654
0.7485587 -0.054957703 0.165308 14802910
0.74893337 -0.044816229 0.1653572 14605788
0.75000006 -0.041017503 0.16149639 14211031
0.74900001 -0.036228571 0.16671667 14474203
0.75000006 -0.033935923 0.16372035 14474203
0.75036675 -0.025226124 0.16508807 14276825
0.75123549 -0.014913239 0.16465652 14079702
0.75084621 -0.0048937905 0.16498944 13882066
0.75187099 0.004502764 0.16524903 13684944
0.7524851 0.015404745 0.16507545 13224393
0.75356668 0.024943003 0.16491105 12829636
0.75499994 0.034712341 0.16522507 13158344
0.75662512 0.045192786 0.16502605 13355722
0.75700003 0.055181865 0.16477585 13289929
0.75683331 0.064913593 0.16473979 13158343
0.75704002 0.074680045 0.16478483 13026757
0.7586 0.082825966 0.16512376 13816274
0.76050001 0.088373959 0.1646475 14211033
0.76425016 0.093735293 0.164831 14342874
0.77099997 0.099005595 0.16550326 14474460
0.77540004 0.1037223 0.16515204 12500669
0.78200006 0.10826321 0.16472556 10724512
0.78764713 0.11284378 0.16526385 11053474
0.79110008 0.11785753 0.1647874 10987937
0.7869001 -0.16259287 0.17551859 9407625
0.76583338 -0.15214245 0.17475791 12762301
0.77875006 -0.15835464 0.17406693 9407112
0.75481492 -0.14426585 0.17548844 14078675
0.76066667 -0.14933528 0.17269611 12959681
0.74852163 -0.13400026 0.17489085 14802653
0.75033337 -0.13823128 0.17327756 14473432
0.74713326 -0.12481596 0.17487121 14868190
0.74696147 -0.11503463 0.17503282 14539483
0.7463057 -0.10545996 0.17554915 14605275
0.74544466 -0.094867274 0.17534597 14802653
0.74551445 -0.084527701 0.17523904 14933981
0.74662066 -0.075276084 0.17547351 14868189
0.74779987 -0.065404676 0.17502679 14802398
0.74812484 -0.054926254 0.1747743 14802654
0.74800003 -0.044436038 0.17432918 14605533
0.74816126 -0.034955915 0.17437492 14276824
0.74826443 -0.025364162 0.17451589 14013654
0.75000006 -0.021704104 0.1702752 14145240
0.74829048 -0.014674732 0.17497095 13816275
0.75000006 -0.014505474 0.1702752 13882325
0.74900001 -0.0078669637 0.17596595 13882324
0.75027275 -0.003987405 0.17416947 14013910
0.75250024 0.0046498049 0.17524774 13619152
0.75356674 0.01524011 0.1746145 13355979
0.75480002 0.024983907 0.17490092 13093064
0.75600028 0.034757186 0.17517765 13421772
0.75679415 0.045632258 0.17473578 13750480
0.75700003 0.055181865 0.17452268 13684688
0.75722212 0.064947754 0.17457497 13553358
0.75756675 0.074732058 0.17465465 13224136
0.75865221 0.082715645 0.17471106 14013909
0.76046169 0.088164166 0.17566285 14474460
0.76486951 0.094299987 0.17520502 14342617
0.77250004 0.099714242 0.17447747 14803425
0.77538466 0.10302096 0.17477979 12698048
0.78220004 0.10756025 0.17557099 10855841
0.78779995 0.11275671 0.17516904 10987682
0.79000002 0.11769307 0.17473303 10987682
0.79106688 0.12433589 0.17496794 10987682
0.77900004 -0.16022913 0.18962474 9078407
0.78518194 -0.16250707 0.1851099 9341832
0.76410007 -0.15251797 0.18510187 12565691
0.77225006 -0.15613103 0.18346582 10789024
0.74900001 -0.14003117 0.1884591 14408663
0.75285715 -0.14453574 0.1848942 13815501
0.74746662 -0.1344969 0.18457296 14539739
0.74686104 -0.12477048 0.18442357 14605531
0.74600023 -0.11514182 0.18436016 14539739
0.74513346 -0.10529391 0.18486887 14605275
0.74403125 -0.094741195 0.18492264 14407896
0.7447201 -0.085184485 0.18476665 14736861
0.74565661 -0.07547161 0.18467093 14671324
0.74636114 -0.065279752 0.18429843 14737372
0.74627793 -0.05479059 0.18427712 14868701
0.74590927 -0.045264721 0.1847403 14539995
0.74650007 -0.035582729 0.18433286 14474203
0.74675 -0.025106458 0.18439543 13947860
0.74722207 -0.014625639 0.18451267 13816531
0.74874997 -0.0076449402 0.18488961 14145495
0.75076473 -0.0033739617 0.18512945 14145495
0.75356674 0.0046563665 0.18519853 13816273
0.75466645 0.015262861 0.1845853 13553358
0.75610024 0.025026308 0.18493523 13158600
0.75686115 0.034795787 0.18512112 13356236
0.75663894 0.045413356 0.18506655 13684944
0.75693333 0.055177167 0.1851391 13618894
0.75788563 0.064879462 0.18524544 13355722
0.75873095 0.074710131 0.18489641 13224650
0.75899994 0.081980154 0.18475632 13948117
0.76033342 0.087464809 0.18508092 14408667
0.76480955 0.094209403 0.18505973 14474460
0.77216673 0.099671207 0.18525086 14935011
0.77545458 0.10306848 0.18546215 12040116
0.7827 0.10744618 0.18502681 10921890
0.78791672 0.11200411 0.18457025 10921889
0.79035717 0.11695407 0.18525256 10921889
0.79180008 0.12445093 0.18532699 10987681
0.78633332 -0.164194 0.19631635 9341829
0.76350003 -0.1525761 0.19478504 12105138
0.77416664 -0.15833057 0.19750912 9276037
0.74900001 -0.14003117 0.19284265 14277077
0.75295657 -0.1448395 0.19523945 13421255
0.74799991 -0.13459207 0.19521283 14342870
0.74661112 -0.12472965 0.19484922 14342614
0.74506688 -0.11487712 0.19444598 14079699
0.7450003 -0.10527422 0.19442886 14342615
0.7449708 -0.094754733 0.19467777 14276567
0.74500018 -0.08521755 0.19442888 14473690
0.74508363 -0.075633459 0.19445027 14276567
0.74459481 -0.065008864 0.19448648 14474459
0.74375618 -0.054711111 0.19484453 14606045
0.74407411 -0.0449186 0.19467027 14474460
0.74480575 -0.035501085 0.19437693 14342874
0.74563915 -0.025068847 0.19459406 14013909
0.7463612 -0.014608098 0.19478305 14013909
0.74795645 -0.0058462019 0.19584703 14079702
0.75050002 -0.0021722442 0.1932274 14079702
0.75294447 0.0046547605 0.194737 14013909
0.75486088 0.015265784 0.19523457 13487565
0.75583345 0.02501779 0.19548668 13092807
0.75696665 0.034800813 0.19489397 13290186
0.7567001 0.04541583 0.19482572 13684944
0.75648159 0.055144686 0.19516228 13750481
0.75754839 0.065120444 0.19487108 13618895
0.75827599 0.074924335 0.19449505 13356237
0.75894439 0.081974283 0.19451435 14014424
0.76072222 0.087509684 0.1949705 14409181
0.76456261 0.093434803 0.19472265 14408666
0.77190006 0.09873502 0.19512597 13816528
0.77566671 0.10254555 0.19274704 10724258
0.7840001 0.10772619 0.19492275 10921889
0.78840005 0.1121029 0.19412796 10987425
0.79064709 0.1164298 0.1952914 10921888
0.79308009 0.12465279 0.19491118 10987425
0.77900004 -0.1620528 0.20968492 9341830
0.78476918 -0.16467141 0.20544092 9276293
0.79175007 -0.16841212 0.2029188 9341829
0.7639001 -0.15265593 0.2047224 12171187
0.77336365 -0.15808405 0.20503974 9276037
0.74900001 -0.14003117 0.20862347 14606042
0.75342858 -0.14445898 0.20475292 13684427
0.74768955 -0.13441585 0.20548041 14277078
0.74686104 -0.12477047 0.20540561 14342357
0.7458002 -0.11499068 0.20511481 14144978
0.74563915 -0.10536465 0.20507053 14145235
0.74508363 -0.094820902 0.20491651 14079443
0.74500018 -0.085217528 0.20489325 14079187
0.7450003 -0.075625248 0.20489325 13882064
0.74402851 -0.065200813 0.20475 14145235
0.74370974 -0.05446 0.20524068 14408664
0.74400002 -0.045043655 0.20461814 14342617
0.74416661 -0.035471305 0.20466362 14342874
0.74494475 -0.025045402 0.2048777 14013652
0.74522251 -0.014586617 0.20495355 14079702
0.74673337 -0.0050009852 0.20536862 14277081
0.74850005 0.0014112066 0.20614649 14211288
0.75136012 0.0060160495 0.20414414 14211288
0.75418752 0.015033309 0.20510183 13684944
0.75580025 0.025016438 0.2052094 13092807
0.75686109 0.034796182 0.20461087 13355979
0.75686109 0.045425907 0.20461148 13553358
0.75650018 0.055146176 0.20482948 13619151
0.75711107 0.064938873 0.2046795 13750480
0.75803322 0.074777618 0.20492882 13684430
0.759 0.081091747 0.2051899 14013909
0.76068187 0.086453862 0.2052394 14211545
0.76469231 0.092787772 0.20404299 14474718
0.77200001 0.097663812 0.20472606 13948116
0.7753334 0.10007996 0.20688367 10526879
0.78625011 0.10716859 0.203968 10921890
0.79000002 0.10937075 0.20894699 10921889
0.79308701 0.11545239 0.20492236 10856096
0.79246438 -0.17532374 0.21456447 9079428
0.77759999 -0.16176155 0.21476686 9145222
0.78615391 -0.16651712 0.21557134 9145221
0.79000002 -0.16988929 0.21634461 9079428
0.76358336 -0.15259229 0.21446872 12039860
0.773 -0.15817395 0.21481289 9408139
0.74900001 -0.14028166 0.21513617 14145237
0.75347626 -0.14532726 0.21457022 13421001
0.74749988 -0.13463716 0.21500348 14408410
0.74699986 -0.124793 0.21506129 14342871
0.74699992 -0.11517491 0.21506134 14211284
0.74673331 -0.10552016 0.21498474 14079698
0.74553144 -0.094661057 0.21496546 14145234
0.74480015 -0.08519537 0.21529908 14079185
0.7441389 -0.075538352 0.21510793 13816015
0.74374992 -0.06505242 0.21499543 13947857
0.74319434 -0.054563716 0.21483356 14211030
0.74340016 -0.045007568 0.2148924 14276824
0.74327779 -0.035429526 0.21485677 14342617
0.74408323 -0.025015308 0.21509141 14079702
0.74497247 -0.014582475 0.21534939 14079702
0.7460742 -0.0051902742 0.21518181 14211289
0.74804342 0.003137534 0.21528521 14145495
0.7504167 0.0078560645 0.21399431 14145495
0.7530278 0.015231377 0.214737 13816530
0.75429982 0.024966108 0.21451281 13224393
0.75483322 0.034703057 0.21466294 13290186
0.75580585 0.045364365 0.21494167 13487565
0.75640017 0.055139232 0.21511234 13421772
0.75711107 0.064938873 0.21531342 13290186
0.75815386 0.074653931 0.21492733 13618895
0.759 0.081091739 0.21496248 13816274
0.76113647 0.08683037 0.21508107 14145751
0.76657146 0.092284761 0.21402907 14409179
0.77321434 0.096577659 0.21536767 13619406
0.77649999 0.10023055 0.21264875 10592928
0.7863847 0.1051941 0.21577428 10856096
0.79079998 0.10948149 0.21471336 10856096
0.7907002 -0.17559482 0.22486666 9079428
0.77749997 -0.16174074 0.22475488 9210758
0.7862857 -0.16712293 0.2249223 9145221
0.79000002 -0.16988929 0.22929044 9145221
0.76333338 -0.15254202 0.22512271 12367540
0.77236366 -0.15787961 0.22466393 9736590
0.74900001 -0.14003117 0.22528096 14013396
0.75337505 -0.14526607 0.22482865 13486794
0.74759984 -0.1345212 0.2248598 14408407
0.74699986 -0.12479299 0.22467941 14277077
0.74699986 -0.11517491 0.2246794 14277077
0.74694431 -0.1055493 0.22466294 14145491
0.74614716 -0.095162243 0.22468106 14211028
0.74500012 -0.085218474 0.22495121 14144721
0.74409091 -0.075295888 0.22515073 13881549
0.74274993 -0.064966127 0.22513904 14211027
0.74152762 -0.054442473 0.2247681 14079699
0.74123317 -0.044876393 0.22467898 14145492
0.74099976 -0.035321213 0.22460943 14013906
0.74222219 -0.024950497 0.2249781 13882321
0.74419457 -0.014566011 0.22557637 13882324
0.74533349 -0.0051206308 0.22491981 14079702
0.74731416 0.0047432445 0.22484802 14145495
0.74880004 0.011110961 0.22749908 13684944
0.75151533 0.015814679 0.22467595 13750480
0.75313348 0.024927026 0.22476038 13289929
0.75305575 0.03462106 0.22473757 13224393
0.75463879 0.045295648 0.22520876 13290186
0.75622231 0.054929402 0.22518957 13093064
0.75637513 0.064654455 0.22517323 13158601
0.75765526 0.074863836 0.22448877 13487566
0.759 0.081091747 0.22473507 13882323
0.76091307 0.086526215 0.22510672 14408667
0.76683336 0.09180209 0.22525831 14211288
0.77393758 0.096167468 0.2249667 12764096
0.78578573 0.1031416 0.22478083 10790303
0.79140007 0.10826929 0.22432442 10856096
0.79144007 -0.17575909 0.23526734 9079428
0.77900004 -0.1620528 0.23430423 9144965
0.78609091 -0.16604087 0.23517829 9144708
0.79000002 -0.16988929 0.23483865 9079428
0.76370007 -0.15261573 0.23506343 12302773
0.77412504 -0.1587746 0.23419911 9341832
0.74900001 -0.14003117 0.23229465 14210514
0.75362498 -0.14487396 0.23519479 13618633
0.74815369 -0.13448495 0.23486236 14145491
0.7476387 -0.12489983 0.23537463 14211029
0.74760586 -0.11479099 0.23560297 14145235
0.7475149 -0.10523193 0.23509708 14078929
0.74738866 -0.095114142 0.23529577 14079184
0.74650007 -0.08477357 0.23522124 14210514
0.74472421 -0.075267985 0.23466606 13749964
0.74256253 -0.064733036 0.23496993 13947599
0.74111098 -0.05441159 0.23505317 14079184
0.74099988 -0.044862032 0.23501764 14079186
0.74136102 -0.035337869 0.23513365 13618892
0.74172217 -0.024936549 0.23524782 13553100
0.74332255 -0.014688425 0.23505183 13553357
0.74493128 -0.0048689027 0.23466995 13882323
0.74647224 0.0046124109 0.23500527 13882324
0.74843746 0.012289018 0.23562361 13684945
0.75155556 0.017742164 0.23494355 13553358
0.7535556 0.024746487 0.2349816 13224393
0.75396663 0.034662724 0.23471914 13421772
0.75429982 0.045273349 0.23482244 13487565
0.75499994 0.055226207 0.23447065 13422286
0.75526464 0.064989842 0.23449744 13553615
0.75716668 0.074694015 0.23482697 13750738
0.75874996 0.081065334 0.23531763 14013910
0.76147622 0.086835109 0.23501873 14408667
0.7676 0.091893874 0.23537016 14540253
0.77406257 0.096295685 0.23462941 11974580
0.78557146 0.10271931 0.23548916 10856096
0.79211116 0.1071922 0.2342307 10856096
0.79295999 -0.17498331 0.24500284 9079428
0.78576934 -0.16502224 0.24447177 9144965
0.79025 -0.16901775 0.24416408 9144965
0.76316673 -0.1525095 0.24472345 12040115
0.77483338 -0.15876891 0.24454051 9934225
0.75448269 -0.14465624 0.2451096 13684940
0.74886942 -0.13406183 0.24441114 14474456
0.75000006 -0.13816975 0.24606568 14211284
0.74843317 -0.12503302 0.24525897 14474456
0.74799985 -0.11445353 0.2451176 14211284
0.74767989 -0.10477803 0.24501154 14145234
0.74753326 -0.095132962 0.24496347 13947855
0.74660003 -0.084403075 0.24540694 14013392
0.74486673 -0.074741289 0.2449622 13684171
0.74355876 -0.065241069 0.24478941 13684685
0.74219996 -0.054491647 0.24495617 14013906
0.74199998 -0.044921827 0.24489026 13882065
0.74250001 -0.035392359 0.24505492 13289928
0.74273336 -0.024971008 0.24513128 13092548
0.74325716 -0.014423515 0.24455732 13487565
0.74436677 -0.0049855197 0.24479745 13882323
0.74580568 0.0046086842 0.24527031 14079701
0.74792856 0.014252176 0.2451552 13816529
0.75085717 0.019076707 0.243541 13487564
0.7528438 0.024975983 0.24510281 13553357
0.75550014 0.034735132 0.24492161 13684943
0.75588918 0.045368291 0.24504884 13816530
0.7553001 0.055056464 0.24485677 13750737
0.75466657 0.064730391 0.24465108 13750737
0.75689662 0.074545056 0.24522206 13882325
0.75858337 0.081491925 0.24547823 14211290
0.76228571 0.086928792 0.24478535 14474459
0.76900005 0.092061482 0.24119781 14868961
0.77399999 0.095600046 0.24509227 12697532
0.78600001 0.10341726 0.24491633 10855839
0.79154551 0.1085751 0.24506545 10658717
0.77675003 -0.16158473 0.25726271 8947074
0.7856667 -0.16466816 0.25439367 9078660
0.79150009 -0.16835897 0.25473765 9078659
0.75816673 -0.15061937 0.25466034 13092546
0.76400006 -0.15416607 0.25512841 12236981
0.77050006 -0.15667705 0.2533921 11973809
0.74900001 -0.14003117 0.258596 14540506
0.75351727 -0.1445919 0.25507298 13882320
0.7476896 -0.13441576 0.25479218 14606042
0.75000006 -0.13846238 0.25104031 14277077
0.74749976 -0.12487594 0.25457695 14540251
0.74729991 -0.11522162 0.25450915 14342871
0.74699986 -0.10555684 0.25440803 14342870
0.74683321 -0.095043764 0.25435048 14211284
0.74564528 -0.085405216 0.2554931 14211284
0.74461138 -0.075587124 0.25533682 13749965
0.7439999 -0.065073408 0.25512803 13684428
0.74322224 -0.054566704 0.25486177 13882321
0.74300003 -0.044983126 0.25478509 13882322
0.74369442 -0.0354487 0.25502378 13684687
0.74336112 -0.024993435 0.25491008 12895171
0.74291676 -0.01454256 0.25475636 13355979
0.74373335 -0.0049813548 0.25503626 13882323
0.74486136 0.0046016811 0.2554231 13882323
0.74642867 0.015220954 0.25433663 13421772
0.74765515 0.024806319 0.25526223 13355979
0.75100005 0.027933996 0.25137329 13487565
0.74830776 0.033796921 0.2574805 13421773
0.751926 0.035189498 0.25317994 13487566
0.74900001 0.040571332 0.2594727 13158600
0.75339478 0.045128383 0.25514054 13750737
0.75336671 0.054916397 0.25481132 13355979
0.75330567 0.064612702 0.25479078 13684687
0.75606656 0.074705034 0.25530985 13948116
0.75855559 0.082228951 0.25479168 14145496
0.76231253 0.08780729 0.25482371 14671841
0.76900005 0.092061482 0.25830013 14869221
0.77436841 0.095478036 0.25490278 12434618
0.78666669 0.10338882 0.25471765 10724510
0.79154545 0.108743 0.25517565 10658717
0.79255182 -0.17530236 0.26476708 9013380
0.77622229 -0.16248652 0.26486439 8947074
0.78630775 -0.16754103 0.26489103 9012867
0.79000002 -0.16988929 0.26257974 9144453
0.75819999 -0.15062599 0.26443571 13684427
0.76391673 -0.15444741 0.2646375 11710381
0.77166671 -0.15872078 0.26461449 9736590
0.74883336 -0.14175305 0.26701078 13684426
0.75210524 -0.14543386 0.26453188 13750477
0.74705702 -0.13517165 0.26499498 14474457
0.74697208 -0.12478851 0.2648904 14803422
0.74673337 -0.11513402 0.26480451 14671835
0.74652785 -0.10549065 0.26473138 14474456
0.74588913 -0.094924182 0.26450559 14342614
0.74500006 -0.08521755 0.26506326 14211284
0.7446335 -0.075589202 0.26493344 13882063
0.7439999 -0.064948998 0.26545388 13487308
0.74374992 -0.054605104 0.26549 13948114
0.74371427 -0.045212634 0.26516661 13882319
0.74400002 -0.035464209 0.26470742 13487305
0.74391425 -0.024886983 0.26542374 12763840
0.74355555 -0.014555163 0.26542115 13027268
0.74423087 -0.0051189605 0.26499122 13355978
0.74530023 0.0046043717 0.26517069 13553358
0.74633342 0.015093691 0.26466525 13224393
0.74697208 0.025597913 0.26489073 13092807
0.74763322 0.035247963 0.26512563 13290186
0.74895442 0.043517809 0.26678914 13158856
0.75035298 0.047361411 0.26345307 13289929
0.74900001 0.051091868 0.26999325 13224393
0.75116676 0.054757979 0.26461616 13290185
0.75302953 0.06438189 0.26501635 13421771
0.75569695 0.075676918 0.26484874 13948116
0.75862509 0.083605438 0.26491573 14277079
0.76116675 0.088451833 0.26457617 15066338
0.76700002 0.091822051 0.26480708 14013908
0.77455562 0.096357234 0.26499689 10724511
0.78622228 0.10333087 0.26469359 10658717
0.79090917 0.10848741 0.26523653 10592924
0.79214299 -0.17520928 0.27468437 8947842
0.77642864 -0.16203856 0.27364832 8881026
0.78609085 -0.16771491 0.2753295 8947588
0.75900006 -0.15078494 0.27093273 11644587
0.76375002 -0.15337333 0.27530181 11381674
0.7725715 -0.15839151 0.27616245 8618110
0.74783343 -0.14243968 0.27569798 13683917
0.7541666 -0.14717938 0.27538398 12631482
0.74577796 -0.13506535 0.27494049 14276824
0.74566692 -0.12456977 0.27489984 14539996
0.74596685 -0.11501544 0.27501172 14408410
0.7459169 -0.10540421 0.27499321 14079442
0.74522251 -0.094838873 0.27473655 14079185
0.74490011 -0.085206501 0.27461842 13948112
0.74494475 -0.075619265 0.27463502 13619404
0.74480647 -0.065285198 0.27528793 13618635
0.74490005 -0.054688204 0.27549255 13487308
0.74562985 -0.044948444 0.27537471 13947859
0.74555576 -0.035538815 0.27486262 13618893
0.74480665 -0.025183104 0.2752884 12697792
0.7445668 -0.014573955 0.27536881 13027012
0.74520707 -0.0048715579 0.27488327 13026756
0.74622232 0.0046106405 0.27510726 13355977
0.74699986 0.015106261 0.27539289 13092548
0.74774063 0.024555413 0.27518013 12895424
0.74872398 0.034271564 0.27503175 13158853
0.75000006 0.038869739 0.27913254 13356232
0.74899983 0.044428863 0.27393842 13093060
0.75000006 0.046068367 0.27825466 12895683
0.74900001 0.051091868 0.27174664 13290186
0.75028574 0.054944515 0.27509853 13355979
0.75308573 0.064570419 0.27514172 13619152
0.75600004 0.074750647 0.27531418 13948117
0.75859094 0.082986459 0.27474192 14342615
0.76041675 0.088364184 0.27499822 15196120
0.76466662 0.093421869 0.27571905 10459021
0.77263635 0.098088451 0.27521986 10592663
0.77711123 0.10152287 0.27587858 10461592
0.786421 0.10558539 0.27485654 10527385
0.79075003 0.10947458 0.27300951 10527386
0.78900003 0.11107937 0.27887091 10527131
0.778 -0.16184476 0.28135872 8881281
0.78564292 -0.16567287 0.28543293 8881537
0.79000002 -0.16988929 0.28384787 8882051
0.76250011 -0.15219776 0.28502759 11841967
0.77411115 -0.1584198 0.28488487 8684159
0.74707144 -0.14279553 0.2854121 13552331
0.75400001 -0.14744097 0.28532413 12433593
0.74502808 -0.13492839 0.28513038 14211286
0.74502808 -0.12446335 0.28513053 14342615
0.74570018 -0.11497369 0.28538674 14145491
0.74597239 -0.10541174 0.28549212 13948113
0.74541706 -0.094863527 0.285281 13750734
0.74522603 -0.085017875 0.28534827 13355976
0.74541199 -0.075409919 0.28507391 13092548
0.74573553 -0.065276235 0.28514591 13027012
0.74663335 -0.054815385 0.28487203 13355978
0.74707991 -0.045230217 0.28504184 13553101
0.74680001 -0.035598613 0.28493512 13289929
0.74636674 -0.025093824 0.28477105 12632256
0.74633336 -0.014608732 0.28475845 12566976
0.74668002 -0.0050018299 0.28489009 12895685
0.74699986 0.0046138177 0.28501093 13158858
0.74699986 0.015106261 0.28501096 12895685
0.7472499 0.024920808 0.28454313 12632512
0.74865615 0.0339269 0.28514951 12961477
0.75000006 0.038430799 0.28220513 13619405
0.74900001 0.043493703 0.28869641 13224393
0.75000006 0.045147926 0.2849319 13618893
0.74900001 0.056352135 0.28884253 13289929
0.7500385 0.054944709 0.2843467 13684687
0.74900001 0.065119252 0.28840417 13421771
0.75116014 0.06509766 0.2832894 13553101
0.74900001 0.07125622 0.28928089 13290182
0.75307894 0.07517413 0.28500396 13882065
0.75771433 0.084885038 0.28516784 14933720
0.76000005 0.08920487 0.28285432 15918040
0.75900006 0.090864323 0.28958946 13418940
0.76267862 0.095073827 0.28467584 10850946
0.76900005 0.1010627 0.28710404 10589058
0.77477282 0.10529032 0.28538287 10395026
0.78420001 0.1082021 0.28194207 10461338
0.78695655 0.11399865 0.28575322 10395545
0.79100007 0.11714939 0.28212222 10395545
0.78891677 0.12415002 0.28884521 10461338
0.78900003 0.13139705 0.28995332 10461338
0.77800006 -0.16002345 0.29501742 8486523
0.78620005 -0.16429105 0.2953628 8749952
0.79040003 -0.16812496 0.29602021 8750465
0.76050007 -0.15108292 0.29283285 11578541
0.77437508 -0.15769385 0.29499799 8815488
0.74750006 -0.1423756 0.29220194 13487052
0.75475007 -0.14508356 0.2961407 12894914
0.74536365 -0.13538736 0.29215965 14211031
0.75125009 -0.13605423 0.29718465 14277081
0.745 -0.12358684 0.29180551 14408664
0.75200003 -0.12298916 0.29748133 14409437
0.74540007 -0.11492682 0.29225299 14211541
0.75200003 -0.11506248 0.29748133 14146265
0.74658346 -0.10549629 0.29271704 14014162
0.75316668 -0.10466485 0.29794288 14277851
0.7465834 -0.095013015 0.29271701 14211541
0.75280005 -0.094922289 0.29779783 14408920
0.74666667 -0.084532835 0.29274982 13948369
0.75283337 -0.085232951 0.297811 14014162
0.74733335 -0.074548967 0.29344937 13553611
0.75100005 -0.075794175 0.29752588 13816783
0.74723989 -0.065112434 0.29426968 13487818
0.75000006 -0.069987603 0.29844594 14014162
0.74757141 -0.055134714 0.29373127 13684941
0.75050008 -0.051585868 0.2986449 14145748
0.7481764 -0.044677794 0.29256985 13684941
0.75099999 -0.044588402 0.297966 13948112
0.7479375 -0.035104323 0.29226458 13421514
0.75129998 -0.034932077 0.29808539 13487306
0.74811101 -0.025152126 0.29244158 12829378
0.75133342 -0.02526124 0.29809865 12829378
0.74765509 -0.01448589 0.29389313 12763842
0.75000006 -0.01907046 0.29844594 12763585
0.74715996 -0.0050054193 0.29381827 13027014
0.7471469 0.0048207012 0.2944307 13356236
0.74730539 0.015112992 0.29475111 13224649
0.74772 0.024748728 0.29404017 13027527
0.74872416 0.034271561 0.29431248 13027784
0.75000006 0.038869739 0.29844594 13290956
0.74899983 0.045991004 0.29414269 13290186
0.75000006 0.042161789 0.29603177 13355979
0.74859995 0.055444784 0.29438409 13290186
0.74840003 0.065067083 0.29430521 13289929
0.74876916 0.071841314 0.29445022 13355976
0.75089473 0.077313483 0.29473105 13816526
0.75614291 0.085217431 0.29469305 14802394
0.75900006 0.090864323 0.29491997 14603728
0.7625652 0.095721051 0.29475155 10389627
0.76900005 0.1010627 0.29520512 11047039
0.77519053 0.10646241 0.29507363 10194559
0.78542864 0.11513431 0.29485744 10329750
0.7886399 0.1242485 0.29476964 10395545
0.79000002 0.12823465 0.29882807 10329752
0.78900003 0.13139705 0.29272389 10461338
0.79069567 0.13570468 0.29476318 10461338
0.7865001 -0.16269438 0.30468756 9144709
0.79140007 -0.16741231 0.30565792 8947843
0.76900005 -0.15097131 0.30420634 12303034
0.77540004 -0.15477245 0.30582976 10855585
0.78300005 -0.15921886 0.30791152 9013635
0.75900006 -0.14190076 0.30202729 13882066
0.76650006 -0.14510903 0.305906 13487306
0.75849998 -0.13736695 0.30182829 14474203
0.76666665 -0.13525407 0.30687284 14605789
0.75866669 -0.12230265 0.30189463 14606559
0.76414293 -0.12574072 0.3053543 14343389
0.75880003 -0.11521697 0.30194768 14606816
0.76319999 -0.11445799 0.30548525 13685716
0.75900006 -0.10547569 0.30202726 14277851
0.76300001 -0.10692465 0.3054052 13619923
0.75900006 -0.094814695 0.30202726 14540253
0.76300001 -0.092635088 0.3054052 14079702
0.75839996 -0.084976293 0.30178851 14606043
0.76179999 -0.085356772 0.30492488 13882323
0.75662506 -0.075035036 0.30196884 13947857
0.7608 -0.075270124 0.30559349 12894914
0.75527269 -0.064694546 0.30327988 13618894
0.76183343 -0.064854205 0.30850515 9802644
0.75509095 -0.055033445 0.30304515 13882577
0.76020002 -0.054923594 0.30784374 10855845
0.7566666 -0.044926278 0.30464479 13290184
0.76050001 -0.043373264 0.30974555 10987427
0.75656247 -0.035398398 0.30482477 13487305
0.76000005 -0.034447707 0.30954191 11513771
0.75700003 -0.025450977 0.3047789 12764099
0.76083344 -0.025578881 0.3098813 11843255
0.7560001 -0.014799931 0.30437809 12829892
0.7610001 -0.014896373 0.30994919 12501184
0.75539994 -0.0050619319 0.30413717 13158600
0.76100004 -0.0050980421 0.30994919 13290439
0.75431585 0.0045170644 0.30500197 13290442
0.76000005 0.00024617839 0.30954191 13422025
0.74900001 0.012516573 0.30155483 13356749
0.75226676 0.015742149 0.30498567 13356235
0.75349998 0.024940409 0.30425513 13290443
0.75253862 0.034868136 0.30420476 13356492
0.7526297 0.044878509 0.30439249 13290443
0.75328571 0.055163059 0.30404276 13553358
0.75478262 0.064931281 0.30488843 13289929
0.75587499 0.074454673 0.30432761 13422025
0.76033336 0.075597413 0.30908462 12303287
0.75790006 0.083992615 0.30265445 13618891
0.7614001 0.085983612 0.30637023 11776946
0.76485711 0.094384439 0.30397639 10720907
0.77175003 0.099165604 0.30755442 9864308
0.77480006 0.10500555 0.30423236 10128766
0.78050005 0.10988269 0.3060154 10788498
0.78663635 0.115189 0.30523762 10198165
0.78900003 0.12031468 0.30288273 10198167
0.79104358 0.12505662 0.30560109 10329753
0.78875005 -0.16084985 0.31478918 9474187
0.7917369 -0.16568132 0.31564003 9408394
0.77850008 -0.15192452 0.31252119 9211018
0.78618187 -0.15585189 0.31602469 9408395
0.79000002 -0.15879287 0.31991127 9474188
0.77740002 -0.14533563 0.31408316 9342345
0.78100002 -0.14419016 0.31626672 9078917
0.77900004 -0.13743347 0.31545681 8815235
0.78149998 -0.13421902 0.3169286 9012870
0.77700001 -0.12435076 0.3146469 8684419
0.78375 -0.12450191 0.31875861 9013638
0.77566671 -0.11505675 0.31410694 8684419
0.78400004 -0.11537641 0.31931692 9079687
0.77580005 -0.10508655 0.31416097 8487040
0.78466672 -0.10536709 0.31958842 8882308
0.7753334 -0.095040768 0.313972 8289918
0.78320003 -0.095091291 0.31899107 8619137
0.77514297 -0.08425732 0.31441522 8223869
0.78099996 -0.087508656 0.31809503 8618883
0.77444446 -0.075892575 0.31522679 8223867
0.78000003 -0.074613102 0.31951374 8619134
0.76700002 -0.06349396 0.31239292 8684419
0.77380002 -0.064964965 0.31697401 8289917
0.76560009 -0.053519107 0.31218278 10790051
0.77320009 -0.054958474 0.31763515 8224121
0.76455563 -0.044893935 0.31319001 10592671
0.77150005 -0.045354884 0.31828976 8224120
0.76441669 -0.034645069 0.31402785 11447979
0.77099997 -0.034944732 0.31943688 7894643
0.76612496 -0.025533762 0.31450516 11645362
0.77000004 -0.02228288 0.31721997 11908535
0.76600003 -0.014994246 0.31377888 10724516
0.77116674 -0.015092065 0.31770062 11645362
0.76600003 -0.005131538 0.31377888 10527133
0.77200001 -0.005171732 0.31804392 11513771
0.75900006 0.0091300178 0.31091145 11184806
0.76412505 0.0044944137 0.31368446 11250086
0.77149999 0.0011523658 0.31783795 11579564
0.75799996 0.015327149 0.31050181 11053222
0.76272732 0.015826536 0.31503785 11842736
0.77000004 0.011064921 0.31902257 12303544
0.75844443 0.025497977 0.31147358 11184551
0.76318192 0.024933457 0.31685108 12303288
0.75776923 0.034906566 0.31204602 11710638
0.76200008 0.034141123 0.31689888 12500923
0.75800008 0.046027415 0.31263262 11776688
0.76100004 0.044784371 0.31707525 12435130
0.75840002 0.055285107 0.31155413 11447466
0.76127279 0.055008542 0.31637999 12369337
0.75900006 0.063323416 0.31091145 11118243
0.76217651 0.065111257 0.31515518 12302771
0.7653001 0.074237637 0.3142134 9671823
0.77140003 0.077540919 0.31779769 8816514
0.76719999 0.084663279 0.31175619 11842996
0.77330005 0.085335493 0.31695229 9474445
0.77433336 0.094755217 0.31453821 9539719
0.78000003 0.097030342 0.31951374 9803408
0.77700007 0.10257085 0.31260142 8551020
0.78330004 0.10606096 0.31646723 10198162
0.78744447 0.11393607 0.31437111 10198166
0.79016668 0.11740986 0.3178207 10263959
0.79245466 0.12430319 0.31483519 10264473
0.78900003 -0.15212713 0.32135338 9540238
0.79275012 -0.15535431 0.32613188 9606030
0.78740007 -0.14536844 0.32070172 9277066
0.78685719 -0.135269 0.32100835 9276809
0.78600001 -0.12762818 0.32013148 9145480
0.78860009 -0.09389843 0.32303658 8948099
0.79283339 -0.095327921 0.32724634 9211271
0.78680003 -0.084476881 0.32229924 9013892
0.79159999 -0.084990345 0.32704592 9079685
0.78611118 -0.075197145 0.32386044 8948099
0.79111111 -0.075676478 0.3290045 9145478
0.77800006 -0.06349548 0.32051578 8816513
0.78600001 -0.065062843 0.3256551 9013892
0.79000002 -0.066322654 0.32915828 9079685
0.77733332 -0.054340746 0.32145455 8618877
0.78477788 -0.055065874 0.32657692 8948099
0.7750001 -0.044702753 0.3223058 8684671
0.78233337 -0.045839671 0.32779658 8948098
0.77516675 -0.035136126 0.32388684 8487549
0.78220004 -0.034539308 0.32957065 8750720
0.77521437 -0.025414977 0.32287198 7829366
0.78219998 -0.025384525 0.32920548 8421756
0.77570003 -0.015909955 0.32211223 8618626
0.78237504 -0.014397249 0.32735604 8092281
0.77560008 -0.0051944442 0.32134274 11777457
0.78410006 -0.0052516209 0.32762027 8355709
0.77557141 0.0041423286 0.3221108 12172472
0.78412509 0.003923831 0.3280887 8355968
0.77399999 0.016329704 0.32385427 9539985
0.78066665 0.014264646 0.32831594 7631731
0.76900005 0.020051764 0.32040852 12303291
0.77420008 0.02526034 0.32584113 9210764
0.76900005 0.039854437 0.32220876 12632509
0.7737335 0.034665778 0.32600889 10855588
0.76860011 0.04523303 0.32204115 12303544
0.77475005 0.044685427 0.32734036 10987431
0.76880008 0.054243207 0.32212496 12500923
0.77375007 0.055493977 0.32661647 12500923
0.76900005 0.068658322 0.32040852 13947594
0.77426678 0.06490051 0.32623178 13158852
0.77520001 0.073931828 0.32353818 9868944
0.78250003 0.077193365 0.32786578 9079685
0.77800006 0.083428383 0.32172921 9474443
0.78488898 0.086000793 0.32601166 9408650
0.78626662 0.095108673 0.32527575 9869201
0.79000002 0.097349614 0.32915828 9869201
0.78792316 0.1051116 0.32361194 10066580
0.79100001 0.10557511 0.3284179 10066580
0.78900003 0.11107937 0.32135338 10329752
0.79219991 -0.074853934 0.33563879 9342857
0.79196006 -0.064633682 0.33553874 9277064
0.78880006 -0.054034568 0.33124372 9211270
0.79163152 -0.055827711 0.33637595 9211271
0.7876001 -0.044919506 0.33276898 9145477
0.79192311 -0.045521554 0.33808953 9211271
0.78766674 -0.034371119 0.33453858 9013892
0.79099995 -0.03554536 0.33852541 9079685
0.78761542 -0.02442353 0.33440748 8619391
0.79000002 -0.024711059 0.33840528 8817027
0.78738463 -0.015340273 0.33303314 8487548
0.79037499 -0.013851834 0.33787239 8554112
0.78844452 -0.0056923544 0.33302259 8224121
0.79136366 -0.0049637067 0.33781168 8619904
0.78850001 0.0048683858 0.33222508 7829620
0.79182363 0.0046180789 0.33722588 8488061
0.787 0.014992933 0.33343703 8027000
0.79137498 0.014380289 0.3382999 8356733
0.78564292 0.024821296 0.33496669 8224891
0.79000002 0.020599341 0.33840528 8356732
0.78619999 0.035224788 0.33585963 8421762
0.78541678 0.04529969 0.33552566 8618884
0.77900004 0.057697408 0.33186969 10066329
