# .PCD v0.7 - Point Cloud Data file format
VERSION 0.7
FIELDS x y z rgb
SIZE 4 4 4 4
TYPE F F F U
COUNT 1 1 1 1
WIDTH 709
HEIGHT 1
VIEWPOINT 0 0 0 1 0 0 0
POINTS 709
DATA ascii
0.79338461 -0.64509398 -0.42493743 11314357
0.78900003 -0.63328707 -0.42116603 13682899
0.79133338 -0.63515776 -0.42472914 12761543
0.78900003 -0.6286695 -0.421166 14077912
0.79250008 -0.62454575 -0.42509899 12433087
0.79413038 -0.61533266 -0.42487985 12696260
0.79400003 -0.60515195 -0.42372894 12761796
0.79393744 -0.59473187 -0.42392102 12104635
0.79450005 -0.58468747 -0.42410639 11775671
0.796 -0.57507521 -0.42502421 11643827
0.79647052 -0.56546289 -0.4250479 11512498
0.79676467 -0.5550319 -0.42520434 11512242
0.79664284 -0.5441733 -0.42391637 11972792
0.79620004 -0.53468335 -0.42314905 12367806
0.79662496 -0.5247125 -0.42337489 11709876
0.79618186 -0.51467776 -0.42212066 11644596
0.78900003 -0.6417836 -0.41377777 12564680
0.79153848 -0.64658761 -0.41524914 11182771
0.78726315 -0.63519239 -0.41529384 13617363
0.78681475 -0.6246376 -0.41488659 13814997
0.79000002 -0.62114394 -0.41985044 14077912
0.7884444 -0.61571532 -0.41358969 13814742
0.79012501 -0.61384284 -0.41783598 13880533
0.78900009 -0.60507745 -0.41293824 13683156
0.79049999 -0.60488188 -0.4173409 13814740
0.78853339 -0.59427005 -0.4132877 13683669
0.79000002 -0.59586877 -0.41769278 13749204
0.78826672 -0.58471966 -0.41339409 13815255
0.79000002 -0.58508056 -0.41800103 13946839
0.78831255 -0.57517916 -0.41341826 13749717
0.79057139 -0.57400167 -0.41803914 14210009
0.78845459 -0.56505829 -0.41248551 13880789
0.79072726 -0.56483513 -0.41737702 14275801
0.78866673 -0.55455178 -0.41268024 13946583
0.79145455 -0.5550791 -0.41792956 14604769
0.78900003 -0.54393542 -0.4112381 14472927
0.7913751 -0.54534018 -0.41664636 14407390
0.78900003 -0.53539276 -0.41090462 14736097
0.79133326 -0.53481454 -0.41577438 14605026
0.78900003 -0.52615744 -0.41146898 14538462
0.7911818 -0.52508622 -0.41610229 14210011
0.78900003 -0.51538289 -0.41162291 14407644
0.7914167 -0.51479727 -0.4159725 14275804
0.78900003 -0.50560892 -0.41146901 14605023
0.79189998 -0.50491643 -0.4162268 13683921
0.78900003 -0.49475735 -0.41082248 14473436
0.79294121 -0.49471182 -0.41617608 13223112
0.78900003 -0.48921618 -0.41008365 15066344
0.79338092 -0.48520532 -0.41519728 13289165
0.79347825 -0.47511038 -0.41508207 13354701
0.79463649 -0.46505687 -0.41538465 13157322
0.79614288 -0.45521292 -0.41442171 13355215
0.79631257 -0.41452244 -0.41412064 12828356
0.79566669 -0.40518239 -0.41516715 12433854
0.79529417 -0.39498785 -0.41532975 12171452
0.79616678 -0.38482794 -0.41536614 12368574
0.7964167 -0.65322489 -0.40461242 10262182
0.78900003 -0.64104474 -0.40454245 12038592
0.7911818 -0.64531052 -0.40431312 10393769
0.78600001 -0.63456261 -0.40509269 13815256
0.78491908 -0.6245932 -0.40507904 13815255
0.7877779 -0.61483598 -0.40509349 13881048
0.78800005 -0.60481358 -0.40495211 13946841
0.78771889 -0.59503245 -0.40457618 13683926
0.78703243 -0.58487344 -0.40442258 13749976
0.78684872 -0.57495886 -0.40460861 13749975
0.78733331 -0.56509221 -0.40452415 14078938
0.78720689 -0.55514652 -0.40527591 13749205
0.78784853 -0.5450061 -0.40445495 14209499
0.78800005 -0.53471422 -0.4040297 14604512
0.78757697 -0.52520895 -0.40473491 14472927
0.78734487 -0.51488435 -0.40541127 14604255
0.78682607 -0.50428575 -0.40495193 14867939
0.78691691 -0.49529311 -0.40508875 14473437
0.78739125 -0.48525235 -0.4045215 14868197
0.78814989 -0.47485095 -0.40410811 15131626
0.79000002 -0.47504097 -0.40875396 14802404
0.78868747 -0.46559644 -0.40288264 14802404
0.79058337 -0.46397749 -0.40782246 15065061
0.78900003 -0.45904747 -0.40146402 15196649
0.79143482 -0.4547956 -0.40530947 14801889
0.79299998 -0.44528306 -0.40474117 14999780
0.79286957 -0.43536589 -0.40499738 14604765
0.79223824 -0.42516333 -0.40523523 14210007
0.78900003 -0.41163954 -0.40084833 14276056
0.79126316 -0.41525763 -0.40492558 14276056
0.78900003 -0.40425125 -0.40146407 14341849
0.79100001 -0.40492818 -0.40684274 14802400
0.78885716 -0.39468113 -0.40249088 14539228
0.79045451 -0.39523876 -0.40781233 14539999
0.78881818 -0.38518819 -0.40176347 14473436
0.79064703 -0.38538748 -0.40713042 14671071
0.78877783 -0.37582281 -0.40135115 14802656
0.791875 -0.37420526 -0.40648195 15329771
0.79521745 -0.36574256 -0.40408698 14211291
0.78900003 -0.64067537 -0.39900127 12038592
0.79225004 -0.64528811 -0.39473003 10327462
0.78765213 -0.63485318 -0.39535132 14209501
0.79000002 -0.63963795 -0.39025995 14604260
0.78669441 -0.62498891 -0.39507127 14341085
0.78793555 -0.61505765 -0.39495203 14406877
0.78839284 -0.60452092 -0.39480415 14472928
0.78855544 -0.59457386 -0.39528823 14342112
0.78867984 -0.58502585 -0.3951456 14276320
0.79000002 -0.58323109 -0.39025995 14670819
0.78882736 -0.57513803 -0.39509264 14078684
0.79000002 -0.57675821 -0.39025995 14408160
0.7883845 -0.56471884 -0.39513996 14276317
0.78786212 -0.55478197 -0.39549935 14144732
0.78800005 -0.54486006 -0.39480621 14342111
0.78831995 -0.53493196 -0.39496547 14736612
0.78785199 -0.52518731 -0.39514107 14209754
0.78725022 -0.51485485 -0.3953509 14604513
0.78624994 -0.50434053 -0.39511228 14999270
0.78530753 -0.49449298 -0.39515537 14605023
0.78515989 -0.48499706 -0.39522186 14933988
0.78682911 -0.47510788 -0.39502722 15526125
0.78859991 -0.46496734 -0.3951062 15329004
0.79000002 -0.46024573 -0.39118463 15526895
0.78900003 -0.45904747 -0.39684638 15000295
0.79043359 -0.45432845 -0.39472935 14868708
0.79171425 -0.44515896 -0.39487895 15262952
0.79070395 -0.43453681 -0.39471996 14999779
0.78900003 -0.42149052 -0.39776993 14078679
0.7900002 -0.42544958 -0.39450663 14473179
0.78899986 -0.41484758 -0.39627931 14210264
0.79000002 -0.41715464 -0.39173949 14144470
0.78886646 -0.40510696 -0.39523989 14670814
0.78847998 -0.39475593 -0.39504525 14605021
0.78816003 -0.38537037 -0.39488566 14539228
0.78786677 -0.37508175 -0.3947393 14736608
0.78872734 -0.36768615 -0.39433157 15394792
0.79410356 -0.36307189 -0.39497441 14408155
0.7931177 -0.64576888 -0.38502735 10589863
0.78845447 -0.63377309 -0.38488159 14407136
0.79000002 -0.63932973 -0.38409528 14603491
0.787871 -0.62518126 -0.38474524 14604515
0.78802788 -0.61498111 -0.38467371 14538977
0.78891635 -0.60459346 -0.38510802 14538977
0.78899992 -0.59609962 -0.38594866 14604770
0.79000002 -0.59364951 -0.38483503 14670563
0.78900003 -0.58803403 -0.38976595 14802148
0.79000026 -0.58508056 -0.38471174 14670820
0.78900003 -0.57110262 -0.38915026 14539746
0.79000014 -0.57506293 -0.38455763 14473955
0.7889998 -0.56444854 -0.38557455 14408162
0.79000002 -0.56889826 -0.38286233 14473956
0.78865612 -0.55512238 -0.38474813 14276576
0.78829408 -0.54479182 -0.38501939 14210783
0.78899974 -0.53539276 -0.38514817 14934246
0.78833336 -0.52571386 -0.38482195 14143963
0.7879715 -0.51545787 -0.38477787 14801893
0.7865417 -0.50441837 -0.38471517 14867684
0.78519994 -0.49482581 -0.38525262 14736611
0.78521204 -0.48519465 -0.38510719 14999783
0.78757507 -0.47514758 -0.3846361 15460332
0.78889263 -0.46540457 -0.38522783 15657711
0.79000002 -0.46077409 -0.38444754 15723761
0.7906298 -0.45464656 -0.38494942 15526382
0.79177415 -0.44495499 -0.38509727 15526125
0.79118532 -0.43521225 -0.38487667 15526124
0.79109389 -0.42465335 -0.38460624 14999780
0.78900003 -0.41163954 -0.38976595 14539228
0.79048169 -0.41460627 -0.38487598 14605021
0.78900009 -0.40374753 -0.38859054 14868193
0.79005003 -0.40534431 -0.38399607 14802400
0.7889998 -0.39460546 -0.38545612 14867680
0.79000002 -0.39921537 -0.38286233 14802400
0.78893524 -0.38557068 -0.38496748 14868193
0.78831422 -0.37516284 -0.38494405 14934242
0.78900003 -0.36841828 -0.38588718 15723759
0.79374284 -0.36340064 -0.38477775 14342103
0.79285723 -0.64487201 -0.37470067 11380405
0.78866667 -0.63302034 -0.37483102 14473185
0.79000002 -0.63809675 -0.3760812 14406623
0.78800005 -0.62510556 -0.37451419 14604771
0.78800005 -0.6149596 -0.37451419 14604770
0.787889 -0.60431719 -0.37466753 14604771
0.78876179 -0.596165 -0.37452516 14670564
0.79000002 -0.59208184 -0.37572891 14736356
0.79060024 -0.5853917 -0.37495553 14736357
0.79074216 -0.5752703 -0.37474161 14736357
0.78900003 -0.56125164 -0.3786836 14538978
0.79027301 -0.56501561 -0.37452784 14604770
0.78900003 -0.55404806 -0.37794477 14407906
0.79038095 -0.55500919 -0.37308949 14538720
0.78899997 -0.54420179 -0.37712067 14408161
0.79000002 -0.54578066 -0.37315297 14538721
0.78899986 -0.53483856 -0.37572828 14999270
0.79000002 -0.53829062 -0.37250566 15196392
0.78859991 -0.52589208 -0.37479931 14209755
0.78754848 -0.51490217 -0.37447813 14802148
0.78703344 -0.50457901 -0.37497571 14736356
0.78736371 -0.49507123 -0.37487933 14868199
0.78772724 -0.48524052 -0.37555581 15262955
0.78843331 -0.47502103 -0.37471902 15263210
0.78899986 -0.4662737 -0.37518388 15526126
0.79000002 -0.46142262 -0.37512845 15657967
0.79077446 -0.45496267 -0.37475696 15592174
0.79168749 -0.44558939 -0.37504932 15723760
0.7920357 -0.43527588 -0.37517229 15723504
0.79142427 -0.42519996 -0.37479419 15394539
0.79113811 -0.41447988 -0.37491998 14933987
0.79029649 -0.40512213 -0.37519386 14999778
0.78899986 -0.3940438 -0.3754755 14867936
0.79000002 -0.39859894 -0.37392354 14802400
0.78899974 -0.38485712 -0.37498945 14933986
0.7889998 -0.37501949 -0.3752304 14934500
0.79000002 -0.37147436 -0.37269062 15197930
0.78900003 -0.36915708 -0.3786836 15329516
0.79404551 -0.36478454 -0.37501526 14276570
0.79266667 -0.64417124 -0.36539119 11643577
0.78870583 -0.63316035 -0.36496595 14604771
0.79000002 -0.63778853 -0.365293 14341343
0.78800005 -0.62510556 -0.36529061 14736356
0.78809094 -0.6147787 -0.36482897 14670563
0.78820586 -0.60431945 -0.36424449 14670820
0.78887486 -0.59671259 -0.36661923 14670820
0.79030001 -0.59307224 -0.36395127 14671077
0.79131043 -0.58512354 -0.36509883 14736871
0.7916128 -0.57458711 -0.36475137 14605541
0.79196417 -0.56541312 -0.36467633 14539492
0.79174066 -0.55537558 -0.3649641 14473185
0.79093772 -0.54503977 -0.36572507 14604257
0.78900003 -0.53169864 -0.36852473 14933220
0.79022241 -0.53533196 -0.3650867 15130600
0.78861523 -0.52561802 -0.36514923 14275804
0.78756678 -0.51506293 -0.36508957 14539489
0.78700006 -0.50455755 -0.36482704 14737125
0.78776675 -0.49490502 -0.36518303 15131883
0.78893083 -0.48535192 -0.36495778 15329005
0.7889998 -0.47600251 -0.36618045 15197419
0.79000002 -0.47430119 -0.36177912 15328747
0.78900003 -0.4676671 -0.3682169 15066089
0.79043359 -0.46444482 -0.36481377 15066088
0.7912308 -0.45519197 -0.36479253 15263723
0.79189998 -0.44528341 -0.36518201 15526895
0.7931999 -0.43531722 -0.36478201 15724018
0.79254836 -0.42480311 -0.36476213 15526638
0.79240608 -0.41492411 -0.36431611 15197672
0.79085726 -0.40493965 -0.36529019 15065571
0.78900003 -0.39206067 -0.36797062 14801887
0.79012018 -0.39616889 -0.36471912 14867679
0.78899974 -0.38423157 -0.3653371 15065316
0.79000002 -0.38922864 -0.36214903 14933473
0.78899992 -0.37677619 -0.3652924 15000037
0.79026318 -0.37208417 -0.36478168 15263722
0.79477149 -0.36578706 -0.36518148 14343646
0.79272223 -0.64380395 -0.35490072 11972545
0.78883332 -0.63253802 -0.35582721 14538978
0.79011112 -0.63685077 -0.35414326 14341600
0.78867632 -0.62499022 -0.35523078 14736101
0.78882736 -0.61525452 -0.35529384 14670565
0.79000002 -0.61004746 -0.35142246 14736357
0.78900009 -0.60692447 -0.35668677 14670821
0.79000002 -0.60378003 -0.35409385 14736357
0.79094297 -0.59490252 -0.35475039 14802405
0.7923609 -0.58497339 -0.35525385 14802406
0.79303712 -0.57546848 -0.35504112 14736869
0.79259259 -0.56545782 -0.35484329 14539233
0.7917667 -0.55574411 -0.35529861 14670563
0.79065412 -0.54520011 -0.35548767 14867428
0.79014307 -0.53491342 -0.35498783 15064807
0.78894436 -0.52314478 -0.3548516 14341854
0.79000002 -0.52814525 -0.35485706 14144218
0.78768766 -0.51456535 -0.35523412 14605281
0.78663337 -0.50432241 -0.35452786 14868709
0.7876389 -0.49482426 -0.35498142 15263467
0.78888446 -0.48559263 -0.35483247 15460334
0.79000002 -0.48058921 -0.35419655 15394541
0.78900003 -0.47998086 -0.35836589 15394539
0.79108357 -0.47445473 -0.35467929 15328748
0.7933529 -0.46498314 -0.35569581 15262954
0.79303223 -0.45476681 -0.35570285 15197416
0.79318184 -0.44482332 -0.35525471 15263210
0.79551524 -0.43535334 -0.35471928 15460845
0.79547071 -0.42498285 -0.35500374 15329259
0.79442316 -0.41461352 -0.35503322 15132137
0.79242849 -0.40415424 -0.35495323 15000038
0.79100007 -0.39476141 -0.35451135 14868195
0.78899997 -0.38194445 -0.35524008 14999782
0.79000002 -0.38725594 -0.35499799 14999781
0.78900009 -0.37704909 -0.35551134 14934246
0.79071438 -0.37251353 -0.35447204 15197930
0.79566675 -0.36757001 -0.35509303 15264233
0.79650009 -0.65515947 -0.34452492 10920624
0.79217654 -0.64467531 -0.34530109 11775167
0.78900003 -0.63254827 -0.34469756 14736357
0.79000002 -0.63736182 -0.34558976 14538978
0.78899974 -0.62497526 -0.34543657 14736357
0.7889998 -0.61481649 -0.34543639 14604772
0.79000002 -0.61004746 -0.34864837 14736356
0.78900009 -0.60574907 -0.34274977 14736356
0.79000002 -0.60417289 -0.34728852 14736355
0.79083347 -0.59495175 -0.34469655 14802148
0.79286653 -0.58534598 -0.34527364 14802149
0.79323995 -0.57541037 -0.34543696 14867942
0.79203993 -0.56526965 -0.34491435 14275806
0.79040015 -0.55484736 -0.3445698 14670564
0.78899986 -0.54385036 -0.34465873 14670564
0.79000002 -0.54778421 -0.34834012 14999529
0.7889998 -0.53564459 -0.34493279 15327979
0.79000002 -0.53329718 -0.34957305 15196393
0.7889998 -0.52513129 -0.34529966 14407390
0.79000002 -0.52867371 -0.34957305 14210011
0.7879616 -0.51461017 -0.34483975 14671075
0.78771996 -0.50501883 -0.34487498 14934247
0.78846657 -0.49534443 -0.34520236 15460848
0.78899986 -0.48644558 -0.34543645 15329519
0.79000002 -0.4817273 -0.34459388 15329518
0.79317504 -0.47494727 -0.34498698 15329261
0.79528129 -0.4648346 -0.34521946 15263466
0.79512125 -0.45471156 -0.34535155 15395053
0.79611135 -0.44454542 -0.34575132 15591918
0.79624009 -0.42473626 -0.34487942 15263464
0.79503453 -0.41465962 -0.34512636 15329001
0.79284614 -0.404511 -0.3450498 15000550
0.79133344 -0.39448714 -0.34476009 14803171
0.78900003 -0.38106036 -0.34584689 15065831
0.79000002 -0.38584927 -0.34419295 15000294
0.78900003 -0.3783924 -0.3449747 15065831
0.79040027 -0.37406591 -0.34475362 15066342
0.79595828 -0.36697081 -0.34506395 14343128
0.79616666 -0.6542632 -0.33500737 10920110
0.7918824 -0.64498067 -0.33492038 11905724
0.7889998 -0.63395876 -0.3356134 14736358
0.79000002 -0.63910955 -0.33398524 14538979
0.78899974 -0.62497526 -0.33527747 14736357
0.78899974 -0.61481649 -0.33527753 14670563
0.78899974 -0.60502148 -0.33564138 14736356
0.79000002 -0.60141689 -0.33169547 14736355
0.78900003 -0.59819293 -0.33712465 14933734
0.79080009 -0.59418648 -0.33437511 14802148
0.79205537 -0.58474839 -0.33472225 14867941
0.79206657 -0.57455879 -0.33472684 14736355
0.79107702 -0.56472546 -0.33502048 14538977
0.78900003 -0.55016929 -0.33527765 14802920
0.79000002 -0.55549008 -0.33477777 14276576
0.78899974 -0.54462808 -0.33527756 14802919
0.78899974 -0.53539282 -0.33527756 15065577
0.78893518 -0.52593601 -0.33510107 14407647
0.78790915 -0.51536953 -0.33523354 14736355
0.78773087 -0.50488341 -0.33544821 15262955
0.78868949 -0.4964079 -0.33568665 15461104
0.79025 -0.49230325 -0.33326438 15592690
0.78900003 -0.48773852 -0.33915645 15526641
0.79117149 -0.4848974 -0.33405438 15395311
0.79388565 -0.4753547 -0.3352012 15395310
0.79552001 -0.46532521 -0.33525428 15066346
0.79533333 -0.45497322 -0.33517602 15329260
0.79577291 -0.43515816 -0.33561486 15723502
0.79510009 -0.42505905 -0.33507818 15460330
0.79500002 -0.41476983 -0.33503559 15328744
0.79331034 -0.40447724 -0.33509001 15329001
0.7918666 -0.39459845 -0.33464 15000037
0.79050028 -0.38480651 -0.33477446 14934244
0.79087895 -0.37440977 -0.3346433 15132135
0.79571432 -0.36683652 -0.33519986 13751251
0.79260874 -0.64449674 -0.32499024 12827594
0.78900003 -0.63236356 -0.3288129 14802152
0.79000002 -0.63473701 -0.32488355 14736358
0.7889998 -0.62453067 -0.32546082 14802150
0.79000002 -0.62854153 -0.321832 14867945
0.7889998 -0.61481649 -0.32511878 14736357
0.79000002 -0.61004746 -0.32368141 14933734
0.78900003 -0.60865957 -0.32819721 14802150
0.79080015 -0.60405988 -0.32499495 14867941
0.79319453 -0.59523129 -0.32524437 14867942
0.79315388 -0.58477521 -0.32475716 14867942
0.79211998 -0.57459772 -0.32454956 14802148
0.79085207 -0.56448984 -0.32512787 14539232
0.78900003 -0.55127752 -0.32437995 14868453
0.79000002 -0.55629152 -0.326024 14539232
0.7889998 -0.54462796 -0.32511875 14934247
0.7889998 -0.53539276 -0.32511875 15197419
0.78899974 -0.52523398 -0.32511869 14604769
0.78751862 -0.51390451 -0.32491791 14802919
0.78703451 -0.50470555 -0.32507136 15197932
0.78864288 -0.49835697 -0.32523546 15526639
0.79100007 -0.49341714 -0.32490483 15592433
0.79263324 -0.48497331 -0.32475978 15460846
0.79479408 -0.47491145 -0.32498887 15329516
0.79543334 -0.46527407 -0.3249771 15066344
0.79530549 -0.45495713 -0.32492375 15066344
0.79607427 -0.43472666 -0.32506329 15723502
0.79500002 -0.42473227 -0.32501841 15394538
0.79500002 -0.41476983 -0.32479942 15263209
0.79431999 -0.40511918 -0.32545108 15329001
0.79295993 -0.39514315 -0.32489413 15262951
0.79131055 -0.38493127 -0.32498467 15197415
0.79157579 -0.37524498 -0.3248322 15197928
0.79349995 -0.64526093 -0.31489784 13354451
0.79023361 -0.63427794 -0.31545168 14801895
0.78900003 -0.62273252 -0.31878594 14736357
0.79004174 -0.62502956 -0.31406549 14736357
0.78900009 -0.61532027 -0.31823424 14736356
0.79004186 -0.61385542 -0.31406549 14802148
0.79068768 -0.60450262 -0.31534353 14802148
0.792871 -0.59483784 -0.31485948 14867941
0.79362059 -0.58484805 -0.31478745 14802405
0.79196155 -0.57462728 -0.31500134 14670820
0.79033351 -0.56384605 -0.31497815 14473441
0.78899992 -0.55190772 -0.31523153 14802406
0.79000002 -0.5571261 -0.3150034 14670820
0.78899974 -0.54482591 -0.31528977 14868197
0.79000002 -0.54254425 -0.31073555 15065322
0.78899974 -0.5352608 -0.31528971 15197162
0.79000002 -0.53792071 -0.31073555 15000041
0.78896528 -0.52626199 -0.31510547 14473697
0.78770012 -0.51514941 -0.31536224 14934504
0.78815156 -0.50428742 -0.31503907 15395310
0.79000002 -0.50093263 -0.31073555 15592688
0.78900003 -0.4984515 -0.318654 15526384
0.79182351 -0.49532491 -0.31455821 15658225
0.79299974 -0.48519829 -0.31469953 15460846
0.79484385 -0.47539428 -0.31484982 15329260
0.79579312 -0.46471211 -0.31474814 15263210
0.79588473 -0.45457262 -0.31505617 15131879
0.79520005 -0.44465941 -0.31464341 15197928
0.79567862 -0.43501377 -0.31503281 15592686
0.79491669 -0.42496172 -0.31453061 15394281
0.79358339 -0.41511425 -0.31431428 15262952
0.79315382 -0.40473729 -0.3155489 15262952
0.79183996 -0.39458549 -0.31516841 15197159
0.79100019 -0.38490713 -0.31483251 15394538
0.79216677 -0.37434232 -0.31467679 15066341
0.79358834 -0.64451247 -0.30526164 14341860
0.79103351 -0.63492 -0.30465969 14671078
0.79144448 -0.62505776 -0.30481735 14605285
0.79220003 -0.61545587 -0.30510724 14605283
0.79159999 -0.6057241 -0.30487788 14736868
0.79137856 -0.5951376 -0.30476961 14868455
0.79235703 -0.58463949 -0.30404559 14802918
0.79199994 -0.57438326 -0.30487278 14473953
0.79103351 -0.56455117 -0.30465883 14407904
0.79003865 -0.55473477 -0.3049885 14802149
0.79000014 -0.54531831 -0.30518734 14999529
0.78900003 -0.53222638 -0.30506492 15065579
0.79000002 -0.53730434 -0.30508468 14999785
0.78880757 -0.52588797 -0.30493945 14605282
0.7881667 -0.51545274 -0.30540136 15197675
0.7888332 -0.50737405 -0.30586439 15526639
0.79075003 -0.50242472 -0.30390206 15526895
0.79321218 -0.49514395 -0.30502009 15592945
0.79493558 -0.48473114 -0.3043302 15395054
0.7960304 -0.47544718 -0.30497307 15197931
0.79511541 -0.44475576 -0.30508682 14934758
0.79468012 -0.43506721 -0.30513608 15526893
0.79403996 -0.42542386 -0.30489081 15197671
0.79203695 -0.41487384 -0.30453283 15131879
0.79150009 -0.40534672 -0.30539793 15197414
0.79103464 -0.39463004 -0.30520412 15328744
0.79100019 -0.38490677 -0.30464777 15526123
0.79202634 -0.37471518 -0.3047992 15197927
0.79352945 -0.64468366 -0.2947484 14473702
0.79060018 -0.63457167 -0.29431513 14737125
0.79146677 -0.62507492 -0.29463756 14605539
0.79207993 -0.6153633 -0.29486647 14605539
0.79088014 -0.60517412 -0.29441965 14736868
0.79011548 -0.59512532 -0.29427668 14933991
0.79083884 -0.58513212 -0.2944642 14868456
0.79150003 -0.5747425 -0.29445216 14670819
0.79092008 -0.56447035 -0.29443514 14407647
0.78900003 -0.55283725 -0.29105067 14867941
0.79005003 -0.55487812 -0.29642156 14736612
0.78899997 -0.54505432 -0.29158741 14868454
0.79000002 -0.54499191 -0.29735455 14999527
0.78899997 -0.53433734 -0.29253125 14933734
0.79000002 -0.53699607 -0.29686508 15262700
0.78899974 -0.52615744 -0.29464218 14671334
0.78803337 -0.51536626 -0.29520378 15263726
0.78899992 -0.50791764 -0.29418048 15592433
0.79117399 -0.50312358 -0.2951709 15592433
0.7950263 -0.49510223 -0.29492974 15461102
0.7956208 -0.4447673 -0.29508972 14803171
0.79453343 -0.43498725 -0.29484707 15132135
0.79393345 -0.42536613 -0.29462442 14935013
0.79259259 -0.41557738 -0.29464206 14934757
0.79070395 -0.4049198 -0.29476324 15329000
0.79009128 -0.39505705 -0.29513374 15394536
0.79096311 -0.38529965 -0.29424372 15592169
0.79264855 -0.3743189 -0.29477516 15197670
0.79304767 -0.64485008 -0.28479213 13815000
0.79000014 -0.63408965 -0.28484395 14802405
0.79066688 -0.62444317 -0.28508464 14736612
0.79183322 -0.61517125 -0.28457737 14670819
0.79140633 -0.60522813 -0.28419089 14736612
0.79059273 -0.59542495 -0.28464437 14736869
0.79010367 -0.58499736 -0.28500929 15065577
0.79020005 -0.57505476 -0.28491691 14802406
0.78899997 -0.56336254 -0.28342789 14473442
0.79000002 -0.56767935 -0.28618896 14407906
0.7885555 -0.55498725 -0.28452966 14736357
0.7883572 -0.54477721 -0.28405517 14999528
0.78839993 -0.5349856 -0.28426835 14933734
0.78863323 -0.52498895 -0.28435224 14803175
0.78861278 -0.5150007 -0.2854141 15460848
0.79000002 -0.51017964 -0.2811451 15592434
0.78900003 -0.50809729 -0.28612518 15592689
0.79135734 -0.50357586 -0.28434056 15658226
0.79521745 -0.43503824 -0.28510627 14737376
0.79456002 -0.42570236 -0.28462896 14803169
0.79303712 -0.41553473 -0.2848399 14671071
0.79152 -0.40554368 -0.28539237 15197415
0.79020017 -0.39561763 -0.28491601 15592173
0.79083353 -0.38575032 -0.28514439 15526635
0.79310524 -0.37478432 -0.28503343 15132133
0.79318756 -0.64396209 -0.27519923 14802151
0.79020029 -0.63425106 -0.27474174 14802663
0.79066694 -0.62444282 -0.27490392 14736870
0.79195994 -0.61526889 -0.27442688 14671332
0.79196417 -0.60540646 -0.27462703 14737126
0.79123348 -0.59451526 -0.27454558 14605540
0.79033363 -0.58440334 -0.27478898 14934245
0.79000026 -0.57490879 -0.27467218 14933732
0.78899986 -0.56371439 -0.27555591 14604769
0.79000002 -0.56843597 -0.2733776 14605024
0.78816003 -0.55511945 -0.27495453 14933731
0.78790003 -0.54479116 -0.27486441 15065575
0.78788 -0.53463286 -0.27485713 14933990
0.78814286 -0.52499193 -0.27488294 15131884
0.78889465 -0.51685268 -0.27540565 15395312
0.79005879 -0.51206702 -0.27420273 15526898
0.79227781 -0.50484467 -0.27484334 15592688
0.79540002 -0.47456542 -0.27561963 15460846
0.79586118 -0.46458933 -0.27484596 15197416
0.7955218 -0.4349623 -0.27517372 15197928
0.79352003 -0.42514637 -0.27496722 14868963
0.79142314 -0.41461533 -0.27445447 14408412
0.79086691 -0.40520748 -0.27497417 14868449
0.79077441 -0.39572552 -0.2747913 15526122
0.79054314 -0.38547608 -0.27499288 15526379
0.79321623 -0.37508613 -0.27516219 15132390
0.79343754 -0.64439714 -0.26530245 14605286
0.79004014 -0.63412207 -0.26451361 14737126
0.79031056 -0.62432134 -0.26473254 14671333
0.79103863 -0.61476642 -0.26470622 14671333
0.79119241 -0.60519767 -0.26475695 14802661
0.79106915 -0.59497225 -0.26498577 14605539
0.79000008 -0.58447748 -0.26474169 14605539
0.7889998 -0.57443297 -0.26324216 14473953
0.79000002 -0.57601845 -0.26745951 14671075
0.7889998 -0.56419015 -0.26399779 14670819
0.79000002 -0.56788111 -0.26745948 14670562
0.78897119 -0.55489886 -0.26494747 14933990
0.78854835 -0.54449481 -0.26508459 15065576
0.78869987 -0.53518897 -0.2649869 14868199
0.78894418 -0.52519673 -0.26507023 15131883
0.78900003 -0.51784563 -0.26601273 15592690
0.79045451 -0.51375222 -0.26431563 15658227
0.79419512 -0.50531 -0.26508647 15461104
0.79527587 -0.48553312 -0.26549616 15263723
0.79511118 -0.47532165 -0.26528078 15329515
0.79523343 -0.42513114 -0.26531795 15066340
0.79288453 -0.41523865 -0.26503456 14737375
0.79153579 -0.40495446 -0.26481479 14474203
0.79170376 -0.39492837 -0.26527524 14868961
0.79100013 -0.38490677 -0.26483527 15132133
0.79286486 -0.37441987 -0.26515865 15263975
0.7932353 -0.64400744 -0.25509661 14605541
0.79023099 -0.63441825 -0.25511435 14671333
0.79000014 -0.62484282 -0.25525346 14671334
0.79097164 -0.61529309 -0.25477329 14671333
0.79227763 -0.60531354 -0.25506103 14802918
0.79176658 -0.59473133 -0.25489721 14605540
0.79026097 -0.58499324 -0.25485498 14408160
0.78899974 -0.5747748 -0.2551282 14408160
0.78879982 -0.56480306 -0.25486642 14605538
0.78879291 -0.55480069 -0.25499171 14868709
0.78892291 -0.54478765 -0.25476381 15065832
0.7889998 -0.53539276 -0.25493038 14802918
0.7889998 -0.52666116 -0.25518227 15000296
0.7905001 -0.52160525 -0.25356284 15461102
0.79313654 -0.51481307 -0.25490972 15658481
0.79592597 -0.47529033 -0.25551069 15197929
0.7956897 -0.41481134 -0.25516054 15197156
0.79356658 -0.40473405 -0.25547445 15066085
0.7925666 -0.39494783 -0.2551553 14868706
0.79046184 -0.3847881 -0.25518972 14934755
0.79270738 -0.37468493 -0.2548131 15198184
0.79300004 -0.64470804 -0.24488989 14276320
0.79010373 -0.63404572 -0.24495447 14737126
0.79017687 -0.62432855 -0.24491851 14736869
0.79103726 -0.61496246 -0.24482024 14802660
0.79206663 -0.60515314 -0.24479628 14802660
0.79155999 -0.59457588 -0.2446394 14737124
0.79044855 -0.58436096 -0.24506041 14539745
0.78899997 -0.57259786 -0.24675049 14408160
0.79000002 -0.57629591 -0.24334794 14474209
0.78889978 -0.56487435 -0.24473986 14539746
0.78890604 -0.55495149 -0.24531907 14802917
0.79000002 -0.55364066 -0.24045821 14934504
0.78899986 -0.54462802 -0.24661855 15065831
0.79000002 -0.54531831 -0.24138293 15000040
0.78899992 -0.53539276 -0.24754213 14933990
0.79000002 -0.53514665 -0.24230763 14999781
0.78900003 -0.52823538 -0.24777296 14934248
0.79075873 -0.52413583 -0.24445468 15329004
0.79570287 -0.51576865 -0.24486026 15789809
0.79535711 -0.4851785 -0.2446169 15131880
0.79493338 -0.47521654 -0.24537246 15132136
0.79503447 -0.46465451 -0.24494292 15197929
0.7957601 -0.40510833 -0.24519104 15132135
0.79276919 -0.39519385 -0.24479784 14934756
0.79017264 -0.38437736 -0.24497557 14934756
0.79392689 -0.37416759 -0.24477896 14738404
0.79214287 -0.64428914 -0.23528233 14473696
0.79000014 -0.63408977 -0.23491 14671332
0.79013819 -0.62418568 -0.23507866 14671332
0.79096168 -0.61470675 -0.23505363 14737124
0.79182142 -0.60529619 -0.2353854 14737380
0.79133344 -0.59481573 -0.23537381 14540001
0.79108018 -0.58495474 -0.23523086 14605793
0.79046166 -0.5750317 -0.23490374 14540001
0.78900003 -0.56309867 -0.23830678 14737379
0.790286 -0.56480867 -0.23499386 14540001
0.79073101 -0.55486411 -0.23498273 14737380
0.79110354 -0.54499328 -0.23536408 14868965
0.79157692 -0.53507453 -0.23523496 14737379
0.79184854 -0.52451521 -0.23495193 15329259
0.79588008 -0.49534741 -0.23479466 15131622
0.79511547 -0.48534715 -0.23442602 15065829
0.79456252 -0.47499445 -0.23510173 15066086
0.79465508 -0.4653939 -0.23513785 15132135
0.79517859 -0.45521775 -0.23478892 15461099
0.7948401 -0.44482663 -0.23501408 15329513
0.79548013 -0.4150207 -0.23467982 14934755
0.79496002 -0.40544474 -0.23452574 14935010
0.79259253 -0.39503008 -0.23492444 14737377
0.79048014 -0.38465497 -0.23505206 14869220
0.79266667 -0.37452236 -0.23503143 14935783
0.79213053 -0.64402562 -0.22514175 14276575
0.79000026 -0.63402361 -0.22506855 14605539
0.79000026 -0.62484282 -0.2247383 14605539
0.79083365 -0.61531842 -0.22497535 14736868
0.79191661 -0.6050384 -0.22528321 14802662
0.79123342 -0.59432995 -0.22508866 14539746
0.79076689 -0.58472341 -0.22495724 14539746
0.79111123 -0.57478994 -0.225054 14539746
0.79241168 -0.56487739 -0.22520439 14473953
0.79265612 -0.55492193 -0.22572432 14737124
0.79256648 -0.54523504 -0.2254668 14868965
0.79202771 -0.53466618 -0.22531499 14737123
0.79318166 -0.52455413 -0.22522026 15395052
0.79582149 -0.46550247 -0.22492895 15197927
0.79496002 -0.45531982 -0.22521818 15526892
0.79299998 -0.4447355 -0.2250737 15329513
0.79482359 -0.43497649 -0.22528882 15263719
0.79475999 -0.41464534 -0.22516143 15132133
0.79440004 -0.40515766 -0.22505888 15131874
0.7931481 -0.39503118 -0.22511654 14736862
0.79186654 -0.3853302 -0.22526743 14803425
0.79295009 -0.37484866 -0.22506392 14475485
0.79238099 -0.64448369 -0.21494791 14145244
0.78900003 -0.63421059 -0.21983616 14671586
0.79004014 -0.63412201 -0.21457721 14540000
0.79000014 -0.62484276 -0.21456653 14605538
0.7906335 -0.61516291 -0.21473941 14671332
0.79122239 -0.60502189 -0.21510611 14868709
0.7911787 -0.59488386 -0.21468893 14737124
0.79060018 -0.58460015 -0.21472985 14671332
0.79153335 -0.57509643 -0.21498305 14868454
0.79275858 -0.56501269 -0.2154447 14671331
0.79257685 -0.55473286 -0.21512522 14671587
0.79256004 -0.54523027 -0.21526331 14868965
0.79199994 -0.53464758 -0.21511008 14802402
0.79265368 -0.52466738 -0.21543108 15263722
0.79491669 -0.51505774 -0.21523114 15460586
0.79564714 -0.46424869 -0.21489602 15263464
0.79550004 -0.43485764 -0.21534933 15132133
0.79478568 -0.40555507 -0.21526894 15197925
0.79312003 -0.39522347 -0.21541555 14803167
0.79219985 -0.38549164 -0.21516486 14737630
0.79442495 -0.37470728 -0.21525569 14211541
0.79170972 -0.63468474 -0.20480454 14144988
0.79050016 -0.62464374 -0.20465429 14210781
0.79014325 -0.61464983 -0.20456307 14145500
0.79013819 -0.60473245 -0.20458911 14343135
0.79034513 -0.59538442 -0.20464379 14474465
0.79009402 -0.58526552 -0.20499685 14606051
0.79102874 -0.57459748 -0.20479412 14672357
0.79166669 -0.5650019 -0.20482758 14606051
0.79127592 -0.55558926 -0.20488612 14737123
0.79059273 -0.54531634 -0.20568055 15000294
0.79071891 -0.53470606 -0.20516036 14868707
0.79167646 -0.52488828 -0.20461184 15263721
0.79309082 -0.51521236 -0.20477344 15329000
0.7950666 -0.50507534 -0.20477597 15065830
0.79564011 -0.4449071 -0.2049239 15328744
0.79400003 -0.43469533 -0.204501 15000292
0.79553342 -0.42528906 -0.20489669 15132134
0.79544008 -0.4150019 -0.20487267 15132134
0.79307407 -0.40427738 -0.20467569 15132133
0.79131049 -0.39444882 -0.2048946 15066339
0.79046178 -0.3845022 -0.20522669 14671581
0.79296148 -0.62490165 -0.1945897 11645111
0.79234499 -0.61434948 -0.19421886 11514039
0.79311758 -0.60480547 -0.19421692 11382709
0.79363889 -0.59489131 -0.19428317 11251635
0.7933715 -0.58462709 -0.19493523 11909052
0.79354572 -0.57495147 -0.1944669 12040637
0.7937001 -0.56521183 -0.19419712 12040637
0.79300016 -0.55521905 -0.19425733 12566468
0.79123348 -0.54524338 -0.19544856 13619412
0.7912001 -0.53503108 -0.19520307 13751254
0.7941668 -0.52489805 -0.19415574 13684945
0.79464293 -0.42514712 -0.19556379 14803426
0.79388893 -0.41460508 -0.19497374 14868703
0.79271996 -0.40430251 -0.19489138 14934495
