# .PCD v0.7 - Point Cloud Data file format
VERSION 0.7
FIELDS x y z rgb
SIZE 4 4 4 4
TYPE F F F U
COUNT 1 1 1 1
WIDTH 709
HEIGHT 1
VIEWPOINT 0 0 0 1 0 0 0
POINTS 709
DATA ascii
0.79308337 -0.64523041 -0.42458567 11314352
0.78857148 -0.63347083 -0.42172882 13748949
0.79057151 -0.63587105 -0.4249137 11971771
0.78860009 -0.62539637 -0.42169136 13748946
0.79074997 -0.62404567 -0.42534015 11445424
0.78900003 -0.61758709 -0.421166 14210013
0.79261112 -0.61484122 -0.42526138 12103610
0.79415798 -0.60542655 -0.42490271 12235710
0.79411763 -0.5953964 -0.42379236 12235710
0.79483336 -0.58493382 -0.42428392 11841465
0.79566675 -0.575302 -0.4247292 11578293
0.79531258 -0.56550658 -0.42442331 11446707
0.79511768 -0.55498022 -0.42454419 11446964
0.79611111 -0.54487139 -0.42496571 11578549
0.78900003 -0.64206064 -0.41331604 11511479
0.79146159 -0.64652479 -0.41520917 11314100
0.7866112 -0.63536227 -0.41477716 13551826
0.78461909 -0.62451953 -0.41445905 13814997
0.78703564 -0.61525446 -0.41525152 13814998
0.79000002 -0.61004746 -0.41985044 14341084
0.78818184 -0.60537076 -0.41402128 13617875
0.79000002 -0.60449928 -0.41892573 13946583
0.7882942 -0.59461796 -0.41329968 13617875
0.79000002 -0.59525228 -0.41800103 13815253
0.78846675 -0.58486831 -0.41349888 13880792
0.79000002 -0.5850805 -0.41800103 13881049
0.78831255 -0.57517958 -0.41353351 13749204
0.79066664 -0.57446688 -0.41835377 14144221
0.78850007 -0.56551009 -0.41328549 14011863
0.79071426 -0.56352955 -0.41785058 14407134
0.78854555 -0.55488658 -0.41270092 13881045
0.79049999 -0.55491638 -0.4173409 14341596
0.78872734 -0.54494232 -0.41262791 14341596
0.79091668 -0.5450241 -0.41756114 14604254
0.78900003 -0.53470016 -0.4112381 14604512
0.79155564 -0.53496325 -0.41697344 14078681
0.78900003 -0.52523392 -0.41100717 14538973
0.79153341 -0.52475744 -0.41696173 13486802
0.78900003 -0.51569074 -0.41162291 14341592
0.79147065 -0.51483393 -0.41692883 13289167
0.78900003 -0.50491625 -0.41193077 14604510
0.79121429 -0.50500947 -0.41652861 13091788
0.78900003 -0.49475738 -0.41100726 14407387
0.7919333 -0.49436843 -0.41568929 13223116
0.78900003 -0.48921618 -0.41008365 14802402
0.79356515 -0.48525724 -0.41537011 13288909
0.79405558 -0.47530705 -0.41457322 13814737
0.7952857 -0.46465266 -0.41468421 13551566
0.79606664 -0.41470501 -0.41375974 12828869
0.79572731 -0.40532467 -0.41425955 12434112
0.79617643 -0.3850092 -0.41370821 12763334
0.78900003 -0.64206064 -0.4050042 10524839
0.79145455 -0.6465441 -0.40479091 10327205
0.78595006 -0.63571888 -0.4045406 14012122
0.7820909 -0.62402159 -0.4044919 13814999
0.78542852 -0.61487299 -0.40498242 13880536
0.78750014 -0.60507965 -0.40491018 14012379
0.78743756 -0.59481925 -0.40443084 13749463
0.78721893 -0.58486342 -0.40454879 13881046
0.78678113 -0.57475328 -0.40455264 13880789
0.78696883 -0.56498742 -0.40442038 14143705
0.78689283 -0.55560845 -0.40477729 13749204
0.78709114 -0.54487151 -0.40512744 14144219
0.78779322 -0.53514546 -0.40436861 14670307
0.78784007 -0.52538443 -0.40394744 14538462
0.7873795 -0.51484329 -0.40511087 14538974
0.7871601 -0.50465989 -0.40544289 14802144
0.78751862 -0.49505633 -0.40521774 14538718
0.78823805 -0.48496491 -0.4045046 14999784
0.79000002 -0.48151392 -0.40875399 14933989
0.78852373 -0.47547108 -0.40298063 15328748
0.79044443 -0.47407374 -0.40836751 14933732
0.78900003 -0.46674362 -0.40146402 14737125
0.7906667 -0.46468812 -0.40575132 14736612
0.79185206 -0.45445576 -0.40484008 14801892
0.79296309 -0.44491944 -0.40465334 14867941
0.79263628 -0.43521217 -0.40506151 14473438
0.79160011 -0.42504054 -0.40495223 14144471
0.78900003 -0.41441011 -0.40084833 14012884
0.79105896 -0.41521871 -0.40527356 14276056
0.78874999 -0.40427768 -0.40179881 14473435
0.79115379 -0.40478417 -0.4075003 14539486
0.78864288 -0.39510101 -0.40238205 14539230
0.79109997 -0.39514142 -0.40784246 14736866
0.78866673 -0.38469374 -0.4016026 14407900
0.79081821 -0.38532162 -0.40631703 14934502
0.78900003 -0.3756218 -0.40084833 14342619
0.79195011 -0.37470478 -0.40596524 15329514
0.79536366 -0.36628616 -0.40433529 14474462
0.78900003 -0.64067537 -0.39715421 13025487
0.79160011 -0.64501214 -0.39438334 10261926
0.7873913 -0.63456213 -0.39481848 14275550
0.79000002 -0.63963795 -0.39025995 14341347
0.78605288 -0.62515515 -0.39546999 14341086
0.78780001 -0.61540741 -0.39544156 14341343
0.78853565 -0.60463089 -0.39487538 14406879
0.78840727 -0.59446216 -0.39521393 14407136
0.78843987 -0.58484787 -0.39502516 14407392
0.78875846 -0.57508731 -0.39505786 14144220
0.78857678 -0.56485599 -0.3952359 14275805
0.78792864 -0.55475867 -0.39536238 14210013
0.78782356 -0.5449546 -0.39536777 14407136
0.78800005 -0.53471422 -0.39480609 14802148
0.78800005 -0.52549052 -0.39480615 14209755
0.78760022 -0.51495224 -0.39539462 14604769
0.78706676 -0.50460094 -0.39525992 14933733
0.78683335 -0.49524078 -0.39514366 14604512
0.78702968 -0.48544636 -0.39497095 14933991
0.7882334 -0.47490016 -0.39492288 15460591
0.78899992 -0.46639949 -0.39606768 15394540
0.79017645 -0.46241567 -0.39382848 15460589
0.79145461 -0.45485827 -0.39518681 14933990
0.79228002 -0.44488204 -0.39509404 15262697
0.79092872 -0.43466777 -0.39501476 14868452
0.78900003 -0.42333758 -0.39776993 13882070
0.79033345 -0.42581517 -0.39359525 14342621
0.78899986 -0.41513923 -0.39637652 13947862
0.79008335 -0.41575003 -0.39137995 14210777
0.78843331 -0.40488443 -0.39502203 14605535
0.79000002 -0.40846244 -0.39025995 14802400
0.78776008 -0.3943958 -0.3946844 14605023
0.78751999 -0.38505703 -0.39456517 14473950
0.7877667 -0.37503323 -0.39468968 14671329
0.78900003 -0.3683655 -0.39398783 15527151
0.79406267 -0.36378533 -0.39516529 14342874
0.79243749 -0.64532387 -0.38496947 10327462
0.78876179 -0.63362378 -0.3854267 14341600
0.79000002 -0.63894439 -0.38401821 14341347
0.78877127 -0.62492573 -0.38490349 14538722
0.78896749 -0.61496991 -0.38528129 14473185
0.78899974 -0.60465765 -0.38514823 14604515
0.78899974 -0.59449881 -0.38514823 14736100
0.78899986 -0.58596706 -0.38651156 14736101
0.79000002 -0.58338529 -0.38255405 14670307
0.78899997 -0.57563239 -0.38844663 14670307
0.79000002 -0.57471418 -0.383641 14539236
0.78899986 -0.56406623 -0.3863357 14538978
0.79000002 -0.56771672 -0.38286233 14473444
0.78888208 -0.55497605 -0.38487288 14275806
0.78843743 -0.54458576 -0.38510275 14407391
0.7888332 -0.53527904 -0.3850663 14933734
0.78816676 -0.52560252 -0.38474131 14078938
0.7874518 -0.5151363 -0.38513604 14671076
0.78663999 -0.50432807 -0.38491687 14802404
0.78600001 -0.49471623 -0.38460392 14801891
0.78643316 -0.48486152 -0.38481548 15065063
0.78805566 -0.4747926 -0.38468701 15460333
0.78899997 -0.46776181 -0.38479307 15592176
0.79047376 -0.46315026 -0.38513732 15657713
0.79238224 -0.45492092 -0.38521737 15526127
0.79312479 -0.44500706 -0.38507247 15526127
0.79315615 -0.43516031 -0.38531736 15329003
0.79311758 -0.42492673 -0.38518685 14868708
0.79243344 -0.41497791 -0.38496497 14408414
0.78900003 -0.40332776 -0.38976595 14868194
0.79088902 -0.40528855 -0.38473073 14671586
0.78899992 -0.39452335 -0.38779578 14605537
0.79000002 -0.39600974 -0.38298562 14737378
0.78864509 -0.38513094 -0.38488427 14802658
0.79000002 -0.3899684 -0.38101292 14737379
0.78817642 -0.37495816 -0.38496232 14868195
0.78900003 -0.36841828 -0.38588709 15395308
0.79348582 -0.36328354 -0.3846539 14211288
0.7932353 -0.64597386 -0.37514359 10328232
0.78874993 -0.63331789 -0.37464005 14473186
0.79000002 -0.638816 -0.37587568 14407394
0.78826928 -0.62510532 -0.37471357 14538978
0.78875846 -0.61539131 -0.37481135 14604771
0.78846419 -0.60457695 -0.37466887 14473442
0.78883982 -0.59511614 -0.37520882 14605028
0.79000002 -0.59155345 -0.37269062 14473440
0.78900003 -0.58895761 -0.3786836 14736357
0.79026502 -0.58500409 -0.37466443 14605284
0.79030019 -0.5751273 -0.37468091 14605283
0.79020625 -0.56466609 -0.37490866 14605027
0.78900003 -0.55324769 -0.37837574 14210267
0.7901364 -0.55508173 -0.37384737 14538976
0.78899997 -0.54420185 -0.37712067 14539234
0.79000002 -0.54578066 -0.37315294 14473441
0.7889998 -0.5352388 -0.37514332 14999271
0.79000002 -0.53977013 -0.37176591 14736357
0.78816009 -0.52559805 -0.37459019 14144218
0.7870574 -0.5145967 -0.37485558 14540003
0.78693354 -0.50451517 -0.37492797 14670818
0.78681844 -0.49472779 -0.3746199 14933478
0.78772724 -0.48524052 -0.37555596 15262698
0.78839993 -0.47500074 -0.37470335 15262954
0.78899992 -0.46705139 -0.37498948 15460333
0.79013336 -0.46217281 -0.37552854 15657455
0.79118532 -0.45476073 -0.37520531 15657711
0.79251719 -0.44501171 -0.37480795 15789296
0.79494292 -0.43488821 -0.37499511 15723502
0.79448277 -0.41463119 -0.3749643 14933730
0.79186368 -0.40462473 -0.37500161 14933728
0.79079324 -0.39604214 -0.37507501 14736607
0.78900003 -0.38085511 -0.37806788 15065572
0.7900002 -0.38579014 -0.37512225 14868193
0.78900003 -0.37485215 -0.37729827 14999781
0.79013336 -0.37437245 -0.37306148 15065573
0.78900003 -0.36915708 -0.3786836 15526895
0.79364306 -0.36459205 -0.37502304 14276827
0.79299998 -0.64535302 -0.36546615 10394539
0.78854543 -0.63401419 -0.36503974 14473444
0.79000002 -0.63963795 -0.365293 14144736
0.78800005 -0.62510556 -0.36529064 14605028
0.78868562 -0.61536145 -0.36481696 14604770
0.78897119 -0.60476762 -0.36494914 14670563
0.79000002 -0.60080045 -0.36066949 14802148
0.78900003 -0.59689999 -0.36686236 14670820
0.79033351 -0.59357518 -0.36429015 14670563
0.79123342 -0.58488101 -0.36505932 14736614
0.79187495 -0.57476652 -0.36453494 14736100
0.79206049 -0.56539428 -0.36464083 14670307
0.79148275 -0.55503166 -0.36524191 14472927
0.79070991 -0.54503202 -0.36559001 14538721
0.78900003 -0.53293002 -0.3682169 15261673
0.79013056 -0.53583843 -0.36450833 15064807
0.78876907 -0.52500975 -0.36543334 14210012
0.79000002 -0.52719414 -0.36140925 14144218
0.78779322 -0.51498824 -0.36519387 14539233
0.78648013 -0.50422472 -0.36458701 14736612
0.78743345 -0.49469453 -0.36502808 15131626
0.78886181 -0.48530915 -0.36492595 15329004
0.7889998 -0.47651759 -0.36613896 15197418
0.79000002 -0.47365394 -0.36267295 15197674
0.78900003 -0.46828279 -0.36883259 14999784
0.79042459 -0.46475369 -0.36512336 15000552
0.79057151 -0.45522466 -0.36522523 15329260
0.79123342 -0.44521815 -0.36493725 15526381
0.7938 -0.435377 -0.36490044 15723760
0.79592866 -0.42516875 -0.36504081 15460588
0.79523087 -0.41474947 -0.36513266 15262952
0.79278564 -0.40460196 -0.36472371 14999779
0.79072738 -0.39504007 -0.36512491 14736606
0.78899992 -0.38307157 -0.36242944 14999780
0.79000002 -0.38662183 -0.3670103 14933986
0.78900003 -0.37634009 -0.36164957 15131368
0.79023099 -0.37364519 -0.36632431 15197416
0.79546148 -0.36486435 -0.36521223 13882838
0.79252636 -0.64383489 -0.35469285 11972800
0.78870583 -0.6330514 -0.35562459 14473442
0.79000002 -0.63741863 -0.35364175 14341345
0.78842419 -0.62493819 -0.35508269 14670564
0.78882128 -0.61526996 -0.35498652 14605027
0.78899992 -0.60719734 -0.35490265 14736613
0.79000002 -0.60251772 -0.35485712 14670820
0.79131597 -0.59497315 -0.35458961 14736356
0.79267639 -0.58493298 -0.35561305 14867941
0.7934801 -0.57558411 -0.35482705 14867685
0.79296428 -0.5653314 -0.35479656 14604512
0.7918148 -0.55508476 -0.35490814 14670307
0.79064018 -0.54539073 -0.3554098 14867172
0.79003471 -0.53501064 -0.35500932 15065064
0.78900003 -0.52193564 -0.3536163 14341597
0.79000002 -0.52589965 -0.35553223 14275804
0.78810346 -0.51436472 -0.35503203 14604769
0.78584617 -0.50395954 -0.35466856 14933735
0.78727019 -0.49476495 -0.35483947 15328749
0.78895813 -0.48595798 -0.35511449 15460590
0.79000002 -0.48132896 -0.352902 15394541
0.78900003 -0.47998086 -0.35744235 15394797
0.79065734 -0.47437668 -0.3546215 15394541
0.79276472 -0.46491089 -0.35521472 15131626
0.79300004 -0.45485738 -0.355479 15066344
0.79312515 -0.44506413 -0.35565129 15132136
0.79488242 -0.43550378 -0.35463065 15395307
0.79565716 -0.42522231 -0.35500184 15394794
0.79593343 -0.41525748 -0.35499302 15329000
0.79388463 -0.40475541 -0.3552227 14999780
0.79100013 -0.39521387 -0.35484567 14802400
0.78874987 -0.38473606 -0.35455942 14933987
0.79000002 -0.3899684 -0.35512128 14868193
0.7886799 -0.37639138 -0.35452825 14999780
0.7906363 -0.3707633 -0.35490212 15592431
0.79560006 -0.36709762 -0.35539985 14935011
0.79611772 -0.65500855 -0.34493586 10920363
0.79205889 -0.64501566 -0.34492332 11578042
0.78899997 -0.63328707 -0.34477672 14604770
0.79000002 -0.63799405 -0.34628525 14604771
0.78896642 -0.62494868 -0.34542197 14736100
0.7889998 -0.61481643 -0.34543648 14604770
0.78900009 -0.60809988 -0.34510058 14670564
0.79000002 -0.60332233 -0.34528577 14605284
0.79197145 -0.59487951 -0.34488383 14671333
0.79387999 -0.58516544 -0.34571433 14802150
0.79343992 -0.57555544 -0.34552398 14802150
0.79280001 -0.56581169 -0.34524417 14341597
0.79096007 -0.55524135 -0.34444332 14604768
0.78900003 -0.54162657 -0.34474379 14736098
0.79000002 -0.54668105 -0.34558222 14802147
0.7889998 -0.53539276 -0.34543645 15196649
0.78899974 -0.52556372 -0.34563437 14407646
0.78800011 -0.51483244 -0.34479368 14736355
0.78748304 -0.50467575 -0.34521472 14999784
0.78862053 -0.49528193 -0.34539688 15395054
0.78900003 -0.48783085 -0.34589824 15395052
0.79034787 -0.48353502 -0.34457764 15395053
0.79345 -0.47529873 -0.34487301 15394795
0.79547054 -0.46496466 -0.34536409 15263466
0.796 -0.45493108 -0.34595701 15394795
0.7958402 -0.41521007 -0.34470624 15197672
0.7937308 -0.4049629 -0.34543604 15066086
0.791381 -0.39515087 -0.34489018 14868450
0.78894436 -0.3831884 -0.34582227 15131622
0.79000002 -0.38735747 -0.34326333 14999779
0.78892857 -0.37637895 -0.34698802 15065573
0.79059088 -0.37334836 -0.34360936 15197929
0.79558831 -0.65544969 -0.3346234 11183279
0.79109102 -0.64532208 -0.33473375 11380920
0.78846657 -0.63470626 -0.33505094 14539490
0.78820592 -0.62461662 -0.33504921 14736355
0.78887475 -0.61506462 -0.33510929 14670562
0.78899986 -0.60705882 -0.33546227 14671076
0.79000002 -0.60236537 -0.33435103 14671332
0.79214638 -0.5948748 -0.33487099 14671333
0.79306662 -0.58456707 -0.33514869 14671077
0.79311752 -0.57466495 -0.33495191 14736613
0.79316658 -0.56483459 -0.3351903 14407390
0.79192591 -0.55516332 -0.33476818 14670305
0.78900003 -0.54401237 -0.33989525 14736352
0.79044032 -0.54562247 -0.33496293 14934247
0.78900009 -0.53505695 -0.33871984 15130856
0.79009098 -0.53554416 -0.33363903 14868456
0.78891653 -0.52479392 -0.33608839 14407647
0.79000002 -0.52744073 -0.33231196 14276061
0.78803128 -0.51507699 -0.33526933 14670819
0.7882424 -0.50434637 -0.33537546 15131882
0.78894985 -0.49629563 -0.33599544 15526638
0.79035717 -0.49256772 -0.33347422 15658225
0.78900003 -0.48921618 -0.33989525 15526895
0.79166663 -0.48487806 -0.33476859 15460845
0.79566669 -0.47556537 -0.33514571 15460845
0.7953794 -0.42504722 -0.3350684 15394795
0.79444015 -0.41447908 -0.33480164 15328745
0.79262048 -0.40412435 -0.33480018 15197930
0.79148281 -0.39453477 -0.33463836 15000294
0.7904802 -0.38465369 -0.33497974 14999780
0.79183334 -0.37454641 -0.33467668 15131879
0.79219055 -0.64494658 -0.324752 12235970
0.78899992 -0.63393909 -0.32587934 14605541
0.79000002 -0.63831699 -0.32420978 14408162
0.78896642 -0.62494874 -0.32510489 14670822
0.7889998 -0.61481649 -0.32511875 14736356
0.79000002 -0.61004746 -0.32275671 14802148
0.78900003 -0.60853648 -0.32733524 14802149
0.7908389 -0.60382444 -0.32486024 14802149
0.79361296 -0.59539431 -0.32534108 14802405
0.79372007 -0.58504963 -0.3252053 14867941
0.79336655 -0.57457143 -0.32506046 14736612
0.79352015 -0.56446725 -0.32512432 14473696
0.79227275 -0.55481315 -0.32486627 14605026
0.7909261 -0.54486042 -0.32563835 14868711
0.79096687 -0.53493708 -0.32506517 14802919
0.78900003 -0.52092415 -0.32573447 14802405
0.79052389 -0.5265578 -0.32504123 14473440
0.7879616 -0.51425731 -0.32490346 14868454
0.78725934 -0.50492692 -0.3248111 15263469
0.78866667 -0.49824014 -0.32498136 15526641
0.79100001 -0.49323204 -0.3250159 15592688
0.7937187 -0.48540264 -0.32485533 15395052
0.79550004 -0.47577196 -0.32473004 15394796
0.79542428 -0.45460269 -0.32471973 15131624
0.79582775 -0.44455841 -0.32459271 15526125
0.79500002 -0.42606491 -0.32495984 15394537
0.79396671 -0.4151603 -0.32530645 15197671
0.79376012 -0.40483287 -0.32522035 15197928
0.79196155 -0.39450404 -0.32469875 15000549
0.79074097 -0.38498685 -0.32542548 15000550
0.79167753 -0.37482986 -0.32508677 15132136
0.79335302 -0.64432138 -0.31511256 14143967
0.79036695 -0.63438487 -0.31550455 14671076
0.78900003 -0.62312824 -0.31957754 14605541
0.79029649 -0.62500811 -0.31461963 14539747
0.78900003 -0.61543208 -0.31896189 14539746
0.79024166 -0.61438006 -0.31478462 14605539
0.79075885 -0.60488659 -0.31531036 14671332
0.792 -0.59472883 -0.31517437 14737125
0.79299986 -0.58469725 -0.31461066 14671333
0.7930333 -0.57525992 -0.31471321 14539490
0.79293323 -0.56572056 -0.31523082 14342367
0.79147828 -0.55528212 -0.31478122 14671332
0.79003477 -0.54521477 -0.31521356 14737125
0.78900003 -0.53169864 -0.31034222 15329264
0.79009712 -0.53553998 -0.31495062 14934504
0.78900003 -0.52184767 -0.31372854 14671333
0.79000002 -0.52647758 -0.31570581 14473953
0.78849977 -0.51474977 -0.31475896 15000041
0.78820586 -0.50467807 -0.31442374 15263726
0.78877783 -0.49831063 -0.31702507 15461105
0.7911483 -0.49424908 -0.31461594 15526897
0.79391181 -0.48597217 -0.31478783 15329774
0.79500002 -0.47525591 -0.31456336 15197932
0.79504007 -0.46504325 -0.31457931 15131880
0.79533327 -0.45497435 -0.31469524 15197160
0.79500002 -0.44454756 -0.3145633 15262952
0.79548001 -0.43550453 -0.31475356 15657966
0.79449999 -0.42552745 -0.31458026 15263465
0.79285705 -0.41491169 -0.31577274 15132135
0.79257691 -0.40479878 -0.31539184 15132135
0.79134786 -0.39506519 -0.31505296 15197927
0.78900003 -0.38116297 -0.31172752 15394794
0.79003727 -0.38526037 -0.31520274 15263721
0.78900003 -0.3783924 -0.31034222 15460330
0.79140019 -0.37429678 -0.31493607 15132134
0.793625 -0.64431661 -0.30507764 14736102
0.79154295 -0.63453358 -0.30472404 14736612
0.79219347 -0.62490129 -0.30525532 14736355
0.79246652 -0.61566293 -0.30521026 14670564
0.79163331 -0.60574973 -0.30489054 14736612
0.79156095 -0.59470844 -0.30475026 14868455
0.79326922 -0.58492899 -0.30480722 14737126
0.79331994 -0.57546896 -0.30461293 14539747
0.79237032 -0.56529951 -0.30466077 14342368
0.79115391 -0.55551898 -0.30542046 14671332
0.78900003 -0.54093397 -0.30110693 15066090
0.79012513 -0.54555929 -0.30538997 14737125
0.78899986 -0.53442061 -0.304315 14934505
0.79000002 -0.53915364 -0.30672851 14934504
0.78885698 -0.52546889 -0.30494437 14539746
0.7887035 -0.51529109 -0.3044824 15131883
0.78899986 -0.50666064 -0.30572456 15395311
0.79021424 -0.50291806 -0.3032873 15526640
0.79157144 -0.49557251 -0.30473408 15461102
0.79513162 -0.48542044 -0.30462086 15329516
0.79588252 -0.46487838 -0.30444336 15197930
0.79576671 -0.45485026 -0.30517897 15197674
0.79500002 -0.44454756 -0.3052578 15000294
0.79508001 -0.43528572 -0.30528888 15395309
0.79336005 -0.42506093 -0.30462936 15066343
0.78900003 -0.41163954 -0.30203044 15197928
0.79056531 -0.41503239 -0.30540606 15000549
0.78899992 -0.40490317 -0.30284533 15132133
0.7902 -0.40486541 -0.30803972 15000548
0.78899992 -0.39443874 -0.30330032 15197670
0.79011112 -0.39660019 -0.30790213 15066341
0.7889998 -0.38441542 -0.30472076 15460330
0.79000002 -0.38679796 -0.30545154 15394280
0.79165798 -0.37410033 -0.30489996 15197670
0.79364717 -0.64477891 -0.29479247 14538981
0.79166675 -0.63450032 -0.29471156 14868198
0.79211992 -0.62466478 -0.2948806 14539746
0.79231995 -0.61554945 -0.29495561 14671332
0.79160005 -0.60572404 -0.29468766 14671075
0.79120004 -0.59522957 -0.29453823 14802918
0.79226667 -0.58490318 -0.29493621 14868711
0.79224008 -0.57468557 -0.29492626 14539747
0.78900003 -0.56125164 -0.29002455 14342367
0.79063648 -0.56468827 -0.29474995 14276575
0.78899986 -0.55395138 -0.29257527 14671332
0.79000002 -0.55512017 -0.29815966 14671333
0.78899974 -0.5444302 -0.29431239 14868455
0.79000002 -0.54809242 -0.29963914 15197676
0.78896409 -0.53556657 -0.29495883 14999783
0.7880401 -0.5255174 -0.29520634 14671075
0.78776675 -0.51519161 -0.29510435 15263468
0.78893334 -0.50801313 -0.29443282 15526640
0.79091686 -0.50313157 -0.29489416 15592433
0.79351425 -0.49466613 -0.29460016 15395055
0.7950334 -0.44456622 -0.2950339 14802914
0.79406667 -0.43473086 -0.29467595 15132135
0.79320669 -0.42504084 -0.29451534 14934756
0.79150003 -0.41486531 -0.29484448 14934756
0.78899997 -0.40425128 -0.29798114 15132133
0.79033333 -0.40524328 -0.29298079 15197928
0.78899997 -0.39501593 -0.29754475 15263720
0.79006249 -0.39554757 -0.2924957 15263721
0.78900003 -0.38947475 -0.29925987 15328744
0.79020023 -0.3853097 -0.29495737 15460586
0.79230785 -0.37440723 -0.29494768 15066340
0.79336363 -0.64498132 -0.28470543 13684185
0.79103857 -0.63470936 -0.28536099 14736868
0.79113352 -0.62450367 -0.28494364 14605539
0.79146671 -0.61488599 -0.28444487 14605539
0.79124153 -0.60557741 -0.28452393 14671075
0.79100019 -0.59507996 -0.28520453 14737125
0.79139298 -0.58478785 -0.28534687 14934504
0.79120004 -0.57504159 -0.28527728 14671332
0.78899997 -0.5629667 -0.28421953 14342367
0.79000002 -0.56792217 -0.28463843 14473697
0.78836 -0.55526054 -0.28425324 14539746
0.78836662 -0.54511303 -0.28425613 14868711
0.78833336 -0.53473639 -0.28465354 14802918
0.78803229 -0.52533329 -0.28490788 14802918
0.78837144 -0.51545495 -0.28530976 15395053
0.79000002 -0.51017964 -0.2811451 15592688
0.78900003 -0.50874227 -0.28580266 15658481
0.79133344 -0.50381237 -0.28458264 15592688
0.79435486 -0.49547255 -0.28473461 15395309
0.79514295 -0.4750084 -0.28463861 15329004
0.79480004 -0.43513352 -0.28471309 14605791
0.79403847 -0.42535111 -0.28465548 14737120
0.7931034 -0.4155103 -0.28487504 14539999
0.79146159 -0.40565631 -0.28515726 15000549
0.79080015 -0.39499062 -0.2851328 15526635
0.79100013 -0.38490674 -0.2852045 15460328
0.79274356 -0.37475824 -0.28478578 15066596
0.79364717 -0.6444512 -0.27490154 14342372
0.7916764 -0.63450813 -0.27525392 14737128
0.79179996 -0.62472159 -0.27529699 14605541
0.79175997 -0.61511451 -0.27435794 14539748
0.79126936 -0.60532844 -0.27440193 14737126
0.79100019 -0.5950799 -0.27501985 14605539
0.79096568 -0.58486992 -0.2748484 14868709
0.7907002 -0.57541865 -0.27491683 14802402
0.78900003 -0.56199044 -0.27746448 14407646
0.7900002 -0.56579882 -0.27381605 14670817
0.78885168 -0.55485404 -0.27512732 14802148
0.79000002 -0.55733949 -0.27004868 15131367
0.78837037 -0.54460371 -0.27523211 15000040
0.78803998 -0.53474158 -0.27491295 14802918
0.78816676 -0.52467811 -0.2749573 15066089
0.78899992 -0.51679903 -0.27574059 15460846
0.79026318 -0.51249111 -0.27413023 15592688
0.79244119 -0.50531417 -0.27497268 15592431
0.79481268 -0.49520186 -0.27500594 15263723
0.79520011 -0.4856143 -0.27461749 15329260
0.79446673 -0.47493738 -0.27529505 15394795
0.79526931 -0.43546215 -0.27535817 15197928
0.7942 -0.42550907 -0.27520138 14934498
0.79291999 -0.41554278 -0.27475846 14605020
0.79089671 -0.40509719 -0.27482423 14868450
0.79050034 -0.39483988 -0.27484572 15461100
0.7911002 -0.38495499 -0.27505434 15460329
0.79286104 -0.37477374 -0.27489287 15131876
0.79390478 -0.64404058 -0.26545316 14670821
0.79199988 -0.6340549 -0.26502749 14671334
0.79187989 -0.62447643 -0.26513034 14605540
0.79120016 -0.61467934 -0.2649028 14605540
0.7911483 -0.60496557 -0.26467848 14737125
0.79125011 -0.59493762 -0.26511654 14605539
0.79068017 -0.58465993 -0.26472816 14670819
0.79000014 -0.57490879 -0.26450044 14604770
0.79003364 -0.56476074 -0.26451176 14671075
0.78900003 -0.55155456 -0.26924509 14999525
0.79033351 -0.55495447 -0.26445726 14934503
0.78899992 -0.54397619 -0.26720786 15065574
0.79000002 -0.5461719 -0.26265103 15000295
0.78893304 -0.53534782 -0.26506644 14868196
0.78888547 -0.52528954 -0.26518208 15132137
0.79000002 -0.52127612 -0.26080164 15329516
0.78900003 -0.51815349 -0.26755196 15526895
0.7911669 -0.51413906 -0.26421028 15658224
0.79494882 -0.50516307 -0.26529485 15526638
0.79500002 -0.47467428 -0.26536027 15263723
0.79574203 -0.46466973 -0.26474094 15132136
0.79550004 -0.43427506 -0.26502144 15329000
0.79508829 -0.42505297 -0.26527283 15066085
0.79392588 -0.41496861 -0.26491818 14671584
0.79167992 -0.40488356 -0.26506177 14342876
0.79128587 -0.39490348 -0.26512855 14803426
0.79100013 -0.38490677 -0.26483527 15131877
0.79297298 -0.37447128 -0.26519403 15263976
0.79393756 -0.64457005 -0.25501513 14736871
0.79145181 -0.63507652 -0.25494647 14671333
0.7910859 -0.62464345 -0.25454646 14671332
0.79113346 -0.61462629 -0.25469309 14737125
0.79233319 -0.6053555 -0.25507873 14737126
0.79226661 -0.59510648 -0.2550579 14539746
0.79160005 -0.58534014 -0.25484306 14342367
0.79061794 -0.5747053 -0.25430861 14342368
0.79093766 -0.56482768 -0.25486109 14540004
0.79133338 -0.555502 -0.25475645 14802920
0.79037941 -0.5457083 -0.25460893 14934505
0.78899992 -0.53490025 -0.25665429 14737125
0.79000002 -0.53623945 -0.25256345 14737126
0.78900009 -0.52783656 -0.25660953 14934759
0.79052007 -0.5233202 -0.25401366 15263724
0.79340535 -0.51528567 -0.25529611 15592688
0.79537046 -0.47475457 -0.25471145 15132136
0.79510719 -0.46448353 -0.25524184 15132135
0.79557151 -0.41500434 -0.2549884 15065829
0.79299992 -0.40444633 -0.25529283 15000293
0.79176658 -0.39454845 -0.25489771 14803170
0.790815 -0.38481656 -0.25510558 14934755
0.79312187 -0.37488127 -0.25494686 15198183
0.79411769 -0.64516068 -0.24477275 14539491
0.79123086 -0.63486469 -0.24439481 14736869
0.79113811 -0.62465668 -0.24463581 14671332
0.79180002 -0.61514419 -0.24471262 14671332
0.7924667 -0.6054576 -0.24492 14736612
0.7922399 -0.59508628 -0.24484974 14736612
0.79180759 -0.58527935 -0.24457254 14605283
0.79100019 -0.57455105 -0.24459377 14473953
0.7908802 -0.56444037 -0.24442954 14540002
0.7915715 -0.55507225 -0.24484257 14868709
0.79100013 -0.5446372 -0.24432877 15000038
0.79046905 -0.53488559 -0.24545662 14802916
0.79172981 -0.52471685 -0.24504051 15263723
0.79350001 -0.40484586 -0.24502431 15262949
0.79100007 -0.39487186 -0.24464376 14999778
0.79003161 -0.3851288 -0.24457139 14934499
0.79343605 -0.37426695 -0.24454877 14869990
0.79357147 -0.64527428 -0.23482198 14407394
0.79156673 -0.63442034 -0.23537533 14736612
0.79195994 -0.62453896 -0.23549263 14736868
0.7929998 -0.61501616 -0.2350065 14736868
0.79258609 -0.60455936 -0.23490997 14671076
0.79222214 -0.59527886 -0.23515776 14539746
0.79196543 -0.58484226 -0.23555847 14539746
0.79115397 -0.57411069 -0.23518166 14473953
0.79036009 -0.56407034 -0.23501636 14605538
0.79016012 -0.55467719 -0.23495822 14803173
0.79080015 -0.54494363 -0.23514809 14868709
0.79116005 -0.53500676 -0.23525429 14736868
0.79178125 -0.52488089 -0.2353818 15329003
0.79468 -0.46483368 -0.23444349 15132135
0.79536682 -0.45499265 -0.23464535 15460844
0.79532003 -0.41493905 -0.23463112 14869219
0.79269224 -0.40450287 -0.23492528 15066084
0.79104358 -0.39491215 -0.23497741 14868448
0.79032153 -0.38517118 -0.23520255 14934498
0.79367507 -0.37444267 -0.23525682 14607073
0.79243475 -0.64467585 -0.22450377 14210016
0.79125017 -0.63474524 -0.22532657 14670819
0.7914412 -0.62478316 -0.22493181 14671332
0.79185182 -0.6151166 -0.22468245 14671332
0.79199994 -0.60497886 -0.22444253 14802918
0.79192847 -0.59465319 -0.22495618 14473953
0.79132277 -0.58495498 -0.22526586 14473953
0.79105729 -0.57461983 -0.22490732 14474209
0.79100019 -0.56452602 -0.22502278 14408416
0.79083359 -0.55515045 -0.22497445 14605281
0.79144454 -0.54538769 -0.22514813 14933989
0.79175758 -0.53490543 -0.22498471 14671074
0.79240006 -0.52481782 -0.22544555 15394539
0.79400009 -0.47504684 -0.22487134 14933986
0.79299992 -0.46461818 -0.22453551 15197671
0.7941668 -0.45430452 -0.22499441 15461100
0.79500008 -0.41477081 -0.22523001 15066340
0.79307401 -0.40427721 -0.22509582 15000801
0.79216653 -0.39474753 -0.22535416 14671581
0.79183322 -0.38531297 -0.2252602 14868959
0.79395127 -0.37495089 -0.224975 14540506
0.79180014 -0.64480484 -0.21505524 14013147
0.79068017 -0.63463461 -0.21475092 14408417
0.79106688 -0.62476021 -0.21485598 14540002
0.79100013 -0.61452329 -0.21483815 14605538
0.79080784 -0.60490304 -0.21492907 14803174
0.79096162 -0.59540766 -0.21489987 14737124
0.79014307 -0.58485639 -0.21440779 14737379
0.79083353 -0.5745886 -0.21479295 14737379
0.79100013 -0.56452608 -0.21483815 14671586
0.79123342 -0.5545038 -0.2149013 14737378
0.79199988 -0.54484481 -0.21510975 14868707
0.79213321 -0.53473663 -0.21514581 14802402
0.79300004 -0.52511203 -0.21538137 15460331
0.7942189 -0.51545858 -0.21536505 15394537
0.79466671 -0.48528984 -0.21490455 14933985
0.79259992 -0.47474903 -0.21527337 14736606
0.79352957 -0.46486831 -0.21486777 15197414
0.79461122 -0.45456016 -0.21488738 15592172
0.79519355 -0.42453876 -0.2144763 15132130
0.79510003 -0.41482222 -0.21502049 15066339
0.79355556 -0.40493628 -0.21511942 15066596
0.79187995 -0.39460528 -0.21507823 14737375
0.79092002 -0.38486832 -0.21481782 14736862
0.7943334 -0.37433857 -0.21503294 14079955
0.79330772 -0.64453089 -0.20538899 13684181
0.79225004 -0.63467807 -0.20508887 13947866
0.79216123 -0.62487727 -0.20510209 14013915
0.79159999 -0.61499017 -0.20480755 14079965
0.79122603 -0.60525811 -0.20456108 14277088
0.79090339 -0.59545565 -0.204538 14540003
0.79020625 -0.58496064 -0.20466459 14605795
0.79080576 -0.57456833 -0.20460321 14803174
0.79116684 -0.56464499 -0.2046957 14605794
0.79123545 -0.55477786 -0.20493263 14671843
0.79159373 -0.54491264 -0.20457718 14868965
0.79171425 -0.53458619 -0.20497203 14802659
0.79219347 -0.52475607 -0.20481445 15394538
0.79352927 -0.51546144 -0.20503454 15394793
0.79519999 -0.50515997 -0.20481011 15065572
0.79516006 -0.4855901 -0.20479809 15197157
0.79333335 -0.47518963 -0.20525576 14605276
0.7933436 -0.46520966 -0.20467964 15131364
0.79476672 -0.45464954 -0.20469862 15592173
0.79473919 -0.44472611 -0.20493387 15328743
0.79303837 -0.43473956 -0.20418273 14934497
0.79454833 -0.42497054 -0.20452331 15197924
0.79516006 -0.41485512 -0.20480014 15197923
0.79284602 -0.40443915 -0.20506065 15197926
0.79107708 -0.39527276 -0.20502998 15000548
0.79000026 -0.38501459 -0.20512138 14737118
0.79361379 -0.37412879 -0.20486274 14014934
0.79511112 -0.62502402 -0.19457807 11316144
0.79369992 -0.61500889 -0.19407438 11184814
0.79351419 -0.60490215 -0.19423182 11579828
0.79441178 -0.59479862 -0.19426127 11251377
0.79438704 -0.58475709 -0.1943344 11645879
0.79400003 -0.57479507 -0.19444333 11908796
0.79406655 -0.56516421 -0.1942874 12171967
0.79284626 -0.55527842 -0.19499128 13290448
0.792077 -0.54511172 -0.19487427 13422290
0.79142869 -0.53459179 -0.19437477 13553875
0.79341167 -0.52466887 -0.19440079 13882326
0.79535306 -0.51522166 -0.19471213 14474460
0.7954849 -0.50491869 -0.19489229 14342872
0.79512 -0.49487185 -0.19548234 14605790
0.79543996 -0.48576045 -0.19556187 15066341
0.79472417 -0.47525245 -0.19525595 14671839
0.79417878 -0.46440476 -0.19498239 14342876
0.7948572 -0.45456767 -0.19461741 14606048
0.79493105 -0.44457227 -0.19408429 14869476
0.79339999 -0.43533283 -0.19483279 14540509
0.79313785 -0.42532098 -0.19531457 14803680
0.79337931 -0.4146938 -0.1949268 14737885
0.79247814 -0.40450168 -0.19458987 14672093
0.79183328 -0.39470366 -0.19510274 14737629
0.79202819 -0.38463023 -0.19496965 14606300
