# .PCD v0.7 - Point Cloud Data file format
VERSION 0.7
FIELDS x y z rgb
SIZE 4 4 4 4
TYPE F F F U
COUNT 1 1 1 1
WIDTH 891
HEIGHT 1
VIEWPOINT 0 0 0 1 0 0 0
POINTS 891
DATA ascii
0.41665384 -0.14286639 -0.061997715 15132134
0.42091668 -0.14233215 -0.065875344 14869471
0.41735837 -0.13438241 -0.062847577 15790319
0.42033336 -0.13893749 -0.06578403 15066850
0.41816667 -0.12577794 -0.062570728 15987697
0.42018753 -0.12263697 -0.065125741 15263719
0.41866669 -0.11437353 -0.061684638 16119030
0.42031443 -0.11532399 -0.064736485 15724528
0.41875005 -0.10818706 -0.061288029 16053750
0.42131156 -0.10430827 -0.06359648 15987699
0.42533776 -0.095131978 -0.063654691 15921649
0.42815226 -0.085338295 -0.06290549 16119028
0.42999998 -0.085579798 -0.06614776 15790061
0.42834383 -0.075130031 -0.062160205 15856114
0.43000001 -0.070828676 -0.063437589 14869218
0.42878944 -0.065952361 -0.06077617 15987699
0.42999995 -0.064167097 -0.062490169 15724527
0.42900002 -0.059114546 -0.060277171 16119285
0.43005416 -0.054388698 -0.061894719 16184821
0.43228576 -0.045427717 -0.061714213 16119286
0.43569234 -0.03504293 -0.061217573 15856113
0.43853572 -0.025300384 -0.061544001 15132389
0.44000003 -0.020973459 -0.062852792 14408669
0.43878952 -0.014402859 -0.061166085 14606046
0.44000003 -0.018913362 -0.062337767 14013910
0.43840003 -0.0061672716 -0.061648965 13619149
0.4407143 -0.001624713 -0.061776288 13816013
0.44367748 0.0046734344 -0.061367914 13685201
0.44633335 0.014079541 -0.061419468 13158598
0.44793749 0.024001969 -0.061299585 12303544
0.44900003 0.035883419 -0.060985066 12763841
0.45200008 0.046705984 -0.060651831 12434875
0.45300001 0.05264055 -0.060467876 12106165
0.40802851 -0.14350179 -0.052392874 15461357
0.41161537 -0.14425704 -0.057541057 15066342
0.40838897 -0.13573033 -0.051858325 16448249
0.41249251 -0.13446234 -0.056479629 16251127
0.40900001 -0.12769061 -0.050764713 16645882
0.41340864 -0.12476967 -0.055247277 16448505
0.41443789 -0.11488052 -0.054713313 16448249
0.4167158 -0.10550626 -0.054592654 16579834
0.42038468 -0.10198516 -0.058461241 16448250
0.41828576 -0.09613888 -0.051847693 16711675
0.42170835 -0.094468132 -0.056337688 16645628
0.41900003 -0.088634513 -0.050044131 16711675
0.42297015 -0.084974505 -0.055089984 16448506
0.42422348 -0.075093485 -0.054989778 16514043
0.425872 -0.064929314 -0.054862019 16513786
0.42697573 -0.05550478 -0.054611806 16448250
0.42999998 -0.051870331 -0.058572173 16382457
0.42837504 -0.046396367 -0.051728483 16448250
0.43094376 -0.04413249 -0.056291331 16316664
0.42900002 -0.039028611 -0.050234206 16711422
0.43283507 -0.034852222 -0.054901898 16119285
0.43559998 -0.024836654 -0.055095233 15527149
0.43737775 -0.014705087 -0.055318769 15066597
0.43787318 -0.0054582087 -0.054656681 14869731
0.44030005 -0.0020211814 -0.05856663 14541024
0.43888009 0.0040884623 -0.051226877 14342874
0.44196922 0.0050651338 -0.056119528 14146009
0.43900004 0.011652517 -0.050582998 14145495
0.44326195 0.01534097 -0.055212345 14145752
0.44503674 0.025086591 -0.055299804 14145752
0.44638538 0.034821328 -0.05538984 14474975
0.44799995 0.044132929 -0.053633627 14869733
0.45086664 0.047082052 -0.057299212 14540767
0.44882348 0.053175639 -0.051319677 15329770
0.45190901 0.055160042 -0.055517174 14672609
0.45474562 0.065014571 -0.053852566 15330027
0.45645237 0.074031003 -0.053019915 15132392
0.45600003 0.080210529 -0.050193287 15198185
0.40641561 -0.14458537 -0.045034997 14605791
0.40546298 -0.13493234 -0.045148369 16316919
0.40689835 -0.1250973 -0.045141324 16645882
0.41 -0.121764 -0.049929012 16645882
0.40823105 -0.11607561 -0.043054994 16645882
0.41102085 -0.11336401 -0.046868071 16645882
0.40900001 -0.1099773 -0.040232472 16711675
0.41292715 -0.10503389 -0.044976287 16645882
0.4153775 -0.095135547 -0.045114666 16645882
0.4174771 -0.085355751 -0.044758175 16645882
0.42000005 -0.082086362 -0.048811629 16711675
0.41804001 -0.075745463 -0.042121619 16645883
0.42080876 -0.074688561 -0.047348458 16645884
0.41886675 -0.066150256 -0.040614825 16579834
0.42129886 -0.064909361 -0.045642145 16579835
0.42228311 -0.055032454 -0.044897303 16579835
0.42521265 -0.045114852 -0.04500214 16579835
0.42758113 -0.035771456 -0.0441342 16514043
0.43013045 -0.032082342 -0.047783922 16448250
0.42874995 -0.028633596 -0.04117192 16250871
0.43161941 -0.024302786 -0.045319121 15855856
0.43352604 -0.01481523 -0.045322768 15263719
0.43312061 -0.0053182631 -0.044810157 14869217
0.43471107 0.0047241603 -0.044810094 14408665
0.43593189 0.014847052 -0.044841617 14013909
0.44000003 0.01919841 -0.049462166 13750737
0.43661639 0.024897572 -0.044175893 14540510
0.44035718 0.025916247 -0.049060859 14606047
0.43797719 0.03444545 -0.043155923 14935268
0.4413 0.03550256 -0.047906496 15001062
0.4387334 0.041910708 -0.041172098 15066598
0.44247955 0.045338985 -0.045264546 15198697
0.44547001 0.054955766 -0.044884264 15395820
0.4477399 0.064211391 -0.043565586 15856372
0.45161301 0.066276796 -0.047973569 15725043
0.44900006 0.071752794 -0.041670788 15856885
0.45291436 0.075413205 -0.045345776 15922678
0.4554517 0.083389297 -0.042976588 15856370
0.40385902 -0.14383373 -0.035092261 14473946
0.40205386 -0.13477397 -0.035110112 16250615
0.40312389 -0.12495009 -0.034942795 16448248
0.40564629 -0.11521628 -0.034744475 16580089
0.40780979 -0.1057102 -0.033789072 16580089
0.41083336 -0.10331853 -0.038169887 16645882
0.40876189 -0.096971124 -0.031688303 16645882
0.41172734 -0.094541103 -0.035949942 16645883
0.41334274 -0.085014135 -0.035347406 16580090
0.4149375 -0.075020202 -0.035108414 16580089
0.41631258 -0.064917684 -0.034959584 16514041
0.41702148 -0.055289146 -0.034279119 16514040
0.42000002 -0.052368306 -0.039053097 16448505
0.41766062 -0.046131343 -0.03281134 16448250
0.42121747 -0.043761421 -0.036978908 16514043
0.41850001 -0.039542355 -0.030390091 16711422
0.42365611 -0.035127833 -0.035144061 16448250
0.42615467 -0.025535014 -0.034681857 15856112
0.43000004 -0.022174517 -0.038942739 15855856
0.42740399 -0.015522694 -0.033157136 15132390
0.43026328 -0.015261139 -0.037871715 15132390
0.42739353 -0.0050624581 -0.03363236 14540253
0.43000007 -0.006039388 -0.038236931 14803425
0.42717469 0.0043770252 -0.033708021 14079702
0.43014815 0.0052869716 -0.038359746 14014163
0.42794749 0.014138769 -0.032554679 13752022
0.43086007 0.015291008 -0.037140835 13882837
0.42834997 0.022853065 -0.031256713 14212317
0.43164554 0.025428943 -0.035803601 14541025
0.43380418 0.035123844 -0.035026792 14935526
0.43721047 0.044847213 -0.034607351 15132647
0.44000003 0.048898131 -0.038474988 15263976
0.43900007 0.050885223 -0.03252105 15264488
0.44150695 0.055337645 -0.035435271 15330026
0.4442448 0.064849645 -0.034731224 15856114
0.44778866 0.074104831 -0.034793537 15724529
0.45054549 0.078676246 -0.037033115 16251129
0.45470428 0.084761895 -0.03510797 16054006
0.45892313 0.090807088 -0.033243366 15592941
0.461 0.093836509 -0.033681408 15066086
0.40400001 -0.15024677 -0.025554065 12303034
0.40214822 -0.14448473 -0.024823818 14473947
0.39848655 -0.13410337 -0.021979397 16250871
0.40007982 -0.13497782 -0.026680063 15987443
0.39873925 -0.12552091 -0.021122588 16448503
0.40051159 -0.12458061 -0.025859214 16448249
0.39900002 -0.11943122 -0.020567471 16185331
0.40187302 -0.11492268 -0.024982415 16514296
0.40453026 -0.1050301 -0.025100449 16580089
0.40687057 -0.095024869 -0.025197139 16580089
0.40791127 -0.08539632 -0.024575172 16448504
0.41055006 -0.08300101 -0.028852388 16514298
0.40828875 -0.075485677 -0.022003831 16382710
0.41139388 -0.074678801 -0.027425975 16514296
0.40865794 -0.065298468 -0.021317897 16448503
0.41176301 -0.064907305 -0.026633814 16448246
0.40899995 -0.056757569 -0.020524422 16316917
0.41228405 -0.054736003 -0.025242735 16382710
0.41376704 -0.045056265 -0.024632189 16382967
0.41682711 -0.035868742 -0.023925357 16251125
0.4206208 -0.032832064 -0.027896481 16119284
0.41825005 -0.025687506 -0.021397354 15461610
0.42185533 -0.024771137 -0.026352113 15658732
0.41900003 -0.018501123 -0.020617537 15263975
0.42271161 -0.015093762 -0.025403289 15132131
0.41900006 -0.0032973811 -0.020617537 14277334
0.4225319 -0.0054304497 -0.025538122 14474458
0.41900003 0.00013572203 -0.020617537 13553358
0.4224804 0.0047918027 -0.025192717 14013909
0.42370987 0.01481981 -0.025323039 14014167
0.42568952 0.024608703 -0.025052618 14607075
0.43000001 0.029331779 -0.029211909 14606818
0.42797223 0.032229368 -0.023398615 15067112
0.43105456 0.037131075 -0.025157705 14935269
0.43499997 0.044955049 -0.024973273 14935525
0.43841463 0.052361656 -0.024379224 15264488
0.44012499 0.057090808 -0.025929285 15527146
0.44248852 0.065108635 -0.025004786 15921903
0.44598642 0.074929811 -0.024982629 15921649
0.449 0.080758043 -0.024115112 16316408
0.45304617 0.08552435 -0.025213918 15724528
0.45859995 0.092013374 -0.024426756 16185334
0.46118522 0.095800005 -0.025774015 14343132
0.39776793 -0.1435739 -0.013557489 14868448
0.40019226 -0.14501205 -0.018611517 14539226
0.39630076 -0.13500418 -0.014711394 16250358
0.39649165 -0.1250409 -0.014963828 16250871
0.39732051 -0.11533725 -0.014291544 16382711
0.40005562 -0.11256675 -0.018800959 16514043
0.39804259 -0.10577975 -0.011895551 16514296
0.4010385 -0.10448778 -0.016873466 16316918
0.39875001 -0.098235734 -0.01063657 16645882
0.40207216 -0.094823487 -0.015385125 16514296
0.40364751 -0.085126653 -0.015053773 16514295
0.40477771 -0.074909352 -0.014767031 16316917
0.4060933 -0.064937375 -0.014776918 16316659
0.40683958 -0.054926634 -0.014682403 16251123
0.40786603 -0.045673992 -0.014054731 16251124
0.41080001 -0.042563744 -0.01786834 16250867
0.40852383 -0.037118837 -0.011358561 16119538
0.41251189 -0.034581035 -0.015845355 15922416
0.41454646 -0.025003204 -0.015000064 15461609
0.41606015 -0.01496077 -0.015127352 14935010
0.41580021 -0.0052193864 -0.015119042 14474715
0.41621718 0.0048803515 -0.014966128 14080214
0.42000002 0.0084934803 -0.019683514 14474460
0.41763455 0.013976187 -0.013408447 14211545
0.42066672 0.016837867 -0.017213238 14146010
0.42280814 0.025340313 -0.015321827 14738148
0.42716405 0.033865217 -0.014495185 15001063
0.43025932 0.038340535 -0.015763726 15132391
0.43301073 0.044860777 -0.014634222 15066855
0.43705103 0.054981411 -0.014943869 15461355
0.43888247 0.062543936 -0.013286367 15856371
0.44057155 0.066540383 -0.015971588 15921907
0.44366685 0.074932255 -0.015085261 15790318
0.44808829 0.08239986 -0.014431125 15790575
0.45258337 0.087178037 -0.015353842 16054006
0.45819998 0.092950381 -0.015039791 15987954
0.45999998 0.095990285 -0.015096926 12829633
0.39666668 -0.15030533 -0.0055903136 13092038
0.395165 -0.14459878 -0.004632785 14999519
0.39318964 -0.13489605 -0.0045465939 16119028
0.39344382 -0.12491897 -0.0046981936 16250358
0.39407495 -0.11488612 -0.0046790359 16382200
0.39485115 -0.10500003 -0.0045969384 16316662
0.39663851 -0.095271751 -0.0044186874 16448503
0.40000004 -0.091905884 -0.0089808153 16579834
0.3975139 -0.085443817 -0.0026844335 16382709
0.40030617 -0.084458575 -0.0076498403 16250868
0.39833334 -0.075736575 -0.0012625664 16185330
0.40081704 -0.074705802 -0.0063497243 16185330
0.3986668 -0.065574102 -0.00085866003 16250865
0.40142542 -0.064829379 -0.0060742074 16251123
0.39900002 -0.058249891 -1.8015437e-05 16316659
0.40175256 -0.055075008 -0.0047809943 16119538
0.40313217 -0.045164958 -0.0047481218 16119538
0.40529737 -0.034969017 -0.0047750156 15987695
0.40663114 -0.025331259 -0.0035858473 15264229
0.41093335 -0.023979222 -0.0086776698 15263972
0.40753973 -0.015143502 -0.0028480738 14737886
0.41136593 -0.014782232 -0.0081477277 14869728
0.40769491 -0.0054818592 -0.0025301608 14408667
0.41128889 -0.0048085605 -0.0079158098 14211801
0.40844998 0.0026680953 -0.0014539543 14145752
0.41206369 0.0055848099 -0.005852846 14211545
0.41470906 0.015190244 -0.0048827659 14277852
0.41772002 0.022804746 -0.0036406962 14672868
0.42101794 0.027032245 -0.0062337848 14935783
0.42531386 0.034578849 -0.0049692048 15132905
0.43000001 0.039398156 -0.0090791546 15000806
0.4285714 0.042277314 -0.0015973641 15132904
0.43108535 0.045693163 -0.0052413051 15198184
0.43434432 0.055053148 -0.0046005938 15527148
0.43760955 0.064936057 -0.0046597128 15790320
0.44000003 0.068812393 -0.0089469478 16053492
0.43892318 0.072227255 -0.0021938137 15659249
0.44152319 0.075697772 -0.0056188931 16053492
0.44694281 0.0843511 -0.0042208019 15790576
0.45154551 0.088173442 -0.0079023829 16054262
0.44900003 0.091067068 -2.027301e-05 15921902
0.45600003 0.092385687 -0.0086713526 15330283
0.39300001 -0.15075599 0.0055023758 12960964
0.38899997 -0.14239165 0.0090889949 15461098
0.39171433 -0.1450897 0.004672545 14868962
0.38875443 -0.13450237 0.0079325465 16184820
0.39103281 -0.13515909 0.003040635 16315892
0.38868666 -0.1247636 0.0077356929 16250100
0.3907361 -0.12501833 0.0027759429 16184564
0.388742 -0.11490774 0.0078634489 16250354
0.39074591 -0.11491241 0.0029102175 16184819
0.38890475 -0.10570032 0.0085444916 16382451
0.39111111 -0.10457842 0.0038553399 16053745
0.38900003 -0.098680168 0.0099996524 16119538
0.392252 -0.095041685 0.0049653803 16316917
0.39357284 -0.085001394 0.0050395955 16185587
0.39469352 -0.075036556 0.0050659608 16053743
0.39557272 -0.064969517 0.0050657629 16053744
0.39675197 -0.054991137 0.0051198257 16119280
0.40000001 -0.050436419 0.00091834657 16185074
0.39722884 -0.045414001 0.006071222 15987695
0.40015996 -0.043411259 0.0017802085 16053488
0.39776194 -0.035719223 0.0078727193 15658987
0.40084124 -0.034692243 0.0033597671 15593194
0.39829034 -0.025314977 0.0084327878 14935266
0.4016622 -0.025072901 0.0038704155 15001314
0.39864293 -0.016601462 0.0089139864 14803938
0.40201071 -0.014628764 0.0046280781 14737886
0.40336981 -0.0050593065 0.0051656691 14540510
0.4060095 0.0048135938 0.0052434024 14211289
0.41000003 0.0092510721 0.00094130525 14803425
0.40853131 0.012745665 0.0074521801 14211288
0.41158825 0.016119961 0.0042281603 14540253
0.41549999 0.024689304 0.0055307448 14935268
0.42033336 0.02932865 0.0021125183 15264489
0.41836366 0.031387683 0.0085275285 15067110
0.42217055 0.035621226 0.0050634476 15066854
0.42568168 0.044861134 0.0057250257 15198183
0.43000001 0.048659224 0.0013898776 15395562
0.42748278 0.05266187 0.0078453878 15461355
0.43116134 0.055836376 0.0041607595 15461868
0.43384519 0.064964518 0.0049423403 15790576
0.43663767 0.074173622 0.0054706177 15725298
0.44066668 0.078889519 0.0029016936 16185336
0.44549274 0.085146829 0.0050077136 15856369
0.44900006 0.090691671 0.0032832378 16185075
0.45000002 0.091796614 0.0038423613 15264229
0.38800001 -0.1506546 0.01996541 13421774
0.38761139 -0.14493521 0.015377863 14934498
0.39000002 -0.14960518 0.010025358 12236473
0.38639498 -0.13514824 0.01535951 16053235
0.386242 -0.1251055 0.015346848 16119027
0.38595822 -0.11503403 0.015326902 16118770
0.38595963 -0.10504645 0.015304177 15921646
0.38681102 -0.094959423 0.015414746 16185073
0.39000005 -0.093912363 0.010025359 16251124
0.38775256 -0.085324168 0.016243326 16119280
0.39048573 -0.08365836 0.01131664 16185331
0.38830775 -0.075238474 0.017713081 15921902
0.39104554 -0.074801087 0.012351498 15921901
0.38870737 -0.066101491 0.01846947 15856364
0.39135548 -0.064685814 0.013373616 16053230
0.38879165 -0.05641735 0.01898166 15593194
0.3921161 -0.05482325 0.013922025 15856365
0.38900003 -0.048366427 0.019106213 15593963
0.39277112 -0.044840537 0.014566035 15790316
0.39352897 -0.034878742 0.014710317 15330024
0.39437494 -0.024821201 0.014772469 14869729
0.39544141 -0.014718411 0.014743038 14606816
0.39688882 -0.005557226 0.016126748 14409437
0.40033332 -0.0036177482 0.011633563 14343388
0.39846668 0.0018718807 0.018700009 14146265
0.40198117 0.0052599097 0.014490107 14343645
0.40654141 0.014851919 0.015244251 14474974
0.41000003 0.019329155 0.01053948 14737632
0.40854996 0.021413242 0.017338917 14737889
0.41192314 0.025322456 0.014442437 14869475
0.41555822 0.034539916 0.015740752 15001575
0.42036369 0.037979145 0.011521175 15066854
0.41772729 0.043588381 0.01740358 15132392
0.42118192 0.045923937 0.013351173 14935524
0.42364648 0.055053018 0.015255282 15396075
0.42714036 0.064032748 0.016816862 15856113
0.4305228 0.066454105 0.012394074 15790321
0.42900002 0.070439726 0.019062268 15921906
0.43352273 0.075146824 0.014678719 15790578
0.43786111 0.082545534 0.015666999 15790833
0.44150004 0.084123522 0.010573172 16251642
0.38851997 -0.15162125 0.026105598 13421516
0.38634548 -0.14504535 0.025305707 14737376
0.38427329 -0.13496991 0.025059722 15790064
0.38327712 -0.12500326 0.025091328 15855856
0.38237819 -0.11502828 0.025062086 15790317
0.38179031 -0.10497443 0.024979915 15790061
0.38212904 -0.094979286 0.025008498 15724523
0.38349187 -0.085039601 0.025123991 15987695
0.38429281 -0.07495185 0.025169507 15790316
0.38555473 -0.064970724 0.025215674 15790315
0.38599211 -0.05488744 0.025016692 15658986
0.38653809 -0.045118455 0.024854146 15527401
0.39000002 -0.040045541 0.020068325 15593194
0.3868033 -0.03529799 0.025480028 15263972
0.39012501 -0.033721387 0.020360066 15395815
0.38711339 -0.025462726 0.026310777 14869215
0.3906945 -0.024184724 0.0211953 14803678
0.38817918 -0.015740387 0.027580669 14738401
0.39112899 -0.01475848 0.0225155 14737888
0.38881817 -0.0087277852 0.028861029 14541025
0.39278585 -0.0051213526 0.024472138 14409437
0.39578286 0.0042854957 0.025470179 14146265
0.40020004 0.008249687 0.021841889 14277851
0.39774078 0.012822182 0.02843122 14212058
0.4022184 0.015665576 0.024423409 14277850
0.40565094 0.024871916 0.024946148 14606559
0.41050005 0.02884292 0.02076239 15132391
0.40733355 0.034403078 0.026888633 14738146
0.41161704 0.03603508 0.022161813 14935012
0.40854546 0.041345749 0.028586667 14804195
0.41411912 0.045589466 0.02479337 15001062
0.4173559 0.053759724 0.026290303 15264491
0.42077792 0.056723315 0.022772435 15396334
0.42351541 0.0650317 0.025261246 15659249
0.42742226 0.072850779 0.026169665 15725042
0.43122733 0.076682732 0.023425078 15922163
0.43683335 0.083095141 0.024660716 15593969
0.44011766 0.087053552 0.024889799 15528690
0.38809091 -0.15139231 0.034133036 12566463
0.38509512 -0.14485379 0.035053615 14474204
0.38254288 -0.13491261 0.035022009 15592427
0.38144639 -0.12489523 0.034807317 15460840
0.37899998 -0.11140402 0.038666803 15658730
0.38045371 -0.1152174 0.034361448 15263974
0.3785437 -0.10494668 0.036150802 15263973
0.38000008 -0.1052633 0.031088732 15856109
0.3782925 -0.094919458 0.036323324 15461351
0.38006258 -0.095133282 0.031095559 15395815
0.37821597 -0.085058011 0.036704171 15527400
0.38063827 -0.084737219 0.031624664 15724780
0.37826476 -0.075562924 0.037459735 15264230
0.38086957 -0.074436426 0.032685813 15658730
0.37849998 -0.065003939 0.038526006 15592937
0.38119313 -0.065019891 0.03344281 15658730
0.37843585 -0.05507778 0.038689952 15263972
0.38138938 -0.055006329 0.033614207 15461608
0.37850004 -0.045482479 0.038941693 15132384
0.38171688 -0.044833809 0.034017578 15198436
0.37840426 -0.035103668 0.038393781 15001058
0.38173565 -0.034708112 0.033472795 15001057
0.37876478 -0.026580751 0.039518975 14541020
0.38222802 -0.024723988 0.034728438 14541021
0.38386774 -0.015147781 0.035018526 14738143
0.38645747 -0.005560081 0.035308935 14343131
0.39041671 -0.0020815067 0.03098057 14277851
0.38790202 0.0033519384 0.037780568 14080215
0.39174685 0.0054696901 0.033306051 14014423
0.38900003 0.01014322 0.039140645 14342874
0.39397499 0.014929873 0.03497757 14146009
0.39652371 0.024533357 0.036620028 14475231
0.40089744 0.02607356 0.031696264 14541023
0.3983334 0.031959381 0.038399681 14869989
0.40260398 0.035297465 0.034387205 14738145
0.406737 0.04457942 0.035655204 14935526
0.41083336 0.047821954 0.031638842 14804197
0.40900001 0.051118098 0.038519956 15198185
0.41362 0.055171471 0.034618136 15264747
0.41734692 0.062866099 0.036325984 15725042
0.42127514 0.066856466 0.033508863 15527662
0.42470837 0.074024402 0.035363875 15725555
0.4301818 0.079239793 0.032480504 15265518
0.43306449 0.082753219 0.034447178 15988728
0.38374516 -0.14481358 0.044779174 14473690
0.38181892 -0.13474256 0.044926655 15526635
0.38080192 -0.12508911 0.044959351 15132132
0.37880439 -0.11413942 0.045738574 15000546
0.38000008 -0.1183155 0.04295484 15132132
0.37790877 -0.10515684 0.045101192 15132130
0.3771981 -0.095247932 0.045014612 14935265
0.37609667 -0.085154332 0.04479564 15066850
0.37551439 -0.075039752 0.045247924 15001058
0.37564224 -0.06498979 0.045282155 15263971
0.37560734 -0.055013906 0.045207795 15263972
0.37531659 -0.044953018 0.045332238 15132385
0.37563625 -0.035051532 0.045259662 14869214
0.37629342 -0.02501533 0.045304917 14474715
0.38000003 -0.020337408 0.040014252 14541276
0.37760231 -0.015483064 0.046020571 14540251
0.3807435 -0.013633211 0.041622669 14541277
0.3783479 -0.0068458421 0.048465502 14080214
0.38192084 -0.0047428468 0.043998007 14080728
0.38399228 0.0046071466 0.045162041 14014423
0.38716823 0.01416452 0.045749124 14080217
0.39072007 0.016775792 0.041324921 14212060
0.38872728 0.02151186 0.048005559 14540768
0.3925882 0.025533563 0.044423234 14541025
0.39635345 0.034390986 0.045476764 14803684
0.40012506 0.038476069 0.041957408 15000805
0.39841667 0.041557658 0.048559695 15001320
0.40254539 0.045296837 0.044683091 15001318
0.40719253 0.053885911 0.045878023 15396076
0.41131032 0.057642188 0.042910866 15396333
0.40900001 0.060772654 0.049451143 15659505
0.41438386 0.064979851 0.044895727 15593712
0.41999999 0.069617458 0.040621106 15658736
0.41676599 0.073371895 0.047077838 15659249
0.42172739 0.074786067 0.0420123 15462127
0.42700002 0.080107488 0.04096492 14869988
0.43400002 0.08446873 0.040620476 16185080
0.38367844 -0.14482319 0.05495793 14144726
0.3812145 -0.1347412 0.055099241 15526891
0.38067293 -0.1250874 0.055234883 15197670
0.37856993 -0.11397588 0.054900605 14803168
0.38000008 -0.11924039 0.055232543 14802911
0.37722632 -0.10487348 0.05502307 14737632
0.37599975 -0.09494552 0.054992989 14803423
0.37445816 -0.084898837 0.054765183 14803422
0.37379369 -0.075135589 0.05511038 14672351
0.37314746 -0.065069705 0.054931026 14935263
0.37255579 -0.054942522 0.055424295 15000800
0.37205216 -0.045054551 0.055195384 14935007
0.37188202 -0.035127673 0.055318177 14540250
0.37232351 -0.024993887 0.05516088 14540252
0.3729198 -0.0149847 0.055121306 14408924
0.37546971 -0.0051468564 0.054907434 14080216
0.3775444 0.0041821916 0.056591585 13948631
0.38082343 0.0067512831 0.052353039 13883094
0.37887499 0.011542504 0.058632415 14014681
0.38291135 0.015677342 0.054985546 14211803
0.38701892 0.024475455 0.055300981 14606818
0.39053333 0.028164251 0.051483825 14803427
0.38882351 0.031288754 0.058183737 14672355
0.39267889 0.035606585 0.054514941 14803684
0.39675289 0.044104561 0.055704497 15001061
0.40025923 0.048126247 0.053078819 15264233
0.39866671 0.051615924 0.059400935 15198185
0.40346226 0.055098373 0.054885287 15461613
0.40720475 0.064273916 0.056022193 15593455
0.41125929 0.067457251 0.05186177 15659249
0.40866664 0.072523043 0.058339532 15461613
0.41236621 0.07449235 0.05453568 15527664
0.38304037 -0.14417806 0.064902015 14144983
0.38104981 -0.13457574 0.065101936 15395307
0.38065466 -0.12508138 0.065034054 15263720
0.37855676 -0.11377739 0.064324409 14671582
0.38000008 -0.11879373 0.06599541 14803168
0.37716368 -0.10516388 0.065060787 14539740
0.37473395 -0.094753325 0.064983591 14671581
0.37372535 -0.08471185 0.065123774 14671836
0.37256098 -0.074890234 0.064955853 14474202
0.36900005 -0.060636912 0.06966608 14606043
0.37108377 -0.065068245 0.064661995 14869216
0.3690002 -0.05452944 0.068794645 14737627
0.37055919 -0.055325281 0.063913412 14803421
0.3686437 -0.044826709 0.067127027 14737631
0.37024009 -0.045349151 0.062248822 14737629
0.368922 -0.035469048 0.067101039 14211544
0.37018481 -0.034385823 0.062991455 14211543
0.36899999 -0.022628147 0.068925641 13750739
0.3700842 -0.025344489 0.064482786 13882838
0.3690002 -0.015451667 0.068935134 13882324
0.3705143 -0.014889078 0.06407617 14013909
0.36899999 -0.0082720201 0.069583818 13421774
0.37143406 -0.005011959 0.064646408 13816787
0.37378788 0.004999774 0.065086156 13751252
0.37642857 0.014589014 0.065470785 14014681
0.38047063 0.018199617 0.061649233 14146525
0.37830776 0.022195997 0.068174787 14343903
0.38284948 0.025468882 0.06413839 14606818
0.38741127 0.034492075 0.065392643 14803939
0.3906154 0.037900835 0.061529703 14738145
0.3886818 0.041734193 0.068348892 14935011
0.39275479 0.045761891 0.064540438 14935525
0.3960565 0.054609165 0.065504871 15330282
0.40046155 0.057966188 0.061206017 15330284
0.3978236 0.063377671 0.068212323 15527146
0.40201175 0.065574005 0.063848794 15527405
0.40480345 0.074710891 0.064931713 15724271
0.40549999 0.080820382 0.067379013 11578543
0.38132885 -0.14350405 0.075310744 14144982
0.38097718 -0.13507111 0.074838229 15263719
0.38056263 -0.12513806 0.074888684 15197926
0.37870324 -0.11374739 0.075231917 14802910
0.38000008 -0.11876899 0.07405898 15263717
0.3770774 -0.10512015 0.074901737 14276824
0.37436175 -0.095044293 0.074981764 14408411
0.37262306 -0.085182995 0.07503546 14671837
0.3711533 -0.075006172 0.075172402 14540250
0.36868253 -0.062777817 0.076208159 14540249
0.3703883 -0.066763602 0.073645897 14540249
0.36793026 -0.054927599 0.075235963 14671580
0.36781034 -0.045194551 0.075081706 14540253
0.36841258 -0.035006654 0.075173259 9343121
0.37 -0.030737694 0.071551137 13224908
0.36842975 -0.024697386 0.075260378 9408402
0.36999997 -0.028149007 0.070931025 13356495
0.36808336 -0.014960667 0.074949495 13093321
0.36829087 -0.0053585139 0.075304091 13224907
0.3701764 -0.0026320284 0.07099241 13356494
0.36886218 0.002025635 0.077579871 13224394
0.37065777 0.0056626294 0.074261732 13488080
0.3721872 0.015026506 0.075055413 13948631
0.376104 0.02447274 0.075523525 14541025
0.38064289 0.028511818 0.071651414 14475488
0.37832266 0.032579403 0.078177221 14606560
0.38292238 0.03590687 0.074174471 14738146
0.38579834 0.044916146 0.075519092 14935524
0.39037502 0.048448283 0.070921659 15067367
0.38800001 0.054015879 0.07776276 15198441
0.39196199 0.055824734 0.07333716 15395561
0.38860005 0.060895424 0.079491384 15659248
0.39373323 0.065067634 0.074927345 15461355
0.39570796 0.07405939 0.076118521 15395820
0.40056002 0.075261533 0.071360007 15593198
0.403 0.08079499 0.073569365 16250873
0.38163227 -0.14418961 0.084805191 13947860
0.38037997 -0.135149 0.084908143 15329513
0.37900001 -0.12941512 0.083827615 14934754
0.38000011 -0.12524022 0.084952123 15395047
0.37857577 -0.1142155 0.085152581 14868960
0.38000008 -0.11943737 0.084386833 15263462
0.37732172 -0.1051096 0.084857404 14276825
0.37465581 -0.094657302 0.084975012 14013652
0.37242252 -0.084890537 0.084988572 14145237
0.36895835 -0.071426868 0.086608715 14211031
0.37062743 -0.076014191 0.084621213 14276823
0.36789444 -0.06484136 0.084874488 14342873
0.36704063 -0.054956503 0.084923752 14540253
0.36754695 -0.044941962 0.084905744 13487566
0.36750358 -0.034859601 0.084884502 2830896
0.36719075 -0.025123753 0.085095227 3027506
0.36784729 -0.014951749 0.084804185 12303548
0.36726111 -0.0050208275 0.084909484 12830405
0.36795142 0.0048585287 0.084826291 13159371
0.36838168 0.014561323 0.085851014 13619665
0.37034607 0.016960977 0.081913225 14014424
0.3688421 0.022388346 0.088601843 14146265
0.37192026 0.025402376 0.084388867 14474718
0.37488022 0.035132471 0.085125335 14540511
0.38000003 0.038820118 0.080045663 14934754
0.37665963 0.044512313 0.08653675 14737633
0.38106367 0.045792609 0.081995115 14934754
0.37814644 0.054103229 0.088247016 15132134
0.38266972 0.055240538 0.083509557 15132390
0.37899998 0.061849717 0.089341216 15592943
0.38454309 0.06500414 0.085091159 15198440
0.39037502 0.068096451 0.080745742 15462125
0.38637808 0.074341811 0.086783648 15001575
0.39159271 0.075910509 0.082144514 15329770
0.38866666 0.080801673 0.087481521 15132904
0.3915 0.080931731 0.084297597 15198697
0.38450003 -0.15019572 0.096746281 12170679
0.38179171 -0.14430147 0.095142119 14079189
0.37876657 -0.13342908 0.097252332 15592685
0.38020274 -0.13643178 0.093322471 15395305
0.37843239 -0.12502505 0.095598787 15526889
0.38000008 -0.12603651 0.090801582 15592683
0.37812009 -0.11499218 0.095174253 15460840
0.37740427 -0.10505318 0.094921768 14934495
0.37492308 -0.094703026 0.095048346 14408152
0.37208548 -0.084824592 0.095052861 14211287
0.36856112 -0.071747184 0.095564902 14145238
0.37061131 -0.076858081 0.094764359 14079444
0.36734748 -0.064811558 0.095009118 14079445
0.36700031 -0.05486694 0.094919905 14408924
0.36713228 -0.045002274 0.094952792 11974071
0.36483729 -0.034961604 0.095009513 2699310
0.364728 -0.024987126 0.095067851 2764591
0.36710373 -0.0149524 0.09498252 11447983
0.36611128 -0.0050443951 0.094913363 12632513
0.36660457 0.0048394138 0.094814233 12698820
0.36709756 0.015160095 0.094943069 13290957
0.36821136 0.024873443 0.095529407 13817300
0.37014279 0.028343713 0.091090359 14146008
0.36900008 0.034177046 0.097580776 14079702
0.37054148 0.035563033 0.093225695 14079959
0.37152064 0.045047298 0.094793573 14540254
0.37379184 0.054942735 0.094819389 15000547
0.37621209 0.064730294 0.09525454 15132392
0.3804445 0.068602957 0.09072718 15198185
0.37796232 0.073196806 0.097176649 15001320
0.38157317 0.07601019 0.09338896 15198956
0.38303703 0.082158551 0.097184628 14935784
0.39000002 0.08594805 0.095847078 13948888
0.38800001 0.090048864 0.099897131 15526895
0.37882614 -0.14150175 0.10682654 14145238
0.38083333 -0.14442641 0.10408295 14079444
0.37737587 -0.13495065 0.10508569 15066339
0.37613946 -0.12507226 0.10530449 15592426
0.37573716 -0.11491372 0.10497623 15526634
0.37498429 -0.1050502 0.10499951 15000545
0.37306786 -0.095093869 0.10493723 14540251
0.37102953 -0.084998034 0.10503913 14539996
0.36864376 -0.073296733 0.10583702 14145238
0.37019655 -0.077676788 0.10417952 14276824
0.36727372 -0.064435303 0.10518141 14079959
0.36706138 -0.054908194 0.10521143 14211289
0.36736313 -0.04494787 0.10501991 10987432
0.36277136 -0.034655608 0.10509705 2501931
0.36221692 -0.024997855 0.10500667 2633262
0.36654049 -0.014695794 0.10498835 10790567
0.36615926 -0.0050258012 0.10498991 11974840
0.36602107 0.0048315693 0.10494932 12369598
0.36661837 0.015141161 0.10512108 12961735
0.367762 0.02498568 0.10522112 13356493
0.36873168 0.034912758 0.10501214 13750994
0.37 0.039097801 0.10175905 14013909
0.36899999 0.041937027 0.10788424 14013910
0.3701182 0.0457986 0.10466558 14211289
0.37098411 0.054849535 0.10502695 14540254
0.37247494 0.064895853 0.10507632 15000806
0.37535113 0.074912176 0.1049597 15263978
0.38000003 0.079296321 0.10050616 14541797
0.37751433 0.08208748 0.10736873 15330028
0.38264048 0.08603356 0.1041967 14936039
0.38474998 0.09132041 0.1064539 13091783
0.37818879 -0.14233546 0.11449312 12895173
0.37616232 -0.13497898 0.11495409 14539997
0.37402311 -0.12505671 0.11513187 15197925
0.37350753 -0.11507088 0.1148466 15198181
0.37273234 -0.10481744 0.11483499 14737375
0.37153116 -0.094673887 0.11483117 14474202
0.37076157 -0.085045218 0.11521656 14145238
0.36880648 -0.074077174 0.11285013 13947858
0.37041956 -0.07599467 0.11745682 14080213
0.36828449 -0.064789429 0.11440752 13882579
0.37 -0.067634419 0.1191307 13883091
0.36791313 -0.055039898 0.11509132 13750481
0.36780003 -0.045170225 0.11445011 10198173
0.36999997 -0.045700897 0.11890934 10724002
0.35856253 -0.033040203 0.11875799 1712415
0.36133647 -0.034878455 0.11433829 2173222
0.35873082 -0.02678939 0.11891094 1909537
0.36106789 -0.024728332 0.11449268 2172967
0.36687043 -0.01492038 0.11511027 10527394
0.36727291 -0.0050403476 0.11519798 11645361
0.36686391 0.0048418562 0.11507022 12040377
0.36727297 0.015166994 0.11519749 12895685
0.36790556 0.025198555 0.11515075 13421771
0.36856192 0.034956325 0.11492632 13685201
0.36900011 0.042497303 0.11497314 14342874
0.37000027 0.047081668 0.11510941 14211286
0.37031767 0.054818403 0.11495891 14605788
0.37097865 0.064820878 0.11505511 14935009
0.37167153 0.075026751 0.11493785 15132389
0.37618876 0.084484637 0.11554269 15066851
0.38071433 0.088612966 0.11227977 15658991
0.37820005 0.091964863 0.11856313 14079443
0.38212767 0.092646934 0.11334001 11841713
0.37765226 -0.1418896 0.12511696 12829636
0.37495169 -0.13486978 0.12509637 14539997
0.37362 -0.12495641 0.12505874 15066597
0.37304056 -0.11502787 0.12495326 14935011
0.37300035 -0.10498787 0.12477504 14474460
0.37281537 -0.095025249 0.12500705 14145497
0.37282312 -0.085103415 0.12526864 13684688
0.37231323 -0.0750646 0.1249687 13355980
0.36899999 -0.061572734 0.12084835 13093066
0.37115681 -0.065295301 0.12522651 13355980
0.36900011 -0.056029789 0.12122887 13158601
0.37071717 -0.054493926 0.12600012 12961221
0.36739293 -0.041842658 0.12432418 9013643
0.37071624 -0.046572678 0.12510617 10658466
0.35774738 -0.03344721 0.12506878 2107429
0.36133334 -0.038231868 0.12432659 2567211
0.35777673 -0.025900969 0.12526317 2173222
0.36057144 -0.021045169 0.12460916 1976616
0.36719298 -0.015596334 0.12466224 9738136
0.36999992 -0.012006624 0.12802677 10396066
0.36841166 -0.0049920687 0.12496937 11054252
0.37 -0.0089750048 0.12990978 10528422
0.36808336 0.0048579294 0.12492932 12106682
0.36800808 0.015119227 0.12511842 12764613
0.36815697 0.025113801 0.12495499 13290444
0.36865306 0.034879338 0.12437811 13553617
0.36999995 0.037827399 0.12933232 13685203
0.36900014 0.043242197 0.12254435 14079961
0.37008029 0.046210945 0.12624192 14211803
0.37046063 0.055041581 0.1247763 14343130
0.36899999 0.068794459 0.12869485 14211287
0.3701269 0.064849913 0.12493468 14474459
0.36898983 0.073768131 0.12539148 14079955
0.3700555 0.076980799 0.12391281 14277079
0.37358874 0.08502306 0.12506801 14737886
0.37709004 0.093250982 0.12502223 11184295
0.37527779 -0.14088327 0.13342004 12829636
0.37404335 -0.13491219 0.13482296 14474462
0.37332833 -0.12519652 0.13469632 15066598
0.37403062 -0.11502128 0.13482778 14869733
0.37428939 -0.10502455 0.13492322 14474974
0.37449268 -0.094999164 0.134997 14474461
0.37504143 -0.085033022 0.13518928 14014423
0.37531084 -0.075003959 0.13507359 13422286
0.37415159 -0.065021247 0.13498403 13224651
0.37242725 -0.054759242 0.13444701 12237755
0.3676897 -0.041317891 0.13512827 7960694
0.37169507 -0.046318509 0.13458066 10724259
0.35900003 -0.035601798 0.13024974 2042406
0.36500004 -0.035033487 0.13578093 1383961
0.35900003 -0.022154989 0.13024974 1911335
0.36406451 -0.02468735 0.13524966 1318169
0.36668184 -0.017491587 0.13403018 9344150
0.37082621 -0.012863136 0.1355236 10067101
0.36899999 -0.0036892036 0.13112929 11054766
0.37070543 -0.0052789254 0.1360243 10725031
0.36898157 0.0049662506 0.1319517 11778488
0.37035921 0.0048199501 0.1371733 11515060
0.36885703 0.015826426 0.13313787 12567748
0.36999995 0.013843932 0.13778237 12501698
0.3690002 0.023998408 0.13198565 13028299
0.37006128 0.025654877 0.13667205 12961736
0.36899999 0.031341013 0.13252041 13488337
0.37007692 0.03510813 0.13517992 13553873
0.3709628 0.045061849 0.13526744 14343132
0.37099957 0.054836769 0.13503769 14474461
0.36900011 0.068420142 0.13603745 14014423
0.3706035 0.063670211 0.13492867 14211289
0.36864564 0.074769832 0.13504347 14211544
0.36899999 0.080927424 0.1357626 14540255
0.3719286 0.085579924 0.13237189 14145497
0.37475854 0.092423208 0.13227417 12894917
0.37375006 -0.13418606 0.14070503 14606046
0.37370008 -0.12418982 0.14100686 14212059
0.37452775 -0.11517162 0.14114417 13290958
0.37500003 -0.10522433 0.14132205 12106683
0.37500003 -0.09609437 0.14104113 12369342
0.37621048 -0.084329747 0.14103636 11382961
0.3767826 -0.075276755 0.1410348 11119531
0.37495241 -0.06592346 0.1412205 11580082
0.37350002 -0.056569502 0.1404649 12501698
0.36419046 -0.040763337 0.1451415 4737091
0.37200001 -0.045747068 0.14048095 9936024
0.36511663 -0.035000369 0.14526513 857359
0.36541393 -0.025449447 0.14605537 922383
0.36999995 -0.026298536 0.14279416 790797
0.36425003 -0.018634152 0.14434673 5983307
0.37184852 -0.012538216 0.14216682 9671825
0.37152562 -0.0053134575 0.143224 9672855
0.37086457 0.0044152625 0.14241241 10857644
0.37035859 0.015303276 0.14215849 12041405
0.37070787 0.024539022 0.14254862 12041148
0.37036547 0.034252372 0.14242731 12369855
0.37100014 0.044752318 0.14230756 13685460
0.37070927 0.054840688 0.14227656 13883609
0.36892307 0.068148583 0.14168929 13816789
0.37057889 0.062124483 0.14143682 13817559
0.36868975 0.074080899 0.14147365 13159116
0.37 0.079115167 0.1422095 13026759
0.37 0.080674276 0.14160317 13684946
0.36113796 -0.041134104 0.15513313 1581083
0.35875863 -0.032465272 0.15828231 923152
0.36100003 -0.035385333 0.15442182 1186323
0.35888901 -0.027297504 0.15821457 922897
0.36052558 -0.0245238 0.15406033 1120275
0.36100003 -0.019038834 0.15322986 3090468
0.34641179 -0.041245867 0.16851509 2239006
0.35652372 -0.040779538 0.16649839 659468
0.36092311 -0.041350085 0.16227388 2238499
0.34701636 -0.035214446 0.16859393 1712666
0.3556214 -0.034621876 0.16501984 1186325
0.3601819 -0.038363919 0.16156931 1317909
0.34725639 -0.025780858 0.16898677 1712154
0.35545638 -0.027002718 0.16481371 1383191
0.36178949 -0.022433465 0.16483815 1054483
0.33825001 -0.041165799 0.17884129 2238753
0.34240821 -0.041521609 0.17365341 2172959
0.338 -0.03871505 0.17843883 2041117
0.34238872 -0.034889147 0.17342803 1975580
0.33900002 -0.024888752 0.17616501 1778204
0.34275588 -0.025716849 0.1728891 1975071
0.3342813 -0.041293722 0.18387561 2041117
0.78789479 0.086268283 0.37439275 9803922
0.78885716 0.091272965 0.37696025 9935764
0.79108709 0.095673896 0.37453946 10001301
0.7877143 0.085521825 0.38598606 9673107
0.78890914 0.091758706 0.38545278 9936021
0.79026669 0.096458092 0.38477007 9870229
0.78821057 0.08610747 0.39435568 9738386
0.78888893 0.09177503 0.39435986 9804180
0.79000002 0.096132919 0.39525014 9869973
0.79119456 0.10490617 0.39540809 10001558
0.78769231 0.087774642 0.40535274 9738387
0.78900003 0.091582589 0.40488166 9804180
0.79006249 0.096201524 0.40478459 9869973
0.79150009 0.10494673 0.4057534 9869973
0.79112017 0.11508141 0.40555844 10001558
0.79059398 0.12512724 0.40488109 10067351
0.78300005 0.088238455 0.41056046 9738387
0.78866673 0.091646858 0.41168508 9804180
0.79005557 0.096431836 0.4151845 9804179
0.79119241 0.1152333 0.41506881 9935766
0.79000038 0.12509069 0.41515559 10001558
0.79140007 0.1355039 0.41496551 10067352
0.77800006 0.096781544 0.42979455 9869971
0.7856251 0.097501546 0.42709911 9869973
0.79000002 0.096424915 0.42255318 9804178
0.78760868 0.10511389 0.42740273 9869973
0.79052955 0.10498138 0.42201912 9869971
0.78883332 0.11444179 0.42716077 9935766
0.79028577 0.11469598 0.42191246 9935764
0.78875983 0.12441411 0.42716995 9935765
0.79000002 0.12618352 0.42263725 9935764
0.78877783 0.13382255 0.4283618 10002072
0.79060876 0.13560869 0.42348069 9936021
0.78900003 0.14247943 0.42848301 9936279
0.77900004 0.098729603 0.43034697 9935764
0.78200006 0.099109821 0.43017361 9935766
0.77870005 0.1045261 0.4354682 9869972
0.78268421 0.10633283 0.43314722 9869973
0.77900004 0.11149517 0.43946519 10198936
0.78478074 0.11505698 0.43509838 9935766
0.7863825 0.12495227 0.43550193 10001559
0.78775865 0.13494363 0.43480173 10001558
0.7887271 0.14483717 0.43516073 10001558
0.79000002 0.14820823 0.43087548 10001557
0.78900003 0.15171476 0.43771833 10198166
0.79065531 0.1556728 0.43403882 10132886
0.77900004 0.11514247 0.44128886 9869971
0.78083342 0.11693668 0.44110811 9869971
0.78361541 0.12542464 0.4423497 9869971
0.78721064 0.13498095 0.44332102 9935765
0.78879988 0.1445678 0.44370142 10067094
0.79000002 0.14728352 0.44752014 10132373
0.7900002 0.15519485 0.44395825 10132374
