# .PCD v0.7 - Point Cloud Data file format
VERSION 0.7
FIELDS x y z rgb
SIZE 4 4 4 4
TYPE F F F U
COUNT 1 1 1 1
WIDTH 689
HEIGHT 1
VIEWPOINT 0 0 0 1 0 0 0
POINTS 689
DATA ascii
0.43760005 -0.081609637 -0.043556843 13157562
0.42866668 -0.071110815 -0.040160012 12696499
0.43333334 -0.074860334 -0.043699272 12894391
0.42702782 -0.063513249 -0.043116834 13288639
0.43038884 -0.068150945 -0.043960862 12828345
0.41900003 -0.050870381 -0.040235266 15132392
0.42267248 -0.054991968 -0.043166753 13158596
0.41892865 -0.045817822 -0.040718853 13619665
0.42035565 -0.044518296 -0.043274011 14408408
0.42246014 -0.034966342 -0.042547256 14276050
0.42466664 -0.025785999 -0.041482896 13947342
0.42800003 -0.018395787 -0.040097553 13224647
0.43000001 -0.015966918 -0.040284924 11448235
0.43866673 -0.13238956 -0.032652948 12896198
0.44000003 -0.1358238 -0.031436328 12434880
0.43493757 -0.12472034 -0.032855831 13683398
0.43215996 -0.1151591 -0.032696806 13223880
0.42755559 -0.10292187 -0.032456011 13814981
0.42999998 -0.10814615 -0.03237563 12962250
0.4245435 -0.095192887 -0.032880891 13881035
0.41900006 -0.080296971 -0.032388173 13486535
0.42101863 -0.085578918 -0.033037119 13289671
0.41672218 -0.074970469 -0.032791991 13881293
0.4230001 -0.072397284 -0.037403982 12434357
0.41438469 -0.065011173 -0.033119805 13881289
0.42308703 -0.064675055 -0.038563766 12762809
0.41366228 -0.054572042 -0.034290213 14078156
0.42087501 -0.057749733 -0.039060745 13354687
0.41334933 -0.045194563 -0.034615498 14605015
0.41487509 -0.035472766 -0.034049269 14474197
0.42087504 -0.033566527 -0.038486522 14671062
0.41679996 -0.026824467 -0.031928141 13882835
0.42294207 -0.024294889 -0.036286518 13752278
0.42645761 -0.016981091 -0.034596961 13883347
0.43173686 -0.012193866 -0.035438474 13224646
0.43715787 -0.0072353138 -0.032232884 13224646
0.44000003 -0.0050077154 -0.032981399 10855845
0.43784615 -0.13258465 -0.025385717 13025730
0.44000003 -0.13633883 -0.029891256 11644079
0.43501112 -0.1251231 -0.024969766 13420742
0.43196657 -0.11514958 -0.024796518 13354435
0.42764419 -0.10352436 -0.024639199 13288898
0.4300001 -0.10854402 -0.024984032 12830149
0.42455536 -0.095281504 -0.02536438 13157568
0.41853335 -0.081645012 -0.024352219 12435388
0.42094031 -0.086642824 -0.025596792 13223104
0.41569158 -0.07492052 -0.024783598 13158081
0.41195422 -0.064967565 -0.025094811 13486532
0.40867156 -0.053942647 -0.023622772 13749448
0.41037837 -0.056965195 -0.027516572 14144465
0.40833378 -0.04498519 -0.024900867 14407891
0.41000003 -0.049297787 -0.02977285 13751509
0.40856478 -0.036890406 -0.023267852 14473683
0.41070896 -0.033237036 -0.026610041 14342358
0.41380176 -0.02516176 -0.024781477 14210515
0.41803575 -0.018247435 -0.023752119 13816789
0.4222964 -0.014280414 -0.025343288 13685200
0.43000001 -0.01093373 -0.029211909 14606299
0.42604005 -0.0083185975 -0.023841247 13684936
0.43193749 -0.007000193 -0.028146543 13422025
0.4382399 -0.13247091 -0.01436091 12368305
0.43540257 -0.12483842 -0.01489774 12828345
0.43183327 -0.11511459 -0.014677186 12959157
0.42730275 -0.10428324 -0.014708138 12828085
0.42999998 -0.10935192 -0.015428715 13485503
0.42337772 -0.0950206 -0.015383793 12893621
0.41754711 -0.083212458 -0.015015549 12697270
0.4205153 -0.08819522 -0.016009063 12762292
0.41389 -0.074966721 -0.015041654 12828597
0.40875682 -0.062170565 -0.013105882 13027777
0.41106349 -0.066177383 -0.015967101 12698040
0.40786037 -0.05477228 -0.014821096 13158078
0.40682033 -0.045106664 -0.014784105 14012099
0.40746334 -0.035219815 -0.01474552 14013129
0.40861297 -0.02800872 -0.013257357 12960443
0.41198736 -0.023641661 -0.015600004 14078926
0.41661543 -0.016514083 -0.014501973 13684424
0.42088586 -0.012248924 -0.016489267 13815757
0.42440006 -0.0065300302 -0.0153067 13749962
0.43083334 -0.0015405156 -0.01203746 13552583
0.43499997 0.0019942976 -0.012502122 12961729
0.44518182 0.0075445864 -0.012621162 13027013
0.45000002 0.0096268859 -0.011608358 12105655
0.44900003 0.010656611 -0.013684795 12829378
0.45453852 0.013422788 -0.011723991 12698302
0.46000001 0.018455762 -0.010789452 12237494
0.47333336 0.023055501 -0.010732309 11382695
0.43837768 -0.1321314 -0.0045796284 12105395
0.43558031 -0.12483501 -0.0045527746 12564658
0.42899996 -0.11058475 -0.0020279635 13025982
0.43152434 -0.11540098 -0.004812147 12761522
0.42659777 -0.10458893 -0.0046455697 12368565
0.43000001 -0.10958422 -0.0090791546 14011075
0.41900003 -0.090105839 -1.8918467e-05 11906726
0.4222858 -0.094815306 -0.0050160899 12367018
0.41614449 -0.084272146 -0.0046006055 11842476
0.42011115 -0.089033552 -0.0078873904 11644325
0.40899998 -0.071267895 -0.00097594323 12038057
0.41193593 -0.075234286 -0.005223678 12433325
0.40784195 -0.06468226 -0.0045495341 12828597
0.41010004 -0.069182836 -0.0076034144 12367016
0.40529713 -0.055074308 -0.0047856872 13157304
0.40394858 -0.045098864 -0.0046393299 13354682
0.4045535 -0.034907304 -0.0047600274 13487045
0.40715873 -0.02545586 -0.0044877576 13420740
0.41075003 -0.020900704 -0.0075926171 14012360
0.4088333 -0.019647224 -0.0011355152 13815753
0.41462854 -0.014928518 -0.0049048276 13487046
0.42000002 -0.010679457 -0.0093596261 11579564
0.41859999 -0.0094677303 -0.0011954959 13552844
0.42371622 -0.0063103577 -0.0047764606 13092803
0.43059093 -0.0016467199 -0.0055200891 12698302
0.43324322 0.0016511149 -0.0051535415 12764094
0.44540006 0.0070338896 -0.0083531979 13027010
0.45257142 0.0096818963 -0.0063706124 12895423
0.45595133 0.013822379 -0.0062362747 12829631
0.46183336 0.018442115 -0.0028090049 12500665
0.46766666 0.021318579 -0.0012993115 12698556
0.47426325 0.025958044 -0.0036757432 12566457
0.4765 0.030551294 -0.0033668294 11842734
0.48200002 0.030622136 -2.1763008e-05 13420998
0.43739387 -0.13238369 0.0046287319 12892336
0.43475324 -0.12505029 0.0050667962 12498861
0.42885 -0.11094777 0.0053003659 12630963
0.43090168 -0.11596972 0.0049236617 12499633
0.4255974 -0.10498184 0.0054581938 12367792
0.41830444 -0.09170223 0.0065776943 12236203
0.42120597 -0.096384369 0.0049389149 12368047
0.41488507 -0.085256837 0.005302777 12433838
0.40851593 -0.073268674 0.0055396436 12631730
0.41077781 -0.07829529 0.0056431601 12303283
0.40607449 -0.06520649 0.0050851838 12763318
0.40268981 -0.055022798 0.0051606409 13026747
0.39900002 -0.041125346 0.009011291 13750474
0.40075982 -0.045112226 0.0049122227 13290435
0.39900002 -0.038400989 0.00908913 13684937
0.40131703 -0.034701407 0.0048685125 13618885
0.40431416 -0.025189461 0.0052934927 13289923
0.40797439 -0.018036429 0.0065681222 13355461
0.412635 -0.013123301 0.0048990669 13355974
0.41708335 -0.0081889089 0.0061903927 13618893
0.42320001 -0.0039055147 0.0051492215 13093063
0.43000001 -0.00086735259 0.00098722253 13422025
0.42860001 0.000339691 0.0078062029 12830402
0.43170455 0.0029279373 0.0050121006 12501180
0.44200003 0.0094557414 0.0082563218 13421510
0.44600004 0.011372576 0.0091168564 12828855
0.45683336 0.015124249 0.0079987254 12697526
0.46221051 0.0185463 0.0046469974 12435640
0.46561542 0.021366026 0.0065197814 11713207
0.47255558 0.02437168 0.0069874111 11976122
0.483125 0.02857645 0.0064821197 13093063
0.48764712 0.032123186 0.0051505305 13486536
0.49354541 0.03644082 0.006321094 12368307
0.50174999 0.042304359 0.0083470698 14671060
0.43504447 -0.13223459 0.014849259 12696244
0.43360901 -0.12507002 0.014644047 12893879
0.42744455 -0.11260475 0.015454151 12629936
0.43046352 -0.11761788 0.014333455 13091258
0.42362216 -0.10499257 0.015348642 12367534
0.41757149 -0.092954166 0.014982054 11711147
0.42059478 -0.097954035 0.014962327 12105390
0.40900001 -0.080614686 0.018014004 12630963
0.41264284 -0.085136048 0.014720865 11973033
0.40731606 -0.074320063 0.015334329 12236718
0.41000003 -0.078956142 0.012075188 12697273
0.40339622 -0.064902999 0.015031947 12368560
0.39843252 -0.052533973 0.017399624 12565939
0.40034205 -0.055907141 0.014013832 12500144
0.39749476 -0.04453899 0.015334664 13354941
0.40000007 -0.048162285 0.011352597 12959410
0.39743614 -0.035519868 0.015243405 13355454
0.40000004 -0.031708278 0.011218825 14342352
0.39829636 -0.027773146 0.017834621 13224896
0.40140435 -0.024445388 0.014163265 13487560
0.40601104 -0.016247431 0.01555996 13684425
0.41150007 -0.01151306 0.013466323 13618631
0.41531754 -0.0067545669 0.015335059 13354688
0.42200005 -0.0017183289 0.01499193 13026496
0.42678574 0.0011036631 0.015568567 12435131
0.43413571 0.0059759892 0.015088021 12698814
0.44000003 0.0094129555 0.01131066 13158846
0.43900001 0.010419269 0.017108627 12105907
0.442 0.011735192 0.015503801 12829627
0.48000002 0.027124008 0.011777057 13159114
0.48783335 0.03137432 0.011587862 12435645
0.49511111 0.036489848 0.013403772 12105905
0.49820003 0.041448507 0.018636823 15132384
0.50231248 0.043234952 0.013793715 15329504
0.43406385 -0.1329536 0.025491524 12237234
0.42900002 -0.12037665 0.028100938 10855840
0.43190792 -0.12538427 0.024627196 12302771
0.42649996 -0.11447629 0.025330013 12499889
0.43000004 -0.11909136 0.021567371 12104618
0.41880003 -0.1010436 0.02821658 13484472
0.42174083 -0.10510833 0.024904154 12367018
0.41570744 -0.094974287 0.02549273 12432297
0.41999999 -0.098842196 0.020956559 11445915
0.40856424 -0.081584133 0.025657598 12104877
0.41140842 -0.086727038 0.024572501 11973290
0.40574691 -0.075051583 0.024373665 12170153
0.39841676 -0.061779756 0.027611492 13223097
0.40102351 -0.065900408 0.024574919 12368045
0.39668208 -0.055022594 0.025171338 12500149
0.40000001 -0.059488352 0.020895034 10394513
0.39440852 -0.045109451 0.024866082 12961471
0.39459509 -0.034972325 0.024916003 13158591
0.39665127 -0.025379319 0.025371931 13158595
0.40008339 -0.021099927 0.022303931 13289923
0.39883336 -0.01916665 0.028769881 12762551
0.40292042 -0.014738638 0.024889009 13486789
0.40769565 -0.0085396823 0.026493423 13223877
0.41420546 -0.0046362164 0.024804875 13290181
0.42062503 -0.0012174454 0.022628307 13093572
0.41850001 0.00013556007 0.028882142 13290184
0.42501831 0.0027702951 0.025029447 12567231
0.43173915 0.0068680365 0.022520846 12501695
0.43700001 0.010371801 0.026578914 13290182
0.44280005 0.012793824 0.026728947 12369083
0.49418759 0.037652727 0.024918526 11316650
0.49720007 0.042007804 0.025234792 15001057
0.50400001 0.046637151 0.026017288 14474454
0.51066667 0.048782121 0.023091376 15790314
0.509 0.050211154 0.027383314 11776171
0.43228564 -0.13284726 0.03487014 12828599
0.42818183 -0.12203117 0.03585038 12433585
0.43052733 -0.12654246 0.034135669 12368562
0.4241249 -0.1149451 0.035279773 12434355
0.41793025 -0.10227811 0.035450816 11645613
0.42066678 -0.10720701 0.034386076 12039857
0.41410425 -0.094970576 0.035026636 12038309
0.40742126 -0.083868429 0.035530549 11841704
0.41047367 -0.08847519 0.033460986 12433067
0.39900002 -0.070859782 0.039212763 13222588
0.40284902 -0.075006314 0.03471927 11775910
0.39708421 -0.064331114 0.0356557 11973032
0.40007699 -0.068457551 0.0321857 10920342
0.39378089 -0.054906458 0.035119765 12171180
0.39138868 -0.044525575 0.035252683 12500405
0.389 -0.03538958 0.039140645 12170925
0.39128932 -0.034624495 0.03450327 13158337
0.3932167 -0.024703452 0.034969933 13289922
0.39697185 -0.016581504 0.036076639 13092801
0.40109798 -0.012276279 0.033633668 13552582
0.40532845 -0.0067139827 0.035393935 12960961
0.41209376 -0.0019141013 0.034132823 12698819
0.41491672 0.0012306786 0.034533031 12830147
0.4245455 0.0054799337 0.03323669 12565950
0.43175 0.0087325582 0.032574497 12105655
0.43725002 0.01140427 0.033502467 12302778
0.44552636 0.015192377 0.031930219 12172476
0.45125002 0.018634358 0.034312408 12435129
0.45690003 0.021436047 0.03463931 13027268
0.46364862 0.025593571 0.036141664 12830147
0.47066668 0.029535353 0.036708537 12895939
0.47583333 0.031347807 0.036558483 13685196
0.48521057 0.036154635 0.037638418 11842482
0.49177778 0.037896376 0.033170048 11974065
0.48700002 0.040060397 0.039880659 14606046
0.49590477 0.043316402 0.034079667 15066336
0.50050002 0.047908355 0.032930449 12236980
0.42852938 -0.13252006 0.048251063 12763321
0.43027672 -0.13391541 0.044042166 12828086
0.4265357 -0.12470627 0.045455575 12565427
0.43000001 -0.12901233 0.041655384 12630191
0.41875002 -0.11088362 0.048995577 11512996
0.42215303 -0.11511356 0.044797994 12499377
0.41702324 -0.10448851 0.045317795 12432815
0.42015392 -0.10881525 0.042652927 12631476
0.40855554 -0.091526575 0.047271028 11577761
0.4122974 -0.095766723 0.044626236 11644582
0.40584898 -0.084912658 0.045006953 12104361
0.39794287 -0.071924433 0.045840569 11710631
0.40140623 -0.076416291 0.044454303 11447203
0.3950637 -0.065082781 0.045109086 11710375
0.38892856 -0.051707 0.047977831 12301227
0.39139193 -0.055473223 0.044327896 12433324
0.38825226 -0.044894803 0.045549516 13156278
0.39008334 -0.047740445 0.04092367 12763060
0.3876442 -0.035265807 0.04489392 13025976
0.39000002 -0.030002574 0.04015426 11842988
0.38828397 -0.02634538 0.046651036 13092543
0.39115795 -0.02329329 0.0427134 13092800
0.38900003 -0.019604877 0.04885431 11976122
0.39405975 -0.014870162 0.045040704 13093062
0.40000001 -0.010405012 0.040949754 14474455
0.39845458 -0.0086046327 0.047807302 12501181
0.40277216 -0.005203322 0.045165207 12961476
0.41080004 -0.0012125513 0.041141696 13158854
0.40849999 0.00045147966 0.048433993 12500925
0.41380006 0.0028562327 0.04505422 12632511
0.42340001 0.0080717932 0.045971118 12238010
0.42850003 0.010170062 0.047126416 12370111
0.43384999 0.013962956 0.048527267 12435643
0.44480005 0.018472377 0.045586694 12829378
0.45678258 0.023490554 0.045112062 12303800
0.46225002 0.027342705 0.043938916 12961217
0.47000003 0.029859759 0.040689085 12171956
0.4664 0.031161139 0.048670243 12369081
0.47584003 0.034644634 0.046312973 13618891
0.48187879 0.037624653 0.043797556 12105396
0.48505566 0.043310925 0.046497498 15132127
0.42632893 -0.13399453 0.054713879 12959415
0.42336673 -0.1248595 0.055002965 12959416
0.41760314 -0.11378299 0.055904113 12630965
0.42062512 -0.11731979 0.052844852 12499892
0.41411009 -0.10497949 0.055135399 12367536
0.40764198 -0.093478099 0.055640597 12170411
0.41109374 -0.098060101 0.053690605 12301997
0.40344754 -0.085015178 0.05508576 11907754
0.39696005 -0.073489152 0.055267736 11644325
0.40045449 -0.078334533 0.053983532 11314844
0.38900003 -0.060887951 0.059175078 10590864
0.39281076 -0.06505499 0.055011075 11775654
0.38823771 -0.054472577 0.055734899 12105647
0.39034998 -0.057901651 0.051840492 11974059
0.38565305 -0.045021649 0.055049378 12631478
0.38409182 -0.034881756 0.055197388 12894389
0.38491291 -0.025207825 0.055154439 12697273
0.38769767 -0.016735107 0.055763055 13093058
0.39175007 -0.012516747 0.053130586 13290183
0.39551252 -0.0067141564 0.05582878 12961216
0.40211433 -0.0027415075 0.052910123 12764355
0.39900002 0.00012924365 0.059762217 12040372
0.40717649 0.001199121 0.054812249 12172218
0.41528851 0.005363049 0.054129131 12698817
0.42080003 0.0092650261 0.055472959 12566717
0.42573336 0.011701127 0.055784091 12500926
0.43400002 0.015685618 0.055247966 12764096
0.44139999 0.019570148 0.055980496 13159109
0.44715393 0.023058455 0.057225451 12895937
0.45362011 0.026678775 0.054171834 12895679
0.45771429 0.030763764 0.057227258 13816527
0.46523812 0.033869833 0.055682734 13882063
0.47296777 0.037372597 0.054224942 12894654
0.47644001 0.042050973 0.056903239 12499639
0.48327088 0.046686713 0.054507554 15658472
0.48540005 0.051289745 0.057163224 14606043
0.49100003 0.053034838 0.054385427 12500410
0.42387503 -0.14101672 0.067827068 11183261
0.42280656 -0.1349158 0.065309711 13090744
0.41811359 -0.12359695 0.066805132 12762551
0.42089105 -0.12659414 0.063289173 12828602
0.41506943 -0.11497431 0.06502825 12696243
0.40833342 -0.10285269 0.066766493 12039085
0.41154382 -0.10650609 0.063834444 12367536
0.40538833 -0.095019035 0.065087661 12301997
0.39817652 -0.082310803 0.067037791 12565684
0.40099996 -0.086164646 0.064072564 12103850
0.39522225 -0.075004391 0.065175734 11907754
0.40000001 -0.079465047 0.060848404 13615545
0.38862798 -0.062353827 0.066267565 11710630
0.3912034 -0.066824831 0.064598016 12169897
0.38601604 -0.054986771 0.065032899 11842218
0.38279524 -0.044688057 0.064944953 12237235
0.38120356 -0.034747016 0.065036781 12368563
0.38150406 -0.024775241 0.06492091 12763836
0.38467175 -0.015185996 0.064974062 13026754
0.38817647 -0.0086396541 0.06660977 12698560
0.39376739 -0.0042441124 0.0643638 12632768
0.39761901 0.00075039233 0.065800659 12501953
0.40353337 0.004235453 0.065858334 12765125
0.41557139 0.0086621596 0.066128477 12830145
0.42033339 0.0099762334 0.060988728 13422795
0.41782355 0.011700933 0.067009293 12632767
0.42327917 0.014411327 0.065054916 12698559
0.43254554 0.018276189 0.06384749 12698045
0.43521211 0.023149136 0.067740902 12895938
0.44439471 0.025556317 0.063570715 13092548
0.45100003 0.029445099 0.063062459 12961734
0.44728574 0.030961042 0.068336867 13092806
0.45581821 0.033791162 0.065453716 13421769
0.46324137 0.037585109 0.063991234 14474711
0.47000003 0.039762266 0.061594374 12041912
0.46649998 0.042452224 0.06751506 11579819
0.47373223 0.045805726 0.06409353 14211026
0.48033336 0.049257662 0.061074201 15592680
0.47608826 0.052570567 0.066679217 14803164
0.48054549 0.05272194 0.062055085 14013391
0.41900006 -0.14091578 0.078648187 12761523
0.42111111 -0.14083712 0.072927371 12433587
0.41784132 -0.13392374 0.076384217 13025722
0.42063907 -0.13701488 0.072520949 12762552
0.41534308 -0.12491006 0.074869119 12893881
0.40829036 -0.11237799 0.07706169 12631223
0.41182086 -0.11626443 0.074124485 12696499
0.40585986 -0.1049927 0.074961603 12564400
0.41000003 -0.10928638 0.070048161 12366250
0.39842114 -0.091326386 0.077787593 12301740
0.40188774 -0.095818006 0.074680053 12499377
0.39638776 -0.084729031 0.074950874 11973547
0.40000001 -0.089016393 0.070961609 12434869
0.38899997 -0.071664043 0.077767633 12433325
0.39213127 -0.075599633 0.07461179 12170155
0.38762403 -0.064977027 0.075318754 12039597
0.39016667 -0.068682373 0.070921861 12631735
0.38324562 -0.055121385 0.074974917 12038312
0.37852782 -0.042905755 0.077814609 12301740
0.38084948 -0.045991205 0.073990911 12630191
0.37787205 -0.034675196 0.075450145 9408397
0.38000008 -0.037628755 0.071038581 13222846
0.37773198 -0.025458319 0.075952888 8948359
0.38013053 -0.02266515 0.0713287 13157826
0.37853849 -0.017838571 0.077862278 12698045
0.38143879 -0.01442269 0.074384756 13224135
0.38560411 -0.0060597733 0.07611572 12764097
0.39172423 -0.0023054308 0.072645746 12369598
0.38900003 0.00012600447 0.078754179 13224391
0.39541668 0.0027555639 0.075148813 12566463
0.40244442 0.0070727775 0.073908903 12633025
0.41100001 0.009433995 0.071180388 12896451
0.40769231 0.011880908 0.077799007 13223876
0.41478133 0.01473532 0.075394355 12764352
0.42292315 0.01792297 0.072896592 12895937
0.41800001 0.020684855 0.07924331 11843763
0.42691436 0.022983951 0.076132767 12698815
0.43235594 0.026273545 0.073894039 12764352
0.43700001 0.031711183 0.077286378 13224903
0.44500005 0.034644794 0.075576134 13224392
0.45400006 0.037978083 0.073030367 14079443
0.45648488 0.042768013 0.077141181 12829377
0.46394116 0.046091337 0.073951818 12698048
0.47025001 0.049416121 0.071259253 15790829
0.46710721 0.053658698 0.078278944 15461350
0.47280008 0.055190489 0.07404276 14803676
0.47585717 0.060628325 0.075886689 11974321
0.4160476 -0.14132291 0.086149856 12959926
0.4146513 -0.13506539 0.085017063 13289150
0.4085938 -0.12278205 0.08768218 12499636
0.4117237 -0.12589243 0.08397074 12894394
0.40633005 -0.1147878 0.085222326 12499635
0.41000003 -0.11888455 0.081086054 12630706
0.39900002 -0.10106125 0.089340985 12499635
0.40247235 -0.10502759 0.084894046 12630709
0.39710101 -0.094112322 0.08564885 12565171
0.40020007 -0.098055348 0.082566842 12367791
0.39351755 -0.08492431 0.085092388 12170156
0.38834852 -0.073061287 0.085643895 11906727
0.39079595 -0.077750504 0.084053367 11906727
0.38493097 -0.064779453 0.08493074 12169642
0.37893337 -0.051269468 0.087922767 11974323
0.38133335 -0.055443492 0.084687844 12104876
0.37752095 -0.044696864 0.085112877 11117983
0.38012505 -0.049154129 0.081072778 12434359
0.37380606 -0.034906805 0.084976412 2896686
0.37336579 -0.024758467 0.085083432 3028533
0.37708923 -0.015429403 0.085441053 11909043
0.38035005 -0.011896521 0.08167699 12763067
0.37884617 -0.0090187797 0.087784037 12368826
0.3829557 -0.0047596055 0.084674761 12434875
0.38749999 0.0022624775 0.08642403 12829376
0.39301366 0.0064488864 0.084330045 12895170
0.40000001 0.0094936397 0.081917569 12633028
0.39659265 0.011788988 0.087902494 13158595
0.40441185 0.014919897 0.084822357 12763837
0.4118 0.018065898 0.081791557 12895679
0.40842858 0.020758003 0.088901453 12829374
0.41511321 0.023370305 0.086202398 12764353
0.42315391 0.027077731 0.084229544 12895684
0.42999998 0.028996235 0.080847144 12567233
0.42613792 0.032235172 0.087383635 12894915
0.43337736 0.035063595 0.084987067 12961478
0.44371432 0.038134657 0.082429506 12896197
0.43816671 0.041001275 0.088706352 12960706
0.44550911 0.044370186 0.086647987 13224390
0.45345458 0.046161249 0.082676411 12106167
0.46100003 0.049792953 0.080379106 14737887
0.44840002 0.051162116 0.089204378 11578795
0.45518923 0.055041853 0.08599145 14934749
0.46207416 0.055477384 0.08122512 15395555
0.45635557 0.062818952 0.085625216 13355974
0.46066669 0.060900196 0.080500849 11711150
0.41212192 -0.14197151 0.095513545 12630965
0.40862513 -0.13278756 0.096668325 12762036
0.41119352 -0.13635772 0.093895219 12828858
0.40680012 -0.12502781 0.095112659 12565173
0.41000003 -0.12944254 0.090204328 12368562
0.39900002 -0.11009056 0.09992706 13748155
0.40270379 -0.11519679 0.095111288 12565427
0.39783102 -0.10386815 0.095919624 12630450
0.40043584 -0.10760322 0.092785202 12564658
0.39465788 -0.095163196 0.094942585 12368050
0.38896424 -0.081402794 0.096860535 12039340
0.39124733 -0.085923806 0.094485275 12301998
0.38691017 -0.0750985 0.095071495 12236205
0.39000002 -0.079304412 0.090369098 12037797
0.38249189 -0.065036342 0.095083602 12171185
0.37841979 -0.053076118 0.095755771 11973806
0.38039222 -0.057847578 0.093798205 11776685
0.3763862 -0.044824846 0.094938651 10723482
0.36840627 -0.032518987 0.098516613 2698796
0.37148184 -0.0352007 0.094209105 2765100
0.36839136 -0.026071522 0.098165452 2895405
0.37085426 -0.02451274 0.093707345 2961454
0.37528655 -0.015265945 0.09497793 10856098
0.37828955 -0.0070888163 0.095868967 12303542
0.38082752 -0.0027034217 0.093974195 12368311
0.38463333 0.0043036197 0.09508606 12500411
0.39057145 0.0087478142 0.091414832 12039860
0.38824999 0.011169513 0.097913921 12368568
0.39448988 0.014998566 0.094902344 12764610
0.40147063 0.018652456 0.091862567 12830662
0.39814287 0.021167694 0.098779671 12238523
0.40496299 0.02442586 0.095838606 12896195
0.41289285 0.027270153 0.092452236 12764097
0.42000002 0.029632874 0.090437971 14013909
0.40900001 0.030771727 0.099559069 14014679
0.41517502 0.033358622 0.097581513 13093062
0.42329514 0.036155552 0.094273284 13092546
0.43150002 0.038905274 0.091143854 13025983
0.42600006 0.042743567 0.097893715 13026240
0.43399996 0.045367714 0.094787844 13749961
0.4418889 0.047615077 0.091585383 13618378
0.43700007 0.053981222 0.098213501 12236720
0.44439709 0.055099253 0.09385699 12500151
0.45112503 0.058232054 0.090801761 14935007
0.43900007 0.064887732 0.099667735 14804187
0.44441378 0.063959092 0.096646629 15263971
0.45218611 0.06555707 0.09214551 13882318
0.43900001 0.070540115 0.099667743 15790058
0.44440001 0.070674613 0.097758159 13158082
0.45100003 0.07088463 0.096057363 11776941
0.4084751 -0.14232457 0.10676821 12828343
0.41038096 -0.14278443 0.10154119 12368053
0.40714988 -0.13479225 0.104982 12763067
0.40367576 -0.12495871 0.10497541 12762551
0.39798123 -0.11297526 0.10657717 12499377
0.4005087 -0.11664391 0.10370733 12499121
0.3957105 -0.10488214 0.10494012 12367534
0.389 -0.090666398 0.10798625 11973290
0.39213854 -0.095115311 0.10461168 12367023
0.3876487 -0.08435864 0.10537573 12104876
0.39009094 -0.0885382 0.10159746 12104364
0.38395825 -0.074998096 0.10496806 11644069
0.37876004 -0.061342798 0.10727063 11842478
0.38089335 -0.065820225 0.10439304 11776427
0.37758657 -0.054628227 0.10513941 12038828
0.38000003 -0.059123397 0.10121783 12302518
0.37510252 -0.045075588 0.10496312 10131346
0.36670771 -0.034159668 0.1052369 2567467
0.37092 -0.039025139 0.10355569 2566694
0.36624333 -0.025177021 0.10493946 2567210
0.37 -0.020668389 0.10045978 2829869
0.36833334 -0.019713013 0.10561049 8948872
0.37475917 -0.014400506 0.10435329 10724770
0.37766927 -0.0052210679 0.10509001 11514028
0.38000003 -0.00076649763 0.10139575 11579820
0.37900001 0.00034457672 0.10844868 10921124
0.38176516 0.0050539174 0.10494994 11974324
0.38616344 0.014032377 0.10578295 12632251
0.39220691 0.018080229 0.10239933 12698047
0.38883337 0.020455351 0.10875863 13816523
0.39513636 0.024092246 0.10583393 12830146
0.402275 0.027375013 0.1025769 13027524
0.39866671 0.030616214 0.10917566 12896708
0.40525559 0.034069397 0.10614957 12961475
0.41297683 0.037032299 0.10240711 13092803
0.40818185 0.041395638 0.10891446 12697791
0.41533813 0.044505857 0.10636234 13355203
0.42297959 0.046418224 0.10262983 13092804
0.43000001 0.049464535 0.10064436 12698045
0.41800004 0.052194726 0.10889255 13158086
0.42424998 0.054761749 0.10631976 13816269
0.43273908 0.056104094 0.1021804 12960703
0.42675763 0.063808322 0.10853969 12237750
0.43400002 0.065283246 0.10384913 13882833
0.43361196 0.073438115 0.10620518 15527400
0.43500003 0.080589995 0.10996139 13553611
0.40714809 -0.14266378 0.11490012 12368050
0.40476388 -0.13485719 0.11499833 13025463
0.39900002 -0.12036529 0.11907542 13223611
0.40123492 -0.12486947 0.11484075 12434097
0.39704877 -0.11436106 0.1152298 12499375
0.40000004 -0.11949644 0.1123508 12499635
0.39388469 -0.10487273 0.1147351 12171182
0.38881633 -0.092364855 0.11494885 12236461
0.39112911 -0.097332798 0.1147015 12038569
0.38629347 -0.085270852 0.11492901 12170155
0.38215384 -0.074894764 0.11506777 11908014
0.37860867 -0.062448576 0.11488484 11711148
0.3803333 -0.06752947 0.11467542 11842476
0.37699977 -0.054537784 0.1148027 11908272
0.37431818 -0.045152251 0.11497274 9604742
0.36474475 -0.034712121 0.11499115 2369830
0.36418298 -0.025104865 0.11497335 2304037
0.36711115 -0.019551879 0.11590961 6053984
0.37530991 -0.013668973 0.11501382 10921378
0.37683845 -0.0053006383 0.11487245 11119013
0.37846482 0.0025075299 0.11548556 11382186
0.38079408 0.007414341 0.11425683 11842994
0.38389981 0.015126808 0.11511891 12500153
0.38767645 0.022858065 0.11570609 13026497
0.39235941 0.027428111 0.11385436 12961473
0.39586037 0.03391676 0.11629689 12895938
0.40160865 0.037229169 0.11279705 13159109
0.39866671 0.040571783 0.11913123 13553610
0.40464041 0.044810288 0.11521669 13093059
0.41170007 0.048133124 0.11110556 13027012
0.40748578 0.052982621 0.11780202 13750990
0.41396627 0.055483297 0.11404862 13881806
0.4204286 0.05820648 0.11077706 14868442
0.41623887 0.064204268 0.11712186 13618375
0.42254248 0.065811515 0.11257189 12433332
0.41857147 0.071667731 0.11896669 13882575
0.42378888 0.074654534 0.1155116 15526886
0.43112499 0.076532491 0.11106183 15658729
0.42590919 0.082741573 0.11741664 15921387
0.4315556 0.082192987 0.11301397 15132385
0.40538466 -0.14127231 0.12189238 11843250
0.40418637 -0.13476346 0.12265183 11711148
0.39900002 -0.12036529 0.12047652 12236463
0.40098333 -0.12450482 0.12340533 11316133
0.39718643 -0.11462439 0.12287538 11184290
0.40000001 -0.11973055 0.12639691 9606029
0.39445451 -0.10464647 0.12339912 10921631
0.38899997 -0.091689549 0.12233176 10986658
0.39152637 -0.096768394 0.12306851 10657947
0.38700002 -0.08653859 0.12194046 10526105
0.38249996 -0.074376874 0.12173685 10000531
0.37899998 -0.060801454 0.1218313 10263189
0.38091478 -0.066208325 0.12254898 10197910
0.37790012 -0.055598486 0.12217496 9868688
0.36900002 -0.040480748 0.12178417 3356985
0.37385717 -0.044502601 0.12221686 8553084
0.36165008 -0.034196794 0.12140892 2304549
0.36229417 -0.024670815 0.12156493 2370602
0.36681822 -0.018614434 0.12309226 10067866
0.37444931 -0.013554089 0.12359452 10461341
0.37758905 -0.0050779777 0.12370709 10066328
0.38000003 -0.00076649763 0.12763855 9472901
0.3787308 0.00182847 0.12226831 10856103
0.3809469 0.0060567562 0.12545384 9539984
0.38414419 0.015134408 0.12475248 11382701
0.38774502 0.024204876 0.12479486 11974840
0.39014286 0.02896153 0.12569721 11317167
0.39348567 0.03465255 0.12475745 12237755
0.3980639 0.04180767 0.12499231 12500924
0.40093645 0.046779718 0.12443887 12632508
0.40496451 0.054648768 0.12477901 12961215
0.41050002 0.059714217 0.12058486 15197149
0.40841672 0.06128427 0.12658586 13487301
0.41263962 0.065996267 0.12455589 13289153
0.41681927 0.074005395 0.1250886 13289668
0.42052183 0.078977831 0.12363452 16119024
0.42312503 0.084351584 0.12501991 15724267
0.36360002 -0.022014676 0.13957943 2104083
0.38668752 0.017101733 0.13135593 8290945
0.38871428 0.022486981 0.13108531 8487554
0.39109999 0.027962795 0.13127506 8291458
0.3952105 0.035322022 0.13184591 9737877
0.39885715 0.04054654 0.1323057 10856617
0.40121272 0.045279086 0.13291615 10592672
0.40536535 0.054338932 0.13289259 11250857
0.40846667 0.061714511 0.13187653 12566973
0.41239133 0.067171887 0.13203231 12171706
0.41671112 0.075538903 0.13256553 12434876
0.41900003 0.080568418 0.13436255 14078164
0.421381 0.083567254 0.13136604 13158343
0.3626667 -0.040774904 0.14614457 5724500
0.36352742 -0.03538942 0.1452402 922894
0.37 -0.031928685 0.14203626 791308
0.362973 -0.02482876 0.14536749 1316110
0.36164287 -0.018690592 0.14680246 5252131
0.36133334 -0.041143488 0.15462311 2106397
0.35860869 -0.032004949 0.1583218 923407
0.36139715 -0.035248049 0.15445426 1252374
0.35873339 -0.02714831 0.15797779 988946
0.36076483 -0.024354765 0.15422925 1448982
0.36100003 -0.018644456 0.15379328 3286049
0.34477779 -0.041051999 0.16826838 2699560
0.35718185 -0.040704206 0.16584565 724746
0.36172223 -0.041188527 0.16275388 2171933
0.34591666 -0.034950618 0.16801716 2107425
0.35555705 -0.034366999 0.16436559 1449496
0.36056527 -0.038234983 0.16208485 1975068
0.34668186 -0.025487721 0.168216 2041123
0.35566097 -0.02579516 0.16490683 1449498
0.36044118 -0.022466151 0.16383086 1318171
0.347 -0.019383598 0.16813497 1711903
0.35587502 -0.019146036 0.16857411 1119766
0.36100003 -0.018859781 0.16669782 463645
0.33815783 -0.041388582 0.17897502 2304550
0.34138644 -0.041555446 0.17388998 2238754
0.33858141 -0.035630431 0.17773348 2238755
0.34156606 -0.035111815 0.17345069 2172961
0.33862862 -0.025144476 0.17683195 2106914
0.34232283 -0.025062742 0.17304716 2172706
0.33833337 -0.019427763 0.17713815 2303525
0.34450001 -0.019243948 0.171361 1909538
