# .PCD v0.7 - Point Cloud Data file format
VERSION 0.7
FIELDS x y z rgb
SIZE 4 4 4 4
TYPE F F F U
COUNT 1 1 1 1
WIDTH 1112
HEIGHT 1
VIEWPOINT 0 0 0 1 0 0 0
POINTS 1112
DATA ascii
0.79367864 -0.14486371 0.083632156 12894647
0.78900003 -0.1364271 0.088623412 14472651
0.70728576 -0.022951322 0.088432796 12300971
0.70657134 -0.015368327 0.085269578 13881028
0.70412117 -0.0058689262 0.085179359 15460831
0.7024287 0.0023431412 0.088061452 14539216
0.79393756 0.024824396 0.084809683 12039852
0.78850007 -0.17256674 0.097565547 14276308
0.79144454 -0.17606884 0.094454512 11381158
0.78674191 -0.16503139 0.094720647 14868700
0.79000002 -0.16988929 0.090585135 11447208
0.78481823 -0.15485537 0.094659515 16184559
0.78448403 -0.14500634 0.094682463 16119022
0.78517646 -0.13511407 0.094401278 16316398
0.78592861 -0.12537967 0.095630303 16316142
0.79039997 -0.12371539 0.090631001 15460831
0.78696001 -0.11507168 0.096495874 16381935
0.79090005 -0.11453704 0.091613032 16119018
0.78744996 -0.10482011 0.096741684 16447472
0.79079998 -0.10526733 0.091601565 16250604
0.78786677 -0.094732217 0.095871277 16118763
0.79016668 -0.095009439 0.090604246 15987947
0.78779167 -0.08473333 0.096015632 15658213
0.79033333 -0.084234841 0.090931587 15789798
0.7881 -0.075387105 0.096822754 15592163
0.79100001 -0.074383356 0.091838077 16052970
0.788625 -0.065744728 0.098042518 15526368
0.79076463 -0.06420888 0.092957795 15790568
0.78858334 -0.054666791 0.09826804 15065559
0.79100013 -0.055603717 0.093166463 15658211
0.7766667 -0.042172354 0.099357538 15261652
0.78587508 -0.045395292 0.097006589 15328217
0.79176474 -0.045318335 0.092529751 15986661
0.77450001 -0.038731754 0.099686548 13353657
0.79214287 -0.035772681 0.091360256 16117991
0.70539999 -0.023881556 0.094753355 12630706
0.79200006 -0.029408837 0.090814471 16052455
0.70354056 -0.015312232 0.094821557 14013129
0.70067519 -0.0056783734 0.094857499 15000282
0.70475757 0.0041351593 0.095061816 15066590
0.70900005 0.01018835 0.094575554 14277329
0.71233338 0.011629545 0.097246498 14145742
0.72000003 0.015403017 0.099413939 13816778
0.78808337 0.016704828 0.093744814 15197403
0.79040003 0.012837592 0.091371231 15460831
0.78718191 0.025049342 0.094444357 14737367
0.78733313 0.035275403 0.094881758 14539733
0.7875483 0.04474071 0.095295325 14802906
0.79000002 0.048340406 0.090585135 15000028
0.78781474 0.054831862 0.095795639 14802905
0.79028571 0.055494986 0.090882085 14934233
0.78734779 0.064766571 0.096126445 15000541
0.79071426 0.0650438 0.091195442 15000541
0.78696656 0.074867517 0.095758945 14869214
0.79000002 0.075156771 0.090585135 14540247
0.78665227 0.084726892 0.096040562 15066079
0.79085714 0.086214341 0.091211818 14473684
0.78708333 0.095148705 0.096695624 15592937
0.79100001 0.094695225 0.091624506 15394786
0.78812504 0.10484525 0.097402699 15395561
0.79093754 0.10568117 0.092426896 15526117
0.78900003 0.11107937 0.098782256 11711154
0.79323077 0.11546537 0.09495081 12369080
0.78747368 -0.1738123 0.10523658 12894401
0.79071426 -0.17903408 0.10415097 10855071
0.78250003 -0.16461545 0.1052944 15592167
0.78110009 -0.1551756 0.1051069 16250352
0.78052783 -0.145013 0.10502997 16184046
0.78116667 -0.13507082 0.10511739 16184045
0.78261131 -0.1252445 0.10531152 15855593
0.78312933 -0.11506737 0.1052317 15921129
0.78415644 -0.10541202 0.10522963 15920616
0.78616661 -0.094526522 0.10486901 15000027
0.78631997 -0.084422529 0.10488996 14539474
0.78680003 -0.075262442 0.10495343 14539216
0.78700006 -0.064921804 0.10532127 14735823
0.77700007 -0.052500807 0.10728233 13683647
0.78490001 -0.055789612 0.10423466 14867666
0.76787508 -0.04222085 0.10759655 12959413
0.77350003 -0.045564808 0.10435212 13748926
0.78100008 -0.048503399 0.10113183 15460057
0.70600003 -0.03117373 0.10739744 12498863
0.75600004 -0.03515131 0.10969406 12104873
0.7651819 -0.037696853 0.10646348 12367790
0.77100003 -0.038106084 0.10149163 12300712
0.70387501 -0.024647221 0.10521935 13157562
0.69871432 -0.012392095 0.10792416 14868441
0.70100015 -0.016089413 0.10446236 14144459
0.69845456 -0.0067597809 0.10833014 14868186
0.7002964 -0.0047509456 0.10410041 14868442
0.704871 0.003429021 0.10493496 15131614
0.71149999 0.0085586393 0.10573623 13289667
0.7170909 0.011222082 0.10389797 13421765
0.72525001 0.014883841 0.10565193 13684681
0.73250008 0.017815681 0.10714195 13553352
0.74412501 0.023109272 0.10818698 13684938
0.75700003 0.025055315 0.10452271 14671317
0.76700002 0.027181856 0.10590345 14473938
0.77450001 0.029260771 0.1060307 14605266
0.78250003 0.029563013 0.10254692 14539472
0.77700001 0.031779736 0.10728186 14473683
0.78423083 0.035632931 0.10503162 14342353
0.78616673 0.045344844 0.10486934 14342354
0.78516006 0.055394851 0.10473419 14473686
0.7828058 0.065307796 0.10533559 14474199
0.7821998 0.075329818 0.10525455 14934497
0.78161108 0.085335463 0.10517462 14802652
0.78186679 0.095433675 0.10520811 15263719
0.78523076 0.10489751 0.10495497 15526891
0.78870004 0.11196066 0.10520697 11908530
0.79164714 0.11712308 0.10494544 12040370
0.78723818 -0.1735989 0.11457758 13025985
0.79066676 -0.17897923 0.11534254 10460058
0.78236002 -0.16458701 0.11535017 15262946
0.78100008 -0.15515548 0.11514986 15921130
0.78133333 -0.14516041 0.11519961 15789545
0.7826786 -0.13474204 0.11559516 15723752
0.78459269 -0.12505119 0.11547752 15460579
0.78482145 -0.11490387 0.11591276 15394785
0.78546673 -0.10473844 0.11507589 15328991
0.78669453 -0.094589897 0.11506952 14605266
0.78693354 -0.084487602 0.11510353 14407372
0.78530008 -0.075123124 0.11486021 14407370
0.77754551 -0.063458525 0.11745186 13222584
0.78280956 -0.066332899 0.11323126 14209477
0.77511436 -0.054967582 0.11531691 12959413
0.70749998 -0.041177586 0.11839196 12630447
0.76800007 -0.042003095 0.11323314 12696499
0.77168757 -0.04672242 0.11456721 12630449
0.70604163 -0.034345601 0.11594348 12630450
0.71500003 -0.034918785 0.11211418 12433070
0.76433343 -0.038521234 0.11298829 12696754
0.69900006 -0.021046413 0.11860539 13947594
0.70248652 -0.02542349 0.11472741 13749701
0.69751525 -0.014965564 0.11540794 14539732
0.70000005 -0.018891571 0.11194709 13749959
0.69754297 -0.0056049274 0.11520792 14802649
0.70000005 -0.0014119693 0.11140085 14934235
0.70358342 0.0040347241 0.11521615 14671320
0.7105 0.0085466104 0.11223963 13486791
0.7154001 0.010616956 0.11719278 13750218
0.72500008 0.01296803 0.11283085 13684168
0.73572731 0.016997451 0.11426868 13618375
0.74266672 0.019365119 0.11645474 13684168
0.7458334 0.023526005 0.11520554 13618375
0.75337505 0.027803667 0.11437651 14013133
0.75800008 0.03041189 0.11708222 14013133
0.76357144 0.032682471 0.11666527 14078926
0.77471435 0.03665461 0.11512488 14407891
0.78100002 0.038648017 0.11149317 14473686
0.77750003 0.04029496 0.11736109 14539477
0.78442425 0.045665868 0.11448292 14144977
0.78489995 0.055377103 0.11480599 14079697
0.78286701 0.065313525 0.11542601 14013392
0.78215981 0.07532569 0.11532107 14934494
0.78120005 0.08528959 0.11517854 14802909
0.78156006 0.095396526 0.11523166 15066340
0.78586215 0.10525109 0.11510589 15395819
0.78900003 0.11138722 0.1138666 11908277
0.79189479 0.1162712 0.11509711 12040115
0.78775012 -0.17321135 0.12501942 13485766
0.79099995 -0.17843837 0.12495709 10393240
0.78203577 -0.16432393 0.12504478 15262948
0.77900004 -0.15111086 0.1294442 15789546
0.78006911 -0.15509622 0.12489858 15987181
0.78097236 -0.14509334 0.12519997 15658215
0.78291178 -0.13466981 0.12524132 15723751
0.78603995 -0.12487261 0.12509386 15657957
0.78699994 -0.11489303 0.12524769 15328991
0.78752005 -0.10482983 0.12533075 14868439
0.78753346 -0.094692223 0.12533261 14342095
0.78571999 -0.084360182 0.12504154 14077892
0.77888894 -0.071467906 0.12577921 13025460
0.78195238 -0.076109946 0.12496413 13354425
0.77692878 -0.065422423 0.12487745 13091254
0.77536684 -0.055111963 0.12521176 12959411
0.70833331 -0.041778956 0.12350627 12498864
0.71500003 -0.04244867 0.1280179 12564657
0.77450001 -0.048703324 0.12416422 12762033
0.7065714 -0.035220094 0.12473439 12959929
0.71000004 -0.039660964 0.12961352 12630451
0.69833332 -0.0219805 0.12571254 14276305
0.70169234 -0.026943551 0.12487297 13881801
0.6970281 -0.015276048 0.12479762 14474197
0.69756263 -0.0059467261 0.12453664 14671833
0.70000005 -0.0018216475 0.12819766 14606295
0.70286483 0.0043707038 0.12515159 14671832
0.70733333 0.010717269 0.1271942 14343124
0.71439999 0.012612584 0.12573566 14210769
0.7256667 0.01496162 0.12454685 14276305
0.73266667 0.016247546 0.12403619 14144976
0.74300003 0.018723886 0.12346276 14013133
0.74722224 0.022206251 0.12319303 14013133
0.75507152 0.026257137 0.12509149 14012876
0.76000005 0.028712958 0.1280662 14078926
0.75850004 0.030431949 0.12159919 13420996
0.76366675 0.032232177 0.1249119 14012876
0.773 0.037102904 0.12515806 14539733
0.77755558 0.04110783 0.12516099 14407891
0.78363633 0.046620782 0.12479515 14342611
0.78499991 0.055385251 0.12492809 14079696
0.7839002 0.065398291 0.12475412 13881806
0.77900004 0.078669414 0.1294442 15066593
0.78160715 0.075270347 0.12497541 14605786
0.77846432 0.085708931 0.12577364 14802908
0.78012508 0.082663551 0.12164093 14934494
0.77875012 0.092621408 0.12605987 14934238
0.78122222 0.096980795 0.12442871 15197410
0.78600001 0.10514298 0.12508723 15657960
0.78900003 0.11107936 0.12464114 11908016
0.79154164 0.11607269 0.12504241 12105906
0.79253328 0.13476692 0.12427259 11974576
0.78723806 -0.17359856 0.13520038 13157057
0.79033333 -0.17890365 0.13441016 10525594
0.78218538 -0.16475458 0.13505964 15065314
0.77900004 -0.15111086 0.13217968 15789545
0.78043479 -0.15536079 0.13540336 16184560
0.77900004 -0.14928721 0.13217968 16118510
0.78107136 -0.14478467 0.13547131 15986923
0.78296888 -0.13423561 0.13525984 15789544
0.78563321 -0.1248083 0.13514444 15855081
0.78746885 -0.1151907 0.13488385 15722981
0.78824008 -0.10492501 0.1346707 14341839
0.78810006 -0.094760403 0.13464664 13815237
0.78530002 -0.084316 0.13508841 13420220
0.77900004 -0.071599595 0.13272677 13222839
0.78204995 -0.075543575 0.13599434 13288376
0.77766687 -0.065137804 0.13453412 13156790
0.78100002 -0.069223747 0.13891821 13288377
0.77600026 -0.055924777 0.13502432 13090996
0.71900004 -0.041846901 0.13125651 12564658
0.70374995 -0.034115508 0.1348514 13684166
0.71200001 -0.039772686 0.13164543 12302256
0.69771433 -0.023109043 0.13507012 14407890
0.70059997 -0.027983887 0.13478479 14144973
0.696917 -0.015273354 0.13456637 14605783
0.69756013 -0.0069576963 0.13485432 14737369
0.70045465 -0.0021577554 0.13487698 14671576
0.70293748 0.0039868578 0.13526629 14606040
0.70609999 0.012626517 0.13667092 14408405
0.74500006 0.019425962 0.13077076 14210512
0.75900006 0.025121512 0.13145135 14275792
0.76466674 0.026802247 0.13422598 14144206
0.77200007 0.028714504 0.13777152 14473170
0.76700002 0.03077298 0.1310413 14341585
0.77472723 0.034550272 0.13483669 14868441
0.78150004 0.03867276 0.13809296 14802649
0.78503233 0.045137648 0.13495378 14539477
0.78627592 0.055474058 0.13503566 14276305
0.78527266 0.065095581 0.13483416 14144977
0.77900004 0.078669414 0.13217968 14803421
0.78244448 0.074331328 0.13571666 14276822
0.77772421 0.085068204 0.13456994 14737116
0.78000003 0.080596395 0.13874033 14737628
0.77866673 0.092763595 0.13440187 15065823
0.78176922 0.097533874 0.13581687 15395044
0.7862857 0.10498289 0.13492914 15657960
0.78900003 0.11107937 0.13387647 11908271
0.79152387 0.11584972 0.13540778 12040114
0.79290479 -0.18430813 0.14501032 10328727
0.78718513 -0.17488506 0.14513689 12828605
0.79000002 -0.17913631 0.14051905 10591386
0.78240007 -0.1645944 0.14466272 15262948
0.78159994 -0.15527451 0.14451498 16184047
0.78276688 -0.14542572 0.14473085 16249583
0.78493333 -0.13480306 0.14513224 15854825
0.78603995 -0.12487365 0.14533545 15591654
0.78794128 -0.1148129 0.14503573 15196893
0.78896642 -0.10502243 0.14495294 14407632
0.78847212 -0.094806321 0.14486237 14144460
0.78732002 -0.084530361 0.14557332 13749186
0.78511995 -0.075105585 0.14516908 13288377
0.77866673 -0.06263689 0.1421497 13156535
0.78215003 -0.066215992 0.14544138 13288120
0.77642864 -0.055515729 0.14524744 13222071
0.70566672 -0.041621801 0.14809527 12893368
0.75200003 -0.045527998 0.14256214 12696240
0.76200002 -0.047917277 0.14267404 13222584
0.77300006 -0.048609 0.14835286 13287864
0.69833332 -0.030835206 0.14710145 14407889
0.70196772 -0.03518739 0.14532195 14078667
0.69713891 -0.024664862 0.14489871 14539219
0.70000005 -0.029270083 0.14171703 14341839
0.69588059 -0.015250615 0.14495504 14736856
0.69716138 -0.0061421981 0.14453787 14868442
0.70000005 -0.0014119693 0.1441751 14803164
0.70327026 0.0043727965 0.14498031 14606042
0.70677769 0.01322289 0.14495979 14408148
0.77585727 0.028794345 0.14449608 14868183
0.77740002 0.032828949 0.14355734 14999769
0.78228575 0.036622446 0.14568686 15065564
0.78719234 0.044627633 0.14533608 14868442
0.78742433 0.054381173 0.14508715 14407890
0.78608012 0.064662218 0.14534217 14276559
0.78380001 0.074563101 0.14492139 14079696
0.77895468 0.08703652 0.1443568 14606043
0.78084618 0.082229428 0.14592144 14540249
0.77900016 0.093030669 0.14505923 15000545
0.78184617 0.097683907 0.14498088 15132390
0.78738463 0.10539754 0.14501573 15526891
0.79000002 0.10937075 0.14976607 15724527
0.79180771 0.11504306 0.14476198 12106165
0.79286367 -0.18459977 0.15452598 10262935
0.7874167 -0.17471427 0.15465336 13223364
0.79000002 -0.17913631 0.15901309 10196375
0.78303355 -0.16472727 0.15486272 15131361
0.78248578 -0.15466481 0.15488516 15855083
0.78416139 -0.14494388 0.15493719 16052461
0.78650004 -0.13507293 0.15462691 15854824
0.78660011 -0.12496354 0.15464707 15394273
0.78790003 -0.11502361 0.15490125 14605012
0.7889998 -0.10502703 0.15511769 14210253
0.78896642 -0.094864368 0.15511128 14144460
0.78855979 -0.084662572 0.1550325 13881287
0.78803998 -0.075383402 0.15493037 13354172
0.78483886 -0.064888902 0.15477458 13287864
0.75650001 -0.051113378 0.15846565 13156791
0.76100004 -0.051417422 0.15673892 13288377
0.77660865 -0.054925624 0.15497033 13288121
0.70323819 -0.04265587 0.15455338 13091261
0.74600005 -0.04865754 0.15539588 13288379
0.75300002 -0.049114112 0.15509121 13025207
0.77200001 -0.048546113 0.15539001 13156791
0.69790912 -0.033046186 0.15584868 14408147
0.70075005 -0.037196964 0.15365808 14078925
0.69667506 -0.025218278 0.15515155 14539733
0.69597191 -0.015252658 0.15556531 14736857
0.69713515 -0.0059907897 0.15461105 14868445
0.70000005 -0.0014119693 0.15728481 14671579
0.70362848 0.0043299836 0.15494609 14539481
0.70784611 0.013106054 0.15439589 14276308
0.71074998 0.017285712 0.15699726 14276307
0.71400005 0.020289121 0.15792444 14342100
0.78100002 0.029506344 0.15263188 15131613
0.78303456 0.035211898 0.15501915 15131613
0.78646672 0.045057312 0.1549245 14999772
0.7857666 0.055376217 0.15509285 14473684
0.78493327 0.064568028 0.15523583 14276562
0.78375024 0.074559011 0.15500256 14079696
0.77900004 0.088471562 0.15337963 14736858
0.78095651 0.083872601 0.15568243 14539736
0.77900016 0.092978068 0.15455447 14803421
0.78215396 0.097863361 0.15560277 15000801
0.78723997 0.1050131 0.15513997 15330283
0.79000002 0.10937075 0.15161547 15658734
0.79278564 0.11532804 0.15493391 12435130
0.78791314 -0.17393361 0.16484915 13815502
0.79040003 -0.17922702 0.16464603 10328217
0.78460008 -0.16505617 0.16527501 14934241
0.78433347 -0.15489897 0.16521932 15591653
0.78543997 -0.1450036 0.16545044 15854825
0.78708339 -0.13517235 0.16487496 15854823
0.78693348 -0.12501673 0.16484332 15394015
0.78655559 -0.1148283 0.16476096 14472912
0.7875334 -0.10483024 0.16496649 14209739
0.78861094 -0.094820708 0.16519369 14012360
0.78899974 -0.084709331 0.16527654 13749186
0.7889598 -0.075618148 0.16441874 13683137
0.79000002 -0.075569682 0.16826011 13616831
0.78714705 -0.065384343 0.1651613 13222072
0.77699995 -0.055912849 0.16276108 13288377
0.78200006 -0.058328334 0.16838691 13222586
0.69739997 -0.041243128 0.16633156 14209999
0.70171422 -0.04401226 0.16471262 13617604
0.6965999 -0.035000063 0.16491507 14539220
0.69552761 -0.025013739 0.165233 14670807
0.69511098 -0.015233493 0.16513549 14802649
0.69700009 -0.0067376764 0.16495644 14803163
0.70044446 -0.0019591032 0.16558474 14606043
0.70461106 0.0043587028 0.16491869 14277078
0.70823085 0.011198158 0.16461919 14211284
0.71309537 0.016214231 0.16539618 14079698
0.71720004 0.020380054 0.16619019 13882061
0.72200006 0.022206666 0.16645359 13881804
0.73100001 0.024194762 0.16938412 15723751
0.74100006 0.026260439 0.16996659 15790314
0.76475012 0.031579904 0.16914557 15658215
0.77523535 0.034095209 0.16574764 15592165
0.7816667 0.036039557 0.16201155 15263456
0.77850008 0.041258611 0.16854507 15131614
0.78462851 0.045496874 0.16454038 15197407
0.78519225 0.055256564 0.16518548 14671063
0.78442317 0.064737529 0.16537768 14473428
0.78441387 0.074782722 0.1651084 14013134
0.78250015 0.085432097 0.16483249 14606043
0.78252006 0.095515765 0.16483675 14869217
0.78746426 0.10533684 0.16528298 15330284
0.79000002 0.10937075 0.16086249 15462127
0.78900003 0.11107937 0.16989419 15263978
0.79223084 0.11539077 0.16480954 12435388
0.7881667 -0.17380227 0.17555791 14210771
0.79033333 -0.17859541 0.17388089 10065556
0.78477782 -0.16489017 0.17490327 15262948
0.78326499 -0.15495813 0.17485844 15723495
0.7840969 -0.14522757 0.17534837 15854824
0.7863 -0.13503805 0.17483395 15789031
0.78525925 -0.12454974 0.17500865 14999257
0.77900004 -0.11220627 0.17716312 14012617
0.78220826 -0.11572153 0.17407496 14209740
0.77900004 -0.10916685 0.177771 14209481
0.78384852 -0.10511334 0.17484251 14143689
0.78796673 -0.094743341 0.17520525 13946309
0.78871989 -0.084678337 0.17537256 13814722
0.78900003 -0.079168148 0.17543538 13814466
0.79000026 -0.073847815 0.17489246 13814208
0.78879988 -0.063637316 0.1750223 13419708
0.79000002 -0.067432299 0.17713726 13880001
0.70366669 -0.051387619 0.17897339 13354690
0.72300005 -0.051392276 0.17346488 13024950
0.73200005 -0.052885275 0.17475516 12827314
0.76100004 -0.056761969 0.17989862 13287864
0.78675008 -0.057762317 0.17401917 12959413
0.69645458 -0.042834878 0.17575537 14407635
0.70306671 -0.047285721 0.17497823 13222590
0.71300006 -0.049843419 0.17188592 13485247
0.69447225 -0.03472976 0.17473763 14802136
0.69408345 -0.024960952 0.17464086 14736600
0.69444448 -0.015217581 0.17473212 14737113
0.69675994 -0.007013577 0.1750852 14671835
0.70066667 -0.0022326701 0.17465669 14408663
0.70484209 0.0044454699 0.1751312 14277077
0.70807701 0.011195947 0.17516461 14211284
0.7141667 0.016190153 0.17509393 14079698
0.71900004 0.020431202 0.1750195 14079441
0.72355556 0.023010138 0.17631491 13816269
0.7335 0.025994644 0.17595291 14802907
0.75675005 0.030361738 0.17623103 15855592
0.76400006 0.032858215 0.17455214 15724006
0.77200007 0.037299797 0.17436475 15526628
0.77600008 0.042264439 0.17560862 15526372
0.78311771 0.048029713 0.17488028 15197664
0.78571999 0.055435397 0.17470703 14737626
0.78499997 0.065163434 0.17435038 14474454
0.78419369 0.075284541 0.17525358 14342355
0.78255576 0.085437804 0.17491668 14342613
0.78170007 0.095413335 0.17472415 15000800
0.78492874 0.10480162 0.17511575 15395305
0.78860009 0.1119466 0.17534597 12369084
0.79133344 0.11665903 0.17451252 11842991
0.79340917 -0.18455839 0.18477084 10196883
0.78778267 -0.17390496 0.18510671 13947599
0.79000002 -0.17913631 0.18490475 10262934
0.78407151 -0.16514371 0.1847612 15197154
0.78191984 -0.15533809 0.18484381 16052204
0.78325814 -0.14536704 0.18498315 16118253
0.78572202 -0.13493924 0.18482374 15854824
0.78507143 -0.12491984 0.18499944 14736343
0.77900004 -0.11190233 0.18050648 14078667
0.78265226 -0.11541618 0.18533951 14144206
0.77900004 -0.10916685 0.18050648 14012874
0.78350008 -0.10490234 0.18515791 14012361
0.78669453 -0.094588719 0.1850498 13814725
0.78796679 -0.084597543 0.18534997 13748930
0.78878254 -0.076014861 0.18598381 13748929
0.79000002 -0.072399266 0.18199852 13814208
0.7766 -0.062290616 0.18758535 13880001
0.78666675 -0.065706842 0.18459883 13814463
0.69875002 -0.050892133 0.18849239 13486276
0.70180005 -0.052786276 0.18550801 13222848
0.71500003 -0.05500472 0.1857626 11973037
0.74566668 -0.056199629 0.18267107 13090742
0.75800002 -0.05742662 0.18274075 13221814
0.76500005 -0.058851205 0.18442596 13747901
0.77500004 -0.0596205 0.18502247 14011073
0.78000003 -0.058179155 0.1807382 12695981
0.69571429 -0.044452038 0.18493877 14407634
0.70050001 -0.048969589 0.18117487 12762553
0.69380516 -0.034597103 0.18500848 14868185
0.69384229 -0.025122192 0.18462479 14671063
0.69483328 -0.015225389 0.18459032 14671321
0.69745004 -0.0075277686 0.18471415 14540248
0.70107144 -0.0025854756 0.18507615 14408920
0.70496881 0.0043595172 0.18480839 14342870
0.70775002 0.011276127 0.18360372 14145491
0.71427274 0.016124006 0.18572326 14013906
0.71900004 0.020431204 0.18427706 14013648
0.72306675 0.023598978 0.18548758 14079183
0.7319001 0.02713865 0.18449792 14145489
0.74300003 0.029810071 0.18346947 15790315
0.74849999 0.031782988 0.18833271 16184302
0.75433332 0.032622963 0.1865638 15790314
0.76900005 0.035353832 0.18539029 15723750
0.77283341 0.037039824 0.18269832 15723750
0.7769168 0.041630518 0.18472351 15592421
0.78311121 0.047311511 0.18543322 15526627
0.78663349 0.055501904 0.18503793 15000284
0.78636664 0.064684615 0.184975 14606040
0.78396881 0.074350163 0.18498383 14408405
0.77900004 0.089246608 0.18670689 14606041
0.78124994 0.084837653 0.18481597 14540247
0.77874994 0.094791241 0.18526594 14737628
0.78000003 0.098856337 0.18165119 15132386
0.78344452 0.10500618 0.18479605 15395305
0.78845459 0.11184216 0.18504614 13750480
0.79187506 0.11716388 0.1849964 11842990
0.79354554 -0.18459035 0.19502236 10262678
0.78761911 -0.1741215 0.19514638 13420997
0.79000002 -0.17913629 0.19507647 9802129
0.78341401 -0.16468123 0.19512472 15197152
0.78255892 -0.15476283 0.19480212 15789289
0.78543997 -0.14500228 0.19487171 15986410
0.78659999 -0.1350918 0.1951575 15722981
0.78612 -0.12488692 0.19503891 14538962
0.78683341 -0.11486983 0.19521822 14275532
0.78660005 -0.10470812 0.19516069 14077897
0.7865001 -0.094567008 0.19513397 13880518
0.78736001 -0.084532127 0.19534566 13880518
0.787889 -0.075300112 0.19506629 13814724
0.69850004 -0.061094366 0.19946299 12762037
0.70100003 -0.060491916 0.19415736 13157051
0.77666664 -0.063385099 0.19269235 14011588
0.78462505 -0.06759806 0.19500971 13946052
0.69726664 -0.053860866 0.19562683 13551811
0.70062506 -0.056974076 0.19227833 12696245
0.69459999 -0.044331659 0.19485185 14736598
0.69332451 -0.034782939 0.19539674 14868440
0.69372523 -0.024783859 0.19509462 14605526
0.69484609 -0.015413286 0.19478999 14606040
0.69749999 -0.0087542124 0.19509529 14540249
0.7023201 -0.0039767856 0.19503017 14540249
0.70686209 0.003313055 0.19454688 14342870
0.71074998 0.0079263225 0.19693035 14211284
0.715931 0.014168629 0.19496273 14013905
0.72000003 0.018774085 0.1980176 13816524
0.71900004 0.020431202 0.19100982 13947344
0.72369236 0.024091821 0.19518723 14013134
0.73260003 0.029050553 0.19444044 13815755
0.74650002 0.031698063 0.19132462 15789799
0.75750005 0.033938471 0.19236821 15987177
0.76416665 0.036026087 0.19405578 15724005
0.77333337 0.038268629 0.19458015 15723749
0.77636373 0.041063938 0.19492789 15855080
0.78386366 0.046884749 0.19497789 15592164
0.78668004 0.055503979 0.19517693 15263200
0.78620005 0.06467171 0.19505781 14869212
0.78443342 0.074623704 0.19462077 14540248
0.77900004 0.089611337 0.19418387 14606042
0.78168958 0.084427901 0.19532746 14803420
0.77886373 0.094568498 0.19481334 14869214
0.78000003 0.098856337 0.19717212 15132386
0.78451854 0.10474259 0.1950492 15329768
0.78900003 0.11107936 0.19575307 15461356
0.79176188 0.11597354 0.1948494 11711406
0.78704542 -0.17369652 0.20498189 13618891
0.79000002 -0.17913631 0.20524819 9539726
0.78261542 -0.16477972 0.20494969 15196894
0.7830314 -0.15441002 0.20492606 15723495
0.78569996 -0.14505176 0.20504937 15854824
0.78566653 -0.13493225 0.20504168 15262686
0.7859 -0.12485122 0.2051025 14407118
0.78697234 -0.11488904 0.20538178 14275275
0.78760016 -0.10484014 0.20554505 14012102
0.78790003 -0.09473642 0.20470305 14012102
0.78717256 -0.084386371 0.20527624 13946309
0.78656667 -0.075242661 0.20527621 13814468
0.69692856 -0.061306238 0.2044892 12959161
0.77900004 -0.063575521 0.20056666 13880005
0.7852 -0.068678573 0.20400181 13880261
0.69535702 -0.054309726 0.20507413 13946313
0.69389486 -0.044619277 0.20515661 14934233
0.69247222 -0.034630008 0.20503485 14868441
0.69300014 -0.024918962 0.20519195 14671319
0.69463152 -0.015135462 0.20511927 14671319
0.69754547 -0.008828897 0.20453477 14671834
0.70295841 -0.0039495518 0.20526101 14474457
0.70709532 0.0027536622 0.20459726 14211284
0.71116668 0.0074459626 0.20557792 14013905
0.71704352 0.013082517 0.20424598 13816526
0.72118193 0.017885091 0.20609492 13619147
0.72625005 0.022659419 0.20451996 13881548
0.73213345 0.027776735 0.20586868 14078925
0.73820007 0.031345628 0.20561762 14407377
0.74600005 0.033861589 0.20778786 14407633
0.75433332 0.036154777 0.20716633 15394527
0.76100004 0.037658311 0.20662135 16052457
0.7713334 0.038770523 0.20460604 15986921
0.77658826 0.042390287 0.20561302 15855335
0.78284216 0.047712043 0.20444506 15723495
0.78549993 0.055421699 0.20499639 15131870
0.78593326 0.064650208 0.20511192 14934492
0.78486103 0.074666731 0.2048319 14671321
0.78243345 0.085424118 0.20511518 15000029
0.77900004 0.09508229 0.20056666 14935007
0.78122717 0.095354892 0.20529838 14934494
0.78537053 0.10512691 0.20513371 15395558
0.78900003 0.11138722 0.20560408 14935008
0.79190916 0.11637973 0.20481557 11711406
0.793091 -0.18465319 0.21482491 9803153
0.78721422 -0.17502095 0.21498814 12565948
0.78282154 -0.1644862 0.21496816 15064795
0.78218174 -0.15489003 0.21486872 15460324
0.78315151 -0.14508027 0.21563241 15526117
0.78472728 -0.13501886 0.21539949 14736600
0.78531998 -0.12475889 0.21506317 14144460
0.78603321 -0.11475281 0.21525815 14143690
0.78640002 -0.10467982 0.21535838 13946310
0.78772235 -0.094713248 0.21479851 13946309
0.78738469 -0.08467906 0.21541573 13880516
0.78646159 -0.076789767 0.21608347 13748930
0.69600004 -0.060060449 0.21015455 12696244
0.69414294 -0.0544701 0.21474582 14275534
0.69221628 -0.044493515 0.21479234 14934489
0.69191658 -0.034601253 0.21459094 14737110
0.6928612 -0.024913613 0.21488445 14605781
0.6948334 -0.015224089 0.21522349 14737111
0.69833332 -0.009582662 0.21494766 14474454
0.70396554 -0.0048224363 0.21523061 14342869
0.70810002 0.0010587896 0.21347752 14145491
0.71368194 0.0056294561 0.21572165 13882319
0.71836364 0.01154662 0.21354459 13619147
0.72275007 0.015891075 0.215608 13684940
0.72800004 0.021028267 0.2133425 13553354
0.73303711 0.025857719 0.21542639 13553098
0.74481249 0.033375151 0.21486336 14144718
0.75680006 0.03780584 0.21575761 14868183
0.76200002 0.039491653 0.21401598 15658212
0.76560009 0.041470509 0.21682563 15395040
0.77492005 0.045754403 0.21460657 15658212
0.78100002 0.049618028 0.21113625 15789544
0.77900004 0.052044082 0.21734428 15789800
0.78271985 0.055813294 0.21464184 15263200
0.7844516 0.06494353 0.21571115 15066078
0.78397 0.074998818 0.21535788 14737627
0.78266692 0.08545085 0.21525164 15131871
0.7815333 0.095391192 0.2149386 15065825
0.78467864 0.10490196 0.21508107 15329508
0.78864288 0.11234843 0.21544525 13487048
0.79071432 0.11700737 0.21455637 11711405
0.79341382 0.12483289 0.21465054 11776941
0.78900003 -0.18075661 0.22530608 10066324
0.79250008 -0.18569589 0.22495522 9803152
0.78703701 -0.1745794 0.22515427 12697277
0.78344458 -0.16501854 0.2251457 15262688
0.78159988 -0.15527526 0.22502175 15723238
0.7815333 -0.14519805 0.22500233 15788775
0.7832427 -0.13426226 0.22499362 14539219
0.78523326 -0.12474516 0.22514907 14012873
0.78611749 -0.11498093 0.22513276 13946566
0.78692001 -0.10474931 0.22471297 13814723
0.7877667 -0.094720244 0.22495358 13814723
0.78653336 -0.084507331 0.22552019 13748930
0.78546166 -0.077399127 0.22528158 13748930
0.69281828 -0.055414349 0.22492167 14605013
0.6916362 -0.045221511 0.22447576 14868439
0.6920833 -0.034609392 0.22436407 14276304
0.69319463 -0.024926189 0.22472398 14407891
0.69494456 -0.015226264 0.22501962 14671063
0.69860005 -0.0095863212 0.22402355 14605783
0.70506907 -0.004828698 0.22512606 14079696
0.71459991 0.004354273 0.2251343 13619145
0.71900004 0.010332049 0.22467364 13553352
0.72462493 0.014944993 0.22473077 13553352
0.73074996 0.01905439 0.22663547 13487559
0.73426938 0.024377791 0.22448586 13552839
0.74150002 0.029316215 0.22780025 13618375
0.7454375 0.033510834 0.22475529 13749961
0.75709081 0.038434055 0.22505236 14276305
0.76466674 0.042020038 0.22581558 15131868
0.77428579 0.04669404 0.22455584 15131869
0.77866673 0.051900551 0.22417895 14869212
0.78217649 0.056587897 0.22551215 14935006
0.78306288 0.065388314 0.22509962 14803163
0.78215998 0.075325496 0.22518282 14737884
0.77900004 0.089003444 0.22548993 14211542
0.78070372 0.084796749 0.22462763 14869471
0.7790001 0.094606556 0.22474985 15000546
0.78000003 0.096573845 0.22456205 15395303
0.78403854 0.10488316 0.22480497 15197411
0.78866673 0.11185335 0.22480123 14013391
0.7911765 0.11672577 0.22527446 11645612
0.7930401 0.12464435 0.22460447 11711405
0.78900003 -0.18075661 0.23269434 9868692
0.79259104 -0.18580218 0.23501721 9737360
0.78725928 -0.1749009 0.23511592 12698046
0.78307408 -0.1645333 0.23501976 14999259
0.78166658 -0.15528896 0.23510686 15328479
0.78155547 -0.14520203 0.23507425 15393759
0.78277433 -0.13457955 0.23470074 14012875
0.78432012 -0.12460132 0.23498465 13881289
0.78512907 -0.11452986 0.23475114 13683652
0.78674203 -0.10490308 0.2349363 13748930
0.78669995 -0.095513485 0.23477586 13748930
0.78475773 -0.085036948 0.23528108 13683135
0.70300001 -0.070538916 0.23777705 12038314
0.78282624 -0.075680807 0.23525329 13617344
0.69658828 -0.063279018 0.23536809 12959932
0.70110005 -0.067887627 0.2363133 14012361
0.69300014 -0.055561621 0.23483063 14802392
0.6919781 -0.045133486 0.23496483 15395040
0.69269472 -0.034639034 0.23429209 14276560
0.69350022 -0.024937795 0.23456383 13618375
0.69562501 -0.015697911 0.23477298 14342355
0.70000005 -0.011244245 0.23758173 14079696
0.70508099 -0.0054728114 0.23502174 13947854
0.7149722 0.0044285837 0.2351252 13948110
0.72382611 0.012840844 0.23535049 14079696
0.73172724 0.018146448 0.23511539 14013903
0.73600006 0.021949705 0.23446748 13882061
0.74352634 0.027270483 0.23549946 14210769
0.74688888 0.032492574 0.23387663 14144719
0.75537503 0.03738654 0.23537339 14079182
0.76372737 0.042347193 0.23498517 14408147
0.77405554 0.047368526 0.23522708 15066075
0.77850008 0.05158563 0.23567104 14869467
0.78257149 0.056088891 0.23472364 14671832
0.78380018 0.065390378 0.23483132 14408406
0.7821427 0.075520344 0.2349229 14671066
0.78119439 0.085291564 0.23496702 15197923
0.78183341 0.095505662 0.23477806 15527401
0.7862308 0.10524484 0.2349937 15461608
0.78900003 0.11107937 0.23177081 15395558
0.79250014 0.11554164 0.23524375 12303029
0.78745461 -0.17403774 0.24514137 13552585
0.79040003 -0.17922699 0.24606101 9407886
0.7826429 -0.16484186 0.24488656 14999515
0.78116 -0.15518756 0.24500981 15197150
0.78193313 -0.14527267 0.24525411 14670804
0.78273362 -0.13503765 0.2445875 13946824
0.78285748 -0.12515509 0.24475762 13815495
0.78236663 -0.11513332 0.24447295 13552324
0.78316677 -0.10516521 0.24472168 13617859
0.7841 -0.095195785 0.24501388 13617602
0.78402948 -0.085312784 0.24526371 13617345
0.70430768 -0.071941845 0.24652693 12235436
0.78164721 -0.076171964 0.24441105 13617089
0.69544005 -0.063923493 0.24514668 13485762
0.70087504 -0.068275258 0.24444115 14406606
0.68900007 -0.053407781 0.24896979 15329247
0.69140005 -0.056105219 0.24427809 15000026
0.68900001 -0.049778625 0.24997789 15460833
0.69148839 -0.044985536 0.24508208 15724005
0.69345957 -0.03478713 0.24444506 15066075
0.69391686 -0.024953982 0.24445237 14144461
0.69612116 -0.015671518 0.24525273 13552069
0.70000005 -0.011244245 0.24413657 15000285
0.7046842 -0.0054935575 0.24520093 14737626
0.70866674 0.00022955057 0.24715845 14540249
0.71482348 0.0047713304 0.24492076 14671832
0.72395003 0.012614389 0.24519598 14671319
0.73233336 0.017726807 0.24546733 14539733
0.7378 0.020965423 0.24522953 14474197
0.74423999 0.025683822 0.24499847 14408148
0.74842864 0.030779336 0.24425544 14342098
0.75442308 0.035846844 0.2453151 14342099
0.76333344 0.043140303 0.24507387 14473684
0.77258343 0.048179865 0.24503185 15197918
0.77658325 0.052065495 0.24448271 15001052
0.78188241 0.057105448 0.24459118 14606296
0.78366697 0.065380521 0.24487956 14408663
0.78244442 0.075148948 0.24500707 14474456
0.78159994 0.085336067 0.24514839 14868960
0.78303456 0.095703728 0.24483845 15395561
0.78655171 0.10515255 0.2452385 15329510
0.78875005 0.11150593 0.24785362 14671836
0.79277796 0.11587898 0.24473388 12171443
0.78630775 -0.17433994 0.25518957 13092293
0.79000002 -0.17913631 0.252408 9342350
0.77900004 -0.16091301 0.25596011 14802651
0.78113031 -0.16559863 0.2547009 15131616
0.7790001 -0.15499607 0.25559339 15394786
0.78000009 -0.15417425 0.25064769 15526371
0.77900004 -0.14472808 0.25618806 14539475
0.78050011 -0.14500579 0.25119928 14538962
0.77900004 -0.13761583 0.25746462 14012874
0.78123999 -0.13449892 0.25447261 13881288
0.78265649 -0.12548102 0.25498596 13749445
0.7828002 -0.11519694 0.25468978 13683395
0.78330028 -0.10518339 0.25485376 13552067
0.78480005 -0.095280021 0.25534174 13552323
0.78439999 -0.085136801 0.25521022 13617859
0.69800001 -0.070581891 0.25705597 13815239
0.70337492 -0.073462531 0.25450128 12367280
0.78190005 -0.077358499 0.25403094 13617089
0.68900001 -0.061069351 0.25965568 15065562
0.69365716 -0.065015271 0.25505018 13815239
0.70000005 -0.068599187 0.25069141 14405835
0.68872708 -0.05508424 0.25583863 14933720
0.69020003 -0.058913827 0.2517055 14802390
0.68900007 -0.049778625 0.25562328 15460320
0.69105566 -0.044261601 0.2547673 15526370
0.69370747 -0.034590393 0.25505167 15197661
0.69441026 -0.025158426 0.25481722 14671574
0.69599998 -0.015249463 0.25496155 14605782
0.69849998 -0.0095849494 0.25587568 14276562
0.70315152 -0.0049029668 0.25486022 14408405
0.70776927 0.00099459267 0.25474644 14474454
0.71484625 0.0060963416 0.25516289 14474454
0.71900004 0.01033205 0.25917909 14079696
0.72421747 0.012995782 0.25493577 14342356
0.73209089 0.018311502 0.25486082 14144975
0.73666668 0.021653472 0.25519797 14079181
0.74384618 0.026970059 0.25480297 14078924
0.74799997 0.031761758 0.25474545 14210767
0.75434792 0.036415514 0.25494668 14407891
0.76270592 0.043104209 0.25529075 14605270
0.77187508 0.048362337 0.25519904 15131614
0.77561539 0.05221121 0.25472376 15197407
0.781353 0.057066161 0.25529379 14868442
0.78247231 0.065281078 0.25549683 14408406
0.78106672 0.075219348 0.25503722 14540506
0.77900016 0.087657414 0.2560578 14934754
0.78036362 0.083540022 0.25372952 14342872
0.77900016 0.094602376 0.25623608 15263721
0.78063643 0.096113928 0.25165847 15329514
0.77900004 0.10055325 0.25801173 15592943
0.78353584 0.10507582 0.25479355 15132390
0.78830004 0.113566 0.25537029 12763840
0.79085714 0.11821806 0.25334069 11448234
0.78900003 -0.18075661 0.26501796 9868949
0.79213643 -0.18611535 0.26514328 9737362
0.78540915 -0.17534259 0.26472977 12237243
0.77893764 -0.16203994 0.26619652 14802651
0.7806111 -0.16716141 0.26453531 15197667
0.77889645 -0.15486316 0.26542771 15131359
0.78000003 -0.15130484 0.26108193 15328993
0.77900016 -0.14496802 0.26276278 14473426
0.78054559 -0.1445985 0.26774356 14275790
0.77900004 -0.13743347 0.26257086 14012872
0.78121054 -0.13421255 0.26572314 13947079
0.78270602 -0.12504394 0.26500535 13552324
0.78405899 -0.11473235 0.2651931 13486017
0.78542298 -0.10476141 0.26459506 13617603
0.78573078 -0.09525425 0.26505068 13683139
0.70600003 -0.080756485 0.26688868 13157311
0.78396565 -0.086006425 0.26468569 13748931
0.69687504 -0.072985508 0.26639378 13157310
0.70217651 -0.076550364 0.26442498 11775914
0.68871439 -0.061504867 0.26668742 14341582
0.69236362 -0.066284902 0.26460385 13815239
0.68766665 -0.055316798 0.26478583 14933720
0.68865001 -0.047576431 0.26605207 15526113
0.69051862 -0.043061584 0.26381949 15526113
0.69266671 -0.034635533 0.26509008 15131355
0.69430774 -0.024779815 0.26528078 14671060
0.69594437 -0.015248181 0.26471636 14473939
0.69816667 -0.0095803747 0.26556203 14408148
0.70337921 -0.0047050905 0.26507309 14407891
0.70749998 0.001057893 0.26497069 14276305
0.71358329 0.0060852487 0.26515582 14079183
0.71899998 0.010752847 0.26591191 13816268
0.72438097 0.014533913 0.26490912 13881805
0.73100001 0.018439053 0.26428089 13947341
0.73568422 0.02263174 0.26518774 14276306
0.74416673 0.028117631 0.26505443 14671063
0.74733347 0.031733453 0.26501867 14934490
0.75490469 0.03652351 0.26479557 14934748
0.76331246 0.04313777 0.26532254 15132127
0.77145463 0.048192237 0.26495138 15065821
0.77604556 0.053684793 0.26586655 15526372
0.78087509 0.058065258 0.2643441 14802651
0.78189981 0.065234475 0.26537842 14605272
0.77900004 0.078213498 0.26758593 14342357
0.78039134 0.074837096 0.26478714 14539736
0.77856654 0.085793607 0.26564381 14737630
0.78000003 0.081205055 0.26321226 14342870
0.77865219 0.094406441 0.26419806 15263720
0.78075004 0.097581901 0.26818687 15263720
0.77900004 0.10055325 0.26074719 15329771
0.78430444 0.10507619 0.26539633 14935011
0.78841174 0.11316889 0.26422361 13158598
0.79040003 0.11738302 0.2660442 11513769
0.79241675 0.12439316 0.26508707 11514026
0.78900003 -0.18075661 0.27148265 9868950
0.79288888 -0.1847468 0.27508754 9605777
0.7865715 -0.17555721 0.27503085 12237497
0.7787779 -0.16362785 0.27515656 14605785
0.78100002 -0.1688692 0.27421498 15000543
0.77780783 -0.1554291 0.274914 15131359
0.78000003 -0.15130484 0.27842885 15328738
0.78264529 -0.1455484 0.2749722 14275790
0.78296006 -0.13538405 0.27490559 13947080
0.78194106 -0.12492323 0.27519044 13420736
0.78259385 -0.11476298 0.27511349 13420736
0.78472728 -0.10495704 0.27485222 13552065
0.78389668 -0.095300727 0.27446914 13617345
0.70250005 -0.080356136 0.27214205 11512486
0.78233337 -0.0879618 0.27407154 13683137
0.69491667 -0.074839324 0.27530348 12828346
0.70100003 -0.078543507 0.27074221 12038830
0.68742877 -0.0634607 0.27561319 14012104
0.69106674 -0.068155728 0.2738058 13683396
0.68652409 -0.055224635 0.27479309 14867927
0.6880967 -0.04659339 0.27479923 15394527
0.69053847 -0.040935919 0.27515727 15328734
0.69235128 -0.034729663 0.27484903 14999771
0.6940279 -0.024958042 0.27536085 14605269
0.69597292 -0.01535891 0.27465793 14342355
0.69840008 -0.0095835775 0.27464432 14211025
0.7030645 -0.0047039581 0.27482885 14276819
0.70736367 0.0023387047 0.27553141 14144976
0.71338898 0.0071006664 0.27440855 14144719
0.71854544 0.011090606 0.27537662 14144719
0.72439992 0.015980707 0.27509561 14473684
0.73000002 0.019034835 0.271689 13947340
0.73438478 0.0237191 0.2756317 14736856
0.7431429 0.028699139 0.27446538 15000284
0.74670595 0.033456787 0.27584687 15131869
0.75478953 0.037540723 0.27421209 15197407
0.75800008 0.041651115 0.27767178 15197407
0.76353848 0.045352161 0.27474561 15395299
0.77033335 0.048940357 0.27227244 15593189
0.76733333 0.05054611 0.27839589 15592165
0.77365512 0.05483919 0.27494007 15592420
0.7773335 0.064147703 0.27636096 14802393
0.7805385 0.066034898 0.27166313 14539479
0.77850014 0.075387247 0.27557266 14407894
0.78016669 0.072699025 0.27148697 14605272
0.77693963 0.08490926 0.27510276 14605789
0.77890015 0.092335068 0.27530062 15067110
0.78162509 0.097119533 0.27477843 15132390
0.78648013 0.10520588 0.27503431 14935010
0.78900003 0.11138722 0.27456108 15066339
0.79189479 0.11627157 0.2754052 12237494
0.78900003 -0.18075661 0.28902978 9211020
0.78634787 -0.17559209 0.28505328 12171706
0.77844441 -0.16416544 0.28546655 14803420
0.78183341 -0.16996336 0.28457317 14671839
0.77806664 -0.15548131 0.28502595 14671063
0.78000003 -0.15130484 0.28299385 14276560
0.77900004 -0.14837539 0.28992566 14210253
0.78302866 -0.14534116 0.28513619 14012874
0.77900004 -0.134698 0.28992566 13486530
0.78256679 -0.13531707 0.28483659 13683910
0.77900016 -0.12385739 0.28789937 13354945
0.78070003 -0.12603791 0.28306371 13420737
0.77900016 -0.11482979 0.2873342 13354943
0.78033334 -0.11422399 0.2822006 13420735
0.77900004 -0.10506363 0.28901383 13223358
0.78161758 -0.10495801 0.28422359 13420735
0.77900004 -0.094577633 0.28931776 13223357
0.78150004 -0.095078215 0.28412372 13486271
0.6971429 -0.08160881 0.28626832 11973038
0.70050001 -0.083407134 0.28448752 10591386
0.77900004 -0.089106664 0.28627837 13552321
0.7815001 -0.089392632 0.28262275 13617345
0.68900001 -0.070747122 0.287076 13880263
0.6936757 -0.075622775 0.28485131 12959676
0.68660539 -0.064838305 0.28527251 13946826
0.69000006 -0.069234505 0.28103146 13485506
0.6856758 -0.055177405 0.28503871 14736599
0.68782216 -0.04507466 0.28515297 15262941
0.69000006 -0.040159058 0.28183913 15394269
0.68900001 -0.038487893 0.28868896 15066075
0.69189757 -0.034492694 0.28491724 14999512
0.69447225 -0.024972791 0.28529179 14407890
0.69704008 -0.016742384 0.28494349 14276561
0.70011109 -0.011974346 0.28551432 14144976
0.70302856 -0.0055500409 0.28483286 14144976
0.70692313 0.0030324454 0.28518692 14144977
0.71145457 0.0079536848 0.28446987 14342099
0.71752942 0.011696525 0.28542486 14407892
0.72400004 0.016804453 0.28493473 14539477
0.72900003 0.020715363 0.28838286 14868442
0.73350006 0.025288435 0.28500742 14868442
0.74000001 0.029689707 0.28060782 15000028
0.73900002 0.031379595 0.28801367 15000028
0.7444194 0.035213746 0.2847527 15066077
0.75000006 0.038869739 0.28088829 15197661
0.74825001 0.040969063 0.28767675 15262687
0.75562966 0.044409629 0.28495693 15197149
0.76080006 0.047978856 0.28208223 15328992
0.76491314 0.052883625 0.28553239 15328991
0.77173334 0.057822786 0.28432861 15592164
0.77493751 0.065222971 0.28478283 14934236
0.77686691 0.074817516 0.28458402 14276822
0.77636409 0.084680647 0.2848132 14342618
0.77733338 0.093667649 0.28531727 15066341
0.78170002 0.09815786 0.28342637 15000804
0.78665519 0.10529377 0.28502473 14737632
0.78900003 0.11107936 0.28533566 15263977
0.79168189 0.11626239 0.28487027 12105911
0.78818184 -0.18157648 0.29636028 9539469
0.79226321 -0.1866812 0.29456568 9474188
0.77833337 -0.17163245 0.29818013 14802140
0.78404546 -0.17528792 0.29455224 12894915
0.77739418 -0.16458595 0.29561174 15131615
0.78050005 -0.16967347 0.29139692 15066340
0.77721882 -0.15474536 0.29585472 14868700
0.77690321 -0.14507225 0.2953591 14078411
0.78025001 -0.14313345 0.29039088 13881288
0.7762 -0.13499233 0.29536983 13618116
0.7772668 -0.12511592 0.29510042 13354944
0.77857149 -0.11516026 0.2954281 13354944
0.77892584 -0.10510451 0.29516557 13289151
0.78000003 -0.10428549 0.29029784 13157565
0.77872235 -0.096568622 0.29559445 13157567
0.78000003 -0.094699025 0.29102823 13223358
0.68900001 -0.070747122 0.29272139 12695991
0.69285715 -0.075318053 0.2926192 12893626
0.68619996 -0.064681157 0.292896 14341329
0.68481082 -0.054760598 0.29460174 14933979
0.68648857 -0.045221038 0.29495844 14868701
0.68810004 -0.037389077 0.29636419 14606041
0.69100004 -0.032868411 0.29437855 14737113
0.69397306 -0.025063898 0.29498586 14408147
0.69607496 -0.01525217 0.29515296 14276305
0.70000005 -0.011790483 0.29056677 14276305
0.69800001 -0.0090330215 0.29708856 14210512
0.7028001 -0.0050312113 0.29451483 14079183
0.70715153 0.0038445853 0.29518953 13882061
0.71100003 0.0085526248 0.29457799 14079697
0.71656001 0.012651021 0.29573578 14145235
0.72233331 0.017710146 0.2944203 14408406
0.7274617 0.021458587 0.29615185 14474199
0.73217863 0.026563507 0.29477897 14737113
0.73693341 0.032443624 0.29565743 14868442
0.74294448 0.036670923 0.29438123 15000028
0.74711108 0.042122945 0.29564229 15000028
0.7549547 0.047406688 0.29438809 15131356
0.75900006 0.051774006 0.29669678 15262941
0.76391667 0.055544045 0.2948893 15262941
0.77050006 0.059773471 0.29307413 15525857
0.77392858 0.0655431 0.29508939 14802393
0.77633363 0.074765973 0.29529312 14736604
0.77611148 0.084736258 0.29520908 14408665
0.77654558 0.093710281 0.29496193 14737632
0.78016669 0.09887746 0.29492679 14869218
0.78626919 0.10510933 0.2950362 13684686
0.78900003 0.11107937 0.29272389 15197926
0.79124999 0.11533498 0.29517999 11514028
0.78780007 -0.18306543 0.30512613 9408396
0.79089993 -0.18785819 0.30453682 9408395
0.77740008 -0.17227717 0.30498114 13552070
0.78249997 -0.1774376 0.30450967 9605262
0.77527976 -0.16490918 0.30487543 15065823
0.77469683 -0.15461892 0.30513912 14934495
0.77437031 -0.14497569 0.3049196 14144462
0.7748999 -0.13489464 0.30472702 13617861
0.77671432 -0.1248193 0.30518231 13223616
0.77768564 -0.11522377 0.30478358 13157822
0.77740014 -0.10530335 0.30480051 13092030
0.77725011 -0.097094387 0.30474016 13025724
0.68433332 -0.052644759 0.30115202 14473173
0.68537503 -0.045103323 0.30100819 13421259
0.68760002 -0.036797665 0.30097985 14211285
0.69000006 -0.031274896 0.30122274 13948111
0.69323534 -0.024687871 0.30191854 13750220
0.69464296 -0.015686056 0.30197167 12763325
0.6976667 -0.008211432 0.30212057 13815499
0.70241672 -0.0037420604 0.30252963 13683913
0.70693326 0.0038737983 0.3024914 13552073
0.71000004 0.0085405959 0.30081216 14078675
0.71573335 0.013867646 0.30245531 13421515
0.72049999 0.018787121 0.30272955 13487565
0.72580004 0.023519332 0.30350819 13619407
0.73087502 0.028468542 0.30366695 13948113
0.73549992 0.03332736 0.30324987 14211283
0.74325001 0.037650511 0.3042458 14473942
0.74672735 0.042198241 0.30334222 14736857
0.75446153 0.047664229 0.30456764 14605271
0.75900006 0.051774006 0.30291569 14933978
0.76435006 0.055996001 0.30486482 14868441
0.77000004 0.059734683 0.30820706 15000028
0.77366674 0.065389596 0.30497819 14210513
0.7760002 0.074733168 0.30515879 12829635
0.77576673 0.084699437 0.30506766 14540253
0.77719998 0.093166277 0.30453947 15000805
0.78177786 0.097862758 0.3060078 15000804
0.78710008 0.10436694 0.30491704 12171188
0.79000002 0.10937075 0.305116 11119266
0.7879445 -0.18359129 0.3151848 9737359
0.79083329 -0.1882738 0.31561935 10000530
0.77800006 -0.17095132 0.31140924 9867923
0.78318757 -0.17553072 0.31463417 9605519
0.77733344 -0.16489221 0.31250897 10394267
0.78212506 -0.16590831 0.31786734 10262681
0.77627778 -0.15512517 0.31344855 15197925
0.78000003 -0.15678284 0.31768772 15066083
0.7762143 -0.14433835 0.31290269 14342611
0.78133339 -0.14515729 0.31823078 12697790
0.77720004 -0.13602242 0.3118175 13749704
0.7828182 -0.13485657 0.31717134 13223618
0.77900004 -0.12831521 0.31180951 13421251
0.78359997 -0.12460796 0.31561044 13289409
0.78375 -0.11499342 0.31566316 12763065
0.77900004 -0.10460772 0.31180951 13487043
0.78268743 -0.10464471 0.31649485 11052962
0.77880007 -0.097469792 0.31209415 13420994
0.78219998 -0.096431613 0.317123 10460571
0.75450003 0.039102957 0.31348914 14013904
0.75725001 0.043679368 0.31196675 14211027
0.76200002 0.046627074 0.31392419 13947342
0.7663334 0.052876655 0.3121191 14407892
0.77314287 0.057393681 0.31464005 14408149
0.77584207 0.065351069 0.31408486 13486790
0.78100002 0.066073045 0.31992337 11579564
0.77733344 0.074377313 0.31308529 9868690
0.78100002 0.076678321 0.31772983 9999503
0.77820003 0.084237024 0.31221873 12894657
0.78224999 0.085254781 0.31723291 10460572
0.78459996 0.095955081 0.31515503 12237756
0.78828573 0.10346649 0.31473637 10790048
0.79025006 0.10801831 0.31523368 11053218
0.78875005 -0.18208463 0.3217133 10329497
0.79109526 -0.1853829 0.32608813 10461083
0.788077 -0.17501116 0.32282379 10066071
0.79049999 -0.17539383 0.32828784 10197910
0.7874375 -0.16473007 0.32440627 9736593
0.79033333 -0.1653363 0.32898894 10000787
0.78593755 -0.15463988 0.32367504 9276298
0.79000002 -0.15509406 0.32915828 9869201
0.78713334 -0.14531656 0.32428175 9276810
0.79085714 -0.14441739 0.32925123 9606029
0.78792858 -0.1350558 0.32302642 9342604
0.79075003 -0.13511059 0.32785198 9474443
0.78840005 -0.12524894 0.32203251 9079173
0.79090905 -0.12514342 0.3268449 9408651
0.78806245 -0.11458879 0.32258713 9079173
0.79072726 -0.11501729 0.32794774 9408650
0.78781259 -0.10509969 0.32432988 9211014
0.7902 -0.1051877 0.32924163 9408650
0.78742856 -0.097971715 0.32413927 9276552
