# .PCD v0.7 - Point Cloud Data file format
VERSION 0.7
FIELDS x y z rgb
SIZE 4 4 4 4
TYPE F F F U
COUNT 1 1 1 1
WIDTH 1112
HEIGHT 1
VIEWPOINT 0 0 0 1 0 0 0
POINTS 1112
DATA ascii
0.70585716 -0.015352975 0.085183784 14077637
0.70375752 -0.0058645741 0.085134953 15591903
0.70371431 0.0023479054 0.088222601 14802901
0.78856254 -0.17384988 0.096765056 12631482
0.79057151 -0.17701884 0.093292996 11578793
0.78722584 -0.16471474 0.095076688 15131872
0.79000002 -0.16803987 0.090585135 12236722
0.78656256 -0.15476376 0.09501604 16250095
0.78625804 -0.14497799 0.094600305 16184301
0.78600019 -0.13498697 0.094717778 16316143
0.78592604 -0.12519641 0.095561095 16381936
0.79000002 -0.12457889 0.090585135 15658210
0.78644836 -0.11497097 0.09556739 16381935
0.79033333 -0.1153813 0.090623356 16184554
0.78738713 -0.10498911 0.095036671 16381934
0.78797227 -0.094744176 0.09496326 16184555
0.78833336 -0.084980063 0.095449865 15658210
0.79000002 -0.081734359 0.091201603 15855589
0.78805 -0.075382903 0.096816674 15591903
0.79091668 -0.074731104 0.091614954 16118761
0.78859079 -0.065616444 0.09713579 15592160
0.79049999 -0.064052097 0.092029519 16052968
0.78857136 -0.054995265 0.097936668 15196631
0.79087502 -0.055402692 0.092766777 15723746
0.77700007 -0.042494718 0.099097088 15393497
0.78683341 -0.045179997 0.096459799 15525597
0.79185718 -0.045688156 0.092120595 15855590
0.7750001 -0.039059337 0.099144578 14144200
0.70499998 -0.024293216 0.094746195 12630705
0.69900006 -0.011228182 0.098968923 15065819
0.70230556 -0.015441726 0.094546266 14144201
0.69850004 -0.0073654973 0.097612657 14934233
0.70059258 -0.0046927575 0.093453199 15131610
0.70541179 0.0041215396 0.094923362 15132124
0.71100003 0.0085526248 0.099835724 14868442
0.71388888 0.011563591 0.096717872 14013386
0.72200006 0.015445804 0.099690087 13750215
0.78739983 0.025138518 0.095812835 14671059
0.78736663 0.035276435 0.094886892 14605780
0.78748393 0.044737294 0.095287837 14868698
0.79000002 0.048340406 0.090585135 14803673
0.78771991 0.05469114 0.096073903 14868441
0.79033333 0.055762324 0.091239817 14934489
0.78740001 0.064770818 0.096735336 15066078
0.79089993 0.06505955 0.091613039 15132127
0.78737497 0.074906595 0.096732177 14935008
0.79099995 0.0752519 0.091624506 14671834
0.78675002 0.084977105 0.096653774 15066336
0.79089999 0.085426167 0.091613039 14737369
0.78699994 0.095138915 0.096685082 15657961
0.79110003 0.094707668 0.091635972 15526116
0.78812516 0.10519142 0.097517848 15526890
0.79168761 0.10543429 0.092398047 15723239
0.78890002 0.11475941 0.098769628 11908529
0.79155004 0.11514373 0.093538851 12698043
0.78900003 0.12031468 0.099705793 11974577
0.79075778 0.12507029 0.095157392 11974577
0.79356009 -0.18515044 0.10459178 10790048
0.78748 -0.17488284 0.10504358 12302776
0.77900004 -0.16022913 0.10847218 16052716
0.78185731 -0.16474095 0.10494437 15592167
0.77900016 -0.15449767 0.10769062 16184302
0.78112501 -0.15540873 0.10259467 16382194
0.77900004 -0.14883131 0.10756036 16118509
0.78125006 -0.14463034 0.10478302 16184302
0.78224117 -0.13538434 0.10510407 16118509
0.78239983 -0.12521203 0.10436799 15986667
0.78234476 -0.11506701 0.10511821 15920874
0.78311443 -0.10528785 0.10524603 15855080
0.78629994 -0.094540991 0.10488613 15000282
0.78724009 -0.084521398 0.10501239 14539474
0.78619993 -0.075206548 0.10487282 14670288
0.78554291 -0.064898618 0.10556693 14801615
0.77681822 -0.05298461 0.10742255 14011843
0.78452635 -0.055618212 0.10387103 14998736
0.7678889 -0.042496175 0.1076238 12959669
0.77370012 -0.045757998 0.10401676 13946051
0.78150004 -0.04823051 0.10058752 15525593
0.70650005 -0.031609584 0.10788785 12630449
0.76630002 -0.037962813 0.10652175 12499631
0.77166671 -0.038890302 0.10172921 12367275
0.70419353 -0.024769591 0.1051037 13223100
0.69842863 -0.01262094 0.10647859 14802904
0.70100009 -0.017068822 0.10436369 13881801
0.69827276 -0.0073519037 0.10555318 14802904
0.70040005 -0.0025052512 0.10512395 14868698
0.70480651 0.0034290755 0.10492447 15131614
0.71083331 0.0085506206 0.10563404 13355460
0.71763635 0.011230346 0.10474007 13684422
0.72416669 0.01464861 0.10479381 13750215
0.73240006 0.018070413 0.1059282 13684422
0.73800009 0.02097111 0.10362852 14013387
0.74412507 0.023108102 0.10818816 13816008
0.75400007 0.026721146 0.10675383 14276559
0.78500003 0.029657463 0.10103801 14539216
0.78590494 0.036175031 0.10474502 14342352
0.78640014 0.045358278 0.10490069 14539477
0.7854799 0.055417713 0.10477716 14407893
0.78362876 0.065507159 0.10531483 14539736
0.78280008 0.075386427 0.1053345 14934751
0.77900004 0.088395573 0.1078643 14803423
0.78126663 0.084627576 0.10451865 14737372
0.77900004 0.091434985 0.10756036 15066340
0.7816208 0.095531158 0.10508166 15329765
0.78553855 0.10493883 0.10499665 15658217
0.788625 0.11345054 0.10427415 12039601
0.79044443 0.11724581 0.10708538 12040370
0.79262513 0.12442658 0.10558041 12040370
0.78695655 -0.17372443 0.11490705 12828862
0.79039997 -0.17922699 0.11468683 10591900
0.7790001 -0.16159685 0.11470299 15328998
0.78146166 -0.16650714 0.11535943 15065826
0.77900016 -0.1553053 0.11412553 15987181
0.78060001 -0.1528825 0.1180148 15592423
0.77900004 -0.14928721 0.11211949 16053229
0.78178579 -0.14491655 0.11546393 15789545
0.78500015 -0.1345842 0.11539847 15789544
0.78600019 -0.12486852 0.1149703 15460577
0.78534472 -0.11506447 0.11579262 15394527
0.78460723 -0.10470279 0.11529031 15328734
0.78655553 -0.094571546 0.11504825 14605010
0.78733355 -0.084531732 0.11516096 14407116
0.78503329 -0.075098544 0.11482324 14406858
0.77750009 -0.063454941 0.11658204 13354170
0.78171432 -0.067328125 0.11368368 14275527
0.77463889 -0.055062979 0.11511649 12959412
0.70780003 -0.041858017 0.11794505 12762291
0.7685715 -0.042419441 0.11306021 12762033
0.7716471 -0.04671941 0.11525878 12630447
0.70696539 -0.035099216 0.11587583 12630707
0.71300006 -0.034821108 0.11180058 12630449
0.76425004 -0.037997656 0.11290176 12564655
0.69900006 -0.021046413 0.11942358 14079696
0.70335895 -0.025237523 0.11484499 13684164
0.69760615 -0.014967662 0.11542288 14474454
0.70033336 -0.018900828 0.11200013 13749961
0.69793946 -0.0058624875 0.11537934 14737369
0.70000005 -0.0014119693 0.11303956 14605784
0.70365787 0.0042687715 0.11501281 14605784
0.70850003 0.010181164 0.11855813 13750731
0.71609092 0.011207074 0.11441472 13618889
0.72350001 0.013784168 0.11598234 13684425
0.73470002 0.01761372 0.11365322 13684423
0.741 0.019321661 0.11792731 13816011
0.74610525 0.023686972 0.11469369 13684423
0.75285721 0.027941119 0.11578151 13947594
0.75860006 0.030435961 0.11539854 14013387
0.76425004 0.033125982 0.11625526 14342352
0.77388889 0.037492368 0.11631183 14408145
0.78000003 0.038598534 0.11135042 14342352
0.77720004 0.040644143 0.11749946 14539475
0.78434384 0.045760594 0.11432089 14210767
0.78483331 0.055372469 0.11479593 14210513
0.78290355 0.065169044 0.11525255 14078672
0.78215986 0.075325772 0.11532042 15000030
0.77900004 0.08778768 0.11120766 14869214
0.78096545 0.085169844 0.11527125 14737116
0.78204 0.095456161 0.11530413 15066337
0.78657144 0.10521817 0.11505128 15527144
0.78900003 0.11107937 0.11355876 11973809
0.7920953 0.11593441 0.11510888 12040371
0.7874667 -0.17303362 0.12532143 13617867
0.79066664 -0.17836277 0.12490443 10327961
0.77900004 -0.16022913 0.12123775 15394536
0.78140754 -0.16452204 0.12537262 15328486
0.77900004 -0.15840548 0.12123775 15855339
0.78125817 -0.15443681 0.1255725 15921131
0.7841481 -0.14517106 0.12459049 15657958
0.78610003 -0.13500407 0.12510276 15855080
0.7867201 -0.12498205 0.12520079 15723494
0.78686672 -0.11487497 0.1252256 15394528
0.78644019 -0.10468616 0.12515855 14933720
0.78611541 -0.095229268 0.12496413 14407631
0.78548282 -0.085095041 0.12513085 14077893
0.78235716 -0.074645273 0.12509426 13354169
0.77784628 -0.065235414 0.1247702 13156790
0.78000003 -0.069135115 0.12869737 13090998
0.77503574 -0.055413425 0.12496399 13025205
0.70866674 -0.041798744 0.12162837 12631220
0.71128571 -0.042586822 0.12556918 12630965
0.77300006 -0.048609 0.12120876 13222071
0.70705879 -0.035119098 0.12474345 12960187
0.71100003 -0.039716825 0.12896502 12565428
0.69808334 -0.022108749 0.1260758 14276559
0.70199996 -0.026892759 0.12473727 13881545
0.69711137 -0.015277712 0.12481268 14474196
0.6980741 -0.0064306087 0.12422936 14737626
0.7003333 -0.0026874563 0.12766726 14737370
0.70252627 0.0044311672 0.12521784 14606040
0.7064445 0.010703065 0.12547034 14408660
0.71133333 0.011887125 0.12152836 14013646
0.72300005 0.015467198 0.12690906 14079180
0.73400003 0.017420828 0.1232554 14145232
0.74366665 0.019391196 0.12357373 14145489
0.74766666 0.022413963 0.1219044 14013133
0.75505561 0.025586093 0.12566257 14013133
0.76000005 0.028712958 0.1280662 14078926
0.75900006 0.030452011 0.12167877 13223617
0.76355565 0.032426964 0.12429387 14013133
0.77300012 0.037102904 0.12515806 14473684
0.77775013 0.040991787 0.12422933 14539477
0.78445458 0.046669248 0.12509212 14407891
0.78575999 0.055438213 0.12505072 14210513
0.78410017 0.065415122 0.12478713 14078928
0.78225923 0.075538538 0.12489935 14736857
0.78127778 0.085299529 0.12525027 14868699
0.78264296 0.095333219 0.12514141 15000546
0.78707683 0.10542752 0.12504551 15526890
0.78900003 0.11107937 0.12741174 11974579
0.79207695 0.11551164 0.12462758 12040370
0.7870909 -0.17370649 0.13497533 13025728
0.79020005 -0.17918167 0.13500407 10393754
0.78188473 -0.16462615 0.13520385 15000290
0.78187102 -0.15426315 0.13523567 16249584
0.78383338 -0.1447062 0.13483401 15986411
0.78524989 -0.13485864 0.13507837 15789031
0.78616649 -0.12489381 0.1352361 15855080
0.78737509 -0.11517771 0.13486841 15591906
0.78772008 -0.10485636 0.13458245 14407632
0.78706914 -0.094795793 0.13485283 14012102
0.78496873 -0.08462467 0.13480179 13419963
0.78237039 -0.0750449 0.1350936 13288377
0.77850008 -0.06353569 0.13361436 13090998
0.78076929 -0.06723576 0.13634759 13222584
0.77678955 -0.056122806 0.13424671 13025206
0.71650004 -0.041701399 0.1316382 12499635
0.69850004 -0.031660751 0.13896054 14342352
0.7037273 -0.034572132 0.13470191 13683909
0.71000004 -0.039660964 0.13127564 12499635
0.69723332 -0.024477433 0.13522498 14407633
0.70033336 -0.028191546 0.13222069 14013130
0.69683343 -0.015270457 0.13454969 14671319
0.69838887 -0.0079475725 0.13485104 14803163
0.70088887 -0.0030532554 0.13533433 14737114
0.70364517 0.0042167162 0.13509701 14671321
0.70557898 0.01266108 0.13558899 14407891
0.75750005 0.023300884 0.13163579 14210768
0.76309103 0.026394861 0.13443659 14079181
0.77100003 0.02912854 0.13804311 14737110
0.76700002 0.03077298 0.13194026 15000028
0.7741819 0.034856234 0.13482311 14802649
0.78100002 0.038648017 0.13891821 14934235
0.7854287 0.045440618 0.13524148 14605270
0.78696686 0.055523865 0.13537389 14144719
0.78596771 0.064829603 0.13505463 14144719
0.78354561 0.074455701 0.13520305 14342356
0.77900004 0.088699512 0.13673882 14868444
0.78083342 0.084335946 0.13477616 14802907
0.77900004 0.092042871 0.13795458 15065823
0.78162509 0.096016325 0.13453004 15131874
0.78689289 0.10506351 0.13503142 15592937
0.78900003 0.11107937 0.13295293 11777199
0.79256529 0.11594291 0.13540892 11974578
0.79276192 -0.18427472 0.1449848 10328727
0.78725928 -0.17490162 0.14515032 12893884
0.79000002 -0.17913631 0.14051905 10591133
0.78244013 -0.16460171 0.1446702 15197669
0.78193319 -0.15515669 0.14494035 16184047
0.78321445 -0.14518061 0.14500836 16249582
0.7856999 -0.13493545 0.14527234 15854824
0.78692001 -0.12501401 0.14549816 15657445
0.78744131 -0.11474043 0.14494295 15196893
0.78793341 -0.10488521 0.14476252 14407632
0.7874707 -0.09495654 0.14467649 14275788
0.78638464 -0.084641024 0.14554079 13814723
0.78575999 -0.075165771 0.1452859 13222585
0.77900004 -0.061751872 0.14038612 13288377
0.78257149 -0.06504979 0.14521822 13222328
0.77776659 -0.0549822 0.14471634 13222328
0.70620006 -0.041763026 0.1474354 12696501
0.71700001 -0.045087516 0.14935501 12630451
0.72000003 -0.043590635 0.14829439 12564656
0.75000006 -0.045406912 0.14218299 12762035
0.77300006 -0.048609 0.14654326 13090998
0.69779998 -0.032119505 0.14502889 14342097
0.70200002 -0.036843535 0.14559275 13815752
0.69564259 -0.025018649 0.14490461 14408148
0.69545221 -0.015239886 0.1448651 14671320
0.69741672 -0.0073236823 0.14486592 14802908
0.70076931 -0.0024223195 0.1448372 14737628
0.7048108 0.0042910427 0.14476298 14671835
0.70673084 0.012956677 0.14473698 14408148
0.77540004 0.028932851 0.1437372 14868696
0.77722222 0.033409674 0.1424918 15000282
0.7826429 0.036377255 0.14601591 15065820
0.78643322 0.045362882 0.14540873 14868443
0.78700006 0.055526372 0.14551257 14407891
0.78632009 0.064681679 0.14538716 14276305
0.78416675 0.074598327 0.14498879 14013648
0.77900016 0.087403752 0.14556915 14671580
0.78112507 0.082768336 0.1443122 14671579
0.77900016 0.093151353 0.14521345 14934753
0.78166676 0.097848862 0.14467843 15132133
0.78703701 0.10548541 0.14510897 15592684
0.79240751 0.11506956 0.14506851 12171701
0.79309535 -0.18444017 0.15477337 10197398
0.78730428 -0.17452262 0.15454423 13420486
0.79000002 -0.17913631 0.15808839 10262168
0.78283334 -0.16468534 0.1548226 15131362
0.78219998 -0.15466085 0.15543024 15986411
0.78354555 -0.14515221 0.15471429 16052460
0.78633332 -0.13504332 0.15459427 15854823
0.78700006 -0.125027 0.15472448 15459808
0.78700012 -0.1148939 0.15472446 14605011
0.78684008 -0.10473997 0.15469283 14210253
0.78651851 -0.095080934 0.15476674 14209995
0.78685725 -0.08506988 0.15456536 14077894
0.78743994 -0.075325638 0.15481174 13551036
0.78396672 -0.065271854 0.15461797 13288120
0.75800002 -0.051214725 0.15789554 13288379
0.76100004 -0.051417422 0.15673892 13354172
0.77652174 -0.055948269 0.15526858 13353914
0.70594448 -0.042557985 0.15503663 12960186
0.75000006 -0.048918441 0.15447332 13222586
0.69689661 -0.033531345 0.15551676 14407891
0.7009092 -0.037960291 0.15345933 14013131
0.69502759 -0.024994658 0.15535386 14605270
0.69502759 -0.015231896 0.15535386 14802907
0.69717145 -0.0059261005 0.15501635 14868700
0.70033336 -0.0014126417 0.15244044 14803421
0.70413512 0.0043337857 0.15478124 14474456
0.70815003 0.01241567 0.15406026 14211027
0.71172726 0.016137119 0.15673988 14276564
0.71900004 0.020431202 0.15818758 13815756
0.72750002 0.02237583 0.15835106 15132128
0.78250003 0.029563013 0.1520091 15000282
0.78283334 0.03507521 0.15481855 15131869
0.78514695 0.045073114 0.15500623 15000028
0.78692007 0.055521101 0.15470846 14473684
0.78643996 0.064691268 0.15461354 14276305
0.78405732 0.074718878 0.15493204 14145234
0.7790001 0.088699512 0.15497532 14605789
0.78085726 0.083294302 0.15508351 14474456
0.77900004 0.092245497 0.15457006 14671582
0.78188229 0.097159162 0.15544109 15000804
0.78696156 0.10512863 0.15492886 15330026
0.79239291 0.11547129 0.155187 12434873
0.78790909 -0.1738016 0.16471347 13617867
0.79049999 -0.17894144 0.16528308 10196375
0.78460002 -0.16505685 0.16527557 14933984
0.78413355 -0.15485927 0.16517743 15657446
0.78539991 -0.14499584 0.16544288 15920617
0.78727794 -0.1352061 0.16491652 15854824
0.78713351 -0.12504967 0.16488484 15394016
0.78591192 -0.11500655 0.16440934 14407632
0.78593761 -0.10496168 0.16486129 14078667
0.78758347 -0.094696634 0.16498059 14012615
0.7882334 -0.084626637 0.16511747 13814722
0.78816676 -0.075394616 0.16510288 13682878
0.78525007 -0.065243304 0.16512389 13222328
0.745 -0.051210742 0.16653097 12959414
0.77657157 -0.056758098 0.16488229 13222586
0.69749999 -0.040595569 0.16733548 14341840
0.70489484 -0.043373745 0.16515669 13749445
0.71900004 -0.048579667 0.16996992 13156795
0.73250002 -0.0494918 0.16629626 12827829
0.74000001 -0.049998544 0.16454016 12893621
0.69573677 -0.034966793 0.1649828 14539476
0.69425011 -0.024967203 0.16493084 14670806
0.69466662 -0.015222841 0.16503006 14868187
0.69700015 -0.0069508534 0.16496366 14802908
0.70081824 -0.0021587019 0.16522636 14671835
0.70555884 0.0044613099 0.16485047 14277077
0.70860004 0.010514557 0.16286728 14342613
0.71417868 0.014991289 0.16590236 14210770
0.72500008 0.021170566 0.16714406 14079184
0.73400003 0.024294056 0.16836096 13881549
0.75750005 0.027732432 0.16665915 15789544
0.76200008 0.028788518 0.16675377 15723751
0.76300001 0.030612495 0.16965424 15657958
0.77580953 0.034502067 0.16523126 15592165
0.78116673 0.036524374 0.161502 15328992
0.778 0.040320873 0.16843507 15394786
0.78425813 0.045684736 0.16484311 15131614
0.78603345 0.055458162 0.16465339 14605270
0.78579998 0.064640097 0.1646053 14473684
0.78496766 0.074526526 0.16517361 14078926
0.78168756 0.085571237 0.16500369 14671579
0.78223079 0.095339499 0.16498528 14869218
0.78696555 0.10539728 0.16500753 15330027
0.78900003 0.11107937 0.16804713 15395563
0.79165226 0.1154857 0.16466312 12303288
0.78833336 -0.17322268 0.17528714 15066081
0.79083329 -0.17840058 0.17491813 9999507
0.78567994 -0.16528404 0.17469746 15197410
0.78499991 -0.15503128 0.17454602 15723495
0.78543997 -0.14500387 0.17464338 15723495
0.78653342 -0.13508002 0.17488562 15854824
0.78500015 -0.12450863 0.17495185 14999258
0.77900004 -0.1109905 0.17685919 14078667
0.7818889 -0.11547183 0.17446153 14144460
0.77900004 -0.10916685 0.17594734 14012874
0.78284854 -0.10497986 0.17473149 14012874
0.78776675 -0.094717659 0.17516038 13881031
0.78875995 -0.084683202 0.17538109 13814723
0.78875983 -0.075452097 0.17538181 13814464
0.78664297 -0.065521277 0.1750416 13551293
0.71900004 -0.050262857 0.17333631 12827830
0.72700006 -0.050822113 0.17356303 13091002
0.73400009 -0.051311459 0.17265439 12893622
0.74433345 -0.05261752 0.17306048 12893621
0.77627277 -0.058232293 0.17557321 13156535
0.69706666 -0.041985884 0.1760972 14539476
0.70273691 -0.046272993 0.17513111 13552069
0.71500003 -0.049983233 0.17404582 13683655
0.69486111 -0.034749988 0.17483589 14671062
0.69400018 -0.02495753 0.17462023 14671063
0.69452786 -0.015219182 0.17475326 14737114
0.69719994 -0.0082598869 0.17493621 14803164
0.70230001 -0.003385873 0.1753941 14540249
0.70705712 0.0044897483 0.17471424 14277077
0.71381086 0.01442373 0.17528787 14145492
0.71875 0.020844895 0.17706147 14013648
0.72321433 0.02260921 0.17459007 14013390
0.73316669 0.025125628 0.17302704 14671063
0.74460006 0.027434925 0.17323168 15789545
0.75250006 0.028429607 0.17172183 15986923
0.75200003 0.030171162 0.17688847 15789544
0.7647143 0.032216985 0.17412116 15723751
0.7728889 0.036439892 0.17456461 15723751
0.77681243 0.041966662 0.17579234 15526372
0.78245002 0.047422033 0.17425039 15328993
0.78484607 0.055233661 0.17472321 15000028
0.7850399 0.064577125 0.17455468 14671063
0.78478128 0.074887902 0.17484055 14473684
0.78205895 0.085167825 0.1750762 14276564
0.78124148 0.095484212 0.17478007 14869217
0.7844286 0.10473558 0.17500485 15329768
0.78862506 0.11171921 0.17604378 12961221
0.79169995 0.11637421 0.17446034 11777199
0.78823537 -0.17309268 0.1851424 15065569
0.79049999 -0.17832497 0.18502176 9933717
0.78540015 -0.16522601 0.18474609 15262946
0.78383356 -0.15480104 0.18437584 15986925
0.78489995 -0.14490308 0.18462889 16052461
0.78627789 -0.13503656 0.18495433 15789288
0.78510708 -0.12492528 0.18500756 14736342
0.78342307 -0.11507785 0.18534449 14144460
0.78440005 -0.10502338 0.18512724 13881288
0.78691667 -0.094615497 0.18510237 13683651
0.78763336 -0.084562592 0.18527117 13748930
0.78790003 -0.075368874 0.18533488 13880258
0.77699995 -0.061593328 0.18458773 13748159
0.78712505 -0.067003652 0.18515128 13814209
0.70568424 -0.052724876 0.1858606 13157566
0.71499997 -0.05556266 0.18743409 12367795
0.72100002 -0.055466294 0.18563358 12302256
0.76300001 -0.058697343 0.18573 13747903
0.69603699 -0.043471631 0.18530074 14539220
0.70216674 -0.048129205 0.18420778 13683655
0.69400012 -0.034480724 0.18477347 14868442
0.69389212 -0.025062848 0.18449265 14671063
0.69466662 -0.015221606 0.18454538 14671578
0.6975385 -0.0085660173 0.18562259 14540249
0.70212501 -0.0038774458 0.18488257 14474456
0.70686114 0.0041408064 0.18452041 14408663
0.71000004 0.0085405959 0.18944994 14342870
0.71453124 0.01435569 0.18511812 14145235
0.71900004 0.020767841 0.18208891 14013395
0.72381258 0.023433212 0.18508317 14013137
0.73399997 0.02790742 0.18640085 14210772
0.74666667 0.031705141 0.18699723 16052717
0.75700003 0.033916067 0.18869984 15723751
0.76550007 0.036088943 0.18902487 15855337
0.77333337 0.037366167 0.184021 15789544
0.77757156 0.042121314 0.18446422 15657958
0.78250003 0.047541156 0.18555416 15460579
0.78586203 0.055574346 0.1850159 15196894
0.78538698 0.064781994 0.18471523 14802649
0.78418195 0.074516982 0.18476623 14605270
0.78196657 0.08537396 0.18485591 14671321
0.78038472 0.095321432 0.18469207 14737373
0.7836296 0.10503095 0.1848401 15461098
0.78845459 0.11184216 0.18504615 13816273
0.79243743 0.11724848 0.1851266 11842991
0.79340917 -0.18455806 0.19498684 10000021
0.78831822 -0.17431109 0.19508018 13486794
0.79000002 -0.17913629 0.19507647 9736852
0.78437048 -0.16480522 0.19501115 15197408
0.78236109 -0.15450926 0.19502157 15855082
0.78400004 -0.14487764 0.19472423 16052460
0.78553313 -0.13490805 0.19489169 15591652
0.78519988 -0.12474085 0.19481 14539218
0.78636658 -0.11479989 0.19510052 14210252
0.78683996 -0.10473969 0.19521815 13881286
0.78663349 -0.094583422 0.19516616 13814980
0.78707999 -0.084502824 0.19527701 13880516
0.78768003 -0.075348407 0.19542581 13814467
0.69749999 -0.061006904 0.19917743 13091513
0.70179999 -0.060889162 0.19481546 13222332
0.77766675 -0.064681701 0.19658387 13748930
0.78570592 -0.067262933 0.19439392 14011332
0.69707692 -0.053878732 0.19616725 13552323
0.7013846 -0.055347677 0.1924544 12960187
0.72600001 -0.057550523 0.19032007 12301484
0.69465858 -0.044398673 0.19499262 14736598
0.69317532 -0.034828231 0.19493809 14868186
0.69358557 -0.024841869 0.19492991 14671063
0.69458973 -0.015408449 0.19471851 14606041
0.69685006 -0.0076022907 0.19523869 14606042
0.70194113 -0.0029601303 0.19445154 14540249
0.70666665 0.0029897436 0.19468571 14342870
0.71100003 0.0078877751 0.19620818 14342870
0.71696007 0.013329107 0.19499896 14079698
0.72066677 0.018229624 0.19567162 13816526
0.72587508 0.022435876 0.19506824 13882319
0.73352939 0.02761705 0.19531862 14013648
0.74000001 0.029689707 0.19052546 14013135
0.74600005 0.031676833 0.19207026 15328995
0.75433332 0.033796594 0.19509526 15986923
0.76412505 0.036699213 0.19584316 15921131
0.77100009 0.038153164 0.1930906 15855337
0.77541679 0.041096088 0.19510406 15789544
0.78345454 0.046861097 0.19487609 15592165
0.78692007 0.055521097 0.19523735 15263201
0.78628016 0.064677626 0.19507842 15000028
0.78411776 0.074809834 0.1951876 14802650
0.77900004 0.088243596 0.19828708 14868444
0.78196883 0.084974229 0.19440703 14933981
0.77891678 0.09522409 0.19735402 15000546
0.78058821 0.095059946 0.19259006 14934495
0.78407413 0.10468403 0.19493687 15329768
0.78885716 0.11158698 0.19439897 14474457
0.79231584 0.11633431 0.19530554 11711406
0.79304558 -0.18447284 0.20510973 9803153
0.78773916 -0.17405641 0.20530093 13487048
0.79000002 -0.17913631 0.2043235 9474192
0.78360713 -0.16504553 0.20483045 15131101
0.78226656 -0.15449016 0.20507009 15723496
0.78420699 -0.1446486 0.20481884 15855083
0.78463888 -0.13475543 0.20477393 15328480
0.78483325 -0.12468233 0.20482451 14341839
0.78616655 -0.11477053 0.20517148 14144458
0.78703344 -0.10476478 0.20539793 14012102
0.78697246 -0.094624214 0.20538254 14012102
0.78703344 -0.084497795 0.20539843 13946309
0.78736681 -0.075318247 0.20548472 13880003
0.69614297 -0.062167984 0.20274654 13419967
0.77750003 -0.066182733 0.20199943 13880260
0.78487504 -0.069108367 0.20391288 13748674
0.69470209 -0.054863267 0.20505475 13683653
0.69324344 -0.044516969 0.20510931 14999770
0.69199991 -0.034605909 0.20489639 14933978
0.69269454 -0.024907745 0.20510226 14671063
0.69457895 -0.015134802 0.20510402 14606040
0.69689476 -0.007671502 0.20415755 14540505
0.70212501 -0.0029543047 0.20542938 14474712
0.7067619 0.002516554 0.20465824 14211284
0.71224999 0.0073193139 0.20575248 14013905
0.71768183 0.012836619 0.20494108 13882319
0.72125006 0.017963519 0.20511651 13619147
0.72650003 0.022348583 0.20490785 13750733
0.73270589 0.027785888 0.20519447 13947854
0.74388891 0.032363627 0.20680915 14210512
0.75575 0.035629287 0.20651214 15460322
0.76275003 0.03774491 0.20708771 15855080
0.77000004 0.039906263 0.20906496 15789544
0.7755 0.042124256 0.20590462 15855337
0.78305262 0.047629319 0.20440584 15592164
0.78553331 0.055423044 0.20500477 15197407
0.78422868 0.065294325 0.20479409 14934236
0.77900004 0.077453643 0.20846917 14934237
0.78184009 0.07448788 0.2043695 14671321
0.77766675 0.085264109 0.2051312 14934494
0.78033334 0.081239499 0.20151861 15000030
0.77743351 0.09489233 0.2047133 14869215
0.77900004 0.10055325 0.20330215 15198182
0.78458351 0.10549032 0.20521432 15395561
0.78900003 0.11107936 0.20498839 15527145
0.79245466 0.11620805 0.20495652 11776942
0.79272729 -0.18473738 0.21515068 9802898
0.78749996 -0.17508365 0.21506579 12566204
0.78307146 -0.16453972 0.21503635 15065307
0.78149998 -0.15525515 0.21493149 15394273
0.7830286 -0.14560421 0.21521954 15657445
0.78486663 -0.1347941 0.21493925 14867930
0.78495985 -0.12470311 0.21496421 14144461
0.78513336 -0.11462036 0.21501063 14143945
0.78583997 -0.10460554 0.21520402 14012102
0.78642315 -0.09526626 0.21550623 13946310
0.78599989 -0.085148707 0.21512203 13880516
0.78557146 -0.076854661 0.21591793 13814467
0.69357157 -0.054703116 0.214662 14209997
0.69202548 -0.044680286 0.21493569 15000026
0.69208336 -0.034609385 0.21464306 14802903
0.69313902 -0.024924124 0.21497111 14605782
0.69489187 -0.015115983 0.21535909 14671577
0.69800001 -0.0091689955 0.21402648 14474455
0.70357704 -0.0045161713 0.21541807 14342868
0.70811117 0.0011509514 0.21381119 14079697
0.71436363 0.0056364872 0.21554519 13882318
0.71872723 0.011552057 0.21365248 13684940
0.72228575 0.016020004 0.21559702 13619147
0.72736365 0.021909177 0.2137436 13553354
0.73218191 0.026964467 0.21562481 13619146
0.73880005 0.031371102 0.21615872 13684938
0.74510002 0.033734526 0.21503732 14145232
0.75587505 0.037407335 0.21496145 14736856
0.76283336 0.039534841 0.21335793 15526115
0.76620001 0.041503012 0.21699509 15394530
0.77503842 0.045964561 0.21524312 15526372
0.78133339 0.049029756 0.21092243 15657958
0.77854556 0.054599766 0.21751523 15460579
0.78221065 0.055381272 0.21314822 15328992
0.7788825 0.06567879 0.21694662 15000541
0.78173679 0.064593509 0.21253887 15000028
0.77860874 0.075223103 0.21536423 14934236
0.78033334 0.072105639 0.21126115 14605270
0.77864003 0.084830113 0.21432838 15197409
0.78000003 0.086074375 0.21908407 15395558
0.7787649 0.094517887 0.21380456 14934751
0.78025007 0.096377276 0.21824099 15132131
0.78466672 0.1050346 0.21522242 15198182
0.78900003 0.11169505 0.21607077 14408666
0.79157901 0.11651716 0.2143378 11645613
0.78875005 -0.181392 0.22592647 9934738
0.79204768 -0.18613897 0.22440922 9802895
0.78631032 -0.17449461 0.22529787 12565693
0.78370374 -0.16507283 0.22522078 15525600
0.78159994 -0.15527563 0.22502346 15789029
0.78235477 -0.14520136 0.22506236 15723236
0.78417659 -0.13494447 0.22473702 14670291
0.78409392 -0.1249094 0.22493671 13946824
0.78468573 -0.11468578 0.22486286 13881030
0.7860384 -0.10477291 0.22467425 13814980
0.78726673 -0.094659612 0.22481292 13814722
0.78622216 -0.084208556 0.22492187 13748930
0.78493744 -0.076923251 0.22449057 13814723
0.69287884 -0.055419229 0.22494128 14605267
0.69136941 -0.045058977 0.22483507 14933977
0.69294453 -0.034649942 0.22464333 14210767
0.69400018 -0.02495753 0.22498499 14342610
0.69482857 -0.015340628 0.22513784 14605783
0.69816667 -0.0095803747 0.2247023 14540247
0.70416659 -0.0047094268 0.22498125 14013904
0.70849997 0.00022949657 0.22470923 13816525
0.71525806 0.0053184158 0.22498475 13619145
0.71900004 0.01033205 0.22888163 13487561
0.72393334 0.014312129 0.22474343 13553353
0.73049998 0.019047871 0.22826776 13619145
0.72900003 0.020715363 0.22011876 13224389
0.73300016 0.024800684 0.22499661 13487560
0.73900002 0.031379595 0.22227322 13684938
0.74414295 0.033717096 0.22506097 13618888
0.75466675 0.038232151 0.22432774 14342353
0.76487505 0.042329896 0.22602616 15066076
0.77377784 0.046848867 0.22478254 15065821
0.7781601 0.054467697 0.22417866 15131871
0.78000003 0.057771467 0.22821404 14736856
0.77900016 0.064752065 0.22264247 14935005
0.78000009 0.06549044 0.22738403 14473684
0.7790001 0.074027389 0.22211891 15132384
0.78035718 0.07593672 0.22636141 14671578
0.78106672 0.085278787 0.22486982 14935008
0.78072 0.095292978 0.22477037 15000546
0.78500009 0.10501034 0.22508046 14935525
0.78900003 0.11107936 0.22530608 15395819
0.792 0.11609659 0.22501568 11711405
0.78854555 -0.18182789 0.23423837 10000017
0.79153341 -0.18714538 0.23504649 9802637
0.78596151 -0.17468518 0.23526642 12500665
0.78373086 -0.16473407 0.23502152 14868184
0.78199977 -0.15535419 0.23520659 15328480
0.78254563 -0.1456345 0.23495428 15328480
0.78436679 -0.13470672 0.23500185 14078155
0.78499991 -0.12470897 0.23519143 14012360
0.78616124 -0.11462075 0.23536058 13748930
0.78768981 -0.10472458 0.23523213 13748930
0.78797227 -0.094744705 0.2351581 13748930
0.78667849 -0.084660411 0.23509978 13748930
0.70000005 -0.070237905 0.23840109 12038060
0.7842105 -0.076080419 0.23514561 13486273
0.69607681 -0.064833753 0.23574862 13354433
0.69292319 -0.055555526 0.23480457 14802648
0.69169754 -0.045228392 0.23521656 15657185
0.69330573 -0.034668289 0.23449792 14341839
0.69400018 -0.02495753 0.23473294 13552324
0.69593751 -0.015706226 0.23487964 14473683
0.70033336 -0.011249599 0.23769565 14013902
0.70465708 -0.0054655056 0.23515527 13947854
0.70900005 0.00022965854 0.23482712 14145489
0.71500003 0.0052624498 0.23513681 13948111
0.72387511 0.013023458 0.23508815 14079696
0.7313 0.018213326 0.23536615 14013904
0.736 0.02321643 0.23406248 13948111
0.74307698 0.027941784 0.23614654 14277076
0.74674994 0.033021018 0.23451306 14013647
0.75492859 0.037741292 0.23539473 14013390
0.76383334 0.042721096 0.23585135 14539732
0.77375001 0.047575478 0.23453447 15065819
0.77800006 0.052312348 0.23567086 14934234
0.78141177 0.057069898 0.23476128 14671063
0.78266698 0.065297619 0.23449233 14605270
0.78186202 0.07542327 0.23500869 14736858
0.78206891 0.084662288 0.23450218 15132130
0.78360713 0.095057033 0.23497273 15592937
0.78695989 0.1052697 0.23504183 15461352
0.78900003 -0.18121839 0.24146788 9933968
0.79195243 -0.18541051 0.24521887 9868176
0.78732002 -0.17455103 0.24517459 12961472
0.79000002 -0.17913631 0.24963389 9211020
0.78306901 -0.16486265 0.24484983 15065050
0.77900016 -0.15433735 0.24826217 15328736
0.78111762 -0.15550192 0.24359846 15196637
0.77900004 -0.14928721 0.24980529 15525859
0.78284854 -0.14518777 0.24504043 14670550
0.78610009 -0.13500439 0.24472283 13881033
0.78660005 -0.12496345 0.24487799 13815239
0.78700012 -0.1148939 0.24500109 13683651
0.78635997 -0.10467542 0.2448007 13683394
0.78666657 -0.095099263 0.24469092 13683137
0.78491175 -0.084922239 0.24548323 13617344
0.7026667 -0.071971737 0.24744327 12366768
0.78306675 -0.07710655 0.24414094 13486271
0.69553572 -0.0644449 0.24478582 13486019
0.70000005 -0.068599187 0.24741399 14406608
0.69164097 -0.05582606 0.24482979 15000026
0.69167441 -0.044997718 0.24514769 15723749
0.69361126 -0.034684904 0.24434489 15065818
0.69422233 -0.024964355 0.2445595 14079180
0.69644827 -0.016186237 0.24508892 13552581
0.70085722 -0.011492115 0.24513881 14736856
0.70536113 -0.0055438196 0.24517819 14737627
0.70900005 0.00022965852 0.24561571 14671835
0.71450001 0.0047382652 0.24495549 14606041
0.72387505 0.012952935 0.2452542 14540247
0.73199993 0.018231345 0.24501419 14540247
0.73688895 0.021516204 0.24550025 14408661
0.74456519 0.026468012 0.24497579 14342611
0.74850005 0.030907448 0.24571925 14276306
0.75459999 0.035866953 0.24536833 14342356
0.7637223 0.043162018 0.2451987 14539733
0.77233338 0.048164573 0.24495286 15132638
0.77670592 0.053091671 0.24478957 14935260
0.78090006 0.057838947 0.24492955 14474711
0.78277802 0.065308109 0.24460281 14342869
0.78223073 0.075191364 0.2451362 14540247
0.78244829 0.08489272 0.24497236 14802907
0.78531426 0.095068693 0.24526185 15461351
0.78782761 0.10538416 0.24525589 15329766
0.78900003 0.11107937 0.24839437 15658475
0.7929644 0.11562214 0.24486484 12434871
0.79304767 -0.18443057 0.25501576 9737107
0.78661549 -0.17447895 0.25500694 13092803
0.79000002 -0.17913631 0.25148329 9474192
0.77900004 -0.16022913 0.25527626 15066076
0.78123999 -0.16508144 0.25491199 15065819
0.77891314 -0.15505818 0.25501019 15395040
0.78000003 -0.15130484 0.25834292 15526113
0.77900004 -0.14928721 0.25162897 15328480
0.78240633 -0.14529878 0.25541773 14604757
0.78616673 -0.13501576 0.25486127 13947081
0.78660017 -0.1249632 0.25500268 13683909
0.78666705 -0.11484525 0.25502476 13552322
0.78620017 -0.10465509 0.2548745 13552322
0.78583318 -0.095407568 0.25475514 13617858
0.78353131 -0.084928967 0.25526947 13683137
0.69850004 -0.070087388 0.25587684 14736598
0.70300007 -0.073422469 0.25484785 12104623
0.78128576 -0.077610858 0.2536729 13683137
0.6944285 -0.06508638 0.25533471 13815240
0.70000005 -0.068599187 0.25069141 14275022
0.6903336 -0.055532943 0.2545014 14868184
0.69188106 -0.045122683 0.25507405 15592419
0.69402397 -0.034706578 0.25505003 15197917
0.69471782 -0.025169915 0.25492966 14606038
0.69646865 -0.015819885 0.25497961 14606039
0.70000005 -0.011244245 0.2542966 14013647
0.70428199 -0.0055129468 0.25509572 14474199
0.70816666 0.00022938858 0.25444406 14474456
0.71467745 0.0052068406 0.25497004 14540249
0.72345847 0.012943923 0.25527555 14277076
0.7314167 0.018216524 0.25509152 14079696
0.73614281 0.022152388 0.25538501 13948110
0.74378264 0.027348286 0.25440696 14013903
0.74787503 0.032194804 0.25514245 14342867
0.75461912 0.036676805 0.25468564 14473684
0.76300007 0.043320581 0.25528947 14671063
0.77166677 0.048223924 0.25467962 15065821
0.77611774 0.052838378 0.25497231 15263454
0.78175002 0.057901379 0.25526324 14737623
0.78258848 0.065398648 0.25526598 14408917
0.78189987 0.075300619 0.25531086 14540248
0.7790001 0.087953471 0.25643674 15066593
0.78088003 0.083977848 0.25406262 14539992
0.7789287 0.094422601 0.25707632 15263975
0.78143758 0.095951892 0.25275737 15395304
0.77900004 0.10116114 0.25831568 15329512
0.78378576 0.10517423 0.25448027 15263719
0.78850007 0.1119325 0.25469667 13882065
0.79243755 0.11713216 0.25503948 11513515
0.78900003 -0.18075661 0.26501793 9671571
0.79280007 -0.18460239 0.26480603 9737106
0.78600013 -0.17468759 0.26473141 12566205
0.77886677 -0.16214679 0.2667799 14671577
0.78073335 -0.16607051 0.26425177 15131872
0.7788502 -0.15582225 0.26634854 15066335
0.78020012 -0.15280442 0.26352337 15329249
0.77900004 -0.14928721 0.26895365 14868185
0.78112912 -0.14473951 0.26464227 14407633
0.77900004 -0.13652164 0.26849774 14012874
0.78203583 -0.13482963 0.26385108 13947081
0.78317153 -0.12520255 0.26502046 13552323
0.7844708 -0.11479302 0.26511177 13486530
0.78431261 -0.10474792 0.26550499 13552322
0.77900004 -0.091842145 0.26895365 13683652
0.78278577 -0.095235467 0.26443145 13618116
0.70550001 -0.080699295 0.26669908 13024953
0.77850014 -0.085665025 0.26721749 13814212
0.78162503 -0.086434714 0.26253885 13749188
0.69706261 -0.073106885 0.26565081 13091258
0.70192856 -0.076771557 0.26452559 11907242
0.68880004 -0.061696809 0.2679649 14275276
0.6925 -0.06588909 0.26457444 13947080
0.68844998 -0.056588478 0.26669994 14801876
0.69027287 -0.054423641 0.2627793 15065561
0.69250017 -0.045347739 0.26528326 15526370
0.69388902 -0.034699451 0.26555863 15131612
0.69417965 -0.024775714 0.26523188 14539989
0.69619441 -0.01525278 0.26481074 14408661
0.70000005 -0.011244245 0.26052371 14342868
0.70369446 -0.0055285585 0.26519033 14408148
0.70845461 0.00098392798 0.26487672 14473940
0.71500009 0.0059688068 0.26494223 14144976
0.71900004 0.010332049 0.26507029 14013390
0.72429162 0.014584173 0.26531991 13816268
0.73100001 0.018816775 0.26399332 14013390
0.7357778 0.02263511 0.26493722 14144975
0.7442354 0.028120533 0.26479077 14540245
0.74766666 0.031747606 0.26513958 14803674
0.75500005 0.036646429 0.26500279 15066075
0.76368427 0.043726731 0.26559317 15263455
0.77166671 0.048424207 0.26431316 15131614
0.77604777 0.053547222 0.26589838 15526371
0.78122228 0.057963829 0.26474038 14934233
0.7826252 0.065180391 0.26528117 14539732
0.78200006 0.07530953 0.26541302 14605270
0.77873695 0.087565444 0.26545638 14934753
0.78040004 0.082464188 0.26486999 14473686
0.77823329 0.094989337 0.26504624 15263975
0.7787143 0.10129794 0.26299593 15066595
0.78344452 0.10592082 0.26539159 15001057
0.78850001 0.11193251 0.26484999 14079443
0.79224998 0.11722032 0.2648336 11447978
0.79318178 -0.18459058 0.27519801 9737105
0.78666669 -0.17557916 0.2750625 12237243
0.77775013 -0.16452543 0.27489343 14934494
0.78142864 -0.16961451 0.27462667 14671325
0.77684879 -0.15548548 0.27507025 15131358
0.77900004 -0.14898327 0.27503249 14604756
0.78038472 -0.14414148 0.2744219 14144204
0.78078586 -0.13481019 0.27505443 13881288
0.77900004 -0.12010878 0.27624825 13354944
0.78018761 -0.12542826 0.27461353 13486530
0.7790001 -0.11646148 0.27624828 13223358
0.78105563 -0.11372036 0.27392825 13354944
0.78300029 -0.10514369 0.27491698 13486530
0.77900004 -0.091842145 0.27351275 13683140
0.78139997 -0.09569481 0.27554399 13552323
0.70314282 -0.080665112 0.27603447 11972267
0.77818179 -0.087854691 0.27471802 13748677
0.69596297 -0.073879227 0.2754322 13289153
0.70037508 -0.078063793 0.27377853 12104622
0.68783349 -0.062980197 0.27551743 14077897
0.69177777 -0.068064973 0.27473533 13683394
0.68664306 -0.055234239 0.27483907 14933463
0.6881305 -0.047332853 0.27648571 15394527
0.69114828 -0.043040562 0.27382705 15394527
0.69324344 -0.034774795 0.2752021 15065562
0.69408345 -0.024960104 0.27538311 14605269
0.69561529 -0.015429847 0.27479988 14342611
0.69842863 -0.009350202 0.27605477 14211026
0.70296973 -0.0048025744 0.27484024 14211283
0.70709097 0.0021111125 0.27519861 14145232
0.71400005 0.0069217896 0.27458662 14013133
0.71885717 0.010810909 0.27571505 14407891
0.72452384 0.014861589 0.27489766 14407891
0.73100001 0.01906091 0.27462807 14539477
0.73489475 0.02260795 0.27522683 14736855
0.74483329 0.028143082 0.27517229 15000282
0.74850005 0.031782988 0.27594337 15131868
0.75520831 0.036493827 0.27532175 15197661
0.75885719 0.041612934 0.27608383 15329247
0.76267999 0.045816083 0.27441728 15526626
0.77000004 0.048919179 0.27035281 15723751
0.76733333 0.051145796 0.27749732 15592419
0.77357697 0.055141151 0.27445906 15526628
0.77766675 0.062961914 0.27668309 14802650
0.78165007 0.066586412 0.27352697 14539477
0.77900004 0.077575222 0.27788955 14210771
0.78123999 0.074724682 0.27451649 14473941
0.77839994 0.08575052 0.27556142 14606045
0.7801429 0.081393719 0.27260908 14145238
0.77878582 0.093363576 0.27448002 15198183
0.78020012 0.097238295 0.27649117 15000807
0.78440005 0.10493027 0.27467385 14935012
0.78875005 0.11173681 0.27439785 14803425
0.79255563 0.11663485 0.2753838 11776944
0.78900003 -0.18075661 0.28718272 9605778
0.7931667 -0.18501733 0.28477633 9605776
0.78579164 -0.17542832 0.28509074 12237501
0.77740014 -0.16463302 0.28496268 14869214
0.78000003 -0.16956478 0.28481984 14606048
0.77748495 -0.15511589 0.2852259 14671321
0.77899998 -0.14902671 0.28601784 14144462
0.78146422 -0.14407372 0.28476509 13947081
0.78192294 -0.13534415 0.28531048 13683908
0.78149992 -0.12506858 0.28536901 13420737
0.77900004 -0.11646146 0.28080741 13354944
0.78162485 -0.11494705 0.28556713 13354944
0.78258336 -0.10508756 0.28484577 13354946
0.77900004 -0.092753977 0.288102 13420483
0.78152001 -0.095324077 0.28464115 13486275
0.69700003 -0.081767209 0.28551245 11908270
0.70100003 -0.08209873 0.28277466 11380898
0.77900004 -0.08819484 0.28354287 13551811
0.78075004 -0.088850342 0.28326595 13617348
0.69388103 -0.075316057 0.28504181 12960444
0.68678957 -0.06460087 0.28551722 13881031
0.69033337 -0.069267951 0.28278252 13880518
0.68523818 -0.055121366 0.28550553 14802134
0.68666673 -0.044890188 0.28495756 15263454
0.69000006 -0.040159058 0.28103146 15328734
0.68850005 -0.038257759 0.28747049 15000539
0.69176477 -0.033970963 0.28446293 14868440
0.69444442 -0.024971828 0.28528035 14407634
0.69638878 -0.01525831 0.28526351 14210769
0.69825 -0.0091724265 0.28234792 14145489
0.70183343 -0.0048061628 0.28513768 14079440
0.70654839 0.0035942663 0.28478184 14145489
0.71157151 0.0085594989 0.28481692 14277075
0.71731257 0.01156961 0.28543544 14277075
0.72421736 0.016310154 0.28508517 14474197
0.73033333 0.019043526 0.28207061 14671063
0.73381263 0.024455965 0.28571889 14802906
0.74272734 0.028851656 0.28337669 15000028
0.74595648 0.034108628 0.28635386 15065564
0.75349998 0.037415762 0.28358063 15131613
0.75725007 0.043089721 0.28566444 15197406
0.76060009 0.047788233 0.28432256 15263455
0.76530015 0.052477647 0.2853612 15328992
0.77186674 0.057592474 0.28462014 15460833
0.77600014 0.065158918 0.28451267 14934235
0.77813339 0.074938335 0.28504696 14473686
0.77711129 0.084845506 0.28467339 14408409
0.77800012 0.093595542 0.28563625 15066342
0.78100008 0.098069862 0.28372163 15066599
0.78571433 0.10517059 0.28486836 14868963
0.78900003 0.11107936 0.28533563 15263721
0.79242861 0.116249 0.28493902 12171703
0.78781819 -0.18149294 0.29622367 9473680
0.79235005 -0.18681386 0.29433316 9539727
0.77800006 -0.17155921 0.29774746 14539734
0.78325003 -0.17540938 0.29443553 12565951
0.77666676 -0.1652047 0.29541856 15329249
0.77630585 -0.15513173 0.29528096 14934492
0.77684391 -0.14489403 0.29525647 14078668
0.78000003 -0.14308786 0.29029784 13881287
0.77751642 -0.13543794 0.29612184 13683909
0.78057152 -0.13418546 0.29103255 13552321
0.77878582 -0.12515388 0.29765907 13354944
0.78131825 -0.12470663 0.29328096 13354944
0.77864295 -0.11406488 0.29708332 13223358
0.78125012 -0.11542629 0.29293334 13354944
0.77795255 -0.10459763 0.29647097 13223358
0.78064293 -0.1053518 0.29184172 13289152
0.77720851 -0.096254267 0.29562259 13157310
0.78000003 -0.095794633 0.29066303 13288897
0.69400001 -0.081008516 0.29078394 11842734
0.68866664 -0.07125055 0.29311666 13157826
0.69199997 -0.075649604 0.29210284 12434872
0.68515003 -0.064502418 0.29276764 14275535
0.68332362 -0.054779224 0.29487208 14999770
0.68424404 -0.045330055 0.29481891 15000285
0.68739998 -0.038315881 0.29557914 14802907
0.69138467 -0.033015803 0.29510304 14671833
0.69427782 -0.024966026 0.29496258 14277075
0.69599992 -0.01516379 0.2951355 14276562
0.69880003 -0.0095890658 0.29606649 14210256
0.70290625 -0.0051649227 0.29487526 14013647
0.70709997 0.0035430666 0.29511446 13882062
0.71100003 0.0085526248 0.29541022 14079696
0.7166 0.013324342 0.29555175 14211282
0.72227281 0.018219786 0.29386175 14408661
0.72630012 0.022341378 0.29614836 14540247
0.73187512 0.026939012 0.29422829 14671833
0.73613334 0.032293696 0.29602283 14671833
0.7435239 0.036465865 0.29412484 14868699
0.74716669 0.041347373 0.29614854 15000028
0.75529635 0.046289269 0.29498124 15131358
0.76408005 0.053916834 0.29510084 15196894
0.77140003 0.059121788 0.29449964 15328480
0.77513802 0.065705761 0.29499438 14736600
0.77716017 0.074844904 0.29469836 14736859
0.77630591 0.084757328 0.29528305 14408667
0.7776472 0.093526728 0.29456216 14738147
0.78100008 0.098298326 0.29569706 14737891
0.78634614 0.10511891 0.29506609 13553103
0.78900003 0.11107937 0.29272389 15263721
0.79220837 0.11570879 0.29507151 11645358
0.78746676 -0.18372552 0.30524161 9473931
0.79049999 -0.1880402 0.30391943 9474189
0.77688897 -0.17283113 0.30490193 12762556
0.78227276 -0.17838438 0.30462581 9341832
0.77507979 -0.16486657 0.30479741 15066078
0.77473325 -0.15481839 0.30466002 14869213
0.77471995 -0.14483906 0.3046549 14078670
0.77545166 -0.13484414 0.30476725 13618118
0.77653366 -0.125181 0.30445936 13289409
0.77675027 -0.11521605 0.30454478 13223360
0.77614307 -0.1053279 0.30463031 13092030
0.77600002 -0.096938327 0.30515879 13025724
0.68300003 -0.051743511 0.30056524 14737628
0.6832 -0.046159882 0.30065328 12763585
0.68733335 -0.036783393 0.30086312 14341847
0.69100004 -0.032127481 0.30165932 14144979
0.69361126 -0.02494153 0.30198702 13618891
0.6954 -0.015399325 0.30211413 12960960
0.69900006 -0.0095918104 0.30187899 13552839
0.70357889 -0.004533974 0.30329034 13618376
0.70750004 0.0034265015 0.30259159 13552072
0.71000004 0.0085405959 0.30247426 13355207
0.71636844 0.014716172 0.30271253 13355721
0.72471434 0.024158504 0.30324435 13816269
0.73074996 0.029318584 0.30361515 14211283
0.73408341 0.033037979 0.30284542 14342613
0.74277782 0.037336633 0.30446267 14473941
0.74640006 0.041829959 0.30347973 14539477
0.75461543 0.047403701 0.30408525 14539478
0.76366675 0.054682147 0.30437967 14868699
0.77060002 0.059781231 0.30484161 15065565
0.77407151 0.065296493 0.30498204 14341842
0.7767002 0.074801378 0.304524 13289413
0.77633363 0.084761187 0.30529031 14606046
0.778 0.092579596 0.30412453 14869475
0.78223079 0.097591288 0.30549651 15000806
0.78736365 0.10465264 0.30501911 11974069
0.79000002 0.10937075 0.3060407 11053220
0.79267865 0.11531202 0.30522209 11119268
0.79317397 -0.19463363 0.31489974 10395034
0.78764707 -0.18370304 0.31505391 9737103
0.79016668 -0.18811484 0.31535482 9934225
0.778 -0.17186314 0.31140924 9736337
0.78326672 -0.17540975 0.31547558 9802385
0.7775386 -0.16454968 0.31276628 10789023
0.78200001 -0.16588026 0.31781673 10262935
0.7761113 -0.15458679 0.31257313 15329510
0.78025007 -0.15592067 0.31778955 15197670
0.77656257 -0.14484094 0.31276768 14277077
0.78116673 -0.14512615 0.31816292 13026501
0.7773 -0.13603994 0.31185752 13684682
0.7825833 -0.13470562 0.31721529 12960448
0.77900004 -0.12740338 0.31180951 13289410
0.78285712 -0.12436935 0.31545112 13289411
0.77900004 -0.11372598 0.31180951 13355203
0.78278571 -0.11506415 0.31646943 11776173
0.77784622 -0.10452335 0.31289002 12434360
0.78188896 -0.10591216 0.31784761 9210761
0.77616668 -0.097565293 0.31128132 13354947
0.78066665 -0.096606754 0.31795928 8684418
0.73800004 0.029609464 0.31094751 13158596
0.74800003 0.037017342 0.31078202 13553354
0.75566673 0.036213737 0.31603456 13684941
0.75750005 0.043694668 0.31206915 14078927
0.76300001 0.046688266 0.31433615 14013133
0.76750004 0.053251594 0.31169879 14342357
0.77366662 0.056999486 0.31430787 14342870
0.78000003 0.058684465 0.31951374 14408663
0.77580011 0.065544277 0.31407258 13224646
0.78066665 0.06482517 0.31978682 12237751
0.77704549 0.074586682 0.31417206 9737617
0.78066665 0.077010952 0.31978682 10000787
0.77807152 0.084041074 0.31287003 12368314
0.78188896 0.086283088 0.31744134 10197915
0.78436357 0.095658429 0.31521109 12237500
0.78841174 0.10415802 0.31470886 10856098
0.79011112 0.10835869 0.31625718 10987938
0.79242313 0.11541685 0.31511265 11053475
0.78866673 -0.18129593 0.32183328 10263703
0.79227781 -0.18594104 0.32557654 10461081
0.78808337 -0.17516577 0.32298002 10132118
0.79079998 -0.17487445 0.32819659 10197910
0.78731245 -0.16470379 0.32435462 9671568
0.79049999 -0.16537096 0.32905838 9934737
0.78556252 -0.154567 0.32352027 9211017
0.79000002 -0.15509406 0.32915828 9737358
0.7865001 -0.14485265 0.32413611 9276810
0.79016668 -0.14495192 0.32922772 9671565
0.78766668 -0.13496658 0.32339352 9211018
0.79087502 -0.13489957 0.32859784 9540236
0.78800005 -0.12518588 0.32279235 9211018
0.79112494 -0.12429263 0.32847026 9605772
0.78779995 -0.11491903 0.3242785 9211016
0.7902 -0.11628646 0.32887176 9408650
0.78680003 -0.10473511 0.32506701 9408393
0.78687501 -0.098064952 0.32578912 9474187
0.77600002 0.04475528 0.32468992 10592415
0.78300011 0.046815537 0.32844132 10000535
0.77900004 0.051314622 0.3227514 13355975
0.78662503 0.055961668 0.32591173 11513517
0.79033333 0.057611722 0.32929718 9211017
0.78594124 0.065082043 0.32498303 10395290
0.79000002 0.061286233 0.32915828 9145480
0.78499997 0.074951753 0.32534927 9934737
0.78652644 0.084762186 0.32480818 10395545
0.79000002 0.0890273 0.32915828 10592924
0.78823531 0.095016293 0.32343099 10790303
0.79049999 0.09533035 0.32867306 10790303
0.78900003 0.10245974 0.32196906 10921886
0.79118198 0.10549419 0.32569554 10987680
0.78766674 0.044817585 0.33310381 9539981
0.7911666 0.045327891 0.33674431 9869202
