# .PCD v0.7 - Point Cloud Data file format
VERSION 0.7
FIELDS x y z rgb
SIZE 4 4 4 4
TYPE F F F U
COUNT 1 1 1 1
WIDTH 634
HEIGHT 1
VIEWPOINT 0 0 0 1 0 0 0
POINTS 634
DATA ascii
0.79655552 -0.62474132 -0.4151552 11511733
0.79561913 -0.61518019 -0.41432798 13024969
0.79568756 -0.59417886 -0.41379601 12367551
0.79635715 -0.5852586 -0.4133777 12565187
0.79645461 -0.57434893 -0.41328222 12236221
0.79642868 -0.56507015 -0.41381449 11907256
0.79615003 -0.55515224 -0.41473731 11644599
0.79560006 -0.54545718 -0.41525561 11579063
0.79544443 -0.53510463 -0.41529906 11579062
0.79649997 -0.52509546 -0.4151988 11644854
0.79417652 -0.63503844 -0.40490127 11183280
0.79140007 -0.62502462 -0.40466362 12630214
0.78900003 -0.61412382 -0.40154099 14077142
0.79049999 -0.61490566 -0.4057751 14011860
0.78890914 -0.60500807 -0.40180966 14143192
0.79100001 -0.60464638 -0.4074212 14143960
0.78854555 -0.59465897 -0.40145701 14209498
0.79076928 -0.59554714 -0.40687478 14275546
0.78900003 -0.5859561 -0.40154099 13880791
0.79100007 -0.5845235 -0.40593985 14210011
0.78900003 -0.57510465 -0.40084836 13881046
0.79131258 -0.57493663 -0.40573037 14275802
0.78900003 -0.56771636 -0.40084833 13815510
0.79100013 -0.56461853 -0.40473747 14210265
0.79080951 -0.55486876 -0.40467903 14341595
0.78900003 -0.54383653 -0.40137607 14078425
0.79081249 -0.54529953 -0.40651497 13683666
0.78876919 -0.53481048 -0.40229401 14276057
0.79057139 -0.53526747 -0.40772864 13157322
0.78861547 -0.52590096 -0.40207371 14605023
0.79066664 -0.52480072 -0.40694049 13420494
0.78845459 -0.51522213 -0.40141079 14605023
0.7906363 -0.51479614 -0.4062236 13683668
0.78890002 -0.50559044 -0.40153638 14604767
0.7912308 -0.50456226 -0.40625763 13420495
0.78900003 -0.4956809 -0.40084833 14736609
0.79142106 -0.4946155 -0.40559119 13946837
0.79242867 -0.48550823 -0.40497938 14407130
0.79435998 -0.47505313 -0.40469277 14209496
0.79638886 -0.46582884 -0.4045018 14538462
0.79347622 -0.63599813 -0.3949838 10986158
0.78900003 -0.62117857 -0.39489666 14012379
0.79027784 -0.62660486 -0.39502198 10919597
0.78835988 -0.61431837 -0.39498752 14012375
0.78800005 -0.60481364 -0.39480618 13946839
0.78800005 -0.59466761 -0.39480624 14012632
0.7880401 -0.58455116 -0.39482597 13946840
0.78860706 -0.57514751 -0.39504403 13815254
0.78885162 -0.56524938 -0.39530107 14012632
0.78899974 -0.55478692 -0.39530715 13946840
0.79000002 -0.55456537 -0.39025995 14210011
0.78875983 -0.54446322 -0.39518639 13946583
0.79000002 -0.54901713 -0.39025995 14275804
0.78800005 -0.53471452 -0.39480594 14078426
0.78696007 -0.5247978 -0.39428639 14407392
0.78666657 -0.51498371 -0.39434516 14735843
0.7865358 -0.50485128 -0.39387748 14736097
0.78744829 -0.49486306 -0.39459524 14867683
0.78828001 -0.4854477 -0.39472622 15262696
0.79000002 -0.48151392 -0.39950696 14736353
0.78884196 -0.47589913 -0.39367312 14867940
0.79014289 -0.47380489 -0.39772955 15131110
0.78900003 -0.46674356 -0.39222869 15394539
0.7908572 -0.46374121 -0.39527053 15262697
0.79204011 -0.45468122 -0.39416271 14736355
0.7937144 -0.44497731 -0.39492831 14933733
0.79422742 -0.43523976 -0.39522487 15525869
0.79422742 -0.4250975 -0.39505598 14802402
0.79422736 -0.41487396 -0.3949708 14671329
0.7937001 -0.40480185 -0.39487785 14407898
0.79314286 -0.39496845 -0.39473388 14736863
0.79261917 -0.38498697 -0.39438438 14868705
0.79176188 -0.37486157 -0.39387003 14933983
0.79177278 -0.36489245 -0.39392012 14934242
0.79254174 -0.35457477 -0.39422545 15329772
0.79538101 -0.64514822 -0.38529414 11117742
0.79342306 -0.63505465 -0.38480604 10986157
0.78900003 -0.62128121 -0.38514832 13814746
0.79041672 -0.62656069 -0.38537696 10459048
0.78772736 -0.61491525 -0.38494638 14341597
0.78729051 -0.60504061 -0.38505721 14407387
0.78802788 -0.59468853 -0.38467354 14473182
0.7888664 -0.58516401 -0.38508257 14538976
0.79000002 -0.58045703 -0.38193762 14473183
0.78899986 -0.57547402 -0.38754946 14341341
0.79006666 -0.5743404 -0.3826479 14604769
0.78900003 -0.56563842 -0.38907331 14143705
0.7901541 -0.56434935 -0.38450152 14341341
0.78900003 -0.55940461 -0.38976595 13749460
0.79004019 -0.55459332 -0.38473102 14341597
0.78900003 -0.542781 -0.38871047 14341597
0.79000002 -0.54573876 -0.38429144 14473183
0.78864276 -0.53488785 -0.38523722 14341340
0.79000002 -0.53977013 -0.38193762 14670561
0.78753352 -0.52518016 -0.38443109 14801633
0.78693348 -0.5151388 -0.38450715 14801634
0.78651857 -0.5046578 -0.38506091 14538975
0.78731269 -0.49438867 -0.3849 14933218
0.7882334 -0.48504931 -0.38477355 15525611
0.78896749 -0.47585005 -0.38575804 15131367
0.79000002 -0.47282171 -0.38175267 15328746
0.78900003 -0.4676671 -0.38853458 15394538
0.79060006 -0.46454206 -0.3841382 15526124
0.79257894 -0.45490858 -0.38484201 15065575
0.79389286 -0.44552207 -0.38594148 14933989
0.79253322 -0.43574828 -0.38501781 15459819
0.79186106 -0.42518109 -0.38469112 15788783
0.79274184 -0.41526845 -0.38496855 15131109
0.79183859 -0.40522805 -0.38458976 14736865
0.79089308 -0.39550138 -0.3846828 14473435
0.79014307 -0.38508457 -0.38497886 14736605
0.78900003 -0.37161982 -0.38545612 14868191
0.79000002 -0.37559345 -0.38454354 14802398
0.78899986 -0.36493519 -0.38422474 14801885
0.79000002 -0.36870024 -0.38471174 14867422
0.7889998 -0.35622764 -0.3842248 14934500
0.79000002 -0.3511309 -0.38471174 15855858
0.79418528 -0.3474054 -0.38488567 13684945
0.79615647 -0.64543629 -0.37518257 11052462
0.79466677 -0.63556427 -0.3751992 10920878
0.78900003 -0.62097341 -0.37652871 14011355
0.79081255 -0.62560236 -0.37457722 10985390
0.78808004 -0.61432195 -0.37477246 14670050
0.78762513 -0.60515869 -0.37537175 14736098
0.7883333 -0.59491789 -0.37467211 14735842
0.78899986 -0.58604115 -0.37576714 14670562
0.79000002 -0.5821383 -0.37411967 14670562
0.79048604 -0.57420355 -0.37490124 14736355
0.79123348 -0.56469303 -0.37512287 14802148
0.79080015 -0.55512714 -0.37491783 14670562
0.79014826 -0.5456267 -0.37512344 14604769
0.78894109 -0.53394067 -0.3752872 14407390
0.79000002 -0.53907657 -0.37477118 14472926
0.78824008 -0.52565134 -0.3746275 14801892
0.78785306 -0.51508605 -0.37509438 14933732
0.78723335 -0.50470769 -0.37507045 14407647
0.78723556 -0.49478784 -0.37480104 14801892
0.78847998 -0.48520061 -0.37474215 15591919
0.78900003 -0.47928822 -0.37568212 15592432
0.79015404 -0.4738521 -0.37489715 15460334
0.79191172 -0.46473664 -0.37511843 15460333
0.79315996 -0.4546589 -0.37511027 15262953
0.79324013 -0.44542107 -0.3751488 14933989
0.7924 -0.43567505 -0.37475038 15394540
0.7919333 -0.42521968 -0.37452883 15854577
0.79303324 -0.41467157 -0.37504944 15460586
0.79324991 -0.40437239 -0.3745524 15328743
0.79308826 -0.39471444 -0.37463361 15394279
0.79216665 -0.38541377 -0.37550163 15196645
0.79077441 -0.3753626 -0.37475556 15065058
0.78900003 -0.3636159 -0.37683651 14998751
0.79005879 -0.36682385 -0.37386048 15064800
0.78899992 -0.35687953 -0.37607589 14999265
0.79072219 -0.35227257 -0.37416202 15329258
0.79578257 -0.34729579 -0.3752113 13290188
0.79220843 -0.62466007 -0.36515096 12893386
0.78884983 -0.61349958 -0.3657763 14802148
0.79000002 -0.61767632 -0.36367473 14670305
0.78857565 -0.60475194 -0.36438107 14802147
0.78889269 -0.59540683 -0.36577019 14736354
0.79000002 -0.59303296 -0.36140925 14736609
0.78900003 -0.58895761 -0.36852473 14736355
0.79029435 -0.58502573 -0.36521012 14736354
0.7912814 -0.57491374 -0.36495766 14736354
0.79245436 -0.56505769 -0.36431831 14802148
0.79220665 -0.55534744 -0.36461741 14736356
0.79074085 -0.54514492 -0.36539397 14604769
0.78900003 -0.53293008 -0.3682169 14473440
0.79000014 -0.53607136 -0.36436841 14538720
0.7889998 -0.52513129 -0.36589092 14802406
0.79000002 -0.52559137 -0.36097774 15130343
0.78866655 -0.51491916 -0.36498275 14999527
0.79000002 -0.5194267 -0.36066949 15196906
0.78803706 -0.50542814 -0.36489683 14604769
0.78750014 -0.49473742 -0.36505824 14605539
0.78855544 -0.48504201 -0.36513793 15460845
0.78900003 -0.47924203 -0.36409181 15789555
0.79016161 -0.47376472 -0.36545685 15789300
0.79136008 -0.46474239 -0.3649964 15591663
0.79209989 -0.45497856 -0.36533725 15328746
0.79229993 -0.44489253 -0.36450121 15197417
0.79254538 -0.43524727 -0.36436033 15394540
0.79400003 -0.42515233 -0.36493593 15723504
0.79531604 -0.41537467 -0.36524671 15723502
0.79492599 -0.40563303 -0.36519206 15394536
0.79519355 -0.39535362 -0.36508244 15394536
0.79375857 -0.38426527 -0.36501256 15262950
0.79215389 -0.37448609 -0.36514747 15130851
0.79072434 -0.36428359 -0.36546716 14933727
0.79100013 -0.35442874 -0.36530378 15066085
0.79383343 -0.62447029 -0.35560462 13946585
0.7907002 -0.61429107 -0.3545087 14867684
0.78900003 -0.60465759 -0.35836589 14933475
0.79088908 -0.60483617 -0.35373542 14933732
0.79100019 -0.59494644 -0.3547745 14736610
0.79188889 -0.58462471 -0.35504231 14802147
0.7926206 -0.57508773 -0.35521021 14867939
0.79299992 -0.56502521 -0.35461348 14933732
0.79265374 -0.55443126 -0.35467297 14867941
0.7918666 -0.54475349 -0.35503283 14670818
0.79073352 -0.53471887 -0.35452393 14604770
0.79003865 -0.52478689 -0.35492489 15064807
0.78900003 -0.51253533 -0.35628793 14802147
0.79000002 -0.51692456 -0.35435972 15197162
0.78849989 -0.50532264 -0.35503957 14539231
0.78800005 -0.49505267 -0.35514453 14671075
0.78807151 -0.48514789 -0.35484734 15263210
0.78899997 -0.47826573 -0.35440782 15658226
0.79000002 -0.47342277 -0.35535246 15855606
0.79091448 -0.46527371 -0.35473818 15855348
0.79208314 -0.45496798 -0.35512966 15395052
0.79326916 -0.44522238 -0.35458991 15132137
0.79416662 -0.4353402 -0.35507154 15461101
0.79606068 -0.42565563 -0.35490882 15657967
0.79526931 -0.40574595 -0.35541338 15395050
0.79473341 -0.39509597 -0.35538957 15395307
0.79380006 -0.38441348 -0.35497063 15263721
0.79199994 -0.37414286 -0.35493302 15000549
0.79068023 -0.36439082 -0.35542738 14802656
0.79182357 -0.3547177 -0.35501304 14935013
0.79442871 -0.62560296 -0.3452442 13354707
0.79195994 -0.61526901 -0.3448782 14868197
0.79263324 -0.60558563 -0.34517077 14933988
0.79274988 -0.59487206 -0.34502244 14802146
0.79288888 -0.58484769 -0.34548876 14867682
0.79300004 -0.57523555 -0.34533128 14802403
0.79299992 -0.56535679 -0.34539756 14933733
0.79203695 -0.55455333 -0.34484342 14868195
0.79191995 -0.54479003 -0.34486139 14868195
0.79112017 -0.53497988 -0.34451285 14933734
0.7906003 -0.52458 -0.34507793 15131113
0.79040027 -0.51413965 -0.34512317 14999527
0.78894728 -0.50337589 -0.34580204 14605025
0.79000002 -0.50717437 -0.34240663 14538976
0.78876907 -0.49482551 -0.34547642 14802146
0.78891975 -0.48547256 -0.34540111 15131881
0.7889998 -0.47600254 -0.34522331 15658227
0.79000002 -0.47180453 -0.34726128 16052726
0.79156768 -0.46490937 -0.34445485 15986933
0.79452777 -0.45482117 -0.34506303 15723504
0.79550022 -0.44482648 -0.34548587 15328744
0.79549998 -0.4352051 -0.34548661 15526636
0.79492861 -0.42496777 -0.34444341 15592429
0.79483342 -0.41474444 -0.34501335 15658222
0.79517245 -0.40542418 -0.34518525 15657709
0.79455572 -0.39500827 -0.34507751 15591916
0.7943334 -0.38467017 -0.34498116 15394536
0.79246151 -0.37463203 -0.34488165 15000035
0.79030019 -0.36421552 -0.34507906 14868449
0.79184383 -0.35472542 -0.34482673 15001061
0.79422736 -0.62523133 -0.3352159 13617623
0.79248559 -0.61488169 -0.33476964 14802661
0.79348576 -0.60482967 -0.33524442 14736611
0.7937187 -0.59468639 -0.33565471 14736611
0.79313314 -0.58461648 -0.33517674 14736611
0.79306436 -0.57510239 -0.33523828 14736612
0.79328567 -0.56509662 -0.3351613 14736356
0.79206657 -0.5541622 -0.33472627 14802147
0.79112017 -0.54423994 -0.33525264 14736354
0.79100013 -0.53489816 -0.33520162 14933478
0.79165715 -0.52501583 -0.33468503 15130856
0.79135722 -0.51496124 -0.33475623 15131112
0.78900003 -0.50122207 -0.33527765 14605537
0.79000002 -0.50648087 -0.33477783 14407903
0.7887665 -0.49461177 -0.33517933 14802403
0.7883333 -0.4851118 -0.3349959 15197160
0.78899974 -0.47622517 -0.33558545 15657968
0.79000002 -0.47165039 -0.33416137 15920882
0.79221624 -0.46518928 -0.33491403 15986932
0.79596674 -0.45533356 -0.33544302 15987188
0.79500002 -0.42407539 -0.33503559 15526123
0.79546434 -0.41441149 -0.33503082 15789294
0.79590011 -0.3950561 -0.3347913 15789293
0.79412001 -0.38456604 -0.33466351 15394535
0.79324144 -0.37472874 -0.3350623 14934498
0.79196548 -0.36511227 -0.33484215 14736864
0.79160011 -0.3546192 -0.33514705 15132135
0.79459095 -0.62585551 -0.32505453 13486295
0.79338694 -0.61523771 -0.32506853 14868712
0.79457146 -0.60520601 -0.32568747 14736612
0.79407704 -0.59482139 -0.32521126 14670562
0.79288 -0.58443046 -0.3248615 14736355
0.79283994 -0.57511884 -0.32484478 14802148
0.79333311 -0.56526279 -0.32504797 14670819
0.79256004 -0.55450821 -0.32472962 14802662
0.79150003 -0.5445013 -0.32522097 14539491
0.7915144 -0.53445113 -0.32509449 15000296
0.79196143 -0.52463812 -0.32469878 15132136
0.79174072 -0.51480573 -0.32480562 15065830
0.78900003 -0.50103736 -0.32733521 14671587
0.79039133 -0.50576729 -0.32448432 14605280
0.78875995 -0.4946079 -0.32501942 14737125
0.78843993 -0.48517659 -0.3248871 15131881
0.78899997 -0.47841799 -0.32554501 15592174
0.79019046 -0.47295249 -0.32552147 15789809
0.79153585 -0.46444628 -0.32523832 15921139
0.79426473 -0.45452291 -0.32493788 16052981
0.79542863 -0.44478664 -0.32457712 15789295
0.79525 -0.43522415 -0.32459244 15657709
0.7948485 -0.42467067 -0.32516095 15394537
0.79526669 -0.41490802 -0.32490784 15657709
0.79542434 -0.4051733 -0.32522762 15920880
0.79446679 -0.37543574 -0.3245796 15131620
0.79223084 -0.3649646 -0.32480881 14737377
0.79118204 -0.35446081 -0.32523152 15132647
0.79409105 -0.62512344 -0.31470969 13749465
0.7929998 -0.61493021 -0.31497347 14933991
0.79299992 -0.60493851 -0.31470022 14867941
0.79265511 -0.59462929 -0.31562024 14670819
0.79293323 -0.58453006 -0.3147358 14802147
0.79397136 -0.57514268 -0.31495103 14868196
0.79338723 -0.56455302 -0.31500265 14868197
0.79299992 -0.55481488 -0.31470022 14933990
0.79296654 -0.54551005 -0.31468672 14934247
0.79259354 -0.53528112 -0.31511825 14671588
0.79264271 -0.52467585 -0.31488934 14934758
0.79308826 -0.51523137 -0.31451496 15000293
0.79185718 -0.50502431 -0.31503779 14605793
0.78900003 -0.4929103 -0.31773049 14803173
0.79021055 -0.49629587 -0.31422567 14671330
0.7889998 -0.48636162 -0.31571549 15197674
0.79000002 -0.48243862 -0.31417012 15395309
0.79000026 -0.47504097 -0.31535912 15658224
0.79020619 -0.46520692 -0.31516927 15658481
0.79299992 -0.45504129 -0.31493926 15987446
0.79399997 -0.44474584 -0.31410038 15789809
0.79421443 -0.43481126 -0.31451842 15723759
0.79478794 -0.4251456 -0.3149859 15394793
0.79560876 -0.40545177 -0.3150456 15724270
0.79556674 -0.39550751 -0.3147884 15592684
0.79496431 -0.37507161 -0.31454939 15131621
0.793037 -0.36506525 -0.31481731 14671327
0.79255265 -0.35440865 -0.31500667 14935013
0.79494125 -0.62535912 -0.30512479 14736099
0.79293734 -0.61533207 -0.30481356 14933734
0.79271996 -0.6047256 -0.30438313 14802148
0.79199988 -0.5949052 -0.30503288 14605540
0.79279989 -0.58495003 -0.30473107 14802661
0.79532266 -0.57505661 -0.30465907 14802660
0.79485178 -0.56548393 -0.3047857 14999782
0.79347992 -0.5551517 -0.30467284 14867940
0.79304004 -0.54556048 -0.30450511 14933990
0.79226452 -0.53460908 -0.30486211 14999783
0.79211098 -0.52472907 -0.30456105 15066089
0.79336661 -0.51513785 -0.30463144 14933990
0.79303706 -0.50451076 -0.30491644 14671073
0.79068184 -0.49505636 -0.30494574 14868452
0.78900003 -0.48496789 -0.30406222 15395053
0.79000002 -0.48526135 -0.30567405 15329260
0.78900003 -0.47998086 -0.30295399 15395309
0.79003865 -0.47485048 -0.30498856 15526638
0.79085726 -0.46523923 -0.30472329 15658224
0.79243737 -0.45540375 -0.30462259 15921139
0.79279989 -0.445173 -0.30441418 15987188
0.79469454 -0.43522522 -0.30436289 15724016
0.79554564 -0.42487413 -0.30478764 15329514
0.79484004 -0.38491538 -0.30519658 15395305
0.79343992 -0.37495026 -0.30465981 15131363
0.79291999 -0.36542282 -0.30445948 14802655
0.79367501 -0.35466024 -0.30488637 14737633
0.7948572 -0.62487614 -0.29403836 14605028
0.7930001 -0.61580276 -0.2947939 14933734
0.79234469 -0.60520691 -0.2950916 14802148
0.79180002 -0.59475482 -0.2947616 14802147
0.79263324 -0.58517283 -0.29507169 14933989
0.79564887 -0.57574278 -0.29488483 14868452
0.79578274 -0.5651871 -0.29470468 14933989
0.79446673 -0.5558424 -0.2948238 14867940
0.79339999 -0.54580921 -0.29535684 14867940
0.79311758 -0.53518295 -0.29459435 15065319
0.7927407 -0.52514708 -0.29469669 15065833
0.79296654 -0.51487982 -0.29519513 14868965
0.79245454 -0.50485128 -0.2952587 14540000
0.79032022 -0.49506828 -0.29443166 14803172
0.79013926 -0.48529741 -0.29506674 15395052
0.79068595 -0.47465912 -0.29513767 15657711
0.79224128 -0.46449175 -0.29479656 15723504
0.79261529 -0.45456183 -0.2952061 15657968
0.79316652 -0.44444773 -0.29495901 15855860
0.79543328 -0.38520256 -0.29518121 15460586
0.79393333 -0.37518406 -0.29462364 15197414
0.79247987 -0.36522105 -0.29501414 14737377
0.79421628 -0.35480589 -0.29485402 14738148
0.79425001 -0.62464172 -0.28467295 14539232
0.79372418 -0.61478227 -0.28477836 15065318
0.79296654 -0.60491413 -0.28498474 14867940
0.79251498 -0.59478599 -0.28456843 14736610
0.79275751 -0.58484399 -0.28516215 14933989
0.79493338 -0.57570589 -0.28476238 15065574
0.79508001 -0.56557685 -0.28481469 15065574
0.79468 -0.55599111 -0.28467017 15131111
0.79325706 -0.54491287 -0.28495649 14802147
0.79465634 -0.53492713 -0.28501037 14933989
0.79439288 -0.5241757 -0.28516477 15460589
0.79316121 -0.51425827 -0.28520513 14868451
0.79152387 -0.50481176 -0.28512889 14736609
0.79016012 -0.49548542 -0.28490177 15000038
0.79060018 -0.48557961 -0.28506055 15526895
0.79150003 -0.47478318 -0.2850374 15592431
0.79255539 -0.4645161 -0.28483784 15789808
0.79299992 -0.45456785 -0.28499737 15855601
0.79286653 -0.44521096 -0.28495029 15724272
0.79378122 -0.43509394 -0.28452635 15789808
0.79568017 -0.38532177 -0.28503036 15461097
0.79448009 -0.37544274 -0.28460002 15132134
0.79246652 -0.36521485 -0.28480574 14868962
0.79456419 -0.35515326 -0.28491369 14804198
0.79613048 -0.6360144 -0.27554727 11052206
0.79258329 -0.62487727 -0.27448958 14341597
0.79207683 -0.6151458 -0.27461207 15196903
0.79251719 -0.60533702 -0.27449301 14999525
0.7931 -0.59480208 -0.27482167 14802915
0.79392004 -0.58519536 -0.27510509 14671331
0.79480004 -0.57560986 -0.27541095 14868710
0.79508001 -0.56557637 -0.27550784 14868967
0.79500002 -0.55561596 -0.27548012 14933990
0.79366654 -0.54454631 -0.27501759 14868195
0.79462087 -0.53471529 -0.27547732 14867940
0.79347622 -0.52472085 -0.27477604 15460332
0.79299998 -0.5156157 -0.27492988 14934245
0.79151863 -0.50525939 -0.27475306 14671328
0.79038745 -0.49544805 -0.27471566 15000038
0.79002893 -0.485098 -0.27476156 15526895
0.7908237 -0.47482705 -0.27468765 15592688
0.79227567 -0.46451166 -0.27466494 15790065
0.79261529 -0.45456076 -0.27451202 15921651
0.79256004 -0.44503924 -0.27463347 15921649
0.79266661 -0.43489119 -0.27466983 15921650
0.79566675 -0.42510495 -0.27520233 15395049
0.79523081 -0.38524804 -0.27534506 15395048
0.79428011 -0.37534818 -0.27523077 15197156
0.79276001 -0.36535001 -0.27470389 15000034
0.79497224 -0.35508966 -0.27505535 15001575
0.79587507 -0.63496423 -0.2649529 10723243
0.79163647 -0.62479168 -0.26530138 14078428
0.79032165 -0.61459023 -0.26441103 15131368
0.79156673 -0.60476983 -0.26502523 14999781
0.79283321 -0.59460223 -0.26544911 14868452
0.79328001 -0.58472323 -0.2655994 14737379
0.79435301 -0.5750668 -0.26530206 14737379
0.7949667 -0.56549609 -0.26523295 14934758
0.79403341 -0.55553788 -0.26492187 15065831
0.79357588 -0.54474473 -0.26519054 14933989
0.79433346 -0.53529304 -0.26502013 14999526
0.79341376 -0.52532262 -0.26487389 15197417
0.79299992 -0.51523316 -0.26530606 14868965
0.79199988 -0.50479656 -0.26517013 14671585
0.79125935 -0.49473348 -0.26512685 14803170
0.79056025 -0.48463273 -0.26468778 15329258
0.79000014 -0.47504097 -0.26450044 15526894
0.79090333 -0.46518832 -0.26486331 15724274
0.79262054 -0.45511693 -0.26531398 15921394
0.79375768 -0.4449209 -0.26474246 15921650
0.7947188 -0.43543583 -0.26538131 15921651
0.79490632 -0.42536265 -0.26492301 15461100
0.79515392 -0.4150646 -0.2642225 15263465
0.79550004 -0.40478671 -0.2644802 15724272
0.794074 -0.37545845 -0.26545092 15000290
0.79227996 -0.36512849 -0.26526448 14934240
0.79464877 -0.35499951 -0.26525176 15001060
0.7958824 -0.63541573 -0.25463322 10723499
0.7915653 -0.625278 -0.25503367 14144475
0.79000026 -0.61467099 -0.25525346 15197162
0.79136115 -0.60461223 -0.25476658 14999781
0.79277754 -0.59456033 -0.2552233 14934245
0.79299992 -0.58451766 -0.25529459 15000294
0.79387498 -0.57517022 -0.25499511 14934245
0.79524004 -0.5656901 -0.25508422 14802916
0.79487997 -0.55613065 -0.25496888 14737379
0.79341936 -0.54546213 -0.25521967 14934501
0.79392594 -0.53543067 -0.25445709 15065577
0.79410356 -0.52532935 -0.25471967 15329262
0.79299986 -0.5144797 -0.25554773 14868967
0.7924 -0.50430983 -0.25509995 14671842
0.79206657 -0.4948265 -0.25499329 14802658
0.79070395 -0.48492628 -0.25506926 14999781
0.79000014 -0.475041 -0.25525343 15197673
0.79034406 -0.46483874 -0.25501722 15592688
0.79224992 -0.45506319 -0.25505331 15790066
0.7953335 -0.44493601 -0.25480241 15987444
0.79496658 -0.42504972 -0.25462204 15526636
0.79511547 -0.41504467 -0.25518709 15329257
0.79382139 -0.37493306 -0.25522611 15066083
0.79216659 -0.36507541 -0.25502542 14737375
0.79455 -0.35505059 -0.2550002 14935265
0.79555559 -0.63492966 -0.24483824 10657706
0.79170841 -0.62457466 -0.24468422 14671076
0.79078811 -0.61486202 -0.24557634 15131625
0.79170001 -0.60487241 -0.24468169 14868710
0.7924999 -0.59435141 -0.24492964 14802917
0.79300004 -0.58451772 -0.24508421 15000295
0.79327583 -0.57466608 -0.24529822 14934758
0.79438454 -0.56529605 -0.24537145 14868965
0.79396009 -0.55548781 -0.24538313 14671587
0.7930401 -0.54556048 -0.24509668 14737380
0.79346669 -0.53563678 -0.2452289 15065575
0.7934401 -0.5254038 -0.24522148 15460332
0.79299992 -0.51490158 -0.24508455 15197930
0.79311997 -0.50476718 -0.24512106 14868963
0.79315996 -0.49551013 -0.24513291 14933986
0.79089308 -0.48463854 -0.24502611 14868194
0.78900009 -0.4741039 -0.24653459 14933731
0.79000002 -0.4752357 -0.24405968 14999780
0.79038262 -0.46530989 -0.24492808 15395051
0.79233325 -0.45511177 -0.24487855 15724271
0.794258 -0.44478783 -0.24541493 15855858
0.79514819 -0.37500012 -0.24491864 15000290
0.79304004 -0.36547792 -0.24509639 14737120
0.7949999 -0.35515514 -0.24489562 14869475
0.79224998 -0.62453878 -0.23557913 14868198
0.79132009 -0.61477083 -0.23530315 15262698
0.79203218 -0.60497755 -0.23533466 14934246
0.79294419 -0.59468555 -0.23485664 14868453
0.7931332 -0.58461612 -0.23491257 14737380
0.79279304 -0.57514971 -0.23497279 15000551
0.79276657 -0.56541622 -0.23554777 15066344
0.79257137 -0.55477947 -0.2352781 15000551
0.79322845 -0.54489303 -0.23480862 14934502
0.79345167 -0.53487945 -0.23515798 15000552
0.79299998 -0.52525496 -0.23558791 15329516
0.7923547 -0.51523107 -0.23453224 15263722
0.7925427 -0.50519413 -0.23487121 15132135
0.79296148 -0.49524212 -0.235577 15132135
0.79244816 -0.48591799 -0.23486869 15000292
0.79088897 -0.47516468 -0.23496656 14934756
0.79067868 -0.46493667 -0.23530905 15329257
0.79168957 -0.45490247 -0.23554119 15658479
0.79196423 -0.44457003 -0.23529661 15790065
0.79500008 -0.43523619 -0.23453705 15724272
0.79566675 -0.4053899 -0.2345235 15526635
0.79411548 -0.36468717 -0.23491603 14802908
0.7919566 -0.62478036 -0.22509338 14737127
0.79067677 -0.6149236 -0.22471356 15066089
0.79214269 -0.6053431 -0.22521521 15000295
0.7935999 -0.5951761 -0.22483328 14934501
0.79462975 -0.58530504 -0.22491723 14671330
0.79351997 -0.57501906 -0.22510605 14671329
0.79287082 -0.56484383 -0.22516479 14803172
0.79196656 -0.55471003 -0.22554515 15065831
0.79200006 -0.54505849 -0.22424023 15065832
0.79144442 -0.53478765 -0.22443181 15197163
0.79153126 -0.5245434 -0.22477016 15526639
0.79286659 -0.51481426 -0.22462587 15132136
0.79259992 -0.5044378 -0.22454928 15131879
0.7920689 -0.49495518 -0.22516693 15197671
0.79257679 -0.48572534 -0.22475737 14934756
0.79166669 -0.47511795 -0.22521169 15000549
0.79116672 -0.46462968 -0.22506925 15329513
0.79165727 -0.45485553 -0.22507539 15592684
0.7932353 -0.44503221 -0.22543633 15658478
0.79500008 -0.43468174 -0.2253534 15724270
0.79476005 -0.36441049 -0.22516331 14605790
0.79527783 -0.63501894 -0.21486138 11446962
0.79135001 -0.62498617 -0.21493427 14802917
0.79050028 -0.61505836 -0.21470235 15000296
0.79183328 -0.60497433 -0.21506448 14934758
0.79329997 -0.59495014 -0.21546347 14934758
0.79472733 -0.58477557 -0.21534434 15000551
0.7948066 -0.57486516 -0.21479276 14803172
0.79388887 -0.56493825 -0.21520956 14605793
0.79170001 -0.55483347 -0.21502897 14605793
0.79020011 -0.54545707 -0.21462153 14671331
0.78900003 -0.53539276 -0.21060082 14868195
0.79000014 -0.53496164 -0.21530633 15000297
0.79066682 -0.5244897 -0.21474762 15329516
0.79269981 -0.51470548 -0.21530002 15132137
0.79384381 -0.50458801 -0.2145635 15066342
0.79386675 -0.49502084 -0.21468499 14605791
0.79299992 -0.48548475 -0.21516672 14671584
0.79207134 -0.47502869 -0.21532761 15000549
0.79224986 -0.46466884 -0.21497817 15461099
0.79285175 -0.4548946 -0.21554691 15592684
0.79485297 -0.44528443 -0.21522896 15790063
0.79557139 -0.43475565 -0.21528226 15790063
0.79516006 -0.37457204 -0.2155214 15066084
0.79150009 -0.62510514 -0.20478173 14605540
0.79035509 -0.61479628 -0.20523283 14868710
0.7916944 -0.60486788 -0.20483352 14803173
0.79245442 -0.59473997 -0.20528428 14934759
0.79216665 -0.58464473 -0.20421585 15066346
0.79273063 -0.57482493 -0.2043176 15000553
0.79292858 -0.56517375 -0.20482154 14934759
0.79146433 -0.55532986 -0.20450841 14803172
0.79018539 -0.54565245 -0.20495586 14737122
0.78900003 -0.53446925 -0.20875375 14999781
0.7900002 -0.53514659 -0.20475052 14802659
0.79122233 -0.52485824 -0.20471023 15197415
0.79262841 -0.51479161 -0.20520785 15263465
0.7932142 -0.50495893 -0.20449831 15526379
0.7937777 -0.49513689 -0.20451377 14999778
0.79303211 -0.48453006 -0.20479023 14473691
0.79253322 -0.47470954 -0.20505139 14671327
0.79237479 -0.46499169 -0.20524326 15263463
0.79223514 -0.45478368 -0.20475651 15329512
0.79274994 -0.44501218 -0.20471025 15526892
0.79321426 -0.43519157 -0.20430051 15658478
0.79464513 -0.42502353 -0.20454864 15790063
0.79266673 -0.62439221 -0.19505385 14079708
0.79076684 -0.61465001 -0.19533563 14408671
0.79100013 -0.60526443 -0.19446896 14408670
0.79130006 -0.59530431 -0.19454251 14277084
0.79163337 -0.58443576 -0.19462322 14540256
0.79277772 -0.57466018 -0.19469804 14737636
0.79300004 -0.5654127 -0.19503765 14803429
0.79180002 -0.55545914 -0.19466518 15132137
0.79109693 -0.5450595 -0.19502866 14803429
0.7910859 -0.53479576 -0.19538657 14934759
0.7922222 -0.52500784 -0.19497396 15132137
0.79289645 -0.51499403 -0.19480684 14869219
0.79303843 -0.5049293 -0.195112 15460842
0.79351848 -0.49531934 -0.19487967 15066340
0.79317862 -0.48497698 -0.19520272 14605276
0.79207993 -0.47443783 -0.19473425 14473690
0.79148012 -0.46481416 -0.19458599 14868704
0.79170001 -0.45474875 -0.19464013 14802912
0.79199988 -0.44472417 -0.19471481 15132135
0.79156005 -0.4352124 -0.19460756 15132135
0.79259366 -0.42516604 -0.19503611 15329512
0.79467863 -0.41519785 -0.1951766 15790063
0.79504013 -0.40548587 -0.19546393 15724270
0.79380643 -0.61496276 -0.18484238 11711673
0.79373521 -0.60489422 -0.18496828 12040636
0.79420602 -0.59475493 -0.1851884 12303807
0.7950002 -0.58455247 -0.18507756 12106428
0.79558641 -0.55521113 -0.18531539 12633032
0.79484397 -0.54528755 -0.18529123 13225168
0.79425007 -0.53494531 -0.18509534 13422289
0.79438239 -0.52471167 -0.18484861 13619667
0.79463333 -0.47503656 -0.18512399 14013910
0.79381824 -0.46477714 -0.18490639 14474461
0.79415631 -0.45493889 -0.18507127 14342618
0.79367739 -0.44482535 -0.18475275 14277339
0.79397058 -0.43500248 -0.18496947 14474975
0.79508585 -0.42491469 -0.18530816 14606302
