# .PCD v0.7 - Point Cloud Data file format
VERSION 0.7
FIELDS x y z rgb
SIZE 4 4 4 4
TYPE F F F U
COUNT 1 1 1 1
WIDTH 631
HEIGHT 1
VIEWPOINT 0 0 0 1 0 0 0
POINTS 631
DATA ascii
0.79699999 -0.63545948 -0.41507328 11314609
0.79518753 -0.62545294 -0.4148156 11445941
0.79575008 -0.61522949 -0.41480702 12761541
0.79658824 -0.60525841 -0.41392139 13353934
0.79675001 -0.55533826 -0.4139984 11775926
0.79618752 -0.54469323 -0.41405594 11710391
0.796 -0.53501326 -0.41325957 11644341
0.79509091 -0.63538736 -0.40487242 11249073
0.79127276 -0.62450337 -0.40511969 12300994
0.78900003 -0.61481649 -0.40177193 14012120
0.79066664 -0.61488086 -0.4070026 13946326
0.78900003 -0.60558116 -0.40131015 13881048
0.79106671 -0.60469651 -0.40585077 14078168
0.78900003 -0.59819293 -0.40084833 13881048
0.79195654 -0.59503019 -0.40541705 14209754
0.7924782 -0.58485591 -0.40536276 14143960
0.79225004 -0.57468957 -0.40528592 14144217
0.79199994 -0.56506205 -0.40502515 14209753
0.79152387 -0.55492818 -0.40495691 14210266
0.78900003 -0.542781 -0.4008483 13355213
0.79087502 -0.54545879 -0.4050428 14341851
0.78880006 -0.53525776 -0.40167028 14275801
0.79075003 -0.53472733 -0.4063662 14407132
0.78860009 -0.52570546 -0.40138397 14670304
0.79157132 -0.52403027 -0.40639231 14012117
0.78900003 -0.51784563 -0.40084833 14999268
0.79231817 -0.51445484 -0.40557405 14078167
0.79319048 -0.5050748 -0.40563434 14210009
0.79347628 -0.49464086 -0.40445346 14868195
0.79508328 -0.48507097 -0.40487537 14735840
0.79604357 -0.47478199 -0.40524235 14341084
0.79664707 -0.46477419 -0.40462643 14538463
0.79666668 -0.45480365 -0.40288106 14341854
0.79582357 -0.63504052 -0.39499623 10788265
0.78900003 -0.62035769 -0.3962307 14012122
0.79105556 -0.62516546 -0.39448437 12103872
0.7886799 -0.61456758 -0.39514747 14143707
0.78899974 -0.60465759 -0.39530721 14012634
0.78899997 -0.59663004 -0.39488092 14012634
0.79000002 -0.59287447 -0.39541188 13946841
0.79000038 -0.5850805 -0.3948833 14012634
0.78900009 -0.57300568 -0.39547509 13618901
0.79000002 -0.57559019 -0.39425072 13815767
0.78900009 -0.56528163 -0.39597881 13881817
0.79000008 -0.56453604 -0.39395866 14013145
0.78899992 -0.55386341 -0.39623073 13881817
0.79000002 -0.55525887 -0.39326525 14013145
0.78879988 -0.54449058 -0.39520669 13881815
0.79000002 -0.54809242 -0.39025995 14211035
0.78784013 -0.53460658 -0.39472568 14078425
0.78708017 -0.52487707 -0.39434612 14407647
0.78793335 -0.51529974 -0.39477381 14736354
0.78883982 -0.50499767 -0.39448863 14736099
0.79000002 -0.50463146 -0.39950696 14736096
0.78899992 -0.4950833 -0.39389473 14999271
0.79000002 -0.49538442 -0.39858231 14867683
0.78900003 -0.48798478 -0.39284435 15262442
0.79014999 -0.48391724 -0.39495897 15130855
0.7905187 -0.47494066 -0.39442495 15196648
0.79082769 -0.46481186 -0.39431071 15262956
0.79160881 -0.45521909 -0.39419949 14736611
0.79273903 -0.44537875 -0.39435941 14933734
0.79280955 -0.43519115 -0.39447922 15460077
0.79240912 -0.42505378 -0.3940669 14933473
0.79304338 -0.41487756 -0.39467221 14671071
0.79361916 -0.40493512 -0.3949708 14408155
0.79304761 -0.39500827 -0.39442194 14671327
0.79190004 -0.38488153 -0.39398289 14671584
0.79140913 -0.374915 -0.39373791 14802913
0.79154551 -0.36478767 -0.39380625 14802657
0.79254174 -0.3545748 -0.39430323 15461101
0.79606253 -0.63546354 -0.38486883 10723498
0.79142863 -0.62518185 -0.38514274 12038079
0.78886181 -0.61458182 -0.38523954 14407392
0.79000002 -0.61929452 -0.38101292 14012636
0.78899974 -0.60465771 -0.38514832 14407390
0.78899974 -0.59469664 -0.38481838 14472926
0.78900003 -0.58757234 -0.38237771 14604511
0.79000002 -0.58390373 -0.38538429 14473183
0.79041404 -0.57444257 -0.38452914 14473439
0.79127294 -0.56488806 -0.38448629 14342109
0.79123342 -0.55512249 -0.38438347 14342109
0.78900003 -0.54241163 -0.38902712 14144730
0.7904585 -0.54594392 -0.38439384 14473440
0.78870821 -0.53458017 -0.38585147 14276060
0.79000002 -0.5385372 -0.38224587 14473183
0.78790003 -0.52542412 -0.38461044 14736355
0.78797227 -0.51532626 -0.38464653 14736612
0.78800005 -0.50519866 -0.38466015 14604770
0.78822231 -0.49519157 -0.38476962 14867430
0.78892833 -0.48574165 -0.38484997 15591151
0.79000002 -0.4812057 -0.38779411 15327979
0.78900003 -0.47776437 -0.382193 15328491
0.79000002 -0.47411627 -0.38553369 15262442
0.79016691 -0.46496668 -0.38479227 15525870
0.79106468 -0.45483091 -0.38421243 15131111
0.79152942 -0.44511309 -0.38474688 14802660
0.79107708 -0.43508905 -0.38502204 15263468
0.79053366 -0.42446816 -0.38497245 15592175
0.79100013 -0.41453472 -0.38519874 14999779
0.7909202 -0.40523538 -0.38515964 14605021
0.79032016 -0.39567786 -0.38486755 14407642
0.79000026 -0.38534489 -0.38471177 14671326
0.78900003 -0.37654531 -0.38699535 14605790
0.79000002 -0.37458912 -0.3838357 14737119
0.78900003 -0.36300018 -0.38545617 14736607
0.79000008 -0.36600655 -0.38439009 14736350
0.78899986 -0.35671368 -0.38441926 14933987
0.79000002 -0.35261047 -0.38471174 15724016
0.79505002 -0.34587139 -0.38535133 13421516
0.79561907 -0.63549852 -0.37511906 10920876
0.79121739 -0.62476093 -0.37491474 11972286
0.78900003 -0.61399555 -0.37745222 14604257
0.79000002 -0.61510897 -0.37400472 14604771
0.78900009 -0.60507739 -0.37784404 14670049
0.79000002 -0.60426813 -0.37384653 14801893
0.78900003 -0.59449881 -0.3786836 14735842
0.79000002 -0.59525228 -0.37454003 14736100
0.78900003 -0.58895761 -0.3786836 14472670
0.79000026 -0.58492112 -0.37533718 14670561
0.79100007 -0.5747081 -0.37501344 14802146
0.79279995 -0.56488186 -0.37493905 14736610
0.79315996 -0.55492765 -0.37510848 14539489
0.79193109 -0.54467046 -0.37529406 14539489
0.78900003 -0.5323143 -0.37806788 14670562
0.79042864 -0.53548211 -0.37443405 14407391
0.78883982 -0.52531248 -0.37491283 14933735
0.78828573 -0.51520193 -0.37484646 14933734
0.78800005 -0.50519872 -0.37451416 14473182
0.78800005 -0.49505273 -0.37451419 14801892
0.78820008 -0.48502913 -0.37460986 15591918
0.78899986 -0.47721028 -0.37498945 15657711
0.79000002 -0.47226685 -0.37546471 15526125
0.79088259 -0.46516839 -0.37523034 15526126
0.7917999 -0.45511538 -0.37477618 15262954
0.79180771 -0.44482964 -0.37432858 14999526
0.79117262 -0.4348723 -0.37493539 15394539
0.79111123 -0.42477801 -0.37506476 15789297
0.79189986 -0.41500622 -0.37543792 15526124
0.79135489 -0.40527895 -0.37503126 15263208
0.7913236 -0.39525223 -0.3751657 15328744
0.79181248 -0.38530165 -0.37539583 15197157
0.79157156 -0.37486047 -0.3754147 15131108
0.79055196 -0.36445981 -0.37495956 14999266
0.78900003 -0.35622764 -0.3786836 14933473
0.79053348 -0.35395634 -0.37510073 15131623
0.79610723 -0.34618211 -0.3752346 13158601
0.79296148 -0.62476021 -0.36508834 13024972
0.79067767 -0.61445171 -0.36575377 14802150
0.79070026 -0.60503483 -0.36561492 14802150
0.79088259 -0.5952633 -0.36548132 14736356
0.79048508 -0.58468187 -0.36559939 14736355
0.79140007 -0.57499969 -0.36532167 14802148
0.79277122 -0.56499386 -0.36485115 14802148
0.79299998 -0.5548842 -0.36534041 14670562
0.79183996 -0.54473591 -0.36521828 14604769
0.79010737 -0.53409678 -0.36501247 14604771
0.78899992 -0.52320212 -0.36686236 14933223
0.79000002 -0.52608454 -0.36325869 14933479
0.7889998 -0.51469034 -0.36583102 15065064
0.79000002 -0.51726907 -0.36128595 15327980
0.78878105 -0.50535369 -0.3644976 14538976
0.78803337 -0.49501228 -0.36524448 14801892
0.78803855 -0.48478824 -0.36509535 15460590
0.7889998 -0.47737819 -0.36541831 15789554
0.79000002 -0.47279528 -0.36436829 15986676
0.79050028 -0.46539304 -0.36494574 15657968
0.79096013 -0.4552502 -0.36481133 15395053
0.7905187 -0.44533163 -0.36481449 15131881
0.79096442 -0.435478 -0.36461475 15329002
0.79333317 -0.42518187 -0.36490256 15592430
0.79528582 -0.41539773 -0.36552474 15658223
0.79420006 -0.40505746 -0.36537281 15394537
0.79414278 -0.39493346 -0.36521441 15394794
0.79406464 -0.38472006 -0.36546117 15328744
0.79285711 -0.37487379 -0.36508939 15065573
0.79119241 -0.36448571 -0.3651323 14868451
0.79042453 -0.35445732 -0.36534882 14935272
0.7958948 -0.34466842 -0.36492711 12829893
0.7942667 -0.62450033 -0.3551794 14341346
0.79193324 -0.61524808 -0.35506299 14736614
0.79211092 -0.60518718 -0.35514241 14802150
0.7920332 -0.59493041 -0.35510796 14736357
0.79202765 -0.58472764 -0.35510525 14802149
0.7925666 -0.57492095 -0.35534573 14867685
0.79243994 -0.56555521 -0.35436317 14933734
0.79199988 -0.55504227 -0.35482049 14802148
0.7912001 -0.54429519 -0.3547343 14670820
0.79033363 -0.53444767 -0.35434464 14539235
0.79013824 -0.52449191 -0.35448095 14999528
0.7903533 -0.51476097 -0.35457098 14933990
0.78899992 -0.50272286 -0.35559523 14670562
0.79009998 -0.50709999 -0.35313123 14604769
0.78862065 -0.49439284 -0.3552638 14736612
0.78858614 -0.48539403 -0.35524824 15263212
0.78899997 -0.47841799 -0.35509798 15724019
0.79000002 -0.47362676 -0.35479489 15987190
0.79047084 -0.4649272 -0.35467875 15986677
0.79137516 -0.45514122 -0.35457975 15592175
0.79141188 -0.44504747 -0.35504541 15132137
0.792 -0.43465692 -0.3549591 15526381
0.79451609 -0.42495304 -0.35547107 15657710
0.79577291 -0.41491947 -0.35534656 15723502
0.79460001 -0.40526149 -0.3553305 15591403
0.79443341 -0.394945 -0.35525548 15591659
0.79404348 -0.38485482 -0.35524169 15394281
0.7915653 -0.37503189 -0.35477853 15196901
0.78900003 -0.3647241 -0.35208586 15065059
0.79033333 -0.36534107 -0.35699865 14868707
0.78899992 -0.35668939 -0.35340181 14737121
0.79008335 -0.35317147 -0.35639212 15395564
0.79464865 -0.3462466 -0.35509554 13159115
0.79459095 -0.62568611 -0.34509367 13419732
0.79207397 -0.61494511 -0.34513435 14802407
0.7925356 -0.6051802 -0.34493163 14867943
0.79211992 -0.59499574 -0.34494859 14736356
0.79216659 -0.58482975 -0.34496841 14802148
0.79300004 -0.57523555 -0.34533131 14736612
0.79275846 -0.56501353 -0.34509766 14868711
0.79280764 -0.55489463 -0.34538952 14868198
0.79211992 -0.54492795 -0.34494764 14933734
0.7912001 -0.53503388 -0.34454674 14999527
0.79109108 -0.52502513 -0.34500358 15131113
0.79120016 -0.51465976 -0.34454682 14999526
0.78900003 -0.50029856 -0.34913057 14670562
0.79028594 -0.50481498 -0.34474373 14539233
0.78899997 -0.49404696 -0.34742561 14802148
0.79000002 -0.4961935 -0.34286898 14671075
0.78900003 -0.48613772 -0.34759137 15131113
0.79000002 -0.48498154 -0.34367806 15197419
0.78900003 -0.47905731 -0.34697568 15592433
0.7900002 -0.47463 -0.34464136 15855606
0.79087895 -0.46541139 -0.34463096 15986677
0.79317641 -0.45504931 -0.34469494 15855090
0.79406065 -0.44509134 -0.34477624 15263208
0.79440612 -0.43526393 -0.34524289 15461100
0.79491675 -0.42496112 -0.34523508 15657965
0.79460007 -0.41456157 -0.34509802 15789294
0.79463333 -0.40527803 -0.34510994 15723245
0.79483342 -0.39514455 -0.34519741 15657709
0.79423088 -0.38519368 -0.3446514 15525866
0.78900003 -0.37153187 -0.34517258 15065315
0.79089475 -0.37628222 -0.34460968 15196901
0.78812003 -0.36505589 -0.34505108 14933986
0.78860861 -0.35637075 -0.34550583 15000294
0.79119998 -0.35166204 -0.34368059 15395820
0.79463166 -0.62517971 -0.33517209 14341088
0.79199988 -0.61530012 -0.33469835 14933735
0.79227018 -0.60513258 -0.33468598 14867941
0.79287857 -0.59477669 -0.3349826 14736355
0.79265612 -0.58461177 -0.33520606 14802148
0.79309362 -0.57495493 -0.33492804 14736612
0.79320574 -0.56489921 -0.33542544 14671333
0.79283315 -0.55469877 -0.33505121 14736870
0.79178566 -0.54489702 -0.33493918 14539749
0.79100013 -0.53489816 -0.33520156 14802661
0.79154545 -0.52482098 -0.33492708 14934503
0.79107708 -0.51472241 -0.33502096 15065832
0.78900003 -0.50103736 -0.33213758 14605541
0.79009998 -0.50543559 -0.33537537 14473955
0.78899986 -0.49405369 -0.33391425 14737126
0.79000002 -0.49760371 -0.3377369 14671334
0.78893083 -0.48547935 -0.33508939 15000297
0.78900003 -0.47905737 -0.33398464 15592432
0.79023099 -0.47361338 -0.33523104 15724274
0.79208815 -0.46402296 -0.33500797 16052982
0.79451615 -0.45465469 -0.33501187 16052725
0.79631269 -0.444406 -0.33471277 15395308
0.79500002 -0.42448896 -0.33503556 15395307
0.79522222 -0.41447082 -0.33492157 15723759
0.79575872 -0.38548896 -0.3345812 15460330
0.79313791 -0.37493694 -0.33501527 15065572
0.78887504 -0.36471272 -0.33914876 14933729
0.79119241 -0.36512566 -0.33399752 14867936
0.78900003 -0.35844412 -0.33915645 14671327
0.79226476 -0.35409421 -0.33502644 15132134
0.79543751 -0.62542093 -0.32497752 14802152
0.79293323 -0.61509722 -0.32488295 14999528
0.79343319 -0.60433859 -0.32508802 14802148
0.79484004 -0.59517789 -0.32566395 14670562
0.79323995 -0.58469594 -0.3250092 14736355
0.79273069 -0.57482553 -0.32494444 14802405
0.7931723 -0.56498802 -0.32485408 14605539
0.79247993 -0.55445254 -0.32469723 14802919
0.79177779 -0.54448676 -0.32482094 14539747
0.79119372 -0.53484958 -0.32494605 14934503
0.79178125 -0.52534592 -0.32504711 15131624
0.79144835 -0.51469386 -0.32503977 15131367
0.78900003 -0.50082624 -0.32591036 14736869
0.7902 -0.50614703 -0.32477999 14670817
0.78883982 -0.49465778 -0.32505265 14867940
0.78851992 -0.48522529 -0.32492051 15262953
0.78899997 -0.47841799 -0.32554498 15657968
0.79025006 -0.47315541 -0.32563457 15789810
0.79111123 -0.46466312 -0.32523569 15855860
0.79405558 -0.45454767 -0.32472345 16052981
0.79609108 -0.43499345 -0.32439849 15526894
0.79500002 -0.42500594 -0.32479945 15329515
0.79540628 -0.41463092 -0.32473156 15526893
0.79553854 -0.37536973 -0.32530496 15065829
0.79265374 -0.36515954 -0.32498279 14868193
0.79194129 -0.3548792 -0.32480305 15066342
0.7943126 -0.6244204 -0.31464076 14802407
0.79247987 -0.61567414 -0.31542236 14999527
0.79226661 -0.60530537 -0.31533724 14802403
0.79286188 -0.59478396 -0.31570351 14736609
0.79219222 -0.58413684 -0.31516507 14802148
0.79199988 -0.57451022 -0.31523043 14802148
0.79221421 -0.56479555 -0.31531614 14868198
0.79281807 -0.55519283 -0.31454381 14933991
0.79263318 -0.54528087 -0.3145532 14868455
0.79261094 -0.53505963 -0.3145442 14736869
0.79306436 -0.52497429 -0.31457475 15000042
0.79296541 -0.5156799 -0.31484568 15065833
0.79096442 -0.50505096 -0.31541172 14605793
0.78900009 -0.49341401 -0.31789836 14868708
0.79000002 -0.49616307 -0.3136557 14737379
0.7889998 -0.4859418 -0.31605136 15197674
0.79000002 -0.48329213 -0.31315401 15329260
0.78900003 -0.47998086 -0.31957754 15394539
0.79000026 -0.47504097 -0.31535909 15658224
0.79000038 -0.4650014 -0.315227 15724274
0.79297149 -0.45470503 -0.31482145 16053239
0.79463995 -0.44471848 -0.31442207 15790066
0.79476929 -0.43532956 -0.3143298 15724272
0.79500002 -0.42500594 -0.31456336 15329514
0.79520839 -0.37563133 -0.31449184 15066083
0.79260713 -0.36547837 -0.31487522 14802656
0.79239398 -0.3544938 -0.31465405 15000805
0.79450005 -0.62480044 -0.30471557 14999528
0.79248476 -0.61517066 -0.30496502 14933733
0.79209077 -0.60475087 -0.30531996 14867940
0.79179996 -0.59475541 -0.30495641 14736354
0.79199988 -0.58470756 -0.30503303 14933733
0.79261279 -0.5747745 -0.30511761 14867941
0.79291153 -0.56496233 -0.30538291 14933990
0.79300004 -0.55481493 -0.30448988 14999782
0.79300004 -0.54553282 -0.30448994 14999527
0.79299992 -0.53532237 -0.30448982 14999527
0.79318517 -0.52482134 -0.30476919 15131114
0.79307133 -0.51461673 -0.30431873 14868711
0.79183996 -0.50506616 -0.30515596 14605794
0.79033351 -0.49580008 -0.30490416 14803174
0.79000026 -0.48521271 -0.30518737 15395054
0.79007423 -0.47474262 -0.30480444 15461103
0.79042894 -0.4649885 -0.30455819 15658226
0.79166675 -0.45498112 -0.30448404 15855604
0.79321426 -0.44480798 -0.30444017 15921653
0.79474205 -0.43491796 -0.30461657 15724273
0.79517645 -0.42482629 -0.30461279 15329515
0.79546154 -0.39474118 -0.3052932 15526635
0.79540747 -0.38498291 -0.30500057 15460841
0.79460013 -0.37549874 -0.3051036 15197156
0.79277772 -0.36515179 -0.30481607 14868448
0.79342496 -0.35464254 -0.30506879 14606305
0.79468 -0.6250487 -0.29419637 14144220
0.793697 -0.6152668 -0.29478979 14933991
0.79275995 -0.60475641 -0.29511818 14736868
0.79199988 -0.59490514 -0.29483545 14736868
0.79206651 -0.58475649 -0.29485998 14868198
0.79316652 -0.57442701 -0.29526979 14868198
0.79400009 -0.56480849 -0.29465058 14933991
0.79435498 -0.5555827 -0.29463077 14867941
0.7939679 -0.54571944 -0.294548 14802148
0.79312122 -0.5352636 -0.29468948 15065320
0.79288 -0.52503288 -0.2951625 15262698
0.79299992 -0.5149017 -0.29520783 14934246
0.792 -0.50498343 -0.29483593 14540001
0.79021454 -0.49532145 -0.29476553 14868966
0.79008371 -0.48526347 -0.29504645 15395053
0.790667 -0.47488043 -0.29489851 15526896
0.79161543 -0.46510619 -0.29483348 15526895
0.79186654 -0.45484474 -0.29478511 15658224
0.793697 -0.44449016 -0.29495937 15855860
0.79525721 -0.39522234 -0.29524878 15723758
0.79541939 -0.37450442 -0.29526624 15263207
0.79331821 -0.3650161 -0.29524127 14802913
0.79428953 -0.35474417 -0.29500115 14672612
0.79577279 -0.63550764 -0.2853162 10920622
0.79365391 -0.6249463 -0.28430435 14407392
0.79355556 -0.61506343 -0.28406322 15196905
0.79303324 -0.60496408 -0.28500941 14802661
0.79223323 -0.59508121 -0.28472173 14671332
0.79202765 -0.584728 -0.28464785 14802918
0.79296756 -0.57503206 -0.28483576 14934504
0.79403329 -0.56575876 -0.28474811 14934504
0.79500002 -0.55561596 -0.2849851 15000297
0.79370826 -0.54509163 -0.28432396 14736612
0.79390341 -0.53506124 -0.28433305 14934247
0.79390621 -0.5247829 -0.2852056 15329005
0.79321855 -0.5144639 -0.28530797 14934503
0.79140913 -0.50477511 -0.28484651 14605794
0.79000014 -0.4953844 -0.28484389 15000551
0.79026699 -0.48537526 -0.28493971 15592687
0.79118198 -0.47457224 -0.28476402 15592688
0.79238689 -0.46516642 -0.28462663 15724274
0.79199988 -0.45478925 -0.28477037 15855604
0.79318738 -0.44486612 -0.28477502 15790067
0.79471427 -0.4348841 -0.28475261 15790065
0.79518181 -0.37484378 -0.28485215 15262951
0.79250002 -0.36507604 -0.28489622 14934244
0.79426312 -0.35487536 -0.2849116 14870248
0.79622728 -0.63493901 -0.27573454 10854570
0.79280955 -0.62450331 -0.27454546 14999527
0.79207695 -0.61514592 -0.27461186 15065577
0.79210341 -0.6050216 -0.27434933 14868198
0.79199988 -0.59490508 -0.27444059 14802405
0.79203326 -0.58473212 -0.27445191 14802405
0.7931667 -0.57442653 -0.27484527 14933990
0.79471999 -0.56532013 -0.27538386 15000295
0.79500002 -0.5559994 -0.27548006 15000038
0.79341674 -0.5456655 -0.27493146 14737123
0.7931 -0.53538936 -0.27482212 14736869
0.79365379 -0.52533102 -0.27515766 15197676
0.79299998 -0.51507354 -0.27485579 14934503
0.79157692 -0.5045706 -0.27429321 14605793
0.79093766 -0.49504587 -0.27499565 14934758
0.79121882 -0.48538259 -0.27532613 15526893
0.7919091 -0.47551367 -0.27491403 15658222
0.79269218 -0.46531147 -0.27482438 15790065
0.79199988 -0.45476183 -0.2743127 15921394
0.79272002 -0.44512737 -0.27468991 15921651
0.79356676 -0.43538469 -0.27498239 15921651
0.79571891 -0.42515397 -0.27537984 15460843
0.79460871 -0.37510046 -0.27534419 15262950
0.79146427 -0.36455479 -0.27484968 15065572
0.79429746 -0.35493979 -0.27498296 15067111
0.79218179 -0.62421077 -0.26548448 14473697
0.79100013 -0.61452329 -0.26483527 15131113
0.79156667 -0.60476995 -0.26502481 14999527
0.79211992 -0.5949955 -0.26521003 14933734
0.79216653 -0.58482975 -0.26522586 14868198
0.79251993 -0.57488614 -0.26534444 14802404
0.79356664 -0.56542808 -0.2656956 15065575
0.79419237 -0.55564886 -0.26569059 15131367
0.79338461 -0.54572612 -0.26541942 14999781
0.79306245 -0.53513223 -0.26517731 15000038
0.79378122 -0.52528042 -0.26460269 15197675
0.79307401 -0.51560313 -0.26511672 15000295
0.79199988 -0.50482219 -0.26529798 14737122
0.79199988 -0.49478444 -0.26517013 14803172
0.79195994 -0.48548961 -0.26515651 15329515
0.79130012 -0.47489703 -0.26493666 15592686
0.79140007 -0.46476609 -0.26497072 15724272
0.79170001 -0.45474824 -0.26506999 15855858
0.79309666 -0.44443953 -0.26481715 15987187
0.79422593 -0.43529812 -0.26537439 15987444
0.79453129 -0.42475376 -0.26508808 15461100
0.79481828 -0.37467229 -0.26518235 15131363
0.79239988 -0.36518413 -0.265304 14999777
0.7945677 -0.35496345 -0.26522428 15197669
0.7923333 -0.62390774 -0.25507867 14934249
0.79126674 -0.61473054 -0.25473538 15262699
0.79186106 -0.60499585 -0.25492734 15065320
0.7925666 -0.59533018 -0.25515544 14933734
0.79222208 -0.58487052 -0.25504389 15000041
0.79311746 -0.57466424 -0.25511301 14868455
0.79359394 -0.56486768 -0.25571626 14737124
0.79324126 -0.55498439 -0.25521165 14868196
0.79299992 -0.54559684 -0.25513452 14999781
0.79402626 -0.53552306 -0.25518304 15131367
0.79542321 -0.525069 -0.25528499 15460588
0.79428571 -0.51460946 -0.2553744 14934758
0.7924332 -0.50433159 -0.25511107 14671843
0.79189992 -0.4947224 -0.25494093 14737379
0.79166675 -0.48531002 -0.25486663 14868965
0.79120594 -0.47511259 -0.25449771 15197930
0.79112524 -0.46495119 -0.25492027 15592688
0.79202783 -0.45493597 -0.25497994 15790066
0.79427278 -0.44532165 -0.25528002 15921394
0.79446161 -0.43480605 -0.25504872 15987186
0.7938751 -0.42463452 -0.25499487 15461099
0.79396158 -0.37505662 -0.2548897 15131363
0.79176658 -0.36489198 -0.25489897 14933727
0.79405123 -0.35492417 -0.25498819 15000545
0.79249996 -0.62403899 -0.24492934 14999785
0.79195994 -0.61526895 -0.24476264 15197162
0.79263312 -0.6055851 -0.24497029 14999527
0.79296541 -0.5948624 -0.24494538 14933991
0.79280758 -0.58458954 -0.24516681 15065831
0.79300004 -0.57523561 -0.2450842 15066088
0.79306656 -0.56507248 -0.24510513 14934759
0.79295999 -0.5547871 -0.24507202 14933989
0.79300004 -0.54553282 -0.24508414 14933733
0.79461545 -0.53519404 -0.24501079 15065575
0.79516006 -0.52468091 -0.24575277 15460589
0.79412001 -0.51470095 -0.24543191 15263466
0.79271996 -0.50451434 -0.24499723 15000293
0.79180002 -0.49466047 -0.2447124 14934244
0.79146165 -0.4849695 -0.24446465 14868450
0.79237926 -0.47538331 -0.245019 14934244
0.79262072 -0.46471524 -0.24483781 15526381
0.79339987 -0.45423728 -0.24545544 15789810
0.79476923 -0.44463247 -0.2454887 15987444
0.79493338 -0.43520582 -0.2447509 15855857
0.79508328 -0.42505011 -0.24479553 15526892
0.7954517 -0.41482404 -0.24500196 15395306
0.79427582 -0.37547556 -0.24470715 15197156
0.79196 -0.36498109 -0.24476142 14868448
0.79418927 -0.35469061 -0.24489614 14869218
0.79321736 -0.62472576 -0.23513927 14934250
0.79248369 -0.61459762 -0.23546928 15131627
0.79320586 -0.60443914 -0.23471583 14934503
0.79374993 -0.59470958 -0.23532701 14802917
0.79309982 -0.58459181 -0.2349031 14868452
0.79257685 -0.57478553 -0.23546317 15131624
0.7929998 -0.56502527 -0.23487385 15197417
0.7926206 -0.55461431 -0.2349207 15197160
0.79359996 -0.54514676 -0.2349178 15000037
0.79477435 -0.53540927 -0.23518904 15197416
0.79348141 -0.52467483 -0.2349142 15460846
0.79296547 -0.51548755 -0.23527984 15329260
0.79207134 -0.50469661 -0.23532762 15197671
0.79207993 -0.49483407 -0.23552819 15197671
0.79275739 -0.48496535 -0.23522288 15065828
0.79299998 -0.47513133 -0.23558789 15131365
0.79299992 -0.46477821 -0.23580208 15395051
0.79299992 -0.45456779 -0.23487386 15658479
0.79324245 -0.44491443 -0.23519987 15790066
0.79475766 -0.43476757 -0.23429549 15724272
0.79544008 -0.41500068 -0.23466499 15329514
0.79503852 -0.40526888 -0.23469037 15526891
0.79503858 -0.37556261 -0.23476242 15262949
0.79323322 -0.36556801 -0.23494242 14802656
0.79521048 -0.35578895 -0.23518258 14803939
0.79266673 -0.62403828 -0.22483519 14933992
0.79187083 -0.61501974 -0.22536109 15131625
0.79283315 -0.60536659 -0.22461723 14934502
0.79313797 -0.59467149 -0.22457519 14868966
0.79260004 -0.58422369 -0.22455108 14671587
0.79210335 -0.57471263 -0.22517663 14671586
0.7931999 -0.56516743 -0.22471933 14802916
0.7926538 -0.55450261 -0.22477913 15000295
0.79296297 -0.5450936 -0.22486086 15000294
0.79266667 -0.5349263 -0.22450267 15263466
0.79199994 -0.52466351 -0.22423969 15591918
0.79283863 -0.51482618 -0.22485714 15197673
0.79259366 -0.50478113 -0.2257057 15131880
0.79213321 -0.49486813 -0.22534448 15197673
0.79199988 -0.48551407 -0.22497617 15065829
0.79176468 -0.47495791 -0.22496851 15131621
0.79193324 -0.46507972 -0.22528861 15395051
0.79261273 -0.45542175 -0.22473334 15592686
0.79382759 -0.44497964 -0.22476836 15724272
0.79490006 -0.4346267 -0.22544922 15724272
0.79467994 -0.3755365 -0.22513875 15394536
0.79326916 -0.36536992 -0.22488259 14802657
0.79606259 -0.63511389 -0.21469909 10263205
0.79273075 -0.62529212 -0.21509402 14933735
0.7922141 -0.61486912 -0.21496841 15131113
0.79299992 -0.60525793 -0.21518856 14934502
0.79303211 -0.59484226 -0.21521026 14934758
0.79300004 -0.58451772 -0.21538134 15000551
0.79348558 -0.57479018 -0.21444981 14803172
0.79419369 -0.56512648 -0.21492501 14605793
0.79267997 -0.55459231 -0.21529476 14671586
0.79175997 -0.54468042 -0.21504533 14802659
0.79052019 -0.53457457 -0.21470863 15131366
0.79083353 -0.52460068 -0.21479289 15526124
0.79309666 -0.51481205 -0.21522738 15197417
0.79493755 -0.50557548 -0.21497753 15132135
0.7932083 -0.49538577 -0.21528234 14736864
0.7916801 -0.48531938 -0.21502401 14736864
0.79113346 -0.47479627 -0.2148755 15066085
0.79148 -0.46481252 -0.21496889 15461100
0.79289991 -0.45543659 -0.21535425 15592685
0.79491186 -0.44520792 -0.21524425 15724272
0.79543334 -0.43547851 -0.21511155 15855856
0.7948612 -0.42493191 -0.21495655 15790065
0.79524004 -0.37505618 -0.21524502 15197156
0.79307997 -0.36549759 -0.21540354 14671069
0.79241377 -0.62477189 -0.20486009 14736612
0.79183877 -0.61445546 -0.20544069 14868710
0.79314703 -0.60510319 -0.20477363 14868965
0.79309356 -0.59427667 -0.20496333 15000551
0.79299992 -0.58451772 -0.20517102 15132138
0.7934826 -0.57481635 -0.20449644 15000808
0.79353821 -0.56469572 -0.20423976 15000808
0.79229987 -0.55432618 -0.2049907 14671842
0.79133344 -0.54438722 -0.20473941 14737122
0.79090017 -0.53483081 -0.20462708 14934243
0.79161108 -0.52511716 -0.20481123 15263208
0.79267639 -0.51496357 -0.2049783 15263465
0.79303843 -0.50492942 -0.20425418 15461100
0.79248261 -0.49495897 -0.20487842 14934756
0.79057157 -0.4848384 -0.20487311 14605277
0.7901938 -0.47461978 -0.20489193 14671584
0.79125011 -0.46502423 -0.20471832 15263721
0.79244435 -0.45517528 -0.20502774 15329514
0.79327589 -0.44524726 -0.20489118 15592686
0.7939285 -0.43525168 -0.20428558 15658478
0.79476672 -0.42488053 -0.20469862 15790064
0.79540008 -0.38518596 -0.20486288 15723755
0.79451996 -0.37546214 -0.20463587 15394791
0.79249996 -0.62437779 -0.19475125 14145245
0.79111123 -0.61481392 -0.19490632 14277086
0.79226661 -0.60530502 -0.19478062 14474464
0.79303324 -0.59475291 -0.19496869 14474207
0.79320002 -0.58466512 -0.19500887 14671587
0.79319245 -0.57516074 -0.19486424 14737380
0.79288 -0.5654974 -0.19493076 14935015
0.7921378 -0.55497909 -0.19487597 15000808
0.79215986 -0.54495484 -0.19475313 14869221
0.79209989 -0.53471464 -0.1947381 14869221
0.79242301 -0.52451521 -0.19467467 15197927
0.79307145 -0.51494825 -0.19497786 15000293
0.79226917 -0.50444037 -0.19492263 15461100
0.79261529 -0.4949539 -0.19472143 15066342
0.79210716 -0.48485184 -0.19506867 14671070
0.79174179 -0.47477266 -0.19536556 14539485
0.79253548 -0.46483698 -0.19464637 14868963
0.79292589 -0.45493636 -0.19514741 14803169
0.79304004 -0.44530833 -0.19497032 15132134
0.79270369 -0.43542877 -0.1950947 15197928
0.79309982 -0.42510173 -0.19498675 15395050
0.79527593 -0.41529682 -0.19545837 15789804
0.7954585 -0.40554324 -0.19541191 15790060
0.79430008 -0.39488018 -0.19528201 15263719
0.79391998 -0.38446891 -0.19518881 15526891
0.79448408 -0.61494696 -0.18517929 11711930
0.79454553 -0.60504353 -0.18513177 12106430
0.7956208 -0.55516797 -0.1858353 13093327
0.79558629 -0.5347873 -0.18550685 13554132
0.79565638 -0.52535701 -0.18559811 13816789
0.79493344 -0.5152269 -0.18520007 13750995
0.79537845 -0.50504363 -0.18497191 14408668
0.79500008 -0.4751057 -0.18524082 14079703
0.7947942 -0.4648971 -0.18516253 14408925
0.79564714 -0.45487872 -0.1855824 14277083
0.79543346 -0.4447273 -0.18500137 14342876
0.79553127 -0.43518049 -0.18521625 14671583
