# .PCD v0.7 - Point Cloud Data file format
VERSION 0.7
FIELDS x y z rgb
SIZE 4 4 4 4
TYPE F F F U
COUNT 1 1 1 1
WIDTH 866
HEIGHT 1
VIEWPOINT 0 0 0 1 0 0 0
POINTS 866
DATA ascii
0.79288 -0.14452316 0.11504498 15723491
0.79199988 -0.1350923 0.11491589 15789283
0.79140007 -0.12479983 0.11482847 15657954
0.79244006 -0.11475874 0.11497861 15855333
0.79277754 -0.15471035 0.12523831 15328733
0.79236662 -0.14443071 0.12517191 15262939
0.7911002 -0.13493872 0.12497251 15328732
0.79071903 -0.12527101 0.12514517 15328475
0.79105902 -0.1152122 0.12474984 15328732
0.79330307 -0.10492092 0.1248982 15460061
0.7935161 -0.094663464 0.12550177 15262168
0.79189992 -0.085021459 0.12509812 15459805
0.79238868 -0.07486926 0.12517528 16052456
0.79180002 -0.16471443 0.13527934 15920871
0.79303324 -0.15476111 0.13548923 15657699
0.79247993 -0.14445096 0.13539587 15460320
0.7922799 -0.13513876 0.13536213 15591392
0.79243314 -0.12496328 0.1353883 15525599
0.79207987 -0.11470867 0.1353268 15591134
0.79281473 -0.10532794 0.13503806 15394012
0.79203337 -0.095234886 0.13531643 15130583
0.78900003 -0.081015207 0.13849412 16051685
0.7906251 -0.085038789 0.13492186 15591132
0.78900003 -0.076397553 0.13849412 16249064
0.79065412 -0.074421637 0.1345112 16314857
0.79132009 -0.064579867 0.13519421 16380907
0.79315138 -0.024895478 0.13500233 14539474
0.79256666 -0.01458712 0.13447832 14408146
0.78900003 -0.0015914912 0.13849412 14408145
0.79148138 -0.0056468914 0.13446461 14802904
0.78900003 0.0056120553 0.1377553 14737110
0.79089993 0.0045150844 0.1336416 15132639
0.78900003 0.014416389 0.13818629 15066332
0.79110008 0.015443606 0.13385954 14803417
0.78900003 0.022420332 0.13849412 15001052
0.79215634 0.025407685 0.1341165 13093057
0.79293555 0.035347268 0.13438667 12369078
0.79311991 -0.17427538 0.14478788 15854823
0.79244006 -0.16484784 0.14466394 15920615
0.79319996 -0.15479289 0.14480251 15723235
0.79365504 -0.12499692 0.14475742 15788772
0.79157144 -0.11443832 0.14509891 15656929
0.79050022 -0.10522719 0.14523217 15064792
0.78884608 -0.092790209 0.14755818 15196378
0.79021752 -0.096181259 0.14369383 14933205
0.78824133 -0.084501393 0.1449762 15657185
0.79000002 -0.088515505 0.14051905 15460318
0.78826672 -0.075403325 0.14482202 16183528
0.78886342 -0.066982336 0.14602454 16446443
0.79007143 -0.062761448 0.14343795 16380906
0.79137939 -0.055447862 0.1452342 15854819
0.79237503 -0.024556741 0.14499716 14407632
0.79053366 -0.014550167 0.1452391 13947081
0.78900003 -0.0031307107 0.14665197 14210511
0.79000002 -0.0067307423 0.14401238 14210766
0.78899974 0.0048732297 0.14495888 14210512
0.78826672 0.015017718 0.14482307 14078926
0.78813893 0.025163271 0.14479947 14210768
0.7881071 0.035111867 0.14512193 14342610
0.79000002 0.038168684 0.14051905 14869723
0.78803849 0.044743612 0.14584436 14803161
0.79000002 0.044641599 0.14051905 15330020
0.7880435 0.054877829 0.14650595 14934748
0.79049999 0.054848004 0.14153267 14013904
0.78809094 0.065079875 0.14621539 14671833
0.79025 0.064311199 0.14125703 12303286
0.78847808 0.074170098 0.14658736 14211537
0.79038459 0.076688819 0.14215252 11711404
0.78900003 0.08214204 0.14896081 15395553
0.79162955 0.085849509 0.14499217 12303284
0.79350001 -0.17435817 0.15507254 15920616
0.79299992 -0.16496514 0.15497588 15854823
0.79308313 -0.15477063 0.15499175 15723493
0.79248577 -0.12510543 0.15473947 15591906
0.78900003 -0.11272311 0.15819612 15327964
0.79050004 -0.11540597 0.15423332 15525343
0.78899992 -0.10415783 0.15620421 14801620
0.79000002 -0.10700954 0.15300253 15064792
0.78818512 -0.094943322 0.15488841 14998998
0.79000002 -0.099611931 0.15161547 14670034
0.78558052 -0.084581003 0.1553338 15656929
0.78665388 -0.075388327 0.15486766 16052456
0.78863323 -0.065283217 0.15504551 16446957
0.79042333 -0.055112187 0.15518278 16117736
0.79180551 -0.045156926 0.15473969 15262942
0.79180014 -0.034962419 0.15473816 14802136
0.79114717 -0.024965512 0.15488522 14341584
0.79020011 -0.014543767 0.15535414 14209996
0.78899992 -0.0037848789 0.1546559 14539219
0.79000002 -0.0079636779 0.15613624 14671060
0.78899974 0.0048732297 0.15511769 14341842
0.78859991 0.015023521 0.15504 13947340
0.78803337 0.025159558 0.15492813 13486789
0.78723997 0.035270449 0.15477259 13486789
0.78680015 0.045381505 0.15468477 13881547
0.78629631 0.055680297 0.15499312 14276305
0.78529018 0.064774863 0.15545294 14473684
0.78608567 0.074917778 0.15532991 14671319
0.78804165 0.084964216 0.15508045 15066076
0.79000002 0.0890273 0.15161547 15657958
0.78880006 0.091477491 0.1572939 14078925
0.79104179 0.095473416 0.15412791 12171700
0.79268968 -0.17494722 0.16524854 15920617
0.79283994 -0.16493168 0.16515291 15789032
0.7931 -0.15477304 0.16520776 15591652
0.79363984 -0.14466158 0.16532065 15657700
0.79212004 -0.135114 0.16500248 15591906
0.78900003 -0.12165061 0.1671236 15525599
0.79040915 -0.12607443 0.16439356 15525856
0.78871411 -0.11501329 0.16534778 15262427
0.79000002 -0.11995538 0.16086249 15525343
0.78813338 -0.10491205 0.16509427 14670034
0.78679997 -0.095527664 0.16481404 14868183
0.78431249 -0.085356675 0.16486613 15460064
0.78575855 -0.075034872 0.16475397 16118250
0.78805566 -0.06523516 0.16507728 16446702
0.78866661 -0.055269666 0.16571817 16380652
0.79000002 -0.053993296 0.16086249 16249066
0.78899992 -0.04678297 0.16767772 15854308
0.79004997 -0.043947421 0.16346182 15459807
0.79084015 -0.034919221 0.16473581 14999258
0.79103351 -0.024743343 0.16477664 14473170
0.79056025 -0.014551049 0.16467775 14210511
0.78900003 -0.0015914912 0.16065887 14473684
0.79000014 -0.0054464345 0.16471539 14539476
0.78899986 0.0061046053 0.1637373 14605269
0.79000002 0.003822604 0.1661465 14605269
0.78899974 0.015159462 0.1652447 14407634
0.79000002 0.011352321 0.16641071 14736343
0.78894418 0.025188891 0.1652652 13749961
0.78846419 0.035391401 0.1648363 13552583
0.78744441 0.045416698 0.1649527 13684168
0.78532135 0.055208527 0.16483392 13815754
0.7825315 0.065513819 0.16517836 13881548
0.78278589 0.075193562 0.16547573 14013134
0.78666669 0.084971808 0.16478752 14473685
0.78883332 0.091819942 0.1644728 15329250
0.79078579 0.09665408 0.16498999 11776686
0.79186666 -0.185122 0.17514382 15394274
0.79182851 -0.17504737 0.17500424 15789031
0.7934801 -0.16506296 0.17457563 15789031
0.7928077 -0.13508996 0.1746414 15656929
0.78900003 -0.12165061 0.17358832 15327964
0.79053867 -0.12615998 0.17513773 15459550
0.78863329 -0.11513386 0.17535426 14999256
0.78772008 -0.10485778 0.1751501 14538963
0.78403449 -0.095066793 0.17508599 14867928
0.77900004 -0.085459366 0.17799895 15262942
0.78150004 -0.084558092 0.17356877 15394527
0.78362077 -0.07508263 0.17499615 16052457
0.78670001 -0.065122306 0.17492257 16381422
0.78788012 -0.055077557 0.17518589 16249838
0.78879982 -0.044984978 0.17539074 15788773
0.79000002 -0.040430997 0.17010953 15656929
0.7905336 -0.034904938 0.17485091 15196378
0.79119462 -0.024748258 0.17499761 14604755
0.79043359 -0.014548716 0.17482875 14144975
0.78900003 -0.0015914912 0.17912951 14078926
0.79000026 -0.005419862 0.17457359 14276305
0.78900003 0.0068522259 0.17411606 14276048
0.7900002 0.0040916973 0.17517826 14276048
0.78900003 0.013976612 0.17253284 14539219
0.79000002 0.015462107 0.17678793 14210511
0.78900003 0.021496799 0.17174126 14407378
0.79017884 0.025493633 0.17596212 14144719
0.79029644 0.035338659 0.17531341 13749961
0.78877765 0.045700382 0.17487352 13815754
0.79000002 0.041735388 0.17697874 13749961
0.7869001 0.054593898 0.17496997 13947340
0.78286672 0.065311953 0.17468493 13881547
0.78273922 0.075464152 0.17476268 13881549
0.78737497 0.084895335 0.17492151 14408149
0.79000002 0.0890273 0.17935653 15263200
0.79151851 0.094691575 0.17489831 12105907
0.79040015 -0.18477936 0.18499802 15591909
0.79145169 -0.1746808 0.18506438 15723494
0.79334474 -0.13545287 0.18491744 15460065
0.78900003 -0.12165061 0.18744129 14933721
0.79030436 -0.12587468 0.18473428 15262685
0.78868735 -0.11491089 0.1849432 14802133
0.78663343 -0.10471591 0.18503624 14473169
0.7786364 -0.091716796 0.18539284 15196635
0.7818889 -0.096558228 0.18463045 14867927
0.77853322 -0.085407384 0.18495353 15394014
0.78000003 -0.080091082 0.18256418 15526113
0.77900004 -0.079988405 0.18780108 15525857
0.78211129 -0.074811153 0.18488683 15855079
0.78522217 -0.064999394 0.18470357 16381423
0.78703332 -0.055017121 0.18513075 16380911
0.78844112 -0.045181148 0.18519066 15920104
0.78900003 -0.036275238 0.18692823 15328223
0.79018754 -0.034081217 0.18367645 15393503
0.79083353 -0.024736466 0.18509801 14473427
0.78900003 -0.011442495 0.18774913 15000028
0.7901364 -0.014962697 0.18451585 14802649
0.78900003 -0.0071326811 0.18774913 15197407
0.79000002 -0.0050401255 0.18448447 14605270
0.79003364 0.0048798076 0.18491274 14144719
0.79060018 0.01506303 0.18504637 13881547
0.79033357 0.025233181 0.18498285 14078926
0.78900003 0.037566248 0.18762599 14210512
0.79014999 0.034845889 0.18419954 14013133
0.78899986 0.045323916 0.18522482 13947340
0.79000002 0.041682549 0.18268546 13947340
0.78825003 0.054920517 0.1848415 14078926
0.78686208 0.064599216 0.18525401 13947341
0.78713334 0.074885063 0.18485142 13749962
0.78857136 0.083592661 0.18351628 14211025
0.79045451 0.087397031 0.18635763 13882060
0.79274076 0.09511248 0.18513492 11448233
0.78900003 -0.18313143 0.19786401 15921127
0.79004365 -0.18509693 0.19416226 15789543
0.79088587 -0.17483813 0.195162 15855079
0.79328001 -0.16502115 0.19495685 15591650
0.79240006 -0.13516232 0.1947415 15525601
0.78900003 -0.12257413 0.19482954 14999257
0.79011112 -0.12737115 0.19510445 15130843
0.78867632 -0.11535734 0.19502079 14604756
0.78600001 -0.10463256 0.19500837 14605012
0.77828568 -0.092539504 0.19517732 14999771
0.78146166 -0.097410902 0.19458525 14933977
0.77716011 -0.085257225 0.19463418 15328479
0.77876937 -0.078281328 0.19573879 15592164
0.78080952 -0.073471084 0.19406736 15855081
0.78320014 -0.064961985 0.19509718 16315631
0.78643996 -0.054974742 0.19511712 16381168
0.78809381 -0.044714727 0.19518177 15920617
0.78873318 -0.034826465 0.19476268 15196892
0.7889998 -0.025398085 0.1959583 14736599
0.79000002 -0.022553422 0.19168587 14276305
0.78899974 -0.014323035 0.19515941 14605270
0.79000002 -0.017313443 0.19045296 14144719
0.78899997 -0.0071326811 0.19362186 14539477
0.79000002 -0.0038780663 0.19600117 14671063
0.79064733 0.0046670656 0.19496498 14473684
0.79118532 0.015279634 0.19485493 14013133
0.79058367 0.025239814 0.19522084 13815754
0.78899992 0.03742772 0.19436777 14078926
0.79000002 0.033016767 0.19560491 13881804
0.78899974 0.04458509 0.19482951 14078926
0.78897035 0.054524429 0.19509399 14078926
0.78883982 0.064889811 0.19571415 14210512
0.78899986 0.073830262 0.19339293 13881547
0.79018754 0.077025115 0.19731958 14079182
0.79232007 0.085582636 0.19472504 13158594
0.7923215 -0.19450672 0.20492209 13288898
0.78900003 -0.18237279 0.20291044 15920873
0.79000002 -0.18566361 0.20622727 15789030
0.79074216 -0.17452458 0.20526166 15855078
0.79285711 -0.16513298 0.20473085 15591906
0.79335719 -0.13512859 0.20485981 15394527
0.78900003 -0.1230359 0.20545018 14736598
0.79023081 -0.12767527 0.2048808 14999769
0.78822583 -0.11492616 0.20496529 14473169
0.78490001 -0.10448571 0.20483875 14802134
0.77873695 -0.092915237 0.20529647 15131100
0.78081822 -0.097623967 0.20518751 15065307
0.77713358 -0.085255131 0.20463419 15197149
0.77785718 -0.075447395 0.20495191 15592165
0.78000003 -0.07096111 0.20082413 15723751
0.7786364 -0.06685967 0.20776363 16052716
0.78156 -0.063634999 0.20415135 16250095
0.78516674 -0.054884844 0.20490898 16381168
0.78768581 -0.045052849 0.20543538 15986410
0.78823996 -0.034804601 0.20479061 15328479
0.78886646 -0.024674835 0.20495376 14736599
0.7889998 -0.014520932 0.20498841 14473684
0.79036021 -0.0052934182 0.20534191 14802649
0.79175001 0.0051224893 0.205355 14736856
0.79117864 0.014874347 0.20495811 14276305
0.79053366 0.02523824 0.20538636 13815754
0.78899992 0.036950562 0.20572725 14013133
0.79000002 0.032990355 0.20413856 13947340
0.78887975 0.044577748 0.20495693 14144719
0.78823334 0.054690395 0.20478825 14144719
0.78887975 0.064893477 0.20495689 14276305
0.78900003 0.070443973 0.20498839 14144976
0.79024017 0.076105624 0.2053107 14276563
0.79161543 -0.19447443 0.21471889 14341843
0.79004019 -0.18469368 0.21450628 15789285
0.79173338 -0.17489298 0.21496724 15789285
0.78900003 -0.1315016 0.21914922 14736341
0.79188466 -0.13543223 0.21443266 15131101
0.7889998 -0.12484745 0.21564451 14407633
0.79000002 -0.12874004 0.21218345 14736343
0.78757143 -0.1151128 0.21488783 14539218
0.77900004 -0.10077806 0.21625009 15262941
0.78250003 -0.10492828 0.21459429 14933976
0.77730024 -0.094433807 0.21553232 15065307
0.77606684 -0.085137859 0.21525224 15131101
0.77586132 -0.075125173 0.21519595 15460322
0.77675867 -0.065334685 0.21528707 15921130
0.78033334 -0.060030788 0.21186979 16250095
0.77866673 -0.058686808 0.21749419 16184302
0.78200012 -0.054325189 0.21462552 16315888
0.78479999 -0.044832863 0.21538824 16183789
0.78740013 -0.034766663 0.21470933 15328737
0.78849995 -0.024662647 0.21501049 15000284
0.78899974 -0.014648319 0.21530646 14671062
0.79000002 -0.01084053 0.21079642 13486789
0.78899986 -0.0057716873 0.21704289 14342098
0.79009092 -0.0044518616 0.21216568 13947340
0.78900003 0.0048732301 0.21884137 14473684
0.7904585 0.004882188 0.21369328 14407891
0.78900003 0.011337951 0.2197649 14671063
0.79012018 0.015052947 0.21452731 14539477
0.79000026 0.025222851 0.2144952 14013133
0.78900003 0.036991607 0.21196617 14078926
0.79000002 0.034469876 0.21576667 14013133
0.7889998 0.044940289 0.21450783 14210512
0.79000002 0.040942788 0.21819402 14276305
0.7883333 0.054696444 0.21496613 14078926
0.7883333 0.064848885 0.21496457 14144720
0.78899992 0.07206016 0.215609 14145490
0.79029417 0.077525429 0.21424867 14211284
0.79136676 -0.19426893 0.22505601 15460578
0.79103357 -0.18492483 0.22496229 15789542
0.79270953 -0.17525856 0.22468999 15789285
0.79230005 -0.14442077 0.22531724 15328735
0.78884196 -0.13348438 0.22545478 14670804
0.79000002 -0.13762747 0.22333127 14999770
0.7879231 -0.12503283 0.2252093 14209998
0.78540003 -0.11558383 0.22519185 14670804
0.77768433 -0.10400138 0.2258099 15065562
0.78141671 -0.10828701 0.22374754 14802391
0.77578133 -0.09532354 0.22482173 15262942
0.77475989 -0.084994689 0.22486626 15196893
0.77449995 -0.074993424 0.2247903 15328735
0.77534604 -0.064950876 0.2248261 15855336
0.77760726 -0.056242399 0.22549696 16250095
0.78062505 -0.052057479 0.22314219 16381681
0.77900004 -0.048074469 0.2297451 16250095
0.78243768 -0.044390786 0.22491752 16315631
0.78606898 -0.034832884 0.22522914 15591652
0.78863323 -0.024666715 0.22520126 14605783
0.78887975 -0.014519287 0.22527152 14868699
0.78832 -0.0052805929 0.22511128 14211282
0.78899974 0.0048732301 0.22530609 14211282
0.78900003 0.013369721 0.22364374 14408148
0.79000002 0.016121836 0.22529964 14342611
0.79072261 0.025246235 0.22487357 14144976
0.79090017 0.035434499 0.22492337 14144719
0.78900003 0.048279215 0.22530608 14342098
0.79000008 0.04359629 0.22486794 14342098
0.78826654 0.054691032 0.22509594 14210256
0.78752005 0.064781606 0.22488233 14013133
0.78852624 0.073025964 0.22536498 14276562
0.79042858 0.078502551 0.22426042 12500665
0.7911787 -0.19481766 0.23538658 15460322
0.79144007 -0.18501967 0.23526609 15723748
0.79340625 -0.17537802 0.23463224 15723748
0.79293334 -0.15536265 0.23447147 15460320
0.78900003 -0.14144056 0.23665233 14736597
0.7906087 -0.14604156 0.23437504 15131355
0.78790009 -0.13439436 0.23513509 14473425
0.78562063 -0.12493679 0.23461138 14210253
0.77900004 -0.11159839 0.2361279 14933976
0.78217399 -0.11574499 0.23458032 14736597
0.77650005 -0.1049891 0.23504393 15131355
0.77463883 -0.094956435 0.23480527 15197148
0.77400011 -0.08491084 0.23461236 15065562
0.77355576 -0.07490249 0.23447627 15262942
0.77386677 -0.06496729 0.23457076 15723494
0.77527785 -0.055101916 0.23499686 16184045
0.77751851 -0.045655683 0.23577592 16249839
0.78114283 -0.04206622 0.23142152 16184303
0.77900004 -0.039868034 0.23795155 16184302
0.78396672 -0.03503729 0.23512122 15921130
0.78805715 -0.024780452 0.23505121 14934235
0.7889998 -0.014520932 0.23454142 14539990
0.78883988 -0.0052842647 0.23449448 14342868
0.78899992 0.0027952844 0.23350245 14079696
0.79000002 0.007257212 0.23602758 14013903
0.7904802 0.015061116 0.23498237 14145232
0.79100019 0.025254777 0.2351359 14144719
0.79064018 0.03542231 0.23502807 14210511
0.78900003 0.047971368 0.23515709 14473940
0.79000002 0.043570891 0.23464404 14276560
0.78805882 0.054894075 0.2349132 14210512
0.78756684 0.064785428 0.23503874 13947854
0.78864288 0.072127044 0.23417203 14145490
0.79086673 0.077647425 0.23509693 11447978
0.79330438 -0.20500092 0.24486098 11184037
0.78900003 -0.19345519 0.24770172 15658213
0.79019254 -0.19561593 0.24385999 15592163
0.78900003 -0.18814488 0.2485791 15658213
0.79037058 -0.18449609 0.24467897 15723750
0.79285717 -0.1555935 0.2451648 15460063
0.78852624 -0.14372951 0.24508634 14538705
0.79025 -0.14836021 0.24385409 15130842
0.78577423 -0.13539872 0.24514982 14538448
0.78261769 -0.12497794 0.24476601 14406605
0.77900004 -0.1109905 0.24342251 15131355
0.78131813 -0.11581244 0.24497756 15065305
0.77674079 -0.10541865 0.24504063 14933976
0.77473325 -0.094967835 0.24481054 14868183
0.77392316 -0.08476337 0.24476242 14933976
0.77297246 -0.074846111 0.24515766 15131099
0.77273357 -0.064872764 0.24508069 15328991
0.77347237 -0.054975044 0.24531513 16052714
0.77477771 -0.045091268 0.24482125 16184302
0.77718186 -0.037043229 0.24558163 16184302
0.78256249 -0.032720778 0.24361666 16052716
0.78706068 -0.024696909 0.24518397 15460579
0.78899974 -0.014520935 0.24470033 14736856
0.78899974 -0.0054130009 0.2446048 14671833
0.79000002 -0.0015935082 0.24778448 14606040
0.79002815 0.004879741 0.2450189 14276818
0.79060024 0.015063264 0.2451953 14013903
0.79055583 0.025239287 0.24518153 13882060
0.78900003 0.036991607 0.24767607 14144975
0.79000002 0.034690045 0.24373345 14079183
0.7889998 0.045028381 0.24547605 14276305
0.79000002 0.042422313 0.24112663 14276305
0.78843743 0.054472849 0.2451022 14144976
0.78836 0.064851359 0.24542502 13948112
0.78900003 0.071059667 0.24377672 14342870
0.79115796 0.075512983 0.24532083 11447977
0.79171431 -0.20547648 0.25513873 11644333
0.78899986 -0.19470192 0.25522846 15592163
0.79000002 -0.19910988 0.25370258 15131614
0.7889998 -0.18622392 0.25515458 15657699
0.79000002 -0.1813556 0.25370258 15723492
0.79100007 -0.17473152 0.25457597 15592162
0.79248393 -0.1650366 0.25520006 15460320
0.78887504 -0.15233406 0.25643432 15196891
0.79110008 -0.15660802 0.25405294 15459807
0.78682756 -0.14513767 0.25491661 14341581
0.78310716 -0.13534622 0.2549828 14209995
0.77900004 -0.12266189 0.25819409 14736342
0.78090012 -0.12546019 0.25419122 14538705
0.77813345 -0.11414742 0.25778365 15262942
0.78077781 -0.1152053 0.25281146 15197149
0.77636683 -0.10516573 0.25531894 15131355
0.77444446 -0.094932444 0.25468853 14802391
0.77362078 -0.084995165 0.25457418 14736598
0.77266693 -0.07481759 0.25500974 14736342
0.77184612 -0.064660192 0.2549468 14933978
0.77208823 -0.055088826 0.25545445 15592165
0.77341396 -0.044887695 0.25450593 16118509
0.77585709 -0.03529156 0.2550225 16118509
0.78000003 -0.030789241 0.25012597 16250095
0.77900004 -0.028926114 0.2570999 16184302
0.78434384 -0.024411269 0.2544964 15789544
0.78824127 -0.015077454 0.25531137 14802649
0.78875977 -0.0052841036 0.25478059 14736856
0.78892291 0.0043759192 0.25533128 14473684
0.79000002 0.0081158634 0.25194564 14342098
0.78900003 0.014570312 0.25716794 14276305
0.79000002 0.015477915 0.25304815 14210512
0.78899986 0.026026504 0.25600249 14013133
0.79000002 0.023270704 0.25251073 13947597
0.7889998 0.035349771 0.25485909 14144719
0.7889998 0.044585094 0.25485909 14144975
0.78843325 0.054704115 0.25467736 13948110
0.78872216 0.063752338 0.25425684 13882060
0.79014289 0.067903668 0.25654992 14145232
0.79237503 0.074460402 0.25502256 11250598
0.78900003 -0.2010743 0.26963562 14868444
0.79111552 -0.20524973 0.26501566 12631483
0.78899974 -0.1952693 0.2652818 15592163
0.79000002 -0.19947976 0.26165503 15526371
0.78899974 -0.18550621 0.26488605 15592162
0.79000002 -0.18098572 0.26997736 15460320
0.78900003 -0.17890956 0.26317087 15394527
0.7900002 -0.17486843 0.26563838 15526113
0.78900003 -0.16320953 0.2687121 15262941
0.79000026 -0.16579415 0.26429707 15460320
0.78871411 -0.15457894 0.26518553 15065307
0.79000002 -0.15879287 0.26165503 15328480
0.78617859 -0.14508013 0.26518473 14143948
0.77900004 -0.13105069 0.26895365 14539218
0.78222233 -0.13559669 0.26473966 13946825
0.77774078 -0.1250418 0.26531354 14736597
0.78033334 -0.12883955 0.26180217 14473425
0.77535146 -0.1149863 0.26482019 15328991
0.77376676 -0.10481158 0.26533359 15394527
0.77308363 -0.09476462 0.26510066 15065562
0.7729668 -0.084797345 0.26506096 14802391
0.77249992 -0.074801177 0.26490027 14539219
0.77144825 -0.06489031 0.2646946 14539219
0.77065629 -0.05455038 0.26483086 14999771
0.77163333 -0.044908449 0.26460114 15921130
0.77421629 -0.034966223 0.26531494 16118509
0.77742857 -0.026179941 0.26585126 15986925
0.78200001 -0.023045359 0.26308024 16052460
0.77900004 -0.019807851 0.26986548 15921130
0.78524339 -0.015339926 0.26481733 15394787
0.7876001 -0.005276863 0.26454636 14802906
0.78691661 0.0048606554 0.26431465 14539733
0.78820008 0.015018006 0.26474676 14276561
0.78886092 0.025186911 0.26497057 13947853
0.78899974 0.035349775 0.26501796 14144976
0.78899974 0.04458509 0.26501796 14078926
0.78899974 0.054743942 0.26501796 13947853
0.78900003 0.062132191 0.26501796 13750988
0.79029417 0.066751219 0.26518032 13290181
0.79331034 -0.21511266 0.27520397 10394777
0.78900003 -0.20160206 0.27596837 15394272
0.79057151 -0.20649928 0.27466592 12368053
0.7889998 -0.19553314 0.27517676 15526113
0.78899997 -0.18814489 0.27451712 15460320
0.79000002 -0.18318187 0.2761035 15460320
0.79000014 -0.1754375 0.27552551 15526113
0.7889998 -0.16397914 0.27533069 15328734
0.79000002 -0.16958106 0.27490911 15526113
0.78803849 -0.15456976 0.27505314 14736341
0.77900004 -0.14138471 0.2765522 13880264
0.78356004 -0.14539683 0.2743026 14012363
0.77712512 -0.13477196 0.27552286 13880521
0.78025001 -0.13582829 0.27029851 13815240
0.7760334 -0.12510274 0.2751942 14868183
0.7744242 -0.11511985 0.27503684 15329247
0.77304006 -0.10471239 0.2750394 15460320
0.77250004 -0.094694205 0.27484694 15460320
0.77199996 -0.08469142 0.27466959 15460320
0.77193326 -0.07474532 0.27464572 15197148
0.77117234 -0.064618185 0.27512226 14868183
0.76900005 -0.051357869 0.27780277 14868442
0.7701003 -0.055398036 0.27423373 14736854
0.76900005 -0.048357464 0.27810282 14802649
0.7702145 -0.044569135 0.27467826 15197664
0.77241945 -0.03515362 0.27499288 15986923
0.77456671 -0.025132921 0.27467403 15986923
0.77721059 -0.017461868 0.27632922 15855592
0.78257149 -0.013090758 0.27389053 15658213
0.78641385 -0.0053935777 0.27503452 14934748
0.78573322 0.0048517273 0.27403849 14539990
0.78652 0.014988107 0.27431178 14276816
0.78839993 0.025173405 0.27496773 14079437
0.7889998 0.035349775 0.27517682 14144975
0.78883982 0.044575483 0.27512041 14144975
0.78876644 0.054728568 0.27509469 14013133
0.78900003 0.062029574 0.27497157 13816012
0.79082352 0.066796705 0.27559537 11645614
0.78900003 -0.21030964 0.28995332 11051167
0.79181492 -0.2149774 0.28501305 10131093
0.78866655 -0.20434056 0.28565848 15065307
0.79000002 -0.20811029 0.28169024 11578283
0.78839993 -0.19538429 0.28511703 15394527
0.78861099 -0.18528265 0.28519341 15526113
0.78888869 -0.17519061 0.28580791 15525858
0.79000002 -0.17543751 0.28107378 15460320
0.78899974 -0.16505659 0.28533566 15525857
0.78799999 -0.1548316 0.28513291 14341838
0.77900004 -0.14062487 0.28627837 13815494
0.78280008 -0.14562146 0.28529087 14078666
0.77655184 -0.13496663 0.28481388 13815240
0.77468956 -0.12476072 0.28544343 14670036
0.77347088 -0.11499707 0.28493735 15460576
0.77203131 -0.10491553 0.28484428 15526369
0.76900005 -0.091563299 0.2898044 15789285
0.77115619 -0.095091969 0.28406984 15591906
0.76869237 -0.085159793 0.2885806 15591906
0.77085185 -0.085167028 0.28334856 15460320
0.76900005 -0.077761434 0.28860423 15460320
0.77103037 -0.074301675 0.28389391 15526113
0.76900005 -0.062759407 0.2898044 15196893
0.77076924 -0.064848647 0.28484842 15197150
0.76900035 -0.053758185 0.28576934 15328993
0.77000004 -0.058463313 0.28374344 15197407
0.76900005 -0.048357464 0.28440365 15789801
0.77013659 -0.044330865 0.28506964 15329506
0.77228576 -0.03487267 0.28484339 15526629
0.7737335 -0.025106814 0.28524834 15526372
0.77621204 -0.015216246 0.28503114 15658213
0.78000003 -0.010703308 0.28299385 15658212
0.78441381 -0.0053114807 0.28497195 15395041
0.78772235 0.0048654033 0.28487492 14802649
0.78783351 0.015010473 0.28491527 14407889
0.78886086 0.025187172 0.28528595 14144973
0.78899974 0.035349775 0.28533566 14276559
0.78889978 0.0445792 0.28530011 14276303
0.78863877 0.054719958 0.28520611 14144719
0.78900003 0.061516505 0.28441212 14473427
0.79121059 0.066159889 0.28520861 11250342
0.78900003 -0.21123318 0.2954945 11643562
0.79116672 -0.21613689 0.29486454 9999250
0.78733331 -0.20413338 0.29527804 15328478
0.78637928 -0.19501056 0.29527315 15328734
0.78700006 -0.18505195 0.29492223 15262941
0.78756005 -0.17489517 0.29495391 15460063
0.78813344 -0.16487473 0.29516932 15722722
0.78738463 -0.15444121 0.29510161 14472911
0.77900004 -0.14016895 0.29539663 13289151
0.78290915 -0.1454588 0.29504371 13486273
0.77617848 -0.13401894 0.29490989 13420738
0.77348149 -0.12469239 0.29511303 14209999
0.77140009 -0.11532651 0.29522035 14867928
0.77041686 -0.10526007 0.29484615 15328734
0.76888233 -0.093879022 0.29537162 15526113
0.77000004 -0.09739054 0.29348597 15526113
0.76708585 -0.084923379 0.29523876 15526113
0.7663334 -0.075100251 0.29507372 15328734
0.77000004 -0.071853936 0.29018125 15131355
0.76507139 -0.06512627 0.29547754 15131098
0.77000004 -0.065845333 0.29018125 15131355
0.76550001 -0.054878641 0.29535985 15394272
0.76661783 -0.045249432 0.29560232 15394529
0.77000004 -0.043913886 0.29018125 15394786
0.76724005 -0.035241678 0.296969 15526886
0.77082366 -0.03424646 0.29229504 15592678
0.76800001 -0.02851766 0.2993148 15724523
0.77227587 -0.024933871 0.29539937 15592679
0.77537143 -0.015043715 0.29505593 15526372
0.77875006 -0.0088630877 0.29621249 15723751
0.78355998 -0.0046561477 0.29484862 15526628
0.787871 0.0047192262 0.29524884 15000027
0.78855985 0.015023883 0.29532826 14539221
0.78849995 0.025174845 0.29530582 14079183
0.78883982 0.035343073 0.29543397 14144976
0.7889998 0.04458509 0.29549453 14210512
0.78900009 0.051805425 0.29415116 14079183
0.79010528 0.056524646 0.29668751 14079441
0.79086232 0.064993717 0.29510692 10790048
0.78900003 -0.21083736 0.30393821 13092032
0.79183334 -0.2160113 0.30561823 9671311
0.78737044 -0.20441592 0.30519345 15328735
0.78676933 -0.19483757 0.30549842 15328735
0.78771442 -0.18494029 0.30528837 15328991
0.78773344 -0.17493382 0.30516386 15394784
0.78800005 -0.16484739 0.30526584 15789028
0.78686213 -0.15460828 0.30498353 15131098
0.77900004 -0.14016895 0.30269122 13091772
0.78234786 -0.14491586 0.3050265 13683652
0.7766155 -0.13435975 0.30484155 13091517
0.7732501 -0.12465482 0.30498224 13881034
0.76900005 -0.11136596 0.30870694 14407635
0.77050012 -0.11534256 0.30465034 14407378
0.76849997 -0.10448454 0.30812019 14802391
0.77000022 -0.10552948 0.30345479 14999514
0.7674334 -0.094492659 0.30549705 15328734
0.77000004 -0.098291837 0.3015976 15460320
0.76460528 -0.08482597 0.30514583 15328221
0.76183319 -0.074808478 0.30508268 15394014
0.76074994 -0.064757921 0.30539343 15130585
0.76063335 -0.054953966 0.30534652 15526113
0.76143891 -0.045098349 0.30490753 15263454
0.76328945 -0.034781348 0.3049525 15592677
0.76730448 -0.025677215 0.30572018 15263971
0.77028573 -0.02241957 0.30291134 15329764
0.77305567 -0.015128653 0.30490342 15329763
0.77667999 -0.0059274887 0.30556807 15461092
0.78233337 -0.003001383 0.30235684 15526372
0.77866673 0.00086010917 0.30924532 15657958
0.78497511 0.0050809206 0.30500475 15065821
0.78683317 0.014991109 0.30480999 14473941
0.78708339 0.025129696 0.30490771 14145232
0.78743345 0.035280123 0.30504417 14145233
0.78823334 0.044542626 0.30535445 13948111
0.78891677 0.051352356 0.30592844 13882319
0.79021055 0.056726996 0.30470991 13158596
0.79165387 0.065193839 0.30554101 10658718
0.79231995 0.074450999 0.30527145 10724510
0.79299998 -0.21501623 0.31501606 10724256
0.78864288 -0.20401707 0.31355962 14210515
0.79025 -0.20624959 0.31746897 10986659
0.78862494 -0.19528608 0.31550947 13421511
0.79000002 -0.19485624 0.31991127 10592925
0.78893334 -0.18615863 0.31369245 14737113
0.79009998 -0.18470743 0.31754726 14145490
0.78890002 -0.175193 0.31300202 15329248
0.79039997 -0.17552586 0.3172982 14869214
0.78888881 -0.1645208 0.31402379 15789284
0.79000002 -0.16549696 0.31829301 15591653
0.78791666 -0.15453297 0.31522667 15525343
0.79000002 -0.15879287 0.31991127 15197409
0.78450006 -0.14483584 0.31493148 14407632
0.77711779 -0.13298388 0.31437451 12499639
0.78085715 -0.13815308 0.31516609 12827832
0.77403843 -0.12492198 0.31505111 13223362
0.76900005 -0.11136596 0.31500778 13815497
0.77136368 -0.11606107 0.31466269 13947340
0.76582372 -0.10505796 0.31475583 14209998
0.76191884 -0.095157415 0.31456059 15131356
0.75900006 -0.082080729 0.31920335 14670293
0.76064283 -0.085481033 0.31425303 14999770
0.75899994 -0.074825332 0.31824094 15262684
0.76015007 -0.075739823 0.31351754 15131355
0.759 -0.064608537 0.31713045 14868439
0.76000017 -0.064693667 0.31221068 14999768
0.75876188 -0.054734141 0.31681848 15657445
0.76000011 -0.055105895 0.31211185 15526371
0.75899994 -0.046062849 0.31801879 15131614
0.76006263 -0.044347711 0.31412664 15394785
0.76132339 -0.034295738 0.31479681 15658215
0.76537508 -0.024887223 0.31514081 15197921
0.76833344 -0.018936934 0.31803083 15132385
0.77159375 -0.014592267 0.31477067 15263971
0.77448273 -0.0050614653 0.31468859 15329506
0.77696157 0.003543054 0.31574857 15263456
0.78081822 0.0077314107 0.31303439 15000284
0.7833873 0.014809373 0.31468651 14605269
0.78499991 0.025063211 0.31512988 14276305
0.78553563 0.034998834 0.31501547 14276305
0.78732008 0.044492312 0.31513953 14013648
0.78881252 0.052076876 0.31435227 13882576
0.79056257 0.057282697 0.31539688 11776943
0.79313642 -0.20491447 0.32489794 10724512
0.79120845 -0.19461453 0.32526514 10658464
0.79266673 -0.18454893 0.32504979 10987685
0.79220843 -0.16487978 0.32505801 12105398
0.78892314 -0.15275176 0.32458991 12368569
0.79058337 -0.15752266 0.3261635 11907763
0.78708339 -0.14538886 0.32479563 12236724
0.77833337 -0.13154642 0.32126096 12368311
0.78347373 -0.13624643 0.32538065 11973554
0.7763077 -0.12416968 0.32345471 12960447
0.78120005 -0.12739846 0.32768664 12762812
0.76900005 -0.11136596 0.32040852 13683655
0.77361906 -0.11565959 0.32483688 13749705
0.7663334 -0.10455368 0.32348454 13420227
0.77100003 -0.10675818 0.32768828 13552070
0.76187509 -0.094507776 0.32390901 14605271
0.759 -0.082732238 0.32406002 14868183
0.7602942 -0.086653143 0.325158 14999770
0.75900012 -0.075269543 0.32512608 14999512
0.75833333 -0.064553186 0.32484016 15131099
0.75733334 -0.054715771 0.32529721 15328480
0.75808811 -0.045216255 0.32536003 15329250
0.75900006 -0.037956052 0.32623664 15329763
0.76048154 -0.033578251 0.32411161 15131871
0.76221865 -0.02484194 0.32521886 15066077
0.76669568 -0.016916201 0.325064 15066078
0.77058339 -0.011776008 0.32482556 15066591
0.7735002 -0.0051797521 0.32499889 15066335
0.77689284 0.0043485994 0.32467037 15132126
0.78066665 0.0093906457 0.3270978 15000796
0.78319252 0.01485453 0.32505295 14671317
0.78539997 0.025076376 0.32540435 14342096
0.7862401 0.035227422 0.32501656 14210512
0.78800005 0.044376809 0.32448265 14013391
0.79000002 0.048340406 0.32915828 13816526
0.78900003 0.050126277 0.32227689 13881549
0.7920357 0.055291299 0.32550353 11974066
0.78900003 -0.1512036 0.3305887 10066325
0.7916522 -0.15542158 0.3354075 10527131
0.7887646 -0.14496763 0.33320612 10131604
0.79011112 -0.14627904 0.33763096 10263702
0.7877059 -0.13501133 0.33362794 9473933
0.79000002 -0.13475062 0.33840528 9737360
0.77900004 -0.12010878 0.33004603 12960447
0.78635293 -0.12503339 0.33533168 9473676
0.77720004 -0.11328341 0.33183089 12434105
0.7841 -0.11594198 0.33698103 9210249
0.77500004 -0.10482907 0.33364511 13025730
0.7816667 -0.10649566 0.33910409 8749444
0.76775002 -0.094112486 0.33156994 14341588
0.77327275 -0.096024103 0.33617869 13025473
0.76381254 -0.084579669 0.33456591 13683654
0.77100003 -0.089094043 0.33838859 12564662
0.75884616 -0.074366584 0.33161974 14735827
0.76100004 -0.075646803 0.33655486 13552327
0.7584666 -0.064268634 0.33383524 14736342
0.76000005 -0.064990193 0.3391948 12039088
0.75708002 -0.05469808 0.33493897 14999514
0.75703233 -0.044859253 0.33445954 15657959
0.76000005 -0.040674817 0.33978787 15855337
0.75854176 -0.035416383 0.333956 15592679
0.76000005 -0.035782088 0.3375639 15724007
0.75900006 -0.029368022 0.33519483 15395042
0.76110715 -0.02501313 0.33461851 15263456
0.76643485 -0.01667455 0.33486027 15065822
0.77059996 -0.011295353 0.33532614 14868443
0.77315396 -0.0053162305 0.33501756 14934235
0.77667743 0.0040686484 0.33515975 15197407
0.78039998 0.0093874391 0.33429164 15197405
0.78334492 0.014991174 0.33517188 14868440
0.78519446 0.025070559 0.33542472 14539731
0.78676671 0.035252284 0.33535954 14342097
0.78854162 0.043637317 0.33501169 14013133
0.79000002 0.048340406 0.33470649 14013390
0.79272008 -0.12534128 0.34551364 9803152
0.78828579 -0.11495118 0.34215266 9408142
0.79241663 -0.1152228 0.34732679 9802639
0.78649998 -0.10469566 0.34408897 9078149
0.79075003 -0.10572526 0.34844473 9671053
0.77600002 -0.092763834 0.34149092 9011842
0.7841112 -0.09601856 0.34648988 9209992
0.76800001 -0.081556931 0.34156668 8816005
0.7743333 -0.085100353 0.34559408 9079175
0.78200006 -0.089449823 0.34962383 9013637
0.76642865 -0.074343927 0.34317568 10197143
0.77212507 -0.075218178 0.3481465 9276557
0.76407689 -0.065108679 0.343541 12302776
0.77000004 -0.068248771 0.34786391 8947591
0.76240003 -0.055083007 0.34354043 12894655
0.77000004 -0.052926805 0.34966651 9013384
0.76375008 -0.045340031 0.34414938 12630972
0.76288891 -0.033686463 0.34227154 15460580
0.77000004 -0.034900967 0.34786391 14144468
0.76492864 -0.024564508 0.34365934 15395043
0.77000004 -0.028591925 0.34786391 15723240
0.76718181 -0.016565112 0.34267166 14803163
0.77093339 -0.013103758 0.34576005 15197665
0.77369237 -0.0052506882 0.34465665 15461093
0.77609384 0.0050233374 0.34482512 15328993
0.77777284 0.014239306 0.34624198 15000028
0.78125 0.016256651 0.34212342 14802392
0.77842861 0.023813324 0.34802607 14802649
0.78169227 0.02523943 0.34343037 14671063
0.78296667 0.035083447 0.34473515 14407892
0.78761911 0.04345616 0.34502214 14079184
0.79000002 0.048340406 0.3448782 13816525
0.78766674 -0.093480386 0.35246441 9605774
0.79130775 -0.095789179 0.3560659 9803152
0.77700001 -0.081602007 0.3510263 9671567
0.78500009 -0.085048132 0.35571504 9737617
0.77625 -0.074254088 0.35273352 9671571
0.78333336 -0.0767681 0.35755515 9671571
0.77480006 -0.064321801 0.35311908 9408656
0.78225005 -0.066589698 0.3588919 10066582
0.77512515 -0.055319272 0.35404107 9276812
0.77477783 -0.045294579 0.35324988 10000534
0.78260005 -0.04371316 0.35905248 9606031
0.77483344 -0.035121605 0.35277009 11578542
0.78240001 -0.03454861 0.35896072 9144454
0.77507699 -0.02473156 0.35351098 11381931
0.78100002 -0.028087385 0.35831842 8487297
0.77541178 -0.015444255 0.35383615 13355464
0.78100002 -0.01071703 0.35831839 10855588
0.77636361 -0.0052007516 0.35255802 15527144
0.78257143 -0.0044573075 0.35851699 13289930
0.77728575 0.0053219204 0.35245642 15198178
0.78170007 0.0040934132 0.35790849 15132388
0.77735019 0.014809653 0.35391521 14934749
0.78000003 0.015773606 0.35968563 14671833
0.77828586 0.024460789 0.35342935 14803163
0.7808333 0.026760275 0.35793722 14671834
0.77900004 0.031254437 0.35010621 14934235
0.78260881 0.035225462 0.35459697 14605528
0.78731823 0.043571845 0.35476542 14013391
0.79000002 0.048340406 0.35504991 10592672
0.78900003 -0.085632861 0.36014169 9737617
0.79190481 -0.085199013 0.36588436 10132375
0.78762501 -0.07465335 0.36205029 10066582
0.79164279 -0.075327858 0.36743888 10132375
0.787 -0.065152727 0.36291358 10066582
0.79200006 -0.064637169 0.36800244 10132375
0.78600001 -0.054946601 0.36245242 9803410
0.79159999 -0.05533855 0.36781636 10066582
0.78783345 -0.044928405 0.36329785 9737617
0.79183334 -0.045159068 0.36792409 9803666
0.78800005 -0.03400388 0.36390242 9277069
0.791125 -0.035627447 0.36782601 9541008
0.78675002 -0.024610279 0.36402866 9145481
0.7902 -0.025643189 0.3680889 9343373
0.78635722 -0.015259544 0.36406738 8882309
0.79000002 -0.011765231 0.36799577 9408652
0.78750002 -0.0052746325 0.36406693 9408144
0.79000002 -0.0052923164 0.36799577 9211018
0.78677267 0.005190568 0.36532411 10197402
0.79000002 0.001180598 0.36984515 9540238
0.78487504 0.014725239 0.36538321 10131096
0.78569567 0.025287719 0.36519673 12368827
0.7874347 0.035520565 0.36528197 13882321
0.78864706 0.043480009 0.36443397 12566463
0.79000002 0.046901982 0.3665573 10527649
0.78900003 0.0085673565 0.37122408 9409167
0.79204553 0.0045527522 0.37569287 9474959
0.78857148 0.014233316 0.37155017 9277070
0.79200006 0.015517821 0.37663147 9409165
0.78900003 0.022420332 0.37122408 8750471
0.79236853 0.025345843 0.37574196 9145226
0.79250002 0.035413176 0.37565854 10198171
0.79233342 0.044950254 0.37535843 10659233
