# .PCD v0.7 - Point Cloud Data file format
VERSION 0.7
FIELDS x y z rgb
SIZE 4 4 4 4
TYPE F F F U
COUNT 1 1 1 1
WIDTH 875
HEIGHT 1
VIEWPOINT 0 0 0 1 0 0 0
POINTS 875
DATA ascii
0.79156005 -0.15540165 0.1148513 15526112
0.79070014 -0.14505109 0.11472662 15657698
0.79044014 -0.13482565 0.11468945 15723490
0.790286 -0.12495375 0.11460186 15723490
0.7918148 -0.11507913 0.1149578 15855332
0.79292852 -0.17403445 0.12493074 15657700
0.79196662 -0.16475067 0.12511034 15789029
0.79100019 -0.15529172 0.12495825 15328734
0.78900003 -0.14307652 0.1211317 15262940
0.79007715 -0.14557664 0.12616321 15197148
0.78900003 -0.13827416 0.12279408 15328734
0.79032171 -0.13454065 0.12498329 15328477
0.79136121 -0.12479179 0.12501742 15328219
0.79239982 -0.11475403 0.12518035 15328475
0.79283845 -0.10535829 0.12509635 15459804
0.79165733 -0.095057055 0.12518984 15327961
0.79030025 -0.084849454 0.12484507 15459548
0.7906391 -0.074703924 0.12489735 16249064
0.79216677 -0.064647742 0.12513658 15854306
0.79219991 -0.16479969 0.13534671 15854822
0.79191995 -0.15547128 0.13529925 15723492
0.792 -0.14528866 0.13531467 15394527
0.79259992 -0.13519317 0.13541766 15460319
0.79349995 -0.12513071 0.13557056 15460062
0.79291999 -0.11483078 0.13546963 15656928
0.79140007 -0.105348 0.13520902 15393755
0.78900003 -0.091481894 0.13726275 15196376
0.79008347 -0.095846586 0.13436835 15064790
0.7889998 -0.084468417 0.13512121 15591135
0.79000002 -0.087590799 0.13127203 15262169
0.78899986 -0.0760573 0.13548049 16183271
0.79000002 -0.07210204 0.1324279 16380907
0.78900003 -0.069932826 0.13757059 16446443
0.79032016 -0.064498059 0.13502507 16380650
0.79340738 -0.035242889 0.13513935 14670803
0.79106683 -0.024745988 0.13515288 14408145
0.79040009 -0.014546698 0.13503781 14342353
0.78900003 -0.0034385545 0.13849412 14473684
0.79082614 -0.0053774454 0.13438457 14671831
0.78900003 0.0048732301 0.13849412 14342098
0.79233348 0.0048950673 0.13350813 14803418
0.78900003 0.015032077 0.13849412 14803162
0.7931602 0.015111428 0.13364549 14277075
0.78900003 0.020573268 0.13849412 15066591
0.79267991 -0.1649 0.14470813 15855078
0.79229987 -0.1546171 0.14463814 15723492
0.79335999 -0.14460868 0.14483172 15723492
0.79346681 -0.12512611 0.14484937 15657699
0.79230762 -0.11460043 0.14485191 15657185
0.79053366 -0.10523272 0.14523979 15064792
0.7889998 -0.093534194 0.14519827 14998998
0.79000002 -0.09899547 0.14442335 14735827
0.78859985 -0.084666774 0.14488381 15591649
0.78859991 -0.07543537 0.14488383 16117992
0.78895223 -0.067377903 0.14578539 16380907
0.79006666 -0.062505692 0.14398313 16315114
0.79217851 -0.05557384 0.14520879 15854819
0.79203707 -0.034768716 0.14499994 14605011
0.79055589 -0.024730124 0.14524464 14341839
0.78900003 -0.011852954 0.14629282 13881547
0.79000002 -0.015684208 0.14457013 13947595
0.78899974 -0.0052856174 0.14495884 14144719
0.78899974 0.0048732292 0.14495884 14210512
0.78849989 0.01502185 0.14486571 14013390
0.78824997 0.025166882 0.1448198 14144976
0.7883333 0.035319906 0.1448348 14408148
0.78823078 0.044399902 0.14552595 14737369
0.79000002 0.045566298 0.14051905 15461093
0.78859085 0.054128543 0.14689668 14868955
0.79057139 0.055779178 0.14207396 14276818
0.78860009 0.064870343 0.14857712 14934748
0.79145002 0.065105133 0.14355282 13684425
0.78900003 0.072660454 0.14920709 15197407
0.7929666 -0.1649587 0.15496854 15854822
0.79236352 -0.15505236 0.1547668 15788771
0.79296952 -0.14504437 0.15505388 15723235
0.79306662 -0.13527471 0.15498778 15723492
0.79191661 -0.12488197 0.15476172 15526113
0.79117244 -0.11470602 0.15477614 15394270
0.78900003 -0.1013329 0.15788828 14538705
0.79013056 -0.10549977 0.15509835 14933462
0.78879291 -0.09468513 0.15520398 14801876
0.79000002 -0.099611931 0.15161547 14604241
0.78780007 -0.084581062 0.15488102 15591649
0.78780013 -0.075358674 0.15488105 16118249
0.78849989 -0.065272421 0.15501858 16381165
0.78900003 -0.058388688 0.15742651 16380652
0.79056531 -0.054459713 0.15453854 16051943
0.79197216 -0.045166362 0.15477277 15328477
0.79192847 -0.035166845 0.15509784 14736854
0.79116684 -0.024748994 0.15554474 14276302
0.78900003 -0.011519456 0.15442504 14605268
0.79005885 -0.015954947 0.15565246 13881545
0.7889998 -0.0052856184 0.15511768 14539220
0.78863323 0.0048695998 0.15504575 14341585
0.78800005 0.015013026 0.15492111 13947084
0.78806674 0.02516144 0.15493454 13420996
0.78828001 0.035317231 0.15497726 13487045
0.78808004 0.044532813 0.15493718 13749961
0.78793341 0.054669537 0.15490808 14276305
0.78735995 0.064768068 0.15479401 14539733
0.78743339 0.074913405 0.15480727 14736856
0.78824997 0.084770769 0.15579918 15065310
0.79087502 0.087043576 0.1513193 15329252
0.78900003 0.091500498 0.15733416 14275281
0.79176009 0.095380738 0.15409921 12500151
0.79200006 -0.17495422 0.16497602 15920873
0.79235995 -0.16483082 0.16505337 15789031
0.79263324 -0.15468268 0.1651106 15657443
0.79263997 -0.1444796 0.1651103 15788515
0.79195994 -0.13508596 0.16496789 15722722
0.79096168 -0.12544386 0.16461843 15591136
0.78900003 -0.1117996 0.16866283 14933206
0.7900002 -0.11561637 0.16434789 15262171
0.78895634 -0.10461991 0.16643165 14538447
0.79000002 -0.10648114 0.16165508 14933206
0.78811425 -0.094895124 0.16495749 14867924
0.78654855 -0.084625244 0.16490826 15459806
0.78693348 -0.075275071 0.16484246 16052457
0.78805566 -0.065236658 0.16507842 16315629
0.78889263 -0.055346314 0.16558339 16314859
0.79000002 -0.052452121 0.16086249 16314859
0.78900003 -0.048559673 0.16804716 16051687
0.79038489 -0.044434644 0.16428487 15459807
0.79155999 -0.034951199 0.16488485 14868441
0.79143339 -0.024756795 0.16485921 14407633
0.79040009 -0.014547918 0.16464518 14210510
0.78900003 -0.0049777734 0.16204415 14473684
0.79000002 -0.0055768406 0.16669522 14473684
0.78899986 0.0052690292 0.16303365 14671063
0.79000002 0.0039547049 0.16764364 14473427
0.78859991 0.015319613 0.16434486 14407635
0.79000002 0.011352321 0.16826011 14539477
0.78888869 0.025187897 0.1652538 13749961
0.78899974 0.035349771 0.16527653 13618375
0.7889331 0.044581007 0.16526254 13684168
0.78802782 0.054675989 0.16507286 13815754
0.78646678 0.064693145 0.16474462 13881548
0.78563875 0.074742541 0.16457118 13947597
0.7875334 0.085063942 0.16496982 14473684
0.78900003 0.091223434 0.164353 15723238
0.79122233 0.095958672 0.1651258 12697530
0.79106683 -0.18493634 0.17496708 15328994
0.7905432 -0.17476398 0.17471926 15723494
0.79183871 -0.16490136 0.17528686 15789030
0.7924515 -0.15539613 0.17512415 15657443
0.79145718 -0.14505838 0.17518601 15722723
0.7904669 -0.13483113 0.17483476 15656929
0.78900003 -0.12165061 0.17635891 15262171
0.79003602 -0.12577362 0.17460863 15394014
0.7889998 -0.11487804 0.17584583 14933207
0.79000002 -0.11810596 0.17103422 15130585
0.78828001 -0.1049325 0.1752746 14473170
0.78532159 -0.095152721 0.1752027 14868183
0.77900004 -0.086371183 0.17868282 15262941
0.78250009 -0.084819734 0.17463219 15394527
0.78562963 -0.075352177 0.17509262 15986664
0.78816676 -0.065245531 0.17525066 16381166
0.78875995 -0.055138789 0.17538279 16315374
0.7889998 -0.045442138 0.17577742 15723237
0.79000002 -0.04166393 0.17134245 15591136
0.78900003 -0.036685694 0.17774419 15065563
0.7901364 -0.034215976 0.1735855 15131098
0.79069465 -0.024731513 0.17488591 14539474
0.79083359 -0.014555299 0.17491746 14210511
0.79006696 -0.0052930759 0.17474794 14276305
0.79019481 0.0048814206 0.17477615 14210512
0.79027611 0.014928275 0.17495404 14276562
0.78900003 0.028225387 0.17332447 13881547
0.79000008 0.02429815 0.176301 14210512
0.78891975 0.035345811 0.17541738 13749961
0.78816003 0.044536967 0.17524822 13815754
0.78740013 0.054630745 0.17507888 13881547
0.78592002 0.06464915 0.17475037 13881547
0.7856999 0.074749216 0.17470287 13881548
0.78818184 0.08463081 0.17500199 14342613
0.79000002 0.089027308 0.17750715 14868957
0.79273087 0.094835989 0.17498013 12040114
0.78900003 -0.18075661 0.18282363 15724005
0.79037517 -0.18492766 0.18506981 15526371
0.78900003 -0.17798603 0.18282363 15920871
0.79004174 -0.1749841 0.18522292 15789029
0.79068995 -0.16524932 0.18493864 15789030
0.79112017 -0.15531403 0.18516658 15657443
0.79100025 -0.14510609 0.18513969 15723235
0.79036021 -0.13481276 0.18499008 15591650
0.78900003 -0.12280501 0.186056 15130841
0.79000002 -0.12670027 0.18425205 15328221
0.78867632 -0.11492234 0.1852455 14867413
0.78710002 -0.10477654 0.18514466 14538704
0.77875006 -0.09158501 0.18660073 15131098
0.78259093 -0.096099824 0.18433291 14933463
0.77766675 -0.085313559 0.18474515 15328734
0.78050005 -0.080142424 0.18176705 15460320
0.77812505 -0.078759357 0.1873613 15591906
0.78396159 -0.074492693 0.18447617 15986664
0.78829414 -0.065471418 0.18515575 16381166
0.7889998 -0.055156317 0.18467073 16380911
0.78899974 -0.04499748 0.18467073 15854824
0.7889998 -0.034992553 0.18482465 15262687
0.79000002 -0.031183975 0.18120594 14802649
0.78900003 -0.027860837 0.18631251 14407891
0.79009527 -0.023348559 0.1842221 14407891
0.78900003 -0.01267387 0.18836482 15066075
0.79009098 -0.014793415 0.18442124 14802905
0.78900003 -0.0034385545 0.18744129 15328479
0.79000002 -0.0058763395 0.18402874 14473684
0.78900003 0.00025557203 0.18744129 15065308
0.79000026 0.0052096574 0.18470658 14144719
0.79000014 0.015051129 0.18490477 13881547
0.78900003 0.02943917 0.18614833 14078926
0.79000014 0.024372125 0.18460886 14013133
0.78876907 0.035480436 0.18482956 14078926
0.78800005 0.04452857 0.18535899 13947340
0.78769457 0.054652411 0.1852884 14013133
0.78733349 0.064765684 0.18520489 13881804
0.78754294 0.074792117 0.18512166 13684426
0.78864992 0.084260434 0.18458936 14276564
0.79000002 0.0890273 0.18490474 13355204
0.79210728 0.095030203 0.18479957 11447977
0.79330766 -0.19460513 0.19517834 12368053
0.79043365 -0.18478718 0.1951839 15854823
0.79088259 -0.17492487 0.19502212 15920615
0.79167998 -0.16469011 0.19456582 15591651
0.7922399 -0.15553363 0.19470315 15657445
0.7923333 -0.1453492 0.19472581 15591651
0.79188466 -0.13493162 0.19482973 15460321
0.78882343 -0.12336181 0.19505697 14868183
0.79000002 -0.12806429 0.19472082 15131355
0.78721875 -0.11515924 0.19496371 14539218
0.78425938 -0.10419508 0.19498266 14670290
0.77880013 -0.09181881 0.19504631 15130841
0.78123534 -0.096787103 0.19500928 14999512
0.7767601 -0.085215777 0.19453581 15393756
0.77692598 -0.076269619 0.19572039 15723492
0.78133339 -0.072503932 0.19222368 15986408
0.77900004 -0.069046482 0.198743 16250095
0.78522855 -0.06486354 0.19496763 16381166
0.78836662 -0.055111576 0.19467106 16315630
0.78897196 -0.044995729 0.19482252 15920616
0.78879982 -0.03483019 0.19478044 15196894
0.78899974 -0.024811713 0.1946976 14604757
0.79000002 -0.020087549 0.19969998 14867929
0.78899974 -0.014520934 0.19482955 14671063
0.78899974 -0.0053515839 0.19449973 14671063
0.79000002 -0.0043676146 0.19969998 14868442
0.78900003 0.00025557203 0.19298247 14473684
0.79000032 0.0054573459 0.19530761 14407634
0.79000026 0.015051128 0.19507651 14013133
0.78900003 0.029069757 0.19409071 13749961
0.7900002 0.023729099 0.19536103 13815754
0.78886181 0.035215724 0.19495504 14013133
0.78875983 0.044571429 0.19569454 14144719
0.78879982 0.054730061 0.19570443 14144719
0.78851998 0.064862914 0.19563527 14144976
0.78854823 0.075168461 0.19546336 13882317
0.78900003 0.082552493 0.19287986 14079440
0.7904737 0.086354755 0.19563225 12829630
0.7931481 -0.19463994 0.20496474 13091776
0.79084015 -0.18488117 0.20546705 15789542
0.79156256 -0.17462476 0.20530696 15855334
0.79253328 -0.16486716 0.20497981 15591906
0.7929998 -0.15462223 0.20496681 15460320
0.79229993 -0.1444172 0.20491667 15460320
0.79158628 -0.13515097 0.204891 15328734
0.78834999 -0.12413557 0.20555694 14736597
0.79000002 -0.12858592 0.20370702 15197148
0.78597224 -0.11474667 0.20512131 14407632
0.78439289 -0.10461234 0.20503803 14736597
0.77900004 -0.090930313 0.20056666 15065562
0.78138459 -0.094799608 0.20540175 15131355
0.77831036 -0.085260198 0.20491356 15262685
0.78000003 -0.089221045 0.20630209 15328734
0.7764852 -0.074938424 0.20487608 15591908
0.77769578 -0.0660794 0.20561251 16052716
0.78193343 -0.061617173 0.20375809 16381424
0.78543341 -0.054902386 0.20497707 16381424
0.7887665 -0.044982955 0.20492753 16052201
0.7889998 -0.034838635 0.20483442 15197405
0.79000002 -0.034882784 0.20894699 15328734
0.78900003 -0.028271295 0.20396225 14868698
0.79004771 -0.023171101 0.2057011 14473940
0.78900003 -0.011750339 0.20129426 14934235
0.7900871 -0.014781862 0.20559283 14408148
0.78900003 -0.0089797443 0.20129426 14934235
0.79020852 -0.0051393029 0.20545734 14737113
0.79073346 0.0048844037 0.20543957 14671319
0.79072016 0.015064941 0.20543624 14342098
0.79053348 0.025239568 0.20538816 13815754
0.78900003 0.036888991 0.20190996 14013133
0.79021055 0.03491671 0.20627709 13881547
0.78899997 0.044727169 0.20314135 14079182
0.79000002 0.044487476 0.20725171 14210511
0.78899986 0.055872697 0.203757 14144719
0.79000002 0.053118031 0.2070976 14144719
0.7889998 0.06490279 0.20498839 14210512
0.7889998 0.07380227 0.20440072 14144976
0.79000002 0.078624398 0.20686643 14210769
0.79247999 0.085600749 0.20515126 12171699
0.79233336 -0.19471385 0.21471414 14210255
0.79124016 -0.18497345 0.21483232 15723492
0.79233319 -0.17502737 0.21512976 15789285
0.79144013 -0.14426199 0.21488573 15525600
0.78899997 -0.13260105 0.21633461 14999513
0.79014295 -0.13636068 0.21360861 15262684
0.78803456 -0.12532026 0.2150424 14473425
0.78574067 -0.11522336 0.21497357 14473425
0.77900004 -0.10004859 0.2188032 15328734
0.78290915 -0.10499589 0.21539873 14933720
0.77875012 -0.093636468 0.21633956 15196379
0.78099996 -0.096497208 0.21265967 15065049
0.77748162 -0.085091792 0.21513849 15196892
0.77622253 -0.075161271 0.21529654 15525858
0.7775557 -0.065477163 0.21515991 15986666
0.78039998 -0.060035922 0.21554208 16184302
0.78357142 -0.054968633 0.21517217 16315888
0.78808331 -0.044942752 0.2148958 16118253
0.78896642 -0.034837 0.21513793 15328479
0.78900003 -0.028189201 0.2166249 15197148
0.79004365 -0.023546239 0.21418515 15000026
0.79040015 -0.014546042 0.21460275 14342609
0.79100013 -0.0052990164 0.21476676 14210768
0.79130018 0.0048871618 0.21484908 14408148
0.79108018 0.01507208 0.21478853 14539477
0.7917999 0.025280869 0.21498355 14078926
0.79159999 0.035465326 0.2149308 14013133
0.79064023 0.044676643 0.21467066 14144719
0.78900003 0.058438066 0.21237664 14210769
0.79000014 0.053888619 0.21495758 14013646
0.78899986 0.064594939 0.21299231 14210512
0.79000002 0.065777645 0.21766563 14079183
0.78900003 0.070905745 0.21237664 14276562
0.79038483 0.075835347 0.21488509 14211025
0.79130006 -0.19425194 0.22503611 15460066
0.79123342 -0.18497182 0.2250175 15789030
0.79277402 -0.17527355 0.22470744 15789030
0.79125011 -0.14457545 0.2252536 15394014
0.78880936 -0.13393266 0.22569093 14802133
0.79000002 -0.13783295 0.22220106 15064792
0.78748155 -0.12490033 0.22528088 14144460
0.78443336 -0.1154412 0.22491731 14670803
0.77845007 -0.10371421 0.22584537 15131098
0.78116673 -0.1077949 0.22382987 14868183
0.77682358 -0.094956331 0.22476794 15197149
0.77582139 -0.085305788 0.22458948 15131099
0.77523327 -0.075064436 0.22500311 15394015
0.7757858 -0.064932846 0.22457793 15920616
0.7778126 -0.05755949 0.22654766 16184047
0.78223801 -0.053721353 0.22398241 16250097
0.78600001 -0.044822093 0.2253654 16250097
0.78839993 -0.034810826 0.22513384 15591396
0.78899986 -0.026526844 0.22530606 14736599
0.79000002 -0.021225644 0.22431129 14934490
0.79000026 -0.014539338 0.22466694 14934235
0.79076689 -0.0052968282 0.22488452 14276818
0.79097241 0.0048849233 0.22494258 14211025
0.79050028 0.015060186 0.22480753 14342355
0.79041696 0.025236055 0.22478376 14210769
0.79056698 0.035420194 0.2248264 14145232
0.79070026 0.044681158 0.22486453 14211280
0.79022253 0.054827757 0.22472981 14079695
0.79000026 0.064985044 0.22466694 13882317
0.79083884 0.074492499 0.22475682 14210512
0.7912001 -0.19515352 0.23519506 15262942
0.79116023 -0.18495497 0.2351833 15723237
0.79271412 -0.17497863 0.23484953 15723237
0.79259992 -0.15560566 0.23468256 15394528
0.78900003 -0.14012124 0.23546493 14670549
0.79053867 -0.14573458 0.23485556 15065307
0.78817856 -0.13450751 0.23541605 14407633
0.78603572 -0.1250733 0.2349063 14144461
0.77900004 -0.11159839 0.23673578 14868696
0.78239137 -0.11577688 0.23448642 14736853
0.7766431 -0.10500763 0.23508717 14999769
0.77499986 -0.095000163 0.23491448 15131355
0.77416676 -0.084929429 0.23466195 15131355
0.77400011 -0.074945129 0.23461239 15328478
0.77416676 -0.06499286 0.23466209 15657700
0.77574992 -0.055135384 0.23514062 16118509
0.78000003 -0.050875176 0.23004003 16315890
0.77800006 -0.047266185 0.23706509 16184302
0.78250021 -0.043566704 0.23429742 16118766
0.78664523 -0.034849964 0.23496582 15920616
0.78874987 -0.026132951 0.2354665 15197149
0.79000002 -0.021243429 0.23322043 14670806
0.79000014 -0.01453934 0.23483862 14605270
0.79008019 -0.005292946 0.23486215 14408147
0.79000026 0.0048794067 0.23483865 14144976
0.79000014 0.015051129 0.23483866 14079183
0.78900003 0.028885052 0.23084728 14210512
0.79000026 0.024958652 0.23510286 14078926
0.7889998 0.035590693 0.23486264 14079440
0.79000002 0.032620467 0.23113987 14276305
0.78899986 0.044682305 0.23561074 14145489
0.79000002 0.044333365 0.2314481 14211281
0.7889998 0.055241231 0.23503868 14079696
0.79000002 0.052039217 0.23113985 14145744
0.78899992 0.06363292 0.23534951 13947853
0.79000002 0.067245424 0.23340024 14013646
0.79104006 0.074332789 0.23514763 13158081
0.79027814 -0.19492607 0.24509604 15592163
0.79060024 -0.18482351 0.245196 15723492
0.7919091 -0.17518584 0.24518001 15657699
0.79242295 -0.16470315 0.24504672 15526113
0.79113346 -0.15531793 0.24535988 15460062
0.78899986 -0.14313485 0.24552657 14407633
0.79013336 -0.1475984 0.24350995 14999513
0.78732151 -0.13455978 0.24549489 14407376
0.77900004 -0.12010878 0.24980529 14539218
0.78376669 -0.12451761 0.24490853 14275792
0.77809542 -0.11355188 0.24604364 14999771
0.78110009 -0.11732509 0.24297974 14736855
0.77629626 -0.1053568 0.24489811 14934234
0.7749998 -0.094999902 0.24489406 14868183
0.77404016 -0.084915407 0.2445907 14933976
0.77352792 -0.074899703 0.24533264 15065562
0.77366668 -0.064951427 0.24537665 15263199
0.77400011 -0.05525957 0.2450704 15921129
0.77599996 -0.045036756 0.24445443 16184302
0.77799994 -0.038146146 0.24690305 16184302
0.7830385 -0.03414816 0.24425779 16184044
0.78794277 -0.024563778 0.2448176 15328994
0.78899986 -0.015590287 0.24610989 14605783
0.79000002 -0.012689933 0.24257253 14737626
0.78900003 -0.005901305 0.24901004 14671833
0.79000014 -0.0051381998 0.24393153 14671576
0.79000038 0.0048794062 0.24501035 14342098
0.79000026 0.01505113 0.24501038 14078926
0.79000038 0.025222851 0.24501041 13947339
0.7889998 0.036014713 0.24429391 14079438
0.79000002 0.032065649 0.24704473 14079180
0.78899974 0.04458509 0.24470027 14145487
0.78899974 0.054743938 0.24470025 14079438
0.7889998 0.064133175 0.24408455 13947854
0.79000002 0.068067379 0.24747626 13816524
0.79118532 0.07414116 0.24486353 12303286
0.79247999 -0.20522922 0.25538838 11710126
0.78900003 -0.19183901 0.25855324 15789285
0.79003721 -0.19531082 0.2548514 15526113
0.78900003 -0.18650304 0.2577323 15657699
0.79000002 -0.18427354 0.25405186 15591906
0.78900003 -0.17890956 0.25855324 15591906
0.79051757 -0.174658 0.25445369 15526113
0.79056275 -0.16509411 0.25484085 15460320
0.78900003 -0.15305068 0.25670618 15131356
0.79006666 -0.15634039 0.25397035 15394271
0.78834617 -0.1454009 0.2548596 14276046
0.78615618 -0.13559435 0.25474277 14078668
0.77766675 -0.12293872 0.25605062 14670804
0.78164703 -0.1270843 0.25452799 14473168
0.77577782 -0.11507351 0.25512585 15196892
0.7748 -0.10495126 0.25480419 15196893
0.77416676 -0.094897881 0.25459698 14802391
0.77353346 -0.084860355 0.2543889 14736341
0.77296692 -0.074845277 0.25510862 14670805
0.77276009 -0.064875782 0.25503978 14933978
0.77281821 -0.054681797 0.25456443 15657957
0.77386677 -0.045038901 0.25449809 16053229
0.77661288 -0.035812128 0.25548878 16118765
0.78120005 -0.031567473 0.25197345 15592165
0.77900004 -0.028926115 0.25892356 16118509
0.78482866 -0.024778552 0.25471196 15789546
0.78813785 -0.015075549 0.25527793 14802907
0.7889998 -0.005285617 0.25485909 14606039
0.78899974 0.0049391962 0.25512296 14408402
0.79000002 0.0039547044 0.25148329 14342611
0.7889998 0.015032077 0.25485915 14144973
0.78899986 0.024947889 0.25651175 13947594
0.79000002 0.025643172 0.2523239 13947594
0.78900003 0.036042422 0.25416645 14144973
0.79000002 0.03506821 0.25550845 14144717
0.78899992 0.04458509 0.25301203 14144460
0.79000002 0.044641595 0.25795618 14210254
0.78899974 0.054743942 0.25485906 14144460
0.78899997 0.062923782 0.25459522 13947083
0.79018188 0.067522764 0.25557768 14144463
0.79160708 -0.20538303 0.26516315 12762556
0.78899986 -0.19419912 0.26635194 15591907
0.79000002 -0.19778448 0.26335028 15657699
0.78899974 -0.18537427 0.26501799 15591906
0.78899974 -0.17521547 0.26501796 15460320
0.78899974 -0.16492465 0.26534781 15460320
0.79000002 -0.16572814 0.26419795 15460320
0.78873318 -0.15484615 0.26492742 15065306
0.78686672 -0.14527144 0.2646659 14012874
0.77900004 -0.13165857 0.26925758 14012620
0.78293115 -0.13550778 0.26465008 13947082
0.776963 -0.12512034 0.26504904 14670804
0.78050005 -0.12947586 0.26216227 14407632
0.77414292 -0.11470186 0.26533365 15328734
0.77326685 -0.10474315 0.26516268 15328733
0.7730003 -0.094753981 0.26507255 15131354
0.77273351 -0.084771663 0.26497978 14868182
0.77288926 -0.074837424 0.26503372 14539218
0.77183324 -0.064797975 0.26467159 14473425
0.76900005 -0.05285807 0.26820147 14867929
0.7708236 -0.054894578 0.26405823 14999770
0.77143347 -0.044896804 0.2645317 15789800
0.77445954 -0.035025492 0.26510379 15987691
0.77794451 -0.026558645 0.26625973 15921643
0.78200001 -0.023282455 0.26371032 15986923
0.78619444 -0.015383989 0.2649911 15394786
0.78843331 -0.0052817431 0.26482612 14802649
0.78816676 0.0048680836 0.26473713 14539476
0.78859991 0.015025314 0.26488242 14276560
0.78899974 0.025190925 0.26501793 14013387
0.7889998 0.034964968 0.26601842 14144974
0.79000002 0.036935747 0.26134679 14210510
0.78899992 0.044476438 0.26735392 14144463
0.79000002 0.044783857 0.26229519 14144206
0.78899974 0.054472309 0.26480076 14012877
0.79000002 0.059436832 0.26905262 13881547
0.78900003 0.062132191 0.26317087 14012620
0.79025 0.065838888 0.26571539 13421253
0.78900003 -0.20160206 0.27596837 15328479
0.79095238 -0.2065995 0.27479759 12433591
0.7889998 -0.19553314 0.27517682 15460321
0.7889998 -0.18653871 0.2747753 15394527
0.79000002 -0.18177831 0.27684656 15526113
0.79022247 -0.17507499 0.27580938 15526113
0.78900003 -0.16043893 0.27148265 15065562
0.7901113 -0.16511805 0.27549621 15394014
0.78821748 -0.154425 0.27466261 14670804
0.79000002 -0.15879287 0.27829966 15327709
0.78396678 -0.14473896 0.27470216 13947338
0.77847826 -0.13429223 0.27538851 13881034
0.78080004 -0.13756891 0.27158511 13683911
0.77600008 -0.12509839 0.27518314 14802392
0.77377427 -0.1149229 0.27512482 15394271
0.77296013 -0.10470156 0.27501094 15460319
0.77225804 -0.094693601 0.2749936 15460318
0.77121866 -0.084944069 0.27551851 15460319
0.77138877 -0.074692808 0.27535304 15262683
0.76900005 -0.062399365 0.27828282 15328734
0.77044016 -0.065114573 0.27425796 14868182
0.76900041 -0.054151997 0.27489606 14737111
0.77000004 -0.058785208 0.27170476 14276302
0.76900005 -0.046332195 0.2758525 14934234
0.77014297 -0.043020241 0.27336454 15592678
0.77229422 -0.035106719 0.27509022 15790313
0.77536672 -0.025157945 0.27495667 15856106
0.77780008 -0.018501481 0.27691317 15790313
0.78296435 -0.014273987 0.27398407 15593190
0.78722233 -0.0054763365 0.27496397 14935005
0.78800005 0.0048670536 0.27482802 14539991
0.78820008 0.015017493 0.27489844 14211025
0.78899974 0.025190923 0.27517682 14013390
0.7889998 0.035349771 0.27517676 14210512
0.7889998 0.044585086 0.27517685 14144719
0.7889998 0.053316657 0.2749249 14078413
0.79000002 0.058743302 0.2762191 13881034
0.79084629 0.065128028 0.27525133 12565945
0.7923215 -0.21510723 0.28501192 10131861
0.78876179 -0.20356409 0.28608415 15131614
0.79000002 -0.20769933 0.28374517 13026239
0.78816664 -0.19532678 0.28503242 15394271
0.78865612 -0.18575466 0.28567153 15394527
0.79000002 -0.18191043 0.28199849 15526113
0.78900003 -0.17521542 0.28902975 15526113
0.79034787 -0.17478932 0.28385174 15526113
0.78900003 -0.16413306 0.28949156 15722722
0.79020011 -0.16504896 0.28477004 15591393
0.78822225 -0.15433715 0.28536209 14341584
0.79000002 -0.15879287 0.28292319 15196379
0.78385192 -0.14464879 0.28513858 14012875
0.77746159 -0.13387516 0.28480199 13815241
0.78000003 -0.13852289 0.28573287 13749448
0.77458626 -0.12474543 0.28540498 14473173
0.77293754 -0.11521704 0.28472725 15460321
0.77161741 -0.10515769 0.28467891 15591906
0.77078569 -0.095579319 0.28448218 15591906
0.7689091 -0.083370827 0.28796989 15591649
0.77017409 -0.085980393 0.2840533 15526113
0.76833338 -0.074996121 0.28715304 15525343
0.77015394 -0.075474724 0.28247246 15525343
0.7680589 -0.065168686 0.28521678 15262428
0.77000004 -0.068248771 0.28116831 15262941
0.76777768 -0.054571643 0.28484911 15394272
0.76783341 -0.044688765 0.28486818 15328993
0.76876926 -0.037821338 0.28667104 15658215
0.77108341 -0.033293217 0.28411922 15592678
0.77376676 -0.025106806 0.2852594 15329763
0.77678585 -0.016305488 0.28539732 15527142
0.78120005 -0.011450874 0.28360927 15592935
0.78583342 -0.0052591758 0.28492302 15329506
0.78836107 0.0048705521 0.28510538 14671833
0.78899974 0.015032079 0.28533566 14211282
0.78899974 0.025190925 0.28533563 14013902
0.78899974 0.035349771 0.28533563 14145486
0.7889998 0.043994024 0.28470764 14210767
0.79000002 0.047723938 0.28785491 14210511
0.78900003 0.051742461 0.28233415 14144719
0.7901364 0.055916093 0.28557888 13948110
0.79192322 0.065289006 0.28525168 11842735
0.78900003 -0.21061748 0.29611018 12893113
0.79186368 -0.21545854 0.29479685 9867921
0.78788012 -0.20447947 0.29507414 15262685
0.7862857 -0.19492641 0.29506823 15328734
0.78703141 -0.18513992 0.29510087 15262941
0.78788012 -0.17496586 0.29507396 15328735
0.7882666 -0.16490299 0.29521874 15591649
0.78769237 -0.15450071 0.29521656 14472657
0.78403705 -0.14495496 0.29506221 13486276
0.77679175 -0.13363861 0.29516485 13486276
0.78000003 -0.13852289 0.2945585 13223105
0.77376932 -0.12487797 0.29501486 14275791
0.77123338 -0.11530284 0.29515773 14933720
0.77005583 -0.1052096 0.29470864 15328735
0.76900005 -0.092163384 0.29820552 15591906
0.77003723 -0.095626101 0.29426768 15526113
0.76720595 -0.084802233 0.29562271 15526113
0.77000004 -0.089429125 0.2915332 15591906
0.76481253 -0.07489536 0.29487813 15394271
0.7644763 -0.065074123 0.29525062 15196380
0.76550013 -0.054968681 0.29452801 15459809
0.76547068 -0.045183018 0.29495236 15394530
0.76723534 -0.035037085 0.29563385 15461349
0.77025002 -0.030855022 0.29162741 15724521
0.76900005 -0.027654672 0.29880559 15856107
0.77192873 -0.024853697 0.29510021 15461349
0.77471435 -0.015031821 0.29480505 15461349
0.77750003 -0.0079377368 0.29628158 15461349
0.7833913 -0.0041278163 0.29434583 15395043
0.78775007 0.0046374802 0.29536968 14934491
0.78855997 0.015023883 0.29532826 14408404
0.78899974 0.025190923 0.29549444 14079437
0.7889998 0.035349771 0.2954945 14145230
0.78900009 0.042234275 0.29616615 14079180
0.79000002 0.046606589 0.29471311 14145230
0.79058361 0.054855455 0.29516211 13948110
0.79133338 0.065095499 0.29544073 10724511
0.79258621 0.074605204 0.2945945 10724510
0.78900003 -0.21061748 0.30411413 14012107
0.79199994 -0.21593365 0.30533105 9735823
0.78772426 -0.2043121 0.30500028 15328477
0.78700012 -0.19496873 0.30539107 15394270
0.78767651 -0.18484619 0.30541313 15328990
0.78773338 -0.1749339 0.30516395 15328991
0.78793949 -0.16508599 0.30482352 15723493
0.78758633 -0.15474892 0.30526471 14999514
0.78344452 -0.14443865 0.30482537 13486276
0.77681822 -0.13358043 0.30498412 12960189
0.78000003 -0.13852289 0.3049058 12828346
0.77372426 -0.12460654 0.30501327 13815753
0.76900005 -0.11136596 0.30870694 14013133
0.77062517 -0.11536205 0.30469894 14341840
0.76784015 -0.10400982 0.30633283 14999512
0.77000004 -0.1068541 0.30249891 14999769
0.7660287 -0.094848372 0.30512235 15394014
0.77000004 -0.098892696 0.30099675 15394527
0.76299995 -0.084822267 0.30517584 15328221
0.76159978 -0.074992821 0.30540228 15328478
0.76133305 -0.064807162 0.30562764 15130842
0.76128566 -0.055001564 0.30471519 15525345
0.76138085 -0.045203786 0.30475336 15394016
0.76285362 -0.034683004 0.3052099 15592165
0.76704007 -0.025821302 0.30558166 15394786
0.77028573 -0.022419572 0.30291134 15329506
0.77316678 -0.015131088 0.30494845 15329763
0.7768001 -0.0055636554 0.3052541 15395556
0.78120005 -0.0019409567 0.30244672 15395556
0.77900004 0.00025233286 0.30998585 15263970
0.78492111 0.0048539815 0.30498517 15000541
0.78733337 0.015001023 0.30500537 14539734
0.7873612 0.025137655 0.30501589 14210512
0.7870667 0.035263311 0.30489987 14144975
0.78796661 0.04452787 0.30525014 14013389
0.78881818 0.051290132 0.30616972 13947597
0.79035008 0.056503892 0.30469602 13223874
0.79170829 0.064972423 0.30562267 10592925
0.79254174 -0.21489181 0.31483406 10723744
0.78861547 -0.20424345 0.31324428 14407379
0.79012501 -0.20621686 0.31718746 11249576
0.78847069 -0.1957276 0.31418973 14473426
0.79000002 -0.1943939 0.31852418 11842223
0.78858334 -0.18527649 0.31287676 14868697
0.79030001 -0.18475418 0.31725794 14276306
0.78858334 -0.17466114 0.31333855 15395040
0.79037499 -0.17621519 0.31751931 15000287
0.78895634 -0.16436462 0.31378731 15723492
0.79000002 -0.16526578 0.31898654 15394530
0.78831995 -0.15476553 0.31554121 15328734
0.78460002 -0.14485581 0.31478634 14407376
0.77694738 -0.13329305 0.31443509 12433588
0.78066665 -0.13833655 0.31522027 13025725
0.77396148 -0.12490951 0.31501946 13354690
0.76830006 -0.11198469 0.31561834 14144208
0.7713685 -0.11665293 0.3144578 13946827
0.76465636 -0.10531578 0.31484467 14078157
0.76138872 -0.095114335 0.31456131 15196636
0.7605601 -0.085217372 0.31511009 15065305
0.75900006 -0.072801724 0.31821623 15065562
0.76025015 -0.075987048 0.3142406 15197148
0.75895447 -0.064362638 0.31735352 14868184
0.76000017 -0.065074913 0.31259197 14933721
0.75876176 -0.054734144 0.31681857 15526115
0.76000011 -0.055105895 0.31211179 15657186
0.75892299 -0.045536831 0.31668791 15197406
0.76000005 -0.04387733 0.3123886 15526371
0.75900006 -0.037956052 0.31979564 15921130
0.76064503 -0.034331661 0.31497315 15526887
0.76403123 -0.024731621 0.31492183 15197664
0.76790011 -0.018266609 0.31743148 15197407
0.77200001 -0.01426723 0.31467697 15394786
0.77513325 -0.005189992 0.31479576 15460579
0.77778578 0.0019443283 0.31626347 15328993
0.78239143 0.00670711 0.31427881 15000541
0.78546423 0.014769824 0.31498623 14540247
0.78593314 0.025090983 0.31458467 14145232
0.78496546 0.035295673 0.31495765 14145489
0.78659993 0.044452179 0.31485134 14013647
0.78868747 0.051953491 0.31476355 14013392
0.79076475 0.05731805 0.31532064 11776687
0.7912609 -0.16452508 0.32525584 11776689
0.78891677 -0.1538043 0.32301259 13552841
0.79007697 -0.15610535 0.32734093 10724257
0.78773904 -0.14567238 0.32485101 12302515
0.77850008 -0.13187841 0.32072175 12368310
0.78425014 -0.13560753 0.32538891 12499639
0.77608341 -0.12405375 0.32320961 13025468
0.7816 -0.12673256 0.3278538 13157312
0.76900005 -0.11226608 0.32130864 13815243
0.77316666 -0.11579279 0.32506284 13815498
0.76560003 -0.10454299 0.32389349 13420227
0.77100003 -0.10669381 0.32846093 13026239
0.76163995 -0.094468534 0.32397833 14735572
0.75900006 -0.081488453 0.3233493 14670803
0.76038468 -0.085471787 0.32476214 14999511
0.75900012 -0.075116366 0.3250035 14868183
0.76000005 -0.079816639 0.32466489 15394527
0.75800002 -0.064302996 0.32502908 14999514
0.7573666 -0.054717787 0.32531136 15262687
0.75821865 -0.045236643 0.32512355 15262944
0.759 -0.037956052 0.32512611 15263457
0.76019055 -0.033057418 0.32436424 15066078
0.76138228 -0.025071416 0.32530597 15000285
0.76611543 -0.016439969 0.3251363 15065821
0.77055556 -0.011374857 0.32446411 15197662
0.77365518 -0.0053047943 0.3249079 15197406
0.77700007 0.0029828013 0.32465017 15263200
0.78109097 0.0085657528 0.324947 15000028
0.78410345 0.014942824 0.32486331 14605270
0.78655565 0.025113592 0.32496083 14276305
0.78653824 0.035097763 0.32566378 14210769
0.78740734 0.044292733 0.32480186 13947855
0.78900003 0.050818928 0.32435486 13947859
0.79126102 0.056393914 0.32557544 11053222
0.79223806 -0.15526959 0.33486223 10461340
0.78900003 -0.14196829 0.3305887 9276555
0.79125011 -0.14533642 0.33459029 9934739
0.78844452 -0.13469052 0.331792 9012870
0.79136366 -0.13481571 0.33680144 9540238
0.77900004 -0.12010878 0.33004603 12828861
0.78666675 -0.12473057 0.33526191 9145224
0.79050004 -0.12835947 0.33861947 9408652
0.77680004 -0.11322501 0.33166006 12499640
0.78370005 -0.11588311 0.33680969 9013384
0.77463645 -0.10492931 0.33380526 12368312
0.78100002 -0.10853413 0.33820671 8618369
0.76725006 -0.09315224 0.33225298 14406352
0.77281833 -0.09629453 0.33614656 12630199
0.76400006 -0.084651895 0.33442503 13880776
0.77100003 -0.089094043 0.33838859 12630458
0.75900006 -0.073393993 0.33144373 14736341
0.76070589 -0.075700626 0.33539084 13881292
0.75817251 -0.064386696 0.33413655 14605011
0.76000005 -0.066176303 0.3391948 11841965
0.75724 -0.05470898 0.33500966 15000028
0.75775003 -0.044987332 0.33434737 15526886
0.76000005 -0.042453993 0.33978787 15592935
0.75899994 -0.036712267 0.33365491 15658729
0.76009101 -0.032914735 0.33529946 15263971
0.76099992 -0.025429381 0.334768 15197665
0.76623809 -0.016916147 0.33522907 14935005
0.77081817 -0.01139667 0.33511046 14802905
0.77365386 -0.0050408193 0.33481616 14934490
0.77687109 0.0041281427 0.33512619 15197662
0.78040004 0.0090222405 0.33283082 15197407
0.77900004 0.011194251 0.33916429 15065821
0.78307146 0.015118363 0.33484527 14802393
0.78530544 0.025074886 0.33547246 14473684
0.78657699 0.035100654 0.33530852 14342099
0.78828567 0.044744045 0.33523259 14013391
0.78900003 0.050126277 0.33335927 14079187
0.79125935 0.055761583 0.33517143 10921635
0.78814286 -0.11493116 0.34209046 9211019
0.79209095 -0.11488001 0.34705713 9540238
0.78600001 -0.10462961 0.34405524 9144967
0.79100007 -0.10591362 0.34870887 9211274
0.77633333 -0.093045913 0.34194124 8880259
0.78471428 -0.096063986 0.34716296 9276556
0.76900005 -0.084362321 0.34021118 10789025
0.77481824 -0.084837146 0.34559166 9078920
0.76628578 -0.074841276 0.34234262 10920866
0.77200007 -0.076259471 0.34696054 9078662
0.76378572 -0.064888239 0.34391159 12039345
0.76343757 -0.054820035 0.34501696 11513257
0.76323074 -0.045519318 0.34384757 12763323
0.77000004 -0.043913886 0.34876519 11645099
0.76475018 -0.034659788 0.34280968 15461093
0.77200001 -0.034086227 0.34876743 14276307
0.76550001 -0.02483909 0.34314504 15197923
0.77100003 -0.02502108 0.34831569 15592680
0.76790011 -0.016647793 0.34278095 14868957
0.77168751 -0.01329736 0.34614393 15066592
0.7739616 -0.0053219129 0.34442812 15329761
0.77645475 0.0050460552 0.34483114 15329247
0.77861118 0.013417182 0.34587997 15000282
0.78123093 0.016713293 0.34280646 14671062
0.77900004 0.020312516 0.34828255 14934489
0.7824707 0.024985006 0.34498191 14605269
0.78539288 0.035191253 0.34470367 14407891
0.78837496 0.044397507 0.34493807 14014161
0.79000002 0.048340406 0.3495017 13158853
0.79209685 0.054814912 0.34504691 10527133
0.78814286 -0.093052328 0.35289797 9539983
0.79181826 -0.096641019 0.35570043 9540240
0.78545457 -0.085331276 0.35484967 9606031
0.79100001 -0.088627547 0.35920286 9606029
0.77685726 -0.074574657 0.35252121 9737360
0.78480005 -0.076545224 0.35785797 9934994
0.77499998 -0.064258061 0.35375473 9540237
0.78200006 -0.067484833 0.3587772 10132375
0.7745834 -0.055055652 0.35446969 9408393
0.77460009 -0.045264337 0.35375303 9868945
0.78200006 -0.0418499 0.3587772 9473673
0.77636361 -0.035435423 0.35354975 11775662
0.78350008 -0.034598116 0.35946539 8881539
0.77518183 -0.024824826 0.35317695 11776691
0.78200006 -0.026293255 0.35877723 8487300
0.77535725 -0.015436009 0.35339871 14079188
0.78074998 -0.014366172 0.35820371 10197658
0.77660006 -0.0052011441 0.35211959 15461349
0.78200006 -0.0055446164 0.35755789 14277079
0.77833343 0.0057202154 0.3522366 15329247
0.78169239 0.004757504 0.35694852 15329249
0.77900016 0.015145499 0.3531456 15000282
0.7802 0.014863482 0.35795134 15197407
0.77900004 0.020677248 0.35302407 14868696
0.78157699 0.02594278 0.35485408 14868441
0.78511536 0.03532159 0.35448006 14671318
0.78831583 0.042993467 0.35458353 14342097
0.79012501 0.047654528 0.35580021 11052962
0.78900003 -0.081938744 0.36014169 9869201
0.78820002 -0.073923118 0.36199114 10001045
0.79217654 -0.07556209 0.36715654 10132630
0.78740007 -0.06444741 0.36383682 9935764
0.79133338 -0.065199703 0.36830866 10066837
0.78530008 -0.054897904 0.36305195 9869972
0.79040003 -0.055255599 0.36818212 10066580
0.78727281 -0.045314394 0.3638787 9738130
0.79085714 -0.044442888 0.36813083 9803665
0.78700006 -0.034750611 0.36222443 9079432
0.79059994 -0.034909509 0.36735055 9540494
0.78740007 -0.024630906 0.36402082 9014413
0.79042858 -0.025386471 0.36793119 9540239
0.78645456 -0.014974851 0.36350051 8816263
0.79000002 -0.014539337 0.36799577 9277066
0.78730774 -0.0048501962 0.36334181 10000538
0.79039997 -0.0052964007 0.36818209 9211273
0.78683335 0.0048571168 0.3649894 10591902
0.79000002 0.0021053001 0.36984515 9671565
0.78429997 0.014942067 0.36442739 11052707
0.78600007 0.025098944 0.36521697 12565945
0.78775996 0.035295617 0.36511144 14079182
0.78876919 0.04258398 0.36443982 13684170
0.79035717 0.046644956 0.36591476 10461084
0.78866673 0.0088711902 0.37168291 9737616
0.79186368 0.0041288626 0.37543824 9540236
0.78854555 0.014855501 0.37218562 9474187
0.79044443 0.015265347 0.37663308 9540236
0.78887504 0.024264136 0.37162703 8750209
0.79125005 0.0257276 0.37622029 9343114
0.79159993 0.035466142 0.37523037 10198171
0.79142851 0.044898573 0.37492767 10593441
