# .PCD v0.7 - Point Cloud Data file format
VERSION 0.7
FIELDS x y z rgb
SIZE 4 4 4 4
TYPE F F F U
COUNT 1 1 1 1
WIDTH 736
HEIGHT 1
VIEWPOINT 0 0 0 1 0 0 0
POINTS 736
DATA ascii
0.43657896 -0.042683192 -0.061931133 12827317
0.44150001 -0.047400724 -0.060482576 12696243
0.43182349 -0.034623865 -0.063650541 14867670
0.43415716 -0.024746133 -0.063731104 15065823
0.43900004 -0.019384231 -0.062709942 14276824
0.44322222 -0.017141728 -0.062732764 13882320
0.45242858 -0.013162138 -0.060843088 14079184
0.45800003 -0.0091431448 -0.060419723 14144208
0.46650001 -0.062650792 -0.050527357 12696242
0.47000003 -0.065864466 -0.05063403 12696242
0.4480001 -0.052633889 -0.053742282 12696242
0.45333335 -0.056113284 -0.050953999 12696243
0.43697378 -0.042369675 -0.055368122 12761523
0.44265786 -0.047122873 -0.055076536 12761522
0.42772099 -0.032999057 -0.054162707 15722721
0.43128571 -0.037317526 -0.056031723 13880262
0.42786846 -0.028090697 -0.054006089 16117993
0.43330187 -0.023369825 -0.055560086 14737115
0.43850002 -0.019362155 -0.053914711 14079699
0.44453332 -0.016424486 -0.052402999 13553613
0.45382762 -0.012706395 -0.056989003 13750476
0.45880002 -0.0093030119 -0.057804532 14145234
0.46384215 -0.0073338635 -0.056025613 13619148
0.54540002 0.018817253 -0.052117426 11645615
0.54500002 0.022959659 -0.05224352 11382440
0.47433335 -0.071505383 -0.043025292 12565426
0.48400003 -0.076890811 -0.040811751 12631734
0.46724138 -0.06235116 -0.04577088 12368047
0.47111908 -0.066995777 -0.044316515 12499633
0.44799995 -0.051071547 -0.046223987 12499121
0.45446157 -0.055017807 -0.045519285 12499120
0.46238887 -0.058725521 -0.043917313 12368047
0.42900002 -0.040535055 -0.041195534 13091001
0.43439141 -0.042263683 -0.044731431 12762036
0.44317651 -0.047098119 -0.046154585 12499121
0.42507598 -0.034331989 -0.044702884 15262426
0.43000001 -0.038364604 -0.047583047 13617089
0.42529219 -0.026768858 -0.044918709 15723749
0.43188888 -0.022042939 -0.046980716 13816526
0.43800002 -0.01908315 -0.046161536 13487817
0.44229999 -0.016835198 -0.04837697 13422025
0.48800004 0.00015807243 -0.040006623 13422025
0.49446669 0.0069577037 -0.041540131 13224903
0.49850002 0.01066445 -0.041450337 13027526
0.50366664 0.013138629 -0.040892232 13093574
0.5126667 0.01697145 -0.040828653 13356232
0.52400005 0.01979683 -0.041731238 13685197
0.54500002 0.018889071 -0.049357656 12829635
0.52600002 0.021515002 -0.041070383 13158598
0.53700006 0.026841983 -0.04258997 11579562
0.54336005 0.024849024 -0.047602635 11513771
0.53800005 0.031121522 -0.041947577 11382695
0.54000002 0.030514508 -0.044269621 11645355
0.509 -0.090395063 -0.031004013 12434355
0.49379998 -0.081919543 -0.033250354 12368306
0.50266665 -0.086920701 -0.030618241 12500148
0.47800002 -0.070342578 -0.039186813 12631219
0.48542422 -0.073333494 -0.035348017 12302768
0.49077275 -0.077759266 -0.033547666 12302769
0.46766675 -0.061524194 -0.035781726 12039340
0.47400001 -0.065629229 -0.035795633 12170925
0.48120004 -0.069349654 -0.033703122 12302511
0.44880003 -0.051546644 -0.036057897 12170669
0.45493755 -0.054841254 -0.037762284 12170668
0.46470004 -0.058705945 -0.032655008 12039340
0.4261364 -0.041580718 -0.034307066 12696243
0.43433338 -0.044945445 -0.03695713 12170412
0.44400007 -0.049057979 -0.03626338 12104876
0.41900003 -0.031252649 -0.030426404 15855591
0.42237505 -0.035034884 -0.035219807 14999254
0.42275873 -0.025527667 -0.034981731 15395042
0.48770007 -0.0020107436 -0.035298936 13487818
0.49000001 -0.00098837854 -0.031567343 13619404
0.48862505 0.00058755907 -0.037054628 13290439
0.49409258 0.0048637148 -0.035257488 13093573
0.50244451 0.0089207599 -0.032432005 12961987
0.49900001 0.010675147 -0.039740242 13159623
0.50562501 0.012200809 -0.035773683 12962244
0.51404756 0.016994361 -0.034747194 13027780
0.51875007 0.020812888 -0.034633033 12962243
0.52405006 0.024313426 -0.034254257 13159365
0.53171432 0.027202293 -0.038611673 11579563
0.53433341 0.030610995 -0.037968908 11514280
0.51263636 -0.092245318 -0.025112689 12368561
0.49780002 -0.081530914 -0.026940439 12434355
0.50463414 -0.08504571 -0.024541633 12368561
0.51044446 -0.088926002 -0.022461444 12368560
0.48583332 -0.07288941 -0.026310528 12171182
0.49367857 -0.077399187 -0.025520409 12236976
0.5 -0.079432651 -0.021091737 12236976
0.46820003 -0.06144755 -0.025010571 12105389
0.47410533 -0.06554272 -0.024089232 12039597
0.48033336 -0.069561481 -0.023071742 12105389
0.46458337 -0.057674993 -0.025578847 12039338
0.41855556 -0.041017704 -0.022774633 12762806
0.42090911 -0.041069619 -0.027790075 12828598
0.41748348 -0.034374364 -0.024328101 15000024
0.42038468 -0.0377912 -0.02855923 14012616
0.41736665 -0.026195997 -0.02389661 15724262
0.42057151 -0.02424291 -0.028150341 15132385
0.48800004 -0.0032691779 -0.029724872 13290439
0.49133337 -0.00099106797 -0.028776908 13487818
0.49611369 0.0027277337 -0.025618661 13356232
0.50380009 0.0077949883 -0.024314241 13158853
0.50800002 0.010867685 -0.02737258 12895937
0.51437491 0.014908673 -0.02489939 12895681
0.52000004 0.019645708 -0.024370069 12829631
0.52379495 0.023629246 -0.025522074 12830144
0.53200001 0.030062441 -0.023687029 11382183
0.51464289 -0.093209311 -0.015255322 12434353
0.5059644 -0.083090976 -0.015164966 12368560
0.51092857 -0.088004932 -0.014631857 12368560
0.48712501 -0.070973456 -0.014561764 12105131
0.49475002 -0.074925222 -0.014543257 12171181
0.50150001 -0.079158559 -0.014770032 12236974
0.47473171 -0.063607432 -0.016117247 12105388
0.48214287 -0.068132155 -0.013967214 11973546
0.47066668 -0.059163477 -0.015629599 12105132
0.4181906 -0.041775234 -0.015496244 12696755
0.42050001 -0.043792997 -0.012815869 12301997
0.41463986 -0.035304371 -0.015070417 14605009
0.41482082 -0.025280699 -0.01493793 15395041
0.41600001 -0.019099053 -0.011461678 13092031
0.49866667 0.0021076938 -0.019478716 13422025
0.50427276 0.0056468588 -0.018157145 13224646
0.51250011 0.0091660526 -0.015267851 13093060
0.51628202 0.013871011 -0.016165171 12895681
0.52191311 0.018071938 -0.013830483 12895681
0.52386957 0.022353379 -0.015696464 12763839
0.5316667 0.027971804 -0.019522345 11777198
0.51526672 -0.092635892 -0.0046417806 12697269
0.50624996 -0.081811734 -0.0046629501 12368560
0.51130772 -0.086970977 -0.004994628 12500146
0.48633337 -0.071475863 -0.0031509241 11973803
0.49511114 -0.075442031 -0.005750306 12171181
0.50099999 -0.078586884 -0.0058895466 12171181
0.47883341 -0.065421097 -0.0060001896 12039596
0.48142108 -0.067703895 -0.0041135899 11842217
0.41680953 -0.041638449 -0.0042056749 12630962
0.42223999 -0.045179721 -0.0040454282 12236461
0.40865213 -0.0323117 -0.0016830167 15065816
0.41219765 -0.03581287 -0.0057006972 14341837
0.40865389 -0.027205136 -0.0015645138 15658468
0.41216654 -0.024190446 -0.0060545914 15263969
0.41474998 -0.0189192 -0.0059725204 12960960
0.51850003 0.0080583533 -0.00063031993 12829633
0.52118182 0.0094860727 -0.0041294647 12895425
0.52413565 0.015564311 -0.0054101106 12895424
0.52630001 0.021732191 -0.0074145906 12566459
0.51645839 -0.092073612 0.0043585789 12631732
0.50723076 -0.081405953 0.0046373443 12368560
0.51179993 -0.086074233 0.005487706 12565939
0.48646671 -0.070982218 0.0048406417 11841960
0.49340007 -0.074540041 0.0058351057 11973803
0.50050002 -0.078145325 0.0052513252 12236975
0.48180649 -0.06653931 0.0042736363 11776167
0.42850003 -0.050769567 0.0085054692 11907497
0.43037504 -0.051117763 0.0061503202 11907497
0.41420004 -0.042495046 0.0059678019 12499634
0.42410007 -0.047919042 0.0058866544 12039084
0.40758997 -0.033794187 0.0057518459 14605524
0.41090915 -0.038214579 0.0033900754 13486529
0.40729621 -0.025219029 0.0052986089 15330017
0.41100001 -0.020072196 0.00094360113 14342870
0.40833333 -0.019622805 0.0081076277 14014163
0.51875007 0.008441777 0.0037723924 12961474
0.52000004 0.009501297 0.0080920504 12764095
0.52344006 0.014612086 0.0051514204 12763838
0.53000003 0.01878277 0.0092816167 10592924
0.53100002 0.02006129 0.0099206688 11119268
0.50784618 -0.082236178 0.01561588 12434096
0.51062071 -0.086603142 0.014361047 12565939
0.48800004 -0.070671767 0.010259718 11710630
0.49400002 -0.073283568 0.010672635 11842216
0.50440007 -0.078243397 0.015329621 12171181
0.48600003 -0.069244392 0.010217669 11710117
0.42400002 -0.050817255 0.011227886 11973289
0.40843484 -0.041772533 0.016565941 12631476
0.41228947 -0.044193257 0.013589047 12302511
0.42000002 -0.048042104 0.010796539 12039084
0.40478057 -0.034896597 0.015153039 14144973
0.40384451 -0.025372898 0.01548658 15264225
0.40557143 -0.019061465 0.016379181 13684683
0.51900005 0.0077617918 0.012733945 12895681
0.52057141 0.0093962476 0.012511644 12829888
0.5242632 0.013871674 0.013473529 12829631
0.53050005 0.01880049 0.011774778 10987682
0.50721872 -0.082141496 0.025060374 12368560
0.51029426 -0.086057842 0.024150034 12499890
0.49544442 -0.073388837 0.024803521 11710374
0.50295001 -0.077960499 0.024760947 12236974
0.48762503 -0.068764247 0.025514392 11578532
0.49025002 -0.069849923 0.025802221 11512739
0.41516671 -0.050567295 0.027512409 11775910
0.40726089 -0.042484842 0.024809176 12433841
0.41230237 -0.047030877 0.025592718 12039082
0.39848006 -0.032484025 0.028152604 14473681
0.40160242 -0.035762459 0.024344275 13881287
0.39842859 -0.02710554 0.028015638 15263967
0.40079516 -0.024498839 0.024170233 15263968
0.40399995 -0.018196855 0.024026357 13618890
0.50550008 -0.081295103 0.033830374 12236718
0.49672228 -0.073037535 0.035446599 11579044
0.50207692 -0.077323727 0.035189845 11973802
0.49200001 -0.068947479 0.03453121 11513251
0.41277784 -0.051780976 0.035845235 11578533
0.40539137 -0.043341827 0.035474885 12236462
0.41100001 -0.048076812 0.033704299 11841705
0.39646739 -0.03398522 0.035589181 14144715
0.4007895 -0.038635712 0.033113718 13157820
0.39662805 -0.025239941 0.035481934 15198176
0.40000001 -0.020939594 0.032444056 15066590
0.39900002 -0.01925263 0.038512215 14672091
0.4006578 -0.017467773 0.035449632 13750988
0.4975 -0.073796287 0.040740512 11579044
0.50200003 -0.077402346 0.040520251 12039595
0.41422012 -0.05244711 0.044680975 11446947
0.39800006 -0.041281089 0.046097875 12499633
0.4044193 -0.045249101 0.04476662 12038826
0.41080004 -0.049105566 0.04469911 11907497
0.39394221 -0.034918677 0.045156643 13947336
0.39367789 -0.024749117 0.045135636 15197919
0.39617655 -0.018091813 0.045912061 14408661
0.40028572 -0.015532419 0.041212939 12698300
0.41160002 -0.051708054 0.050471555 11578789
0.39567637 -0.043032225 0.055525158 12301998
0.40212506 -0.047118507 0.052804284 11907497
0.38881248 -0.032528624 0.057467386 14408144
0.39130589 -0.035700813 0.053897128 13816007
0.38871929 -0.02691794 0.057183176 15000026
0.39142662 -0.023595614 0.053457484 15132127
0.39387506 -0.017688969 0.055020999 14539991
0.38900003 -0.040853515 0.069192298 13025979
0.39369333 -0.043346591 0.064413525 12236719
0.40000001 -0.048563607 0.061316609 11446947
0.38731539 -0.034702376 0.065308414 14210509
0.39022225 -0.038850505 0.062100768 13355200
0.38691899 -0.025225228 0.065095261 15000284
0.3883501 -0.018238142 0.066755548 14869471
0.39076927 -0.017816605 0.061624601 14737626
0.38634789 -0.042189006 0.076105848 12697270
0.39000002 -0.044610523 0.071196161 12433842
0.38396958 -0.034936469 0.075028099 11841449
0.38390109 -0.025036823 0.075016819 12367538
0.38659206 -0.017099706 0.075666398 14737372
0.39025 -0.012663158 0.076952122 13553358
0.38435224 -0.043502528 0.085274316 11579047
0.39133334 -0.047818065 0.083043993 11710117
0.37774366 -0.033879783 0.086435959 2633771
0.38069215 -0.035904005 0.082452282 2764843
0.37775713 -0.025588676 0.086283505 2699309
0.38065112 -0.023955703 0.081756666 3027759
0.3843275 -0.015614997 0.085174955 14277076
0.38771433 -0.0093394816 0.088412784 13027014
0.38400003 -0.050616655 0.098167285 12039084
0.37843758 -0.041184239 0.097544692 11316395
0.38259786 -0.045061771 0.094723001 12171186
0.37509722 -0.035018563 0.095007271 2567467
0.38000003 -0.03990832 0.090720698 3817534
0.37502024 -0.024818471 0.094967254 2633518
0.3783637 -0.018599093 0.096125104 13093318
0.38270473 -0.014422983 0.094860747 14408663
0.38673687 -0.008736345 0.096136518 13092803
0.78457147 0.068212219 0.094422981 10987936
0.78688568 0.07499709 0.094753899 10987936
0.78900003 0.081526354 0.094164602 11119265
0.79186362 0.086123645 0.095010951 11251108
0.78787494 -0.16436195 0.10682473 13223363
0.79206669 -0.16526604 0.10206774 11776172
0.78634608 -0.15458877 0.10679775 15658215
0.79245466 -0.15506773 0.10098403 13092798
0.78652382 -0.14494127 0.10754117 16184558
0.79247063 -0.14510055 0.10210491 14473937
0.78764713 -0.13499953 0.1070167 16052972
0.79353338 -0.13535313 0.10213166 14407888
0.79100001 -0.12936595 0.10366201 15197661
0.38140002 -0.05121522 0.10711901 12631221
0.37774071 -0.042458598 0.10539266 10592412
0.38091299 -0.047410797 0.10455748 12565429
0.36826837 -0.032473676 0.10783096 2435625
0.37199035 -0.035357106 0.10385955 2501932
0.36816388 -0.025750531 0.10798438 2435366
0.37156701 -0.024337754 0.10312206 2763818
0.37702787 -0.016774299 0.10517222 12762808
0.38092446 -0.012241912 0.10426394 14342869
0.38357505 -0.0071217595 0.10560969 13684938
0.78600007 0.067416653 0.10392737 11119268
0.78842103 0.074959606 0.1049763 12106420
0.79000002 0.079780273 0.10538037 11974577
0.79150003 0.085692406 0.10498141 12237492
0.78900003 -0.17152131 0.1144823 10394520
0.792 -0.1758849 0.11491711 10526106
0.78513336 -0.16517326 0.11483856 14013135
0.78126931 -0.15535221 0.11497671 15460838
0.77900004 -0.14126313 0.11704334 15855337
0.78043991 -0.14568964 0.11462717 15855594
0.78241938 -0.13510981 0.11429137 15986923
0.7827 -0.12892433 0.11539979 15789544
0.3813 -0.052796207 0.115474 12499892
0.37731257 -0.044226263 0.11525939 11250084
0.38020697 -0.048739143 0.11354271 12631221
0.3662872 -0.034073155 0.11516424 2370088
0.37086669 -0.038660239 0.11458295 2501417
0.366377 -0.025148829 0.11511935 2304035
0.36900005 -0.019748693 0.11660115 9736329
0.37622863 -0.014536539 0.11535512 12565943
0.38000003 -0.010551953 0.11073641 14540504
0.3785862 -0.0084644658 0.11684798 14079696
0.38170883 -0.0047555147 0.11503962 13816781
0.385625 0.0010288368 0.11835529 12434615
0.78800005 0.068509966 0.11618192 13749961
0.78778797 0.075309075 0.11486258 14539992
0.78706664 0.085010558 0.1151161 14606042
0.78608334 0.095025286 0.11496953 15132129
0.78634489 0.10505732 0.11516801 15329508
0.79000002 0.10937075 0.11092858 15198177
0.78815389 0.11280622 0.1170544 14737373
0.79093337 0.11629 0.11352659 13158597
0.78900003 -0.17152131 0.12464113 10066070
0.79194438 -0.17587227 0.12510596 10263191
0.78532004 -0.1652129 0.12497941 13749963
0.77900004 -0.15247862 0.12693669 15855597
0.78068197 -0.15592493 0.12440752 15329511
0.77899998 -0.14374869 0.12572934 15724008
0.78000009 -0.14785573 0.12250927 15724522
0.7790001 -0.13545786 0.12762056 15657958
0.78044444 -0.13444 0.12328866 15460579
0.77900004 -0.12922704 0.12853238 15460579
0.78175008 -0.12876789 0.12349437 15328993
0.37882355 -0.050948661 0.12674694 12565428
0.38146317 -0.055295102 0.12508945 12433842
0.3767609 -0.045277569 0.12497152 11512998
0.36305454 -0.034252334 0.12479698 2436138
0.37033334 -0.039471339 0.1216452 2631976
0.36302003 -0.025123755 0.12470973 2435881
0.36790913 -0.019141339 0.1261552 8422014
0.37396753 -0.014266531 0.12474776 12039343
0.37753615 -0.0063878861 0.12565508 13882317
0.38132429 -0.0023118369 0.12307179 13947853
0.38217652 0.0011240975 0.12659283 13355460
0.78331816 0.07643865 0.12582065 14144977
0.78255564 0.085438728 0.12545311 14474455
0.78176659 0.095419422 0.12532902 14671579
0.78237045 0.10444979 0.12491652 15000546
0.78707415 0.11470305 0.12484632 13553613
0.78900003 0.12093037 0.12710388 11842991
0.79087514 0.12507644 0.12431887 11711660
0.7928822 0.13461176 0.12498091 11711659
0.78860009 -0.17235787 0.1347312 10000022
0.79142857 -0.17747724 0.13547929 10131351
0.7851001 -0.16516477 0.13505216 13750221
0.77900004 -0.15179475 0.13423128 15395300
0.78105879 -0.15656739 0.13559437 15066337
0.77896422 -0.14498191 0.1346485 15460836
0.78000003 -0.14126188 0.13874033 15592165
0.77900004 -0.13550851 0.13228099 15789544
0.78062505 -0.13452159 0.13668285 15855337
0.77900004 -0.12922704 0.13126785 15723751
0.78141671 -0.12779805 0.13624963 15657958
0.38258329 -0.060928658 0.13581835 11776167
0.37810916 -0.052135728 0.13547501 12499890
0.3812876 -0.057140671 0.13445881 12499634
0.36900002 -0.040480748 0.1325821 5065548
0.37492371 -0.045160435 0.13461645 10657691
0.36482093 -0.034568861 0.13371044 1384220
0.37066662 -0.035022903 0.13968897 1120533
0.36420768 -0.024519434 0.13451438 1449241
0.37 -0.029330157 0.13943774 923408
0.36646667 -0.018752476 0.13472885 8420475
0.37355304 -0.013412121 0.13467443 10854813
0.3762711 -0.0052737482 0.13445006 13027008
0.37883332 0.00041845991 0.1364104 12763585
0.38137248 0.00264784 0.13356893 13421766
0.7779001 0.07491675 0.13563214 13092546
0.78049999 0.077450812 0.13197711 14145491
0.77875006 0.080923147 0.13715082 14013904
0.78153843 0.085964575 0.13500257 14408663
0.78199983 0.095448464 0.13543475 14408663
0.78296459 0.10492738 0.13501269 14869214
0.78593111 0.11420465 0.13503657 13882319
0.7887333 0.12212109 0.13475412 11777198
0.79020005 0.12789747 0.13500424 11711405
0.79292589 0.13597344 0.13505603 11645612
0.78855562 -0.17204037 0.14395469 9933717
0.79146159 -0.17604893 0.14534058 10131094
0.78523999 -0.1651943 0.145188 14078675
0.77899998 -0.15293454 0.14820178 15986926
0.78072733 -0.15551919 0.14402069 15460582
0.77899998 -0.14798461 0.14247029 15460837
0.78080761 -0.14449917 0.14542262 15460579
0.78307158 -0.13481005 0.14498487 15131615
0.78375 -0.12772062 0.14445576 15328993
0.37849998 -0.054224517 0.1408685 9078402
0.38033333 -0.056861084 0.14036353 11314849
0.36140004 -0.040830143 0.14786579 4146493
0.37214285 -0.042072628 0.14061683 10463655
0.3628979 -0.03529752 0.14714506 923665
0.37086973 -0.034041971 0.14301087 989461
0.36548418 -0.024713479 0.14660394 1185297
0.37068757 -0.027288372 0.14443287 857103
0.36500001 -0.019534614 0.1418258 7167583
0.37500003 -0.010413111 0.14044414 9013637
0.37500003 -0.0086573474 0.14044414 10592669
0.77562511 0.076400466 0.14442818 13289668
0.77771443 0.082703128 0.14509441 14211284
0.78113341 0.088394694 0.14479211 14277077
0.78136665 0.095370993 0.14538401 14474199
0.7816897 0.10443576 0.14528535 14803166
0.78623074 0.11451723 0.14515802 13618893
0.78878564 0.12173327 0.14399669 11776941
0.79027772 0.12688205 0.14498895 11711405
0.79223073 0.13543268 0.14476861 11711148
0.78900003 -0.17152131 0.15234709 9736339
0.79315788 -0.17555723 0.15544474 10065300
0.78577793 -0.16510485 0.15489265 14210518
0.7790001 -0.15293454 0.1535164 15855084
0.7808125 -0.15649141 0.15590595 15526632
0.78145462 -0.1449315 0.15496516 15855337
0.78419459 -0.13467528 0.15509094 15197407
0.78525001 -0.12773582 0.15483898 15065821
0.35900003 -0.04106456 0.15504229 2566693
0.36035296 -0.041219387 0.15473068 1908762
0.35861275 -0.034089401 0.15737903 1448723
0.36065227 -0.035260085 0.15323894 1515031
0.3585152 -0.027045781 0.15784554 1186067
0.36080006 -0.024484357 0.15400609 1580309
0.36100003 -0.01910926 0.15474401 2959139
0.76850003 0.074010894 0.15828249 12236981
0.77350003 0.077813365 0.15508659 13355462
0.77639133 0.084099822 0.15485057 14211284
0.78100008 0.089537062 0.15476532 14211284
0.78160006 0.095399171 0.15549371 14474456
0.78107697 0.10462037 0.15517792 14671836
0.78640747 0.11419815 0.15501584 13553614
0.78900003 0.12031468 0.15142356 11842993
0.79203838 0.12484705 0.1554299 11711405
0.79328573 -0.1753778 0.16497807 9999762
0.78653574 -0.16566579 0.16508828 14079444
0.78127998 -0.15521383 0.1645751 15461096
0.78230011 -0.14533809 0.16478983 15921131
0.78453344 -0.13473438 0.16526051 15526373
0.78511107 -0.12564589 0.16619736 15000028
0.34377781 -0.041198343 0.1672774 1910046
0.35563159 -0.04085188 0.16494219 659468
0.36037505 -0.041011441 0.16175245 2040603
0.34432012 -0.034929577 0.16716383 1581082
0.35550746 -0.034947298 0.16349636 1317654
0.36000001 -0.039324857 0.16112068 2172701
0.34535742 -0.025391364 0.16687901 1580315
0.35570773 -0.027371034 0.16247685 1580826
0.36000001 -0.022638084 0.16348045 791569
0.34300002 -0.019963127 0.16941102 1908767
0.76900005 0.074059054 0.16468751 12434103
0.77247059 0.07758671 0.16505842 13223876
0.77627784 0.084354997 0.16452916 13948111
0.78122228 0.089055151 0.16577956 14211283
0.78296018 0.095565453 0.16492797 14540249
0.78191984 0.10459106 0.16470908 14737628
0.78607148 0.11455087 0.16499029 13355974
0.78900003 0.12031468 0.16620007 11777198
0.7915715 0.12512185 0.16471083 11645612
0.78877783 -0.17249914 0.17641133 9868176
0.79161108 -0.17651813 0.17457286 9999762
0.78612 -0.16537896 0.17479521 14079442
0.78303051 -0.1550032 0.17488796 15197924
0.78503841 -0.14513931 0.1744166 15592167
0.78710002 -0.13517691 0.17501558 15592167
0.7869131 -0.12533411 0.17473365 15131615
0.33725926 -0.040975451 0.17735852 1645849
0.34043485 -0.041331958 0.17240387 1778202
0.33784065 -0.035728186 0.17610565 1646104
0.34047189 -0.035138108 0.17210057 1712409
0.33795008 -0.025485314 0.17486511 1843227
0.34116438 -0.025159338 0.17159627 1777691
0.33700001 -0.019613916 0.17591463 1383193
0.34266672 -0.019943725 0.17084998 1777436
0.77340001 0.076657608 0.17124239 12763068
0.77740008 0.083242461 0.1740714 14079698
0.78133345 0.088508882 0.17571039 13948112
0.78199995 0.095270082 0.17470329 14408663
0.78156668 0.10454552 0.17469743 14803420
0.78666663 0.11428678 0.17476417 13618890
0.79000002 0.11861777 0.17935653 11645355
0.78900003 0.12031468 0.17174126 11711405
0.79204011 0.12456452 0.17492642 11645612
0.78847361 -0.17373955 0.18483904 9867663
0.79071426 -0.17876986 0.18507193 9933713
0.78676683 -0.16551255 0.18507069 14671065
0.78515619 -0.15483209 0.18526517 15000287
0.78676677 -0.14524792 0.18506816 15065823
0.78777784 -0.1352938 0.18530558 15394787
0.78764009 -0.12586619 0.18530966 15328994
0.33282498 -0.041323297 0.18364343 1712411
0.33218426 -0.03553335 0.18590145 1909278
0.77900004 0.086267971 0.18628138 13158339
0.78046679 0.087100834 0.1832819 14013905
0.77900004 0.091434985 0.18688926 14211284
0.7804001 0.095326863 0.18470299 14408406
0.78223997 0.10463732 0.18492045 14868699
0.78734797 0.11349446 0.18500525 14671319
0.79000002 0.11861776 0.18490474 11513769
0.78900003 -0.17257677 0.19311441 9802127
0.79129416 -0.17627211 0.19534136 9999762
0.78752005 -0.16567169 0.1953862 14539737
0.78516656 -0.15506516 0.19480203 16052717
0.78571999 -0.14505595 0.19493851 15986923
0.78599995 -0.13498865 0.19500774 15723751
0.78576195 -0.12553093 0.19503663 15526372
0.77900004 0.08819294 0.19610885 13684426
0.78000003 0.08729171 0.19382447 13882318
0.77900016 0.09508229 0.19704963 13750477
0.78042859 0.095649287 0.19232085 13948111
0.77900004 0.10055325 0.19783118 14540249
0.78221446 0.10489554 0.19472149 14737370
0.78780758 0.11467486 0.19524394 13815755
0.79000002 0.11861777 0.19045296 11644587
0.7919631 0.12427283 0.19504412 11645353
0.79219055 -0.1750454 0.20510964 9802383
0.78732145 -0.16543318 0.20514321 14539737
0.78402787 -0.15483981 0.20461106 15789802
0.78553319 -0.14502087 0.20500676 15855338
0.786057 -0.13512953 0.20506528 15723752
0.7865715 -0.12476061 0.20508189 15526372
0.77800006 0.08785595 0.20249312 14144721
0.77763343 0.094915785 0.2047641 13882063
0.77892315 0.10166559 0.20531549 14145491
0.78157151 0.10650664 0.20462586 14803164
0.78707129 0.11430082 0.20507765 14013135
0.79182154 0.12465491 0.20512427 11579817
0.78900003 -0.17152131 0.21514724 10460055
0.79181248 -0.1759585 0.21463838 9736589
0.7868889 -0.16574478 0.21508245 14539991
0.78250003 -0.15482508 0.21480577 15658218
0.78416663 -0.14550033 0.21547896 15855338
0.78596658 -0.13498205 0.21523969 15526374
0.78654188 -0.12510684 0.21524389 15328995
0.77787507 0.096539795 0.2130259 14013648
0.77883339 0.10113963 0.21359092 14145491
0.7816667 0.1058659 0.21537125 14540249
0.78666681 0.11464406 0.21502246 13553097
0.78900003 0.12093037 0.21545509 11579562
0.7906667 0.12591729 0.21457241 11448233
0.78900003 -0.17152131 0.22530608 11513260
0.79176474 -0.17572306 0.22489603 9802382
0.7865926 -0.16527261 0.22502699 14473945
0.78303254 -0.15479118 0.22525787 15526373
0.78446436 -0.14462605 0.22525644 15855081
0.785941 -0.13519348 0.2250818 15591908
0.78696012 -0.12501962 0.22472492 15197151
0.78304994 0.10557102 0.22507672 14474456
0.78765213 0.11426038 0.22468174 13619145
0.79000002 0.11861777 0.22836575 11579817
0.78900003 0.12031468 0.22161196 11579562
0.79123074 0.12464593 0.22459173 11448232
0.78900003 -0.17152131 0.23454142 11710382
0.79237509 -0.17608388 0.23519367 9736334
0.78678572 -0.16571538 0.23513286 14539993
0.78325838 -0.15460019 0.23484568 15592423
0.78432 -0.14479597 0.23498601 15460066
0.78649992 -0.13484158 0.23529452 15131358
0.78796566 -0.12530713 0.23499765 15197151
0.78600001 0.10881697 0.23180956 14737375
0.78799987 0.11422025 0.23526804 13487304
0.79000002 0.11861777 0.23206456 11645354
0.78888893 -0.17211284 0.24558868 11579309
0.79115009 -0.17689863 0.24518053 9736847
0.78640747 -0.16523451 0.24522401 14276308
0.78328609 -0.15477273 0.24489182 15592169
0.78496295 -0.14511879 0.24477635 15921130
0.786147 -0.13479649 0.2453834 15592422
0.78703564 -0.12503175 0.24553409 15263458
0.77671432 0.10727358 0.24725136 15066593
0.78275001 0.10882412 0.24321516 14342870
0.78657687 0.11470967 0.24479517 13027008
0.78900003 0.12031468 0.24562377 11448230
0.78860003 -0.17328127 0.25472957 10724002
0.79049999 -0.17832497 0.25534362 9605774
0.78539294 -0.16542365 0.25493917 14736857
0.782686 -0.1547045 0.25543571 15394789
0.78499991 -0.14472564 0.25481257 15921132
0.7835173 -0.13548394 0.25491774 15657960
0.77800006 -0.12669483 0.25695056 15263201
0.78200001 -0.12830032 0.25279883 15197666
0.77590007 0.10705864 0.2529878 15001057
0.78000003 0.1098123 0.25560397 15263972
0.78600007 0.11480412 0.25457758 12632250
0.79000002 0.11861777 0.25795621 11645097
0.7884376 -0.17301477 0.26436791 11118759
0.79066664 -0.17790024 0.26542383 9540237
0.78459269 -0.16485456 0.26486325 14803165
0.78251725 -0.15469745 0.26558921 15263718
0.78403586 -0.14526729 0.26439968 15986925
0.78299993 -0.13600445 0.26400763 15855339
0.77833337 -0.12790224 0.26113117 15657960
0.78000003 -0.12939292 0.26290792 15657960
0.78850007 0.11516252 0.26161999 11316905
0.79154551 0.11750372 0.26579046 11054246
0.78880006 -0.17240134 0.27510768 11513775
0.79136366 -0.17692062 0.27465355 9540240
0.78542316 -0.16523315 0.27484724 14474458
0.78386682 -0.15480442 0.27522212 15132131
0.78578568 -0.14506808 0.27497616 15658472
0.78600007 -0.13785693 0.2747817 15658471
0.78846669 -0.17288271 0.28569549 11382192
0.79133338 -0.17758691 0.28478813 9474191
0.78450006 -0.16503939 0.2848056 14539996
0.78241187 -0.15478778 0.28456545 15066337
0.78424239 -0.14500393 0.28547338 15657959
0.77833337 -0.13276218 0.28967753 15526372
0.78410006 -0.13714108 0.28529924 15658215
0.77700001 -0.12889525 0.28918129 15526372
0.76700002 0.088230923 0.28905067 14210514
0.76814288 0.094015613 0.28845364 14539995
0.77200007 0.099048831 0.28852448 14671839
0.7766667 0.10267814 0.2884517 14869217
0.78480005 0.1071863 0.2887727 14606299
0.78900003 0.11107937 0.28902978 14606042
0.78754163 -0.17420352 0.29563752 10461603
0.7902 -0.17881179 0.29261357 9408396
0.78237939 -0.16459233 0.29484239 14803422
0.77884227 -0.15453547 0.29639196 15657958
0.78045464 -0.15538043 0.2916294 15197665
0.77800012 -0.14512254 0.29633901 15657958
0.78100002 -0.14488797 0.29179427 15592166
0.77670592 -0.13494435 0.29564643 15592165
0.78000003 -0.1376099 0.29029784 15723751
0.77600032 -0.12509558 0.29516688 15526372
0.77810013 -0.11668871 0.29587513 15657958
0.78000003 -0.11113297 0.29760179 15789544
0.78266668 -0.10555172 0.29800826 15789544
0.78600001 -0.098187543 0.29989105 15592165
0.7684167 0.085845105 0.29573208 13487564
0.77000004 0.085571729 0.29919416 13290184
0.76884621 0.09245868 0.29376194 14474202
0.77111119 0.096830301 0.29621476 14606046
0.77620006 0.10346551 0.29542437 14474459
0.78411114 0.1079455 0.2942732 14342871
0.78857148 0.11154675 0.29612461 14474456
0.78900003 -0.18075661 0.30750039 9211016
0.79253852 -0.18556808 0.30488086 9539981
0.7866897 -0.17477132 0.30529469 10263451
0.77900004 -0.16091301 0.30702239 14539994
0.78177285 -0.16554374 0.30443275 15000545
0.77726668 -0.15441632 0.30474442 15395557
0.77556688 -0.14499958 0.30480382 15592679
0.77444434 -0.13481723 0.30545178 15395044
0.77470005 -0.12488594 0.30555198 15460838
0.77677798 -0.11546894 0.30480415 15657959
0.78000003 -0.11113297 0.30307978 15789544
0.77880007 -0.10840936 0.30844733 15723753
0.78300011 -0.10475574 0.30477622 15658215
0.78613347 -0.096915074 0.30570802 15526629
0.77074999 0.078061298 0.30692914 14408406
0.77000022 0.084970854 0.30460188 13355976
0.77145177 0.095213898 0.30500144 14540252
0.77635306 0.10385063 0.30529553 14408410
0.78300005 0.10840165 0.30516201 13948116
0.78733343 0.11176747 0.30500612 13882322
0.78900003 -0.18121837 0.31488866 9211015
0.79135001 -0.18620726 0.31480572 9539979
0.78632003 -0.17462496 0.315108 9868691
0.7787143 -0.1619937 0.31508058 14013909
0.78173339 -0.16628352 0.31485474 14605529
0.77552938 -0.15471253 0.31495759 15066338
0.77413648 -0.14497845 0.3138158 15329765
0.77333343 -0.13462377 0.31497282 15198179
0.77399999 -0.12477315 0.31524453 15264229
0.77471423 -0.11478281 0.31475714 15395815
0.77695245 -0.1056698 0.31514502 15527144
0.78210008 -0.10209223 0.31249946 15592166
0.78380001 -0.097912721 0.31372699 15263457
0.76900005 0.072258808 0.31500778 13158342
0.77050024 0.076562174 0.31479087 13684687
0.77060014 0.085037462 0.31476292 14079445
0.77175003 0.094709978 0.31472304 14671840
0.77616668 0.10291481 0.31521699 14539740
0.78287506 0.10769871 0.31588122 12105397
0.78770006 0.11181941 0.3152937 11842481
0.79176474 0.1170321 0.31506363 10856096
0.79176009 -0.18509832 0.32507348 9277064
0.78789473 -0.17439003 0.32420456 9342346
0.7902 -0.17844191 0.3277621 9079686
0.77866673 -0.16137557 0.32261407 12763585
0.78294444 -0.1656265 0.32540545 12302263
0.77635294 -0.1548758 0.32315308 15263718
0.78160012 -0.15527517 0.32931787 15395563
0.77553344 -0.14499193 0.32313344 15460840
0.78200006 -0.14528544 0.3294864 15526892
0.77623534 -0.13539581 0.32331946 15395560
0.78200006 -0.13521719 0.3291207 15396077
0.77709085 -0.12477291 0.3229543 15330023
0.78266668 -0.12525316 0.32793507 15527147
0.77736378 -0.11489245 0.32290232 15395559
0.78300005 -0.11522645 0.32807472 15658474
0.77750003 -0.1050881 0.32190314 15461351
0.78325003 -0.10441243 0.32711196 15658216
0.78100002 -0.098477118 0.32266706 14868956
0.77350003 0.0769068 0.32258546 10724259
0.77466667 0.085788339 0.32519132 12895687
0.77489483 0.094582707 0.32468212 14211547
0.77740002 0.10143998 0.32281703 14277595
0.78419995 0.1060028 0.32576206 11645618
0.78855562 0.11183771 0.32445446 10724510
0.79138887 0.11687287 0.32561794 10790303
0.78875005 -0.17262138 0.33256161 9605774
0.79064709 -0.17678021 0.33574325 10000788
0.78746152 -0.1650189 0.33569095 10132120
0.78659993 -0.15488586 0.33575693 11250345
0.78637511 -0.14483032 0.33513007 10131611
0.78706253 -0.13494003 0.33438605 10329762
0.79000002 -0.13290121 0.33840528 9934743
0.7876364 -0.12546264 0.33303621 12369343
0.79110003 -0.12475177 0.33813673 9605780
0.7874167 -0.11495638 0.3326914 12829635
0.7911818 -0.1150827 0.33790281 9671571
0.78811115 -0.10531683 0.33308712 12763840
0.79110003 -0.10530634 0.33795184 9672083
0.792 -0.099246085 0.33864477 9672595
0.78600007 0.077703141 0.33552817 9145222
0.77900004 0.083228543 0.33004603 10526882
0.78523529 0.084919326 0.33604589 9671569
0.77900004 0.09508229 0.33004603 13619153
0.78542113 0.095577948 0.33615837 10658464
0.78787506 0.1052746 0.33403796 10790050
0.79049999 0.10805233 0.33815712 10592924
0.78900003 0.11107937 0.33151221 10658717
0.7912609 0.11542553 0.33548468 10724510
0.79152387 -0.16492337 0.34532547 10395546
0.79152381 -0.15521653 0.34532443 10395289
0.79150003 -0.14519638 0.34460914 10263704
0.79072726 0.078002609 0.34427145 9672079
0.78900003 0.085220486 0.34167105 10066580
0.79100001 0.085437112 0.34624204 10066580
0.78900003 0.092608728 0.34167108 10395545
0.79194117 0.095136203 0.34621891 10461595
0.79194432 -0.14527877 0.35499623 10461339
