# .PCD v0.7 - Point Cloud Data file format
VERSION 0.7
FIELDS x y z rgb
SIZE 4 4 4 4
TYPE F F F U
COUNT 1 1 1 1
WIDTH 768
HEIGHT 1
VIEWPOINT 0 0 0 1 0 0 0
POINTS 768
DATA ascii
0.43537501 -0.041523535 -0.061042972 12827317
0.44200003 -0.046419676 -0.060034297 12696242
0.43113339 -0.034689471 -0.061586451 14932949
0.43432355 -0.024391808 -0.061801482 14999772
0.43900001 -0.019384231 -0.062709942 14079185
0.44480005 -0.017130997 -0.062496237 13882062
0.45311767 -0.013200611 -0.061543647 14013391
0.45900002 -0.0095220665 -0.060731515 13881546
0.46000001 -0.0084659439 -0.060325392 14276305
0.46650001 -0.062375139 -0.051075742 12696242
0.47040001 -0.066141985 -0.050897181 12630449
0.44812003 -0.051428124 -0.054361533 12696242
0.45240909 -0.055364426 -0.053113755 12762035
0.46000001 -0.059078749 -0.050633576 12696242
0.43631583 -0.042306677 -0.054907028 12696243
0.44289473 -0.047146454 -0.054724485 12696242
0.42760423 -0.033314589 -0.054161746 15591392
0.43105409 -0.037527416 -0.056176752 13748675
0.42764711 -0.028156815 -0.053700849 16118507
0.4326182 -0.024061993 -0.056055553 14737114
0.44657144 -0.017225031 -0.053394374 13487563
0.45427033 -0.013092194 -0.056469478 13685196
0.45900002 -0.0095220665 -0.059119724 14473684
0.46199995 -0.0086092679 -0.057016689 13882574
0.49200001 -0.080465294 -0.040334545 12499633
0.47356251 -0.071838468 -0.043041684 12499890
0.48750001 -0.077446833 -0.04053567 12631475
0.49100003 -0.079152308 -0.040252566 12697012
0.46703032 -0.062470805 -0.044679269 12367790
0.47058544 -0.067372359 -0.045320407 12499377
0.44812506 -0.051128991 -0.045000263 12433583
0.45528001 -0.054855026 -0.045546427 12499120
0.46220002 -0.058713894 -0.044707157 12433583
0.42900002 -0.040702436 -0.0415303 12893623
0.43400002 -0.042607456 -0.045294244 12762037
0.44320002 -0.047796093 -0.046708245 12564657
0.4252975 -0.034549542 -0.044861738 15130842
0.42999998 -0.039119583 -0.047666933 13682882
0.42554921 -0.026558893 -0.044951633 15592164
0.43192309 -0.02163318 -0.047077749 13882319
0.43875 -0.019116264 -0.047781259 13355718
0.44300002 -0.018004075 -0.049280874 13552584
0.49437508 0.0061750906 -0.041470047 13224646
0.50439996 0.012919592 -0.040641312 13158853
0.51050007 0.016299658 -0.040656101 13553611
0.53800005 0.027882559 -0.040327258 11382185
0.54624337 0.025713207 -0.046688225 11514027
0.51300001 -0.092309296 -0.030645436 12434354
0.49545836 -0.082241692 -0.034182113 12434098
0.50299996 -0.086390354 -0.03122575 12500146
0.47800004 -0.070903257 -0.039186813 12565426
0.48582357 -0.072801352 -0.03540704 12433841
0.49206448 -0.077691302 -0.034095053 12302768
0.46612504 -0.061641354 -0.036850527 12236461
0.4743 -0.066250041 -0.036491897 12302254
0.48133337 -0.06857989 -0.032886114 12302511
0.44821429 -0.050970946 -0.035694677 12104875
0.45480001 -0.054927945 -0.036603626 12104875
0.46128574 -0.058936205 -0.035809975 12170668
0.42709526 -0.041617945 -0.034352429 12630450
0.43358824 -0.044647772 -0.036740094 12170413
0.4419091 -0.048013087 -0.03434715 12104875
0.41900003 -0.031252649 -0.030426404 15724005
0.42245841 -0.035042714 -0.035227057 14933718
0.41900003 -0.029290874 -0.030426402 16118763
0.42227387 -0.025689159 -0.035035953 15395042
0.48858333 -0.0019381203 -0.035193712 13553611
0.49020004 -0.0014476215 -0.031924121 13685197
0.48900002 0.00015839636 -0.035509571 13553611
0.49441993 0.0043883109 -0.035875529 13224646
0.50288892 0.008538018 -0.032329794 13093060
0.50600004 0.012075372 -0.036053088 13093060
0.51306379 0.016732482 -0.034543265 13093061
0.51757151 0.021372426 -0.034292862 13158853
0.52264714 0.02449977 -0.033563085 13290182
0.53100002 0.026898233 -0.037937932 11184806
0.51495463 -0.094198793 -0.024434263 12434354
0.49837506 -0.081070721 -0.02671011 12302769
0.50437933 -0.084410816 -0.025063271 12302769
0.51089483 -0.088592358 -0.023817174 12368562
0.48639137 -0.071777746 -0.025467303 12171181
0.49362168 -0.076801062 -0.02546896 12236974
0.47620004 -0.064063624 -0.02384105 12105132
0.48142108 -0.068474703 -0.024519876 12105388
0.41890007 -0.040953629 -0.022868654 12696755
0.42112502 -0.040776975 -0.027872153 12828598
0.41783339 -0.035126515 -0.024641303 14736596
0.42033336 -0.03758483 -0.02849013 14012872
0.41770005 -0.026756207 -0.024767635 15790055
0.42075005 -0.024239562 -0.02874797 15263457
0.49150002 -0.0012787641 -0.028786864 13685197
0.49700001 0.0024140617 -0.025883121 13422025
0.50365639 0.0069501945 -0.025039297 13158853
0.51050007 0.0094275996 -0.0212356 13093059
0.50833333 0.010874815 -0.02858259 12895681
0.51456356 0.014873205 -0.025074977 12829887
0.52100003 0.019074824 -0.020757921 12829631
0.51900005 0.020822918 -0.029183155 13158853
0.52481824 0.023818042 -0.025786884 12895681
0.53057146 0.028207559 -0.02717174 13158596
0.53280002 0.030107651 -0.026214901 12435130
0.51378131 -0.093316272 -0.015546928 12434353
0.50586665 -0.083330348 -0.014862162 12302768
0.51087505 -0.088336997 -0.014971347 12368560
0.48633337 -0.071191423 -0.01482246 12105131
0.49595237 -0.075919777 -0.014621428 12171181
0.50135714 -0.079229891 -0.014439294 12236974
0.47660533 -0.063770138 -0.01519945 12105132
0.48093331 -0.068223633 -0.015935019 11908266
0.47500002 -0.05989325 -0.015867213 12236461
0.41813639 -0.041600443 -0.014926693 12762035
0.4204286 -0.043592364 -0.015485086 12301485
0.41499016 -0.035333823 -0.015082696 14605010
0.41505617 -0.025249299 -0.014998078 15329762
0.41600001 -0.019342519 -0.013652871 12500923
0.49900001 0.0024979715 -0.019881386 13356232
0.50400001 0.0046537956 -0.018663347 13356232
0.51407152 0.0090214182 -0.015396843 13158852
0.51734376 0.013341144 -0.016332865 12895680
0.52243334 0.017661935 -0.014329392 12961217
0.52456522 0.022381797 -0.015769577 12829631
0.51546675 -0.093035355 -0.0038004285 12697525
0.50642306 -0.082144342 -0.0049473769 12368561
0.51118916 -0.087195948 -0.0048090704 12500147
0.48742861 -0.071078956 -0.0019777615 11842218
0.49545839 -0.075092711 -0.005053414 12105390
0.50099999 -0.078289397 -0.0049780351 12171183
0.47828576 -0.065107301 -0.0075382702 12105132
0.48275006 -0.067936622 -0.0034127615 11842216
0.41410533 -0.04175863 -0.0028818855 12762805
0.40877274 -0.032491382 -0.0014109367 15065816
0.41174418 -0.035545483 -0.0056842091 14473423
0.40872005 -0.027423449 -0.0015501354 15592932
0.41243467 -0.024427118 -0.0058999984 15329761
0.41600001 -0.019017508 -0.0047265701 13158852
0.51880008 0.0089129228 -0.0024519968 12698301
0.52000004 0.0092984084 -0.0042841313 12829631
0.52512002 0.015940314 -0.0061898571 12895679
0.53000003 0.0181624 -0.00064430007 12763837
0.52800006 0.02208381 -0.0080005396 12237494
0.53087503 0.021455323 -0.0015757721 11842990
0.51509529 -0.091996245 0.0041077482 12631733
0.50716001 -0.082140774 0.0056763561 12368562
0.51138711 -0.08699815 0.0051894509 12565684
0.48723078 -0.070999935 0.0044538472 11776425
0.49445003 -0.07479573 0.0047810921 11973804
0.50157148 -0.078340895 0.0060181832 12236976
0.48309374 -0.066784844 0.0044330722 11710632
0.40900001 -0.040081523 0.0095562972 13025209
0.4127059 -0.042439595 0.0058344612 12630706
0.42700002 -0.047843192 0.0059784083 12039082
0.40766689 -0.033957474 0.005751017 14670803
0.41077778 -0.038119957 0.0027586804 13552064
0.40746912 -0.025290688 0.005392231 15329761
0.4104 -0.021387106 0.0013266188 14540247
0.40883335 -0.019806802 0.00763745 13948111
0.41133335 -0.018804038 0.0028671224 13355718
0.51866674 0.0088703511 0.0020007817 12830401
0.52071434 0.0095728729 0.0060735033 12829888
0.51900005 0.011103009 0.0011915548 12829888
0.5233227 0.013176966 0.005312155 12830145
0.53224999 0.01777569 0.0058993292 12171957
0.53531253 0.021164721 0.0042906185 11119266
0.50750005 -0.082483135 0.014532584 12368560
0.51045012 -0.086709596 0.014914404 12565939
0.495 -0.073724531 0.010698928 11842217
0.50409532 -0.077893175 0.015431412 12105389
0.48600003 -0.069244392 0.010786537 11579045
0.40819234 -0.041913904 0.01659037 12499890
0.41218179 -0.044404779 0.012959854 12302254
0.42000002 -0.049025331 0.010796539 12039082
0.40467224 -0.034970045 0.015108016 14144716
0.40418175 -0.025186252 0.015310798 15263970
0.40600002 -0.018483678 0.016442826 13619146
0.52700001 0.014975303 0.011079653 13684940
0.53350002 0.017975081 0.010902613 11447977
0.53800005 0.020325754 0.010051451 11119522
0.50794733 -0.081384957 0.025199318 12302768
0.51054841 -0.085196301 0.024574626 12434353
0.49509093 -0.072598882 0.025583804 11579044
0.50307411 -0.077525817 0.025057392 12105388
0.48572728 -0.068380445 0.02292962 11579044
0.49100003 -0.069572859 0.026800433 11513251
0.40717027 -0.042583629 0.024903297 12368305
0.41217643 -0.046838872 0.025806531 11973804
0.39876199 -0.032055039 0.028075326 14539731
0.40166652 -0.035888508 0.024705095 13750214
0.3986401 -0.027568486 0.028425748 15198174
0.40114781 -0.024632419 0.024277633 15263711
0.40389282 -0.017426804 0.024982914 13618890
0.50670004 -0.081507429 0.034669369 12302767
0.51000005 -0.084603071 0.031018874 12434353
0.49825001 -0.072098687 0.034678064 11513251
0.50299996 -0.076916099 0.035191733 11973802
0.49721059 -0.068390608 0.032995019 11381665
0.41292861 -0.051239885 0.035612155 11513252
0.40480307 -0.043067791 0.035294876 12302512
0.41100007 -0.04816816 0.034040909 11710632
0.39675274 -0.033928122 0.035740659 14079180
0.40082607 -0.038343266 0.032861702 13157821
0.39662606 -0.025431393 0.035658952 15198176
0.40021434 -0.021418929 0.032170426 15000798
0.39880005 -0.019102752 0.038445856 14408918
0.40102634 -0.017681303 0.034762584 13750990
0.50550002 -0.080898687 0.040212251 12236974
0.50349998 -0.07763245 0.040641919 11776423
0.41411373 -0.052198421 0.044592325 11447458
0.3979167 -0.041557811 0.045894954 12565426
0.40405002 -0.045567155 0.044957865 11973545
0.41042858 -0.049143475 0.044452786 11644837
0.39392626 -0.034955233 0.045117501 13816007
0.39342162 -0.02473342 0.045106392 15132382
0.39606673 -0.018073432 0.045904074 14474455
0.40000001 -0.015789354 0.040247448 12500664
0.40675002 -0.050574116 0.052820753 11644065
0.41125003 -0.052336611 0.0505246 11578530
0.39570311 -0.042793728 0.055441163 12302255
0.40205264 -0.047232259 0.053772777 11775910
0.38876319 -0.032805976 0.057389509 14342095
0.39140508 -0.035844844 0.05373843 13816008
0.38864183 -0.026638163 0.056959789 15000283
0.39140305 -0.023472458 0.05316535 15066845
0.39356759 -0.017972067 0.054972429 14606041
0.49600008 -0.07353349 0.067948528 11841959
0.50100005 -0.077245824 0.069175534 11973289
0.48650002 -0.06874676 0.069451258 11578531
0.49000001 -0.069814302 0.068803802 11644324
0.38900003 -0.040853515 0.069192298 13222588
0.3936165 -0.043293137 0.064537369 12367535
0.40080005 -0.048474856 0.061344665 11512738
0.38725904 -0.034775004 0.065306298 14144973
0.39028573 -0.038900353 0.061719369 13420735
0.38684008 -0.025125293 0.065003954 14934748
0.38836011 -0.017730124 0.066856831 14671836
0.39087495 -0.017370597 0.062206902 14540249
0.48700005 -0.071098156 0.072945207 11710374
0.50150001 -0.077911675 0.0745259 11907496
0.48633337 -0.068912633 0.070945226 11578531
0.3859334 -0.042078499 0.076007389 12763064
0.39200002 -0.044383384 0.070643581 11907241
0.38372716 -0.034914039 0.074980877 11906984
0.38379517 -0.02502941 0.074995771 12236721
0.38665906 -0.016583638 0.075767823 14474715
0.38415554 -0.043581061 0.084921069 11645097
0.37796113 -0.033824153 0.086449109 2633772
0.38068509 -0.036136497 0.082696676 2699565
0.37782684 -0.02578922 0.086234294 2699053
0.38069761 -0.023461461 0.082015112 3159088
0.38488719 -0.015359294 0.085127957 14211283
0.38784617 -0.0093030892 0.087353423 13224391
0.79394275 -0.15506789 0.095544986 12302769
0.38433337 -0.050660506 0.098252334 12105133
0.37838897 -0.041215912 0.097273931 11251113
0.38220653 -0.045183793 0.094755128 12302770
0.37532604 -0.035052318 0.094947062 2567722
0.37498644 -0.024845336 0.09499763 2633517
0.37822226 -0.018569214 0.096524335 12764867
0.38283959 -0.014265568 0.094707742 14408664
0.38573685 -0.0089515494 0.096599482 13158340
0.79283339 0.076819606 0.095081709 11053473
0.79392612 -0.1748677 0.10465977 11447720
0.78831244 -0.16399077 0.10665353 13289414
0.79078579 -0.1663561 0.10270621 11578793
0.78656 -0.15449305 0.1066829 15658216
0.79000002 -0.15509406 0.10168157 14540245
0.78612489 -0.14513145 0.10692631 15987435
0.79173338 -0.14468251 0.1015318 14079178
0.78654164 -0.13500232 0.10729109 16053227
0.79208332 -0.13541555 0.10179209 14276815
0.78900003 -0.12903886 0.10339992 15198431
0.381625 -0.05135756 0.10690483 12565428
0.37765393 -0.042113148 0.10534032 10394777
0.38098651 -0.047269352 0.1047901 12565427
0.36829039 -0.032254562 0.10819867 2173479
0.37254876 -0.035267137 0.10419371 2567211
0.36808345 -0.025515158 0.10810905 2435366
0.37161633 -0.024497425 0.10318623 2632746
0.37689877 -0.016689833 0.10512105 12631736
0.38090193 -0.01213203 0.10416853 14408661
0.38312507 -0.0072705233 0.10581422 13684681
0.78700006 0.068423025 0.10682258 12500922
0.78850001 0.074277006 0.10647206 12961473
0.79083329 0.079247966 0.1033296 11185060
0.78900003 0.082449883 0.10894111 14606297
0.79225004 0.085771844 0.10441621 11908527
0.78900003 -0.17152131 0.1144823 10066070
0.79219997 -0.17592964 0.11494707 10592412
0.78516674 -0.1651801 0.11484237 13881808
0.77900004 -0.15232664 0.1172865 15986925
0.78152382 -0.15622003 0.11400417 15394534
0.77886385 -0.14437132 0.11599474 15921130
0.78025007 -0.14587449 0.1118426 15986925
0.77900004 -0.13725111 0.11740807 15789544
0.78095233 -0.13416316 0.11426986 15986922
0.78185719 -0.12917794 0.11605912 15657957
0.38120639 -0.052940875 0.11548626 12499891
0.37721115 -0.043892793 0.11517137 11117984
0.38034284 -0.04851808 0.11369678 12565428
0.36672381 -0.033979703 0.11527847 2370088
0.37126082 -0.038537789 0.11372097 2501417
0.36663482 -0.025175389 0.11523898 2369315
0.36900002 -0.019748693 0.11271389 10986136
0.37622115 -0.014646501 0.11566462 12434356
0.38000003 -0.010774349 0.1109588 14211282
0.3785201 -0.0084544132 0.1173045 14144976
0.38176286 -0.0046247924 0.11461399 13750731
0.38366666 0.00012427689 0.11854196 13618632
0.78700006 0.068423025 0.11603448 13487561
0.78654563 0.075190209 0.1146796 14540248
0.786129 0.085086502 0.11512587 14605784
0.78588569 0.095133409 0.11480963 15197664
0.78659993 0.10521917 0.1150472 15329764
0.78818184 0.11230707 0.11671034 15066593
0.79194117 0.11662249 0.11370575 13092802
0.78900003 -0.17152131 0.12464114 10197142
0.79205883 -0.17578921 0.1248501 10197141
0.78403699 -0.16474074 0.12518069 13815756
0.7790001 -0.1535977 0.12488507 15657960
0.78000009 -0.15815233 0.12504536 15066079
0.77874988 -0.14468162 0.124846 15789544
0.77899998 -0.13496813 0.1249188 15592165
0.78000003 -0.13243623 0.12474104 15526372
0.77900004 -0.12740338 0.12807646 15394786
0.78027284 -0.12810953 0.12467315 15394786
0.38200003 -0.060686551 0.1292046 11775912
0.37853575 -0.051623415 0.12686081 12565428
0.38116094 -0.055541273 0.12468947 12368049
0.37673497 -0.045199968 0.12492615 11644069
0.38000003 -0.049693774 0.12007707 12631221
0.3633095 -0.034200676 0.12494258 2436136
0.37066668 -0.039507125 0.12233501 2566440
0.36323375 -0.025008626 0.12480504 2435882
0.36771432 -0.01910533 0.12647799 8290943
0.37404844 -0.014287328 0.12462939 12039599
0.37743878 -0.006382857 0.12557466 13882317
0.38111112 -0.0024195036 0.12280273 13947854
0.38145456 0.00085438357 0.12775809 13684938
0.77900004 0.071374804 0.1294442 12369080
0.7818262 0.076329105 0.12537363 14013905
0.78216666 0.085397281 0.1253918 14473943
0.78199977 0.095322207 0.12520818 14737116
0.7835201 0.10480846 0.12469342 15066337
0.78773075 0.11452106 0.12507807 13882063
0.79000002 0.11861777 0.12110031 12040113
0.78900003 0.12093037 0.12864311 11842991
0.79160726 0.12495027 0.12478449 11711405
0.78850007 -0.17233613 0.13471456 10066072
0.79169238 -0.1772406 0.13525781 10131094
0.78375006 -0.16507779 0.13514721 13750222
0.77900016 -0.15280427 0.13465463 15461094
0.78045464 -0.15753926 0.13549991 14868700
0.77896661 -0.14472184 0.1349092 15460579
0.77900004 -0.13652165 0.13309151 15723751
0.78038096 -0.13458773 0.1355029 15723751
0.77900004 -0.12740338 0.13126785 15460579
0.78050005 -0.12764888 0.13543662 15657958
0.382 -0.061011747 0.13591163 11842217
0.37808964 -0.052510913 0.13510048 12368307
0.38096553 -0.05763324 0.13438925 12368563
0.36900002 -0.040480748 0.13344595 4737094
0.37467828 -0.045159776 0.13458274 10723740
0.36496618 -0.034800481 0.1334518 1580826
0.37049991 -0.034964588 0.13919309 1120275
0.36421594 -0.024296422 0.13425623 1580315
0.3705 -0.028358081 0.13933745 857102
0.3667742 -0.018601485 0.1344527 8815744
0.37333342 -0.013377856 0.13452333 10920861
0.37645528 -0.0054951007 0.13461128 12895680
0.38000003 -0.00076649763 0.1316417 13487816
0.37900001 0.00012276527 0.13706237 13224389
0.38119146 0.0021759504 0.13376144 13422023
0.77833343 0.075263143 0.13520378 13027011
0.78000003 0.078161739 0.13204503 14211285
0.78139991 0.085316747 0.1353301 14408407
0.78211528 0.095603913 0.13524294 14539737
0.78346676 0.10479999 0.13476959 14868705
0.78686202 0.11433849 0.13519526 13882066
0.78885716 0.12200802 0.13451156 11711404
0.79025 0.12767424 0.13524579 11711403
0.79303843 0.13585888 0.1349183 11645868
0.78854555 -0.17226204 0.14445607 9999509
0.79135716 -0.17706439 0.14446528 10131095
0.78432006 -0.16500019 0.14501846 13947601
0.77900016 -0.15293454 0.14494526 15789289
0.78063643 -0.15774225 0.14483441 15263202
0.77890927 -0.14661731 0.14418282 15395044
0.78014284 -0.14193971 0.14633241 15197665
0.78167999 -0.13516016 0.14453004 15066079
0.78226674 -0.12793779 0.14463945 15197665
0.37866667 -0.054838981 0.14033942 10460054
0.38100001 -0.058297865 0.14001547 12499894
0.36336365 -0.040631127 0.1465726 5395535
0.37160003 -0.042160757 0.14073552 10988971
0.36406669 -0.03526083 0.14687562 1054224
0.37134373 -0.034067206 0.14279468 1054482
0.36523807 -0.024759641 0.1468122 1185550
0.37101924 -0.02709087 0.14437987 857101
0.36600003 -0.019588135 0.14221437 6707534
0.37500003 -0.010413111 0.14044414 8816256
0.37500003 -0.0090962891 0.14044414 10132375
0.77658826 0.076395638 0.14433153 12895424
0.77822232 0.082640693 0.14591213 14277076
0.78088892 0.08759515 0.14417806 14145490
0.77900004 0.097817779 0.14950438 14276824
0.78092861 0.095121622 0.14497527 14474457
0.77900004 0.10146508 0.14859256 14605789
0.78159994 0.10484266 0.14465824 14802911
0.78615391 0.11450721 0.14514382 13553100
0.78900003 0.12068409 0.14255765 11777454
0.79204768 0.12511028 0.14521158 11711661
0.78900003 -0.17152131 0.15327062 9736338
0.79323536 -0.17572397 0.15518551 10065557
0.78507423 -0.16495734 0.15475327 14210774
0.77900004 -0.15212402 0.15457006 15921132
0.78100002 -0.15677066 0.15526497 15460326
0.77900004 -0.14867933 0.15375955 15921132
0.78104162 -0.14411436 0.15568662 15855338
0.78326488 -0.1347855 0.15512395 15197665
0.78375 -0.12840937 0.15362962 14868957
0.36039999 -0.041200556 0.15493341 1711639
0.35856822 -0.03304198 0.1577546 1317910
0.36067915 -0.03549923 0.15385383 1449495
0.35843906 -0.026734799 0.15749007 1252117
0.36082 -0.024446465 0.15363859 1515030
0.36100003 -0.019320538 0.15430033 2762015
0.76750004 0.073017985 0.15897432 12894398
0.77311116 0.077171989 0.15500861 13289412
0.77655172 0.085009381 0.15498784 14211284
0.78000003 0.089726366 0.15152228 14342870
0.77900016 0.09529683 0.15411717 14408664
0.78000009 0.094747856 0.15700026 14606043
0.77900016 0.10237692 0.15497534 14539996
0.78109097 0.10730713 0.15489116 14803168
0.78622234 0.11417207 0.15497944 13750480
0.78578573 -0.1655097 0.16493014 14210518
0.77900004 -0.15171875 0.16105418 15855339
0.78061551 -0.15529211 0.16562809 15526120
0.77900004 -0.14746356 0.16226995 15921132
0.78126681 -0.14514607 0.16481538 15921132
0.78308022 -0.1354031 0.16495287 15592167
0.78321755 -0.1263395 0.1656197 15000029
0.3436923 -0.041167218 0.16729355 1843995
0.35573682 -0.040864166 0.16499171 593932
0.36037505 -0.04080046 0.16164653 1646360
0.34431219 -0.034966663 0.16716571 1646617
0.3555882 -0.034898829 0.16363849 1252118
0.36000001 -0.038861338 0.16095215 1843997
0.34562126 -0.025306027 0.16701098 1580569
0.35545832 -0.027271036 0.16267172 1383960
0.36060005 -0.022844369 0.16426045 989464
0.34300002 -0.019963127 0.16941102 2436134
0.76900005 0.074059054 0.1601869 12697275
0.7733078 0.078095645 0.1645662 13223619
0.77630001 0.084398061 0.16497876 14013905
0.78085721 0.089302912 0.16579209 14211284
0.77900004 0.098729603 0.16044629 14671835
0.7819584 0.095290817 0.16487205 14540249
0.77900004 0.10146508 0.16044629 14935007
0.78143466 0.10476574 0.16492617 14868701
0.78621435 0.1145715 0.16501972 13421768
0.78871435 0.1210627 0.16745821 11777452
0.79291308 0.12551607 0.16395149 11645867
0.78880006 -0.17184724 0.17686763 9736337
0.79226321 -0.17565064 0.17459567 9868436
0.78511548 -0.1650285 0.17478368 14210774
0.78185171 -0.15525711 0.17560972 15197155
0.78287506 -0.14544551 0.17470492 15592167
0.78431046 -0.13485579 0.17452179 15657960
0.78439122 -0.12533104 0.1740948 15065823
0.33730772 -0.040952191 0.17737375 1646363
0.34039134 -0.041326579 0.17238189 1778203
0.33785233 -0.035839159 0.17644392 1711898
0.34045911 -0.035088103 0.17236635 1712409
0.33798072 -0.025576625 0.17508544 1712411
0.34118748 -0.025186295 0.17180555 1712667
0.33700001 -0.019613916 0.17591463 1712158
0.34266672 -0.019943725 0.17084998 1777687
0.77420002 0.076736055 0.1710574 13157826
0.77750003 0.083071068 0.17413093 14013905
0.78118187 0.088367052 0.17585668 14013905
0.78234386 0.095146075 0.17475447 14408663
0.78163326 0.10455374 0.17471106 14737885
0.78569227 0.11415689 0.1749115 13355462
0.78877783 0.12110171 0.17497629 11777196
0.79065001 0.12621284 0.17469239 11645610
0.78860009 -0.17235786 0.18457754 9736334
0.79125005 -0.17768517 0.18484925 9999505
0.78657138 -0.16547264 0.18502422 14473945
0.78306699 -0.1546502 0.18511584 15000288
0.78448153 -0.14462118 0.18504114 15131615
0.78538877 -0.13488354 0.18474406 15394786
0.78566664 -0.12565804 0.18496202 15263201
0.33287498 -0.041329656 0.1836711 1777948
0.33209103 -0.035555553 0.18583815 1909534
0.33190686 -0.026437566 0.18639238 1974560
0.77888894 0.08608719 0.18514059 13618634
0.78000003 0.089726366 0.1807382 14145491
0.77894139 0.094860844 0.18564159 14342870
0.78023082 0.095512882 0.18458414 14474456
0.77900004 0.10055325 0.18506561 14540249
0.78131825 0.10501248 0.18478532 14737628
0.78696293 0.11441422 0.18494466 13750734
0.78900003 0.12031468 0.18097657 11711405
0.79241663 0.12470549 0.18523961 11580074
0.78900003 -0.17152131 0.19482952 9867920
0.79170591 -0.17592786 0.19468075 9933712
0.78757691 -0.16582634 0.19518663 14605786
0.78312522 -0.15523559 0.19521108 15855852
0.78358078 -0.1455459 0.19488117 15855596
0.78441387 -0.13487588 0.1946152 15723752
0.78400004 -0.12526786 0.19475238 15526373
0.77900016 0.088068247 0.19495544 13618893
0.78000003 0.086074382 0.19717215 13750480
0.77900016 0.094740354 0.19646347 13684428
0.78000009 0.095813006 0.19291148 13947599
0.77900004 0.10055325 0.19783118 14342613
0.78200012 0.10501283 0.19482921 14737628
0.78733325 0.11374502 0.19507569 14210771
0.79000002 0.11861777 0.19507647 11645357
0.78900003 -0.17152131 0.20591192 10065041
0.79184216 -0.17594686 0.20513994 9867918
0.78665525 -0.16536437 0.20513953 14539993
0.78293353 -0.15462261 0.20524526 15790058
0.78514296 -0.1447515 0.20523493 15855338
0.78557146 -0.13504642 0.20494017 15723497
0.78584611 -0.12441789 0.20480825 15526118
0.77807152 0.087682702 0.2033174 14079184
0.77813333 0.094977595 0.20489551 13882061
0.778889 0.10134944 0.20641324 14211026
0.78147364 0.10559317 0.20466973 14605784
0.7868889 0.11413032 0.20518862 14079183
0.79000002 0.11861777 0.20154938 11644587
0.78900003 0.12031468 0.20868251 11514026
0.79285723 0.12488551 0.20505719 11514026
0.78900003 -0.17198306 0.21422371 10262933
0.79156256 -0.17671344 0.21491843 9802382
0.7861923 -0.16553596 0.21508947 14539481
0.78300029 -0.1546358 0.21534346 15658217
0.78530765 -0.14512004 0.21527031 15855337
0.78563315 -0.13492532 0.21514773 15526374
0.78604174 -0.12502693 0.21510647 15394788
0.78650004 -0.11942394 0.21446493 15591911
0.77814287 0.098100923 0.2143991 13947857
0.77866673 0.10152337 0.21425408 14145234
0.78127789 0.10613316 0.21558169 14605784
0.7861852 0.11457437 0.2148909 13487559
0.78892314 0.12158168 0.21477114 11448488
0.79023528 0.12714151 0.21466744 11382696
0.79279315 0.13555157 0.2145464 11448233
0.78900003 -0.17152131 0.22530608 11579307
0.79170585 -0.17571001 0.22487962 9736590
0.78651851 -0.16525787 0.22500667 14539479
0.78282773 -0.1547607 0.22544 15460581
0.78403342 -0.14480372 0.22492734 15723752
0.78541166 -0.13510239 0.22493103 15526374
0.78650004 -0.12510003 0.22474726 15131614
0.77900004 0.10237691 0.22245049 14342617
0.7818889 0.10570873 0.22541176 14474200
0.7871154 0.11436267 0.22498098 13487817
0.78900003 0.12031468 0.22253549 11514281
0.79082155 0.1249575 0.22476983 11382696
0.78900003 -0.17182915 0.23515709 11118243
0.79156256 -0.17625007 0.23495477 9736846
0.78689283 -0.16573782 0.23516445 14671577
0.78322607 -0.15465306 0.23483582 15526885
0.78440005 -0.14481038 0.23501064 15460580
0.78687501 -0.13490599 0.23540731 15131870
0.78789663 -0.12529641 0.23497723 15131871
0.78288239 0.10580099 0.23390922 14474457
0.78746414 0.11455403 0.23500507 13289926
0.79216009 0.12451015 0.23511001 11448232
0.78886658 -0.17296998 0.24521239 10920864
0.79100001 -0.17788306 0.24476424 9737102
0.78629637 -0.16521157 0.24518888 14407892
0.7827189 -0.15504038 0.24446876 15461094
0.78387892 -0.14521354 0.24519533 15724265
0.78654838 -0.13522916 0.24503759 15527142
0.78792006 -0.1251725 0.24491785 15132386
0.77600008 0.10652772 0.24770583 15000547
0.78233337 0.10830856 0.24293502 14605789
0.78680778 0.11467283 0.2447975 13158597
0.79320681 -0.18530925 0.25512773 10329496
0.78869236 -0.17301732 0.25433382 11052966
0.79058337 -0.17788132 0.25583366 9539982
0.78585196 -0.16539131 0.25493112 14671064
0.78231025 -0.15529093 0.2552869 15263457
0.78247064 -0.14558609 0.25522718 15921386
0.78328592 -0.13491547 0.25457785 15526886
0.77816671 -0.12635721 0.25803754 15460837
0.78313345 -0.1277092 0.25332183 15066592
0.77600008 0.10715755 0.25331551 15066596
0.78600013 0.11460479 0.25388902 12566460
0.79000002 0.11861777 0.25610679 11513769
0.78900009 -0.17236087 0.26459816 11842740
0.79106671 -0.17715763 0.26490963 9539983
0.78600007 -0.16535532 0.264929 14737372
0.78223079 -0.15554191 0.26527956 15197924
0.78234375 -0.14511816 0.26518631 15855337
0.77900004 -0.13105069 0.26257086 15789544
0.78190905 -0.1360357 0.26496667 15789544
0.77850008 -0.12823343 0.26149109 15723751
0.78828573 0.11493412 0.262537 11579564
0.79099995 0.11774021 0.26579261 11316391
0.78900003 -0.17152131 0.27517676 13619151
0.79168755 -0.17581445 0.27518791 9342861
0.78634614 -0.16535673 0.2748172 14605788
0.78219229 -0.15532304 0.27484468 15066081
0.78219986 -0.145322 0.27463561 15657959
0.78199995 -0.13600196 0.27482629 15723752
0.7918421 0.11635867 0.27460742 11711151
0.78887504 -0.17195588 0.28621325 13158601
0.79176474 -0.17648625 0.28518933 9342604
0.78576678 -0.16530581 0.28489825 14539995
0.78148276 -0.15531671 0.28460261 15197153
0.78161097 -0.14521272 0.28449178 15657960
0.77900004 -0.13196251 0.28992566 15460579
0.78110003 -0.13652483 0.28439653 15658216
0.77800006 -0.12906115 0.28955349 15394786
0.76700002 0.088230923 0.28905067 14013909
0.76866674 0.092022359 0.28967878 14342874
0.77175009 0.098264903 0.28858167 14671839
0.77600002 0.10198264 0.28880912 14606046
0.79000002 0.10937075 0.28847137 14671835
0.78850007 -0.17233613 0.29530725 11776949
0.79143757 -0.17749609 0.29490137 9342606
0.7841723 -0.16503367 0.29513937 15000287
0.77899998 -0.152674 0.29774132 15592937
0.78060871 -0.15571442 0.29409856 15329250
0.77894139 -0.14498539 0.29709041 15592680
0.78027779 -0.14496529 0.29222724 15657958
0.77755171 -0.13438645 0.29584849 15526630
0.78000003 -0.13715339 0.29075435 15855337
0.77706683 -0.1250843 0.2950249 15460837
0.77855557 -0.11841949 0.29684782 15526373
0.78075004 -0.11382803 0.29712597 15789545
0.78250003 -0.10507518 0.29763976 15789803
0.78400004 -0.097937703 0.299128 15723753
0.77000004 0.079563104 0.29919416 13619147
0.76853853 0.085778758 0.29585865 13421515
0.77000004 0.087674737 0.29919416 14145495
0.76900005 0.091161363 0.29340485 14211288
0.77129173 0.095799863 0.29548278 14540510
0.77666676 0.10287999 0.29491499 14277851
0.78406662 0.10720681 0.29474401 14277594
0.78857148 0.11154676 0.29612461 14342873
0.79263633 0.11623471 0.29466197 11842733
0.78814298 -0.17265379 0.3055833 11119788
0.79133332 -0.17795818 0.30451742 9079691
0.77900004 -0.16022913 0.30816218 14013906
0.78303844 -0.1650134 0.30489272 14803425
0.77775866 -0.15438741 0.3050935 15526888
0.78000003 -0.15860882 0.3012538 14934754
0.77666688 -0.14520462 0.30450889 15527145
0.77552807 -0.13500717 0.30527276 15329765
0.77541941 -0.12494287 0.3052786 15329765
0.77715635 -0.11572874 0.30515572 15592424
0.78049999 -0.11211779 0.30235991 15723753
0.77885717 -0.10732318 0.30888692 15592937
0.78190929 -0.10463497 0.30437437 15723753
0.78368187 -0.096312277 0.30575883 15526374
0.770625 0.078725226 0.30597809 14079445
0.76900005 0.082160145 0.30150595 12500413
0.77086961 0.085303262 0.30518281 13355979
0.77296561 0.095034555 0.30521432 14474716
0.7766667 0.10252675 0.30511758 14408924
0.78360003 0.10756936 0.30539536 14079960
0.78845459 0.11184215 0.30502224 14014166
0.78775001 -0.17321135 0.31496552 10395037
0.79045451 -0.17823058 0.31504828 9079433
0.77837503 -0.16169539 0.31497517 14012880
0.78229421 -0.16629611 0.31441972 14736603
0.77541184 -0.15468842 0.31512296 15132131
0.77410012 -0.14472461 0.31437609 15395559
0.77393764 -0.13495509 0.31487778 15198179
0.7741155 -0.1246525 0.31508201 15264229
0.77533329 -0.11500373 0.31487951 15461351
0.77731591 -0.10538332 0.31410304 15461351
0.78079998 -0.10101062 0.31216338 15198179
0.78181821 -0.096748754 0.31326783 15197922
0.77087504 0.076195635 0.3141216 13816529
0.77216005 0.085211083 0.31449518 13816530
0.77384013 0.094455004 0.31517899 14606047
0.77722222 0.10113351 0.31433371 14737632
0.78387493 0.10646357 0.31536469 13750481
0.78850007 0.11170161 0.31422737 12434877
0.78775001 -0.17298047 0.32487842 9736074
0.79090905 -0.17850181 0.32532939 9342344
0.77837503 -0.16237867 0.32363254 13092294
0.78269237 -0.16662918 0.32540753 11775917
0.77560872 -0.15479746 0.32395339 15198181
0.77552396 -0.14472872 0.32416829 15461353
0.7756843 -0.13517515 0.32338789 15395558
0.78150004 -0.1342126 0.32927573 15461355
0.77658343 -0.12503661 0.32296395 15330021
0.78216672 -0.12517411 0.32803106 15462122
0.77725005 -0.11574392 0.32248229 15329765
0.78200006 -0.11439395 0.32697067 15593192
0.77788895 -0.10577325 0.32128027 15592681
0.78290915 -0.10571515 0.32687271 15724522
0.77316672 0.076874308 0.32063657 12171450
0.77461904 0.085220709 0.32370287 13093322
0.77535295 0.094105735 0.32359189 14344161
0.78100008 0.098374404 0.3284564 13027788
0.77900004 0.10055325 0.32183957 14540769
0.78566676 0.10550744 0.32500094 12632258
0.79000002 0.10937075 0.32915828 10461087
0.78900003 0.11107937 0.32135338 10790305
0.79303324 -0.18539606 0.33506078 9934996
0.78879994 -0.17320177 0.33493692 10066323
0.79045451 -0.17806245 0.33523533 10000530
0.785182 -0.16543163 0.33500859 10197911
0.77900004 -0.15475817 0.33004603 14211544
0.78461117 -0.15495247 0.33610079 9869206
0.78522724 -0.14496143 0.33544967 10329499
0.78676468 -0.13538758 0.33507213 9737622
0.79000002 -0.13105181 0.33840528 9605778
0.78726667 -0.12506811 0.33355138 11382962
0.79000002 -0.12550358 0.33840528 9672084
0.78766674 -0.11499123 0.33372021 11645619
0.79000002 -0.11533187 0.33840528 10001303
0.78800011 -0.1058157 0.33386067 11842485
0.79066664 -0.10463164 0.33838263 9869204
0.79066676 -0.099078737 0.33807442 9803412
0.78716666 0.077650405 0.33627489 9013894
0.77900004 0.08778768 0.33004603 12961993
0.78526312 0.08481501 0.33570471 9803154
0.77900004 0.091434985 0.33004603 14278623
0.78600001 0.095386431 0.33596113 10725029
0.78800005 0.10356109 0.33330646 11382447
0.79133338 0.10754987 0.3360441 10593180
0.79288459 -0.18514539 0.34535423 10395802
0.79172015 -0.1752267 0.34507576 10329753
0.78875005 -0.16408192 0.34202456 10329752
0.79064292 -0.16460741 0.34661427 10329753
0.78888893 -0.15569633 0.34264913 10395547
0.79043746 -0.15471716 0.3474988 10395290
0.79116678 -0.1451346 0.34538874 10263960
0.79204005 -0.13509737 0.34484422 10198166
0.79279995 -0.1250196 0.34517437 10132630
0.78900003 0.078755759 0.34167105 9869201
0.79041666 0.077818044 0.34614077 9737615
0.78900003 0.085220478 0.34167105 10066580
0.79105884 0.085117862 0.34670317 10132630
0.78900003 0.091685206 0.34167105 10264730
0.79242855 -0.145036 0.35408887 10395547
0.79189998 0.07830371 0.35609022 9935506
0.79100001 0.079881258 0.36105457 10067350
0.78750002 0.082293719 0.36867478 9935764
0.79220843 0.086265802 0.36415288 10264216
0.78860009 0.087393284 0.37509757 10198936
0.79025 0.089055464 0.3727363 10329752
0.78900003 0.090761669 0.37861234 10264729
0.79210007 0.095015608 0.37471753 10395801
0.79203993 0.11521488 0.37450954 10527131
0.79231989 0.12453145 0.37464139 10593181
0.78888232 0.08662051 0.38637733 10132886
0.78900003 0.090761669 0.38415352 10330008
0.7904762 0.095691226 0.38460773 10330009
0.78720009 0.086992353 0.39543793 10198935
0.78859997 0.093855083 0.39558882 10264727
0.79014289 0.097235285 0.39210862 10461338
0.7914573 0.10486481 0.39508781 10396058
0.79209989 0.13469423 0.3949343 10462108
0.78637499 0.087698765 0.40404585 10132374
0.78828567 0.094965577 0.40390739 10330264
0.79129636 0.10543642 0.40516785 10330522
0.78900003 0.093840107 0.41288564 10264216
0.7902 0.097004615 0.41581598 10330008
