# .PCD v0.7 - Point Cloud Data file format
VERSION 0.7
FIELDS x y z rgb
SIZE 4 4 4 4
TYPE F F F U
COUNT 1 1 1 1
WIDTH 744
HEIGHT 1
VIEWPOINT 0 0 0 1 0 0 0
POINTS 744
DATA ascii
0.43470001 -0.041278593 -0.062093832 12762037
0.44200003 -0.046419676 -0.060034297 12762037
0.43170005 -0.034734264 -0.06267973 14867669
0.43452823 -0.024581729 -0.06291575 14934494
0.43900001 -0.019384231 -0.064251497 14211032
0.44393754 -0.017187051 -0.062502697 13882321
0.45227271 -0.012745273 -0.061620478 14210769
0.45800003 -0.0091431448 -0.060419723 14078413
0.46700001 -0.062164284 -0.050310835 12499633
0.47000003 -0.06403067 -0.051000789 12565426
0.44825724 -0.051845931 -0.054497939 12696242
0.45044449 -0.055157781 -0.054971579 12762035
0.43640009 -0.042337812 -0.055159695 12695987
0.44288886 -0.047065381 -0.05473876 12696243
0.42795458 -0.033037808 -0.054099549 15722721
0.4310931 -0.037344895 -0.055878546 13946053
0.42803034 -0.028281311 -0.053827565 16184300
0.43353125 -0.023726139 -0.055599511 14671835
0.43900001 -0.019384231 -0.05089131 13619661
0.44517145 -0.016907642 -0.054330248 13553611
0.45370838 -0.01241484 -0.057111472 13816267
0.45900002 -0.0095220665 -0.058045197 14342611
0.4605 -0.0084751453 -0.058773324 14211025
0.4736 -0.07202439 -0.042755958 12434355
0.46629414 -0.061752636 -0.044125699 12302255
0.47114888 -0.066943906 -0.04488603 12434098
0.44792306 -0.051640753 -0.046803672 12433840
0.45463634 -0.05501166 -0.044427514 12433585
0.46199998 -0.05874696 -0.042494163 12368049
0.42866668 -0.040670555 -0.041164305 13091000
0.4343667 -0.042097114 -0.045755375 12762035
0.44337505 -0.047672555 -0.046561643 12499120
0.42506757 -0.03413184 -0.04464246 15262427
0.43054545 -0.038620129 -0.047484003 13551809
0.42547062 -0.026691353 -0.044875149 15657957
0.43206248 -0.022170238 -0.047938392 13816526
0.43816665 -0.01917615 -0.046865895 13553353
0.44244444 -0.01711675 -0.048242606 13553353
0.48800004 -0.0009843444 -0.040006623 13422025
0.48800004 0.00015807243 -0.040006623 13553611
0.4953334 0.006611513 -0.041895509 13224646
0.50277781 0.012068236 -0.041345313 13224389
0.51050007 0.016299658 -0.040656101 13421768
0.52500004 0.021063644 -0.041810878 13421768
0.53684622 0.026758134 -0.042757187 11382440
0.54400003 0.025337381 -0.047657542 11513770
0.53780007 0.030894447 -0.041824568 11250854
0.54000002 0.030514508 -0.044269621 11579819
0.509 -0.090395063 -0.031004013 12434353
0.49325001 -0.081465676 -0.033502337 12368562
0.50349998 -0.087651998 -0.030669 12500146
0.477 -0.070567645 -0.038731828 12434355
0.48441187 -0.073292941 -0.034734901 12302769
0.49118757 -0.078249484 -0.033223372 12302769
0.46774998 -0.061260607 -0.035878688 12170669
0.47435141 -0.066061728 -0.034979589 12171182
0.48071432 -0.0692956 -0.032817695 12302768
0.44900003 -0.050308179 -0.03786049 12236463
0.45594737 -0.054071151 -0.037770737 12170670
0.46436846 -0.058381073 -0.035083625 12105133
0.4261305 -0.041718554 -0.034896642 12696499
0.43422225 -0.045160644 -0.036945522 12235949
0.44400004 -0.048708543 -0.035360057 12169900
0.41900009 -0.031532906 -0.030846778 15789540
0.42197829 -0.035133861 -0.035436966 14933718
0.41900003 -0.02896391 -0.030753365 16052968
0.42246071 -0.025301414 -0.035271976 15263456
0.42600003 -0.019807484 -0.031931993 12566457
0.48770592 -0.0019905267 -0.035212893 13487817
0.49000001 -0.00098837854 -0.032140892 13422025
0.48855558 0.0006670336 -0.036874883 13356231
0.49451062 0.0048525268 -0.035565455 13224645
0.50200003 0.0088425623 -0.033195976 13093059
0.50599998 0.012281757 -0.035877984 13027782
0.51331818 0.016969943 -0.034569047 13027781
0.5184167 0.02130576 -0.033499185 13093317
0.52403128 0.025017163 -0.034990422 12961731
0.53100002 0.02752036 -0.038560349 11250854
0.53299999 0.03011895 -0.038081996 11514026
0.509 -0.090395063 -0.027429279 12170925
0.51112509 -0.091970176 -0.023729984 12368561
0.49800006 -0.081738621 -0.025959209 12302769
0.50485373 -0.086090475 -0.024203796 12434354
0.51000005 -0.089378744 -0.020319656 12368560
0.48562968 -0.072690912 -0.025621738 12171181
0.49329031 -0.077438913 -0.025123874 12236975
0.46900001 -0.06023464 -0.026920643 12105388
0.47433332 -0.064764284 -0.024741622 12039595
0.48066667 -0.069235198 -0.023559272 12171181
0.46862501 -0.058678567 -0.027172286 12105388
0.41871431 -0.041313767 -0.022144537 12631219
0.42125002 -0.041036204 -0.028249647 12828085
0.41850004 -0.035297114 -0.02712593 14801875
0.42045459 -0.037804469 -0.02874285 14143689
0.41850004 -0.027785175 -0.029410377 15987176
0.42050004 -0.023980375 -0.029550929 15264225
0.49200001 -0.00099241268 -0.028240845 13619403
0.4967249 0.0027243723 -0.025772694 13422023
0.50375003 0.0077238567 -0.024601024 13224388
0.51000005 0.0097165527 -0.020319656 13027008
0.50760001 0.010859127 -0.027351495 12961474
0.51412898 0.0153406 -0.024848349 12895680
0.51855558 0.021210082 -0.026729746 12895425
0.52379417 0.025026457 -0.02526919 12961218
0.53233331 0.03008128 -0.022867689 11382186
0.5126 -0.092177048 -0.015078465 12499891
0.50591666 -0.083602548 -0.01544937 12302769
0.51076192 -0.088374197 -0.014142408 12368561
0.48630005 -0.071337394 -0.013908407 12039597
0.49554166 -0.076024897 -0.015011036 12171183
0.50133342 -0.079156764 -0.013616342 12171183
0.47625643 -0.063629113 -0.015742159 12104876
0.48105001 -0.068202838 -0.014773997 12039084
0.47450003 -0.059830204 -0.017514095 12170668
0.41842118 -0.041520789 -0.015329888 12697012
0.42068753 -0.043751828 -0.01386641 12236717
0.41465005 -0.035305537 -0.015070767 14539473
0.41485992 -0.025236197 -0.014964188 15395297
0.41600001 -0.019017898 -0.011055902 13223617
0.49900001 0.0024979715 -0.019297302 13553352
0.50562501 0.0065374952 -0.018512774 13290181
0.51255566 0.0094994055 -0.015611981 13027266
0.51616216 0.014315232 -0.016708309 12961217
0.52209097 0.01772707 -0.013297573 13027265
0.52465385 0.022707194 -0.015656559 12829629
0.53183335 0.027772484 -0.017662024 11776942
0.51544446 -0.092794247 -0.0037741906 12631732
0.50641668 -0.082135431 -0.0049647545 12434096
0.51113516 -0.087057352 -0.0048408941 12631219
0.48840007 -0.070958644 -0.0032245647 11973289
0.49448386 -0.074568227 -0.0044329562 12105132
0.5014286 -0.078653976 -0.0057250257 12302510
0.47900003 -0.064883009 -0.0067497133 12236461
0.48438895 -0.067948125 -0.0039846939 11973289
0.41762498 -0.041742902 -0.0040982757 12631219
0.42268431 -0.045203123 -0.0043396805 12236461
0.4086 -0.032534443 -0.0013104567 15000280
0.41233706 -0.035736464 -0.0056907674 14342094
0.40850005 -0.027001636 -0.0014536836 15592934
0.41189399 -0.024410496 -0.0060927961 15263969
0.41430002 -0.019068936 -0.0059447596 13092546
0.51875007 0.0080619464 -0.00063091656 12632509
0.52133334 0.0095259184 -0.0034862945 12961473
0.52522224 0.016069233 -0.0056457138 12895679
0.52785712 0.022326877 -0.0076132463 12171956
0.51500005 -0.091881797 0.0044284468 12631733
0.50673914 -0.0816411 0.0051368256 12368561
0.51152778 -0.086821593 0.0057304758 12565940
0.48866668 -0.070768304 0.0022666713 11842216
0.49433333 -0.073946849 0.0051699164 11973803
0.50211114 -0.078331947 0.0065105893 12171183
0.48625001 -0.067931004 0.004105845 11776166
0.42771432 -0.050926417 0.0081297718 11841961
0.43000004 -0.051031459 0.0053493194 11842216
0.40900001 -0.040081523 0.0095562972 13156793
0.41425005 -0.042704593 0.0058780275 12565426
0.42335004 -0.047983192 0.0066194274 11973803
0.40750012 -0.033959132 0.005701507 14605266
0.41100004 -0.038354244 0.0030796502 13420734
0.40717563 -0.025256956 0.0053217425 15264226
0.40800002 -0.01951634 0.0077591091 13882319
0.51861542 0.0084805852 0.0033384659 12961472
0.52050006 0.0099165989 0.0069843363 12764093
0.52424496 0.014506634 0.0052130911 12764093
0.53075004 0.018809348 0.0080531333 10724509
0.53149998 0.020701721 0.0055774725 10658716
0.50800002 -0.08189448 0.014841552 12302769
0.51054543 -0.086578004 0.014862063 12500148
0.49700004 -0.073721536 0.010448933 11842218
0.50442863 -0.077888384 0.015048588 12105389
0.42200002 -0.050246697 0.011340735 11841961
0.40803573 -0.042103224 0.016694354 12565168
0.41251516 -0.044527896 0.013378099 12367789
0.42000002 -0.048533715 0.011288153 11907497
0.40452164 -0.034998082 0.015084743 14210251
0.4036344 -0.025404841 0.015502744 15329762
0.40518188 -0.01814987 0.017652772 13290181
0.51850003 0.0077546062 0.012417929 12895679
0.52033335 0.0095076477 0.012360101 12764093
0.51900005 0.011103009 0.015771415 13027008
0.52349997 0.013505913 0.013375911 12698044
0.53100002 0.018818209 0.01178529 10856350
0.50696778 -0.082035862 0.025284115 12368561
0.51038104 -0.08614634 0.023872841 12500146
0.49521881 -0.07331764 0.024903702 11644837
0.50261116 -0.07801915 0.02520854 12171181
0.48746157 -0.068399534 0.02455958 11579044
0.49020004 -0.069613375 0.026601795 11447458
0.41537502 -0.050795473 0.027811268 11710629
0.40714595 -0.042644758 0.024699887 12433839
0.41222221 -0.047102749 0.026250146 11973289
0.39868429 -0.032144997 0.028374111 14605521
0.40153411 -0.035608713 0.024504878 13946823
0.39844835 -0.027241956 0.028350066 15329758
0.40105757 -0.024437515 0.024227496 15263967
0.40428883 -0.017533323 0.024290668 13553354
0.50573337 -0.081372425 0.033123326 12302255
0.49659258 -0.072825573 0.035417639 11578787
0.50219047 -0.077655017 0.035240639 12039083
0.49200001 -0.068659537 0.033955321 11447201
0.41284001 -0.051747352 0.034658667 11512995
0.40553632 -0.043246787 0.035363421 12236462
0.41104171 -0.047900062 0.034139041 11841960
0.39669994 -0.033927564 0.035637844 14079178
0.40081823 -0.038512822 0.033118375 13157306
0.39665747 -0.025314441 0.035530739 15263711
0.40000004 -0.020991616 0.0325481 14935005
0.39900002 -0.019252628 0.038512215 14802649
0.40063411 -0.017712038 0.035002224 13882061
0.41462278 -0.052889355 0.0442589 11381409
0.39781821 -0.041526362 0.04620469 12499634
0.40432259 -0.045360189 0.044847991 12038826
0.4111 -0.049045306 0.043864988 11644324
0.39399981 -0.034923553 0.04516295 13947336
0.39372054 -0.024821451 0.045023151 15197918
0.39634484 -0.018267011 0.045759574 14539735
0.40000001 -0.015976634 0.041371137 12829372
0.40900001 -0.050613765 0.050727777 11710630
0.41133335 -0.051544737 0.050374959 11512738
0.39594114 -0.042979628 0.055331077 12236462
0.4012273 -0.047646381 0.054705199 11710374
0.38881248 -0.032585543 0.057524305 14342352
0.39128235 -0.035676692 0.053872183 13881544
0.38869646 -0.026911804 0.057242483 15000282
0.39137182 -0.023561599 0.053612392 15197662
0.39347067 -0.017832909 0.054939631 14605785
0.38900003 -0.040853515 0.069192298 13156795
0.39421055 -0.043537229 0.064425394 12236207
0.40060002 -0.0491997 0.061126959 11446945
0.38715172 -0.034717258 0.065223068 14144973
0.39012504 -0.038916834 0.062085498 13354944
0.38696793 -0.025162291 0.065025076 14934749
0.39000002 -0.020872602 0.06024019 15132384
0.38824996 -0.018538589 0.067465499 14934750
0.39096433 -0.017685829 0.062938921 14803163
0.38636175 -0.042348739 0.076260887 12828087
0.39150003 -0.044324435 0.070553482 12104878
0.38390911 -0.034930926 0.075016618 11841704
0.38379517 -0.025029995 0.074996129 12302258
0.38688639 -0.016632937 0.075657248 14671578
0.39000002 -0.010829636 0.079413131 12830658
0.38377389 -0.043145001 0.085082307 11447976
0.37839702 -0.033721905 0.086401276 2633772
0.38074574 -0.035999134 0.08279907 2764845
0.37828103 -0.025656968 0.086307906 2699310
0.38075501 -0.023687826 0.082222082 3158833
0.38457975 -0.015514567 0.085153826 14211284
0.38777781 -0.0092545897 0.08864335 13092549
0.7918421 0.075870022 0.085624076 10921887
0.38433334 -0.05066051 0.098252334 12170668
0.37843752 -0.041073337 0.097211972 11447464
0.38224176 -0.045046609 0.094979189 12368051
0.3753309 -0.034924854 0.094792403 2567467
0.38000003 -0.03990832 0.090720698 3817534
0.37507775 -0.024928441 0.094769016 2633518
0.37816131 -0.01841059 0.096504226 12896452
0.38247472 -0.014149223 0.094698712 14474455
0.38641185 -0.0085451379 0.096234746 13487046
0.79000002 0.068683848 0.090585135 11053472
0.79030031 0.07586433 0.094627425 11118752
0.79263997 0.08561682 0.094599009 11316132
0.78900003 -0.17152131 0.10894111 11119013
0.79403573 -0.17533828 0.10478063 11381927
0.78820002 -0.16470654 0.10710765 13091775
0.79211771 -0.16532828 0.1023868 11710122
0.78615999 -0.15470837 0.10662756 15592679
0.79218191 -0.15501545 0.10094958 13224385
0.78445458 -0.14482015 0.10738646 16052973
0.79276472 -0.14515278 0.10214234 14342865
0.78538895 -0.13528989 0.10813101 16118765
0.79393756 -0.13553941 0.10345925 15132382
0.78300005 -0.12897408 0.10994568 16052716
0.38214818 -0.051664133 0.10660466 12433841
0.37762275 -0.042163938 0.10539493 10526106
0.38116437 -0.047317926 0.10478396 12499891
0.36822227 -0.032493968 0.10823628 2370599
0.37224305 -0.035270836 0.10404607 2567467
0.36830196 -0.025663661 0.10816341 2435110
0.3716177 -0.02450601 0.10328174 2632746
0.37681824 -0.016743999 0.10538907 12631223
0.38090181 -0.012166689 0.10422093 14408405
0.38357154 -0.0072176126 0.10532781 13684937
0.78800005 0.068509966 0.10511359 11053220
0.78882343 0.074773423 0.10620074 12566459
0.79033333 0.078580998 0.10326603 11513768
0.78900003 0.082449883 0.10894111 14606040
0.79181486 0.085593946 0.10451975 11908783
0.78854555 -0.17226206 0.11491902 10460569
0.79141665 -0.17714345 0.11436981 10723483
0.78483337 -0.1651092 0.11479414 14013135
0.77900016 -0.15329927 0.115706 15986667
0.78109097 -0.1575018 0.11349814 15131616
0.77810341 -0.14471799 0.11459572 15986923
0.77890003 -0.13686839 0.11702813 15855337
0.78068757 -0.13396047 0.11396047 16052716
0.78150004 -0.12872665 0.115221 15789544
0.38139063 -0.052988183 0.11549286 12565428
0.37756479 -0.044173162 0.1153216 11446693
0.38029417 -0.04860682 0.11383191 12631221
0.36629638 -0.034098096 0.11516708 2238758
0.37099996 -0.038854994 0.11489446 2567209
0.36648336 -0.025176246 0.11499333 2369314
0.36900002 -0.019748693 0.11185005 11249311
0.37595794 -0.014601594 0.1154123 12434357
0.38000003 -0.010551953 0.11073641 14277076
0.37857145 -0.0083592171 0.11715587 14079698
0.38171598 -0.0047238055 0.11475912 13750732
0.3854 0.0010280029 0.11871481 12763580
0.78628576 0.074934237 0.11487255 14539736
0.78613341 0.084910311 0.11497838 14671577
0.78640622 0.094836548 0.11559601 15132128
0.79000002 0.096424915 0.11092857 14803419
0.7868799 0.10525515 0.11601201 15394788
0.79000002 0.10474724 0.11092859 15132384
0.7883637 0.11233267 0.11673737 15131873
0.79131258 0.11638529 0.11388975 13092547
0.78833342 -0.17168422 0.12453543 10328727
0.79147065 -0.17587548 0.12530334 10328470
0.78446162 -0.16489077 0.12505373 13881292
0.77900016 -0.15279426 0.12327183 15921644
0.78029406 -0.15652028 0.12632865 15394789
0.77881807 -0.1448326 0.12493972 15789800
0.78000003 -0.14947885 0.12961036 15921130
0.7789374 -0.13502866 0.12464737 15526372
0.77887511 -0.12852272 0.12395304 15394786
0.78000003 -0.12756693 0.12048038 15460579
0.38300002 -0.060845412 0.12954284 11643554
0.38133344 -0.054681826 0.12538779 12433842
0.37696424 -0.045141313 0.1250366 11578277
0.38000003 -0.049693774 0.12341302 12367793
0.36321104 -0.034267772 0.12485043 2436138
0.37075004 -0.039588254 0.12127726 2763816
0.36307192 -0.025017019 0.12473191 2436139
0.36790001 -0.019172337 0.12572263 8225149
0.3739917 -0.014218723 0.12472454 12039599
0.37757897 -0.0064235763 0.1255803 13882317
0.38107887 -0.0022699442 0.12323026 13816526
0.38175002 0.00084995694 0.12682438 13619145
0.78239995 0.076009057 0.12568268 14013391
0.7828216 0.084357239 0.12516949 14605786
0.78406686 0.094785765 0.12478034 14737116
0.78519994 0.10503016 0.12496076 15000542
0.78800005 0.11387549 0.12490211 14145747
0.79000002 0.11861777 0.12479911 11908784
0.78850007 -0.17210524 0.1340225 9999508
0.79166675 -0.17627291 0.13571794 10196884
0.78472435 -0.16521285 0.13514626 13816013
0.78123999 -0.15520522 0.1353045 15263458
0.77900016 -0.14222054 0.1351431 15526373
0.78000003 -0.14778328 0.13482749 15460836
0.77888 -0.1346776 0.13489455 15723751
0.77784622 -0.12735479 0.13527662 15723751
0.38283333 -0.060968366 0.13426468 11841449
0.37817395 -0.051919807 0.13576053 12499378
0.38119751 -0.056739055 0.1343134 12499635
0.36900002 -0.040480748 0.13344593 4474181
0.37487283 -0.04519932 0.13467066 10789276
0.36512503 -0.034705173 0.13396738 1515036
0.37061536 -0.035382744 0.139603 1251863
0.36412251 -0.02445285 0.13429426 1580314
0.37033334 -0.028490404 0.13956337 922895
0.36649999 -0.018754404 0.13440831 8618621
0.37355825 -0.013448435 0.13459475 10723997
0.37622517 -0.0055815917 0.13436681 13092801
0.38000003 -0.00076649763 0.13164169 13553352
0.37900001 0.00034457672 0.13684055 12764353
0.38150969 0.0024729508 0.13365133 13355974
0.77806669 0.075175844 0.13608679 13158337
0.78016669 0.077265568 0.13268177 14079440
0.77900004 0.080493063 0.13765064 14211282
0.78200018 0.084979437 0.13477419 14408663
0.78375012 0.094746359 0.13481775 14474455
0.78453338 0.10494126 0.13495119 14868956
0.78750002 0.11346874 0.13504469 14343127
0.79000002 0.11861776 0.13497083 11777198
0.78866673 -0.17206451 0.14581996 9999508
0.79199994 -0.17614886 0.14458314 10262421
0.78460008 -0.16505882 0.14506818 14013394
0.78150016 -0.15506101 0.14508343 15592424
0.77900004 -0.14199261 0.14038612 15526374
0.78041393 -0.14552562 0.14505211 15329252
0.7790001 -0.13469799 0.14129794 15328995
0.78120005 -0.1350784 0.14627025 15065823
0.77885723 -0.12738001 0.14166299 15460579
0.78125006 -0.12777166 0.14650837 15065823
0.37875003 -0.054407232 0.14051831 10196626
0.38060004 -0.057079025 0.1404027 11315619
0.36324999 -0.040911309 0.14857738 6580580
0.37216666 -0.043014657 0.14068696 10594213
0.36495361 -0.035239439 0.14743578 988945
0.37115276 -0.034295239 0.14310439 1120018
0.36523166 -0.024908977 0.14711758 1119760
0.37088901 -0.026687345 0.14445718 922638
0.36650002 -0.019614894 0.14155182 4732978
0.37400001 -0.011917539 0.14006963 8815742
0.37500003 -0.0082184076 0.14044414 10921633
0.77623534 0.076573998 0.14448094 12960958
0.77805895 0.082325637 0.14567959 14277077
0.781353 0.087407544 0.14489713 14079698
0.78156251 0.095050499 0.1451907 14408663
0.78137922 0.10439426 0.1452274 14803164
0.78678566 0.11465496 0.14487867 13619148
0.78820002 -0.17227092 0.15495971 9868178
0.79163641 -0.17681305 0.15512842 10131348
0.78389668 -0.16478352 0.15487388 14342104
0.78125924 -0.15541145 0.15501796 15526121
0.78208822 -0.14508475 0.15494449 15855339
0.78369713 -0.13500778 0.15507877 15197408
0.78387499 -0.12797037 0.15296681 15131616
0.36057144 -0.04122017 0.15500681 1777177
0.35864291 -0.032868721 0.15776566 1318166
0.36086956 -0.035554826 0.15387192 1383704
0.35857502 -0.026619041 0.15775354 1186581
0.3607823 -0.024576936 0.1536064 1514775
0.36100003 -0.019320538 0.15379328 3287589
0.77349997 0.077511758 0.15508346 13355459
0.77649993 0.08484412 0.15496039 14145490
0.78000003 0.089726366 0.15152228 14211284
0.77900016 0.094942003 0.15707953 14539992
0.78000003 0.095356524 0.15289177 14408663
0.77899998 0.10185586 0.15705951 14540251
0.78078949 0.10550028 0.15427293 14737375
0.78611118 0.11415591 0.15495768 13750737
0.78875005 -0.17192872 0.1643018 9802130
0.79184616 -0.17613506 0.16537444 10065557
0.78557706 -0.16540696 0.16526714 14210261
0.78156 -0.15526767 0.16463369 15526121
0.78256679 -0.1453888 0.16484524 15920879
0.78487092 -0.13464458 0.16515219 15526118
0.78547621 -0.12574717 0.16563246 14934237
0.34353572 -0.041302416 0.16736318 1909790
0.35577777 -0.040831633 0.16515602 659213
0.36045459 -0.041077711 0.16199814 1909273
0.34438255 -0.034973361 0.16719991 1580825
0.35556918 -0.034871645 0.16365929 1317653
0.36000001 -0.038837925 0.16104579 1777685
0.34556118 -0.025253607 0.16704547 1580825
0.35543486 -0.027338497 0.16260837 1515288
0.36100003 -0.022700969 0.16393456 594960
0.34300002 -0.019963127 0.16941102 1777951
0.76900005 0.074059054 0.1601869 12170416
0.77225 0.077086344 0.16493163 13157568
0.77611542 0.085720703 0.16474363 14013904
0.78000003 0.089726366 0.16978224 14145238
0.77900016 0.095255978 0.16339885 14540250
0.7802223 0.09482491 0.16901904 14408410
0.77900016 0.10237692 0.16500542 14737374
0.78049999 0.10714252 0.16532315 14935010
0.78628576 0.11458272 0.16503544 13290184
0.78900003 0.12031468 0.16620007 11777197
0.79200017 0.12532713 0.16455442 11645866
0.78900003 -0.17152131 0.17543539 9736590
0.79133344 -0.17626534 0.17542413 9999761
0.7856155 -0.1651327 0.17489457 14144723
0.78235286 -0.1547772 0.17508987 15132387
0.78433347 -0.14520517 0.17419642 15723753
0.78609979 -0.13500479 0.1747926 15592167
0.78639132 -0.1252501 0.17461757 15131616
0.33707693 -0.040893834 0.177342 1711896
0.34040001 -0.041455358 0.17223665 1843227
0.33758909 -0.035891782 0.17617998 1580567
0.34047726 -0.035095274 0.17206651 1646360
0.33785951 -0.025479905 0.17493175 1777946
0.34117717 -0.025222976 0.17165029 1777947
0.33700001 -0.019613916 0.17591463 2106146
0.34266672 -0.019943725 0.17084996 1908510
0.7736001 0.076675929 0.17128687 13026240
0.77711779 0.082869828 0.17375796 13948110
0.78140008 0.087327279 0.17648965 14079697
0.78207147 0.094866477 0.17592356 14342873
0.77900004 0.10274164 0.17211768 14342875
0.78099996 0.10483469 0.17621775 14803422
0.78632003 0.11409597 0.17491308 13421768
0.79000002 0.11861777 0.17935653 11579564
0.79288012 0.12462425 0.17481484 11645867
0.78900003 -0.17234221 0.18426023 9867922
0.79075003 -0.17722504 0.18531147 9867920
0.78675866 -0.16563879 0.18522754 14408410
0.78416675 -0.15486598 0.18537751 14935264
0.78630006 -0.14516209 0.18495984 15131616
0.78744459 -0.13523521 0.18522838 15394788
0.78792006 -0.12591067 0.18537669 15328994
0.3328107 -0.041269753 0.18368185 1777946
0.78199995 0.086524494 0.18440561 13619146
0.78232145 0.094897918 0.18474177 14277334
0.7823599 0.10465139 0.18494852 14671836
0.78713644 0.11358471 0.18515567 14539992
0.79000002 0.11861776 0.18490475 11579563
0.78900003 -0.17152131 0.19205894 9867667
0.79133344 -0.17547163 0.19500844 9867921
0.78792 -0.16575535 0.19548552 14605532
0.78523326 -0.15507823 0.19481881 15855851
0.78632003 -0.14516586 0.19508846 15921387
0.78703344 -0.13516571 0.19526498 15724008
0.78704751 -0.12573631 0.19535623 15526629
0.77900004 0.087990314 0.19671673 13882319
0.78037512 0.087942638 0.19178542 13092805
0.77900016 0.095212556 0.19691937 13750733
0.78068757 0.09517473 0.19220461 13948113
0.77900004 0.10055325 0.19783118 14277077
0.78200006 0.10486646 0.19466867 14737628
0.78742856 0.11375844 0.19509901 14211027
0.79000002 0.11861777 0.19507647 11579050
0.78900003 -0.17152131 0.20775899 9933711
0.79210007 -0.17544374 0.20495829 9802126
0.78739291 -0.16544829 0.20516129 14474200
0.78494436 -0.15502004 0.20485215 15789801
0.78659999 -0.14521793 0.20528562 15921130
0.78688246 -0.13541049 0.20525028 15723751
0.78752381 -0.1246701 0.2042536 15526629
0.77860004 0.087742135 0.20228593 13882319
0.77839988 0.095010072 0.20496656 13882062
0.77899998 0.10133483 0.20551658 13948112
0.78144991 0.10526337 0.20494728 14605785
0.78713626 0.11341733 0.20500606 14539733
0.7906 0.11870785 0.2054055 11711403
0.78870004 -0.1721949 0.21580322 9999504
0.79137498 -0.177019 0.21475294 9867917
0.78633332 -0.16562741 0.21493019 14408407
0.78363919 -0.15476173 0.21551844 15724265
0.78556001 -0.1450264 0.2151279 15855337
0.78606665 -0.13499965 0.21526711 15526372
0.78621751 -0.12522218 0.2153081 15329250
0.77850008 0.098363072 0.21441184 14013905
0.77900004 0.10116114 0.21333224 14145492
0.78187495 0.10504621 0.21533912 14408664
0.78799993 0.11387623 0.21529274 14013904
0.7906 0.11870785 0.21465671 11645612
0.78862506 -0.17213243 0.22450726 10920607
0.79131258 -0.17677322 0.2246922 9802126
0.78618515 -0.16518708 0.22491175 14473942
0.78303355 -0.15464357 0.22543533 15526374
0.7841 -0.1447563 0.22482222 15789801
0.78568554 -0.13506453 0.22514749 15592165
0.78629166 -0.12506759 0.22468702 15131615
0.78366673 0.10615435 0.2246013 14474456
0.7881304 0.11432851 0.22529909 13684939
0.79000002 0.11861777 0.22189283 11711148
0.79097074 0.12497313 0.22515851 11382440
0.79243332 0.13512422 0.22480072 11382440
0.78900003 -0.17152131 0.23454139 11381157
0.79150009 -0.17588884 0.23493619 9736588
0.78689283 -0.16573782 0.23516448 14736600
0.78320026 -0.15486117 0.23483364 15526886
0.78339297 -0.14521348 0.23510115 15526373
0.78622574 -0.13487531 0.23537968 15197151
0.78759998 -0.12512209 0.23504876 15263199
0.78600007 0.1082044 0.23303628 14737373
0.78810346 0.11451761 0.23503751 13355976
0.78900003 0.12031468 0.23731199 11579562
0.7906155 0.12518957 0.23487918 11447976
0.79310715 0.13546631 0.23516537 11382183
0.78891677 -0.1724267 0.24467391 11184293
0.79131258 -0.17735201 0.24541739 9605517
0.78644443 -0.16524203 0.24523553 14211027
0.78315657 -0.15506907 0.24523628 15395303
0.78416139 -0.144944 0.24494782 15855337
0.7861765 -0.13480115 0.24539277 15657701
0.78703696 -0.12537295 0.24548672 15197663
0.77537507 0.10712186 0.24750543 15132389
0.78150004 0.10910814 0.24420312 14145491
0.77900004 0.11149517 0.24980529 15132133
0.78604013 0.11486261 0.24484323 13027010
0.78877783 0.12089647 0.24555381 11513769
0.79042864 0.12555602 0.24474646 11447976
0.78854555 -0.17259789 0.2550481 11184553
0.79146677 -0.17786527 0.25503767 9539982
0.78535718 -0.16541605 0.25492766 14802651
0.78245723 -0.15465908 0.25536111 15394532
0.78448004 -0.14482579 0.25523502 15986923
0.78332269 -0.13527223 0.25491303 15592166
0.77788889 -0.12681875 0.25733924 15329508
0.78170002 -0.12747812 0.25286466 15066335
0.77477783 0.10726619 0.2526826 15198181
0.77900004 0.11149517 0.25254077 14803425
0.7856667 0.11567292 0.25531554 11711152
0.78862506 0.12095014 0.25404623 11382440
0.7910589 0.12574995 0.25585255 11316647
0.788625 -0.17305598 0.26443022 11053224
0.79116672 -0.17801322 0.26559082 9539982
0.78488892 -0.16491586 0.26496339 14802907
0.78214812 -0.15497591 0.26539537 15197923
0.78361303 -0.14555195 0.26459888 15921645
0.78322738 -0.13593246 0.26474759 15724523
0.77825004 -0.12728247 0.26140624 15592937
0.78000003 -0.12939292 0.26290792 15658730
0.78840005 0.11616339 0.26167852 11316394
0.79122221 0.11736104 0.26648653 11316393
0.78890002 -0.17242308 0.27514237 11447725
0.79150003 -0.17700686 0.27512208 9474190
0.78562975 -0.16534445 0.27508995 14540249
0.78306699 -0.15464802 0.27494037 15066592
0.78535706 -0.14479205 0.27515498 15592935
0.78575009 -0.13724445 0.27560812 15592679
0.78831255 -0.17298761 0.28554755 11184812
0.79124999 -0.17803192 0.2847589 9474191
0.78427583 -0.1649287 0.28492236 14606044
0.78184849 -0.15482363 0.28432781 15066593
0.78415149 -0.14526494 0.28566408 15658215
0.78421742 -0.13655855 0.28547651 15658215
0.77900004 -0.12831521 0.28992566 15460579
0.76866674 0.092022359 0.28967878 14342617
0.77200007 0.098747239 0.28822404 14868448
0.77700001 0.10272195 0.28857577 14868702
0.7853334 0.10689166 0.28829524 14737115
0.78805006 -0.17408434 0.29513845 10592673
0.79014289 -0.1789045 0.29433632 9474187
0.78321439 -0.16483381 0.29496279 14737631
0.77900004 -0.15402873 0.2986792 15724266
0.78047997 -0.15519845 0.2942023 15263716
0.78155559 -0.14520252 0.2954475 15592680
0.77835721 -0.13341634 0.29658338 15526886
0.78081262 -0.13604012 0.29311201 15592423
0.77772415 -0.12518419 0.29509863 15526629
0.7786876 -0.11618562 0.29721472 15723752
0.78000003 -0.11405458 0.29504541 15789545
0.77900004 -0.10843738 0.29758501 15855337
0.78114289 -0.10371627 0.2980375 15789544
0.78300005 -0.098118283 0.29813543 15723751
0.77000004 0.079563104 0.29919416 13354952
0.76880008 0.085738793 0.29602847 13618381
0.77000004 0.086773448 0.29919416 13881554
0.76900005 0.091461398 0.29280481 14474203
0.77108335 0.095698439 0.295553 14671583
0.7762 0.10291889 0.29433414 14540253
0.78399998 0.10755415 0.29502743 14342616
0.78850007 0.11131682 0.29592177 14539738
0.78799999 -0.17344189 0.30463374 10658725
0.79037499 -0.1785278 0.30595523 9145736
0.77900004 -0.16083702 0.30785826 14474202
0.78258342 -0.16516906 0.30446294 14869219
0.77793324 -0.15454738 0.30500501 15461352
0.77754849 -0.1451925 0.30470619 15527144
0.7760002 -0.13493796 0.30485213 15395558
0.7756452 -0.12503757 0.30501592 15461351
0.77688897 -0.11523434 0.30459577 15658216
0.77838105 -0.10656272 0.30591974 15724009
0.78131258 -0.10205935 0.30427396 15657958
0.78308004 -0.09573108 0.30552182 15592165
0.77136362 0.078061469 0.30645636 14145237
0.77104002 0.085086197 0.30501565 13421257
0.77282768 0.095017381 0.30540925 14539998
0.77709097 0.10295474 0.30558801 14540255
0.78329998 0.10752783 0.30527833 14211032
0.7876364 0.11172654 0.30470476 13948116
0.79241174 0.11723693 0.30538967 10987682
0.78744996 -0.17386059 0.31509858 10131865
0.79025 -0.17873064 0.31446192 9079433
0.77850008 -0.1624961 0.31525344 14408151
0.78215396 -0.16693619 0.31405765 14539478
0.77542871 -0.15482922 0.31504574 15000802
0.77462077 -0.14482149 0.31449389 15395304
0.77415162 -0.13501345 0.31481057 15263718
0.7740742 -0.12458406 0.31487098 15329768
0.77469438 -0.11490972 0.31461883 15461097
0.77632004 -0.10507973 0.3145133 15395305
0.78100002 -0.10030545 0.31078169 15394788
0.77775007 -0.098976806 0.31494886 15066593
0.78116673 -0.096667834 0.31206614 15395044
0.77200013 0.077058859 0.31442934 14013907
0.7722801 0.085223392 0.31454337 13882321
0.77332008 0.094390601 0.31496719 14671583
0.77609086 0.10100456 0.31477547 14868448
0.78286672 0.10655485 0.31518644 13552845
0.78845459 0.11201007 0.31509054 12040117
0.79168755 0.1169047 0.31538117 10790303
0.78783333 -0.17372914 0.32426086 9342601
0.79028571 -0.17867269 0.32637078 9277065
0.77833343 -0.16130699 0.32247519 12697277
0.78284216 -0.16546054 0.32559815 12236468
0.77627778 -0.15421867 0.32374656 15329769
0.78066665 -0.15691839 0.32892463 15263976
0.7753334 -0.14495376 0.32304966 15330026
0.78133339 -0.14515886 0.32920551 15395564
0.77588886 -0.13506719 0.32328221 15329769
0.78240001 -0.1352845 0.32965493 15263978
0.77616668 -0.12557791 0.3229427 15329769
0.78180003 -0.12456751 0.32793853 15592941
0.77733344 -0.11530165 0.3229723 15329769
0.78383344 -0.11442828 0.32842389 15658477
0.77679998 -0.10522153 0.3218399 15395561
0.7834 -0.10758102 0.32714438 15790063
0.77359998 0.077760756 0.32123938 12171450
0.77461904 0.085219383 0.32370317 13026759
0.77477783 0.094267406 0.32342297 14474461
0.78100002 0.098070085 0.32906505 13027016
0.77833337 0.10107508 0.32247519 14737376
0.78488237 0.10596579 0.32518718 12237241
0.78866673 0.11185335 0.32450047 10724510
0.7907778 0.11678175 0.32536569 10790303
0.78875005 -0.17192872 0.33186924 9803408
0.79147375 -0.17605959 0.33552685 10000786
0.78763157 -0.16520765 0.33516112 10197654
0.79000002 -0.16988929 0.33840528 10329752
0.78600001 -0.15512578 0.33495864 11316138
0.78718746 -0.14498045 0.33547652 10132123
0.78746158 -0.13545105 0.33476698 9671573
0.79000002 -0.1338259 0.33840528 9934743
0.7871539 -0.12547678 0.33321989 11974328
0.79150009 -0.12435074 0.3385855 9868951
0.78808337 -0.11505157 0.33297309 12829636
0.79142863 -0.11593471 0.3374297 9474194
0.78825009 -0.10584897 0.33211976 15921906
0.79230005 -0.10527714 0.33679575 9868694
0.78737503 0.078362525 0.33590144 9145224
0.79000002 0.07608147 0.33840528 9605774
0.77900004 0.088699505 0.33004603 13948118
0.78584212 0.084683739 0.33585605 10000276
0.77900004 0.092346817 0.33004603 14277340
0.78625 0.095232829 0.33615932 10724513
0.78806674 0.10492343 0.33339629 11053221
0.79042858 0.10757966 0.33753207 10263960
0.78900003 0.11107937 0.3305887 10592926
0.79079175 0.11518872 0.33519831 10658975
0.79172015 0.12443799 0.33543673 10659232
0.79220843 -0.16495498 0.34507427 10329753
0.79282147 -0.15471826 0.34545144 10329752
0.79044449 0.077460997 0.34486824 9737359
0.78900003 0.085220486 0.34167108 10132373
0.79116672 0.085250303 0.34610927 10198166
0.79265004 0.094894513 0.34603888 10461595
0.79250002 0.078177877 0.35339394 9869203
0.79237509 0.087673493 0.37385011 10198423
0.79033333 0.08844801 0.3844941 10133143
0.79220009 0.094841532 0.38478282 10264472
0.78887504 0.087746695 0.39655805 10067352
0.79000002 0.0890273 0.39203802 10264729
0.78900003 0.09223932 0.39652887 10264475
0.79055005 0.095752642 0.39397508 10264730
0.78812504 0.087663054 0.40240794 10001559
0.78866661 0.09406507 0.40438798 10264474
0.79000002 0.09827432 0.40313447 10198680
0.79148501 0.10503252 0.40495741 10330523
0.78899986 0.095995016 0.41493785 10264217
0.79000002 0.09827432 0.41053206 10330524
0.79066688 0.10483828 0.41519538 10330009
0.79232258 0.11525743 0.41472676 10395803
0.78877765 0.098019667 0.42518103 10264729
0.78890455 0.10517372 0.4257926 10264729
0.79016668 0.10754441 0.42171705 10198936
0.78900003 0.11154113 0.42663598 10264729
0.79016024 0.11546006 0.42422876 10330522
0.79038268 0.1248795 0.424824 10396058
0.78900003 0.11107937 0.43217716 10330522
