# .PCD v0.7 - Point Cloud Data file format
VERSION 0.7
FIELDS x y z rgb
SIZE 4 4 4 4
TYPE F F F U
COUNT 1 1 1 1
WIDTH 563
HEIGHT 1
VIEWPOINT 0 0 0 1 0 0 0
POINTS 563
DATA ascii
0.78628576 -0.70684379 -0.4220829 13617366
0.78049999 -0.69498503 -0.42028308 13814998
0.78085715 -0.68524361 -0.42047542 11445937
0.78200006 -0.67526615 -0.42109078 12498628
0.78200006 -0.66519743 -0.42109081 11775674
0.78233337 -0.65449071 -0.42127028 11511730
0.78362501 -0.64364696 -0.421507 11840694
0.78727281 -0.58448362 -0.42292556 11841463
0.78800011 -0.57452804 -0.42324638 12038840
0.78828579 -0.56561959 -0.42210379 11907510
0.79000002 -0.56288767 -0.42539865 12565440
0.78887504 -0.5556218 -0.42156103 12104892
0.79089999 -0.55426991 -0.42514348 11841976
0.78900003 -0.54462802 -0.421166 12039614
0.79089993 -0.54501331 -0.42495856 12039358
0.78900003 -0.53539276 -0.421166 12039100
0.79076928 -0.5344556 -0.42467454 11907514
0.79300004 -0.52473301 -0.42525387 11776183
0.79447627 -0.51465982 -0.4251579 12105148
0.79466665 -0.50481617 -0.42419466 12236475
0.79617649 -0.49497688 -0.42489049 12104888
0.78854555 -0.7133078 -0.41488168 11774395
0.79100001 -0.71822095 -0.41482663 10063520
0.78526664 -0.70566475 -0.4148832 13683672
0.78076202 -0.69534922 -0.41467911 13815256
0.7790001 -0.68817669 -0.41400439 12235968
0.7812143 -0.68353325 -0.41459274 10655911
0.78344756 -0.67525804 -0.41496468 12235457
0.78310001 -0.66497171 -0.41550809 11972538
0.78285748 -0.65479887 -0.41526809 11709365
0.78300029 -0.64509463 -0.41505566 11775157
0.78333366 -0.63515568 -0.41447315 11775670
0.78370398 -0.62495995 -0.41487363 11841720
0.78317893 -0.61453635 -0.4141961 11644854
0.78330797 -0.60466737 -0.41460243 11710647
0.78348023 -0.5954746 -0.41455323 11842233
0.78326678 -0.58522731 -0.41444117 12038585
0.78389281 -0.57498395 -0.41490456 11972792
0.7852692 -0.56509775 -0.4144401 11973049
0.7869643 -0.55512983 -0.41475275 12236221
0.78758633 -0.54517603 -0.41475561 12236734
0.78792602 -0.53507286 -0.41485596 12170428
0.78836 -0.52550882 -0.4150674 12235963
0.79000002 -0.52312547 -0.41985044 12433600
0.78834999 -0.51548135 -0.41389948 12169912
0.79000002 -0.51461822 -0.41874081 11973561
0.78849995 -0.50517243 -0.41351625 12170425
0.79016668 -0.50412065 -0.41778097 12302268
0.78877783 -0.49584806 -0.41243041 12170428
0.79107147 -0.49486452 -0.41724643 12367806
0.78900003 -0.48511159 -0.41110983 12894151
0.79135305 -0.48511618 -0.41686681 12565184
0.78900003 -0.4769024 -0.41039148 12500163
0.79126102 -0.47475076 -0.4156912 12499648
0.79172015 -0.46509951 -0.41446608 12368832
0.78871435 -0.71271658 -0.40571362 13681876
0.79088891 -0.71729815 -0.40509918 10194592
0.78538895 -0.7057749 -0.40483272 13946073
0.78103858 -0.69483083 -0.4045375 13881049
0.77900004 -0.68817669 -0.40853342 12170943
0.78276753 -0.68508327 -0.40470856 11115948
0.7855882 -0.67560434 -0.40576652 12367811
0.78523326 -0.66519159 -0.4053669 12038070
0.78422588 -0.6549806 -0.40469798 11841205
0.7838487 -0.64488769 -0.40456733 11906998
0.78478372 -0.63496584 -0.40520889 11841209
0.78443342 -0.62441897 -0.40501529 11775673
0.78323364 -0.61429608 -0.40457952 11907258
0.78300017 -0.60464197 -0.40513226 11841977
0.78300017 -0.59547704 -0.4051322 11973562
0.78203315 -0.58467287 -0.40463221 12038585
0.78309691 -0.57467258 -0.40429246 12236220
0.7849744 -0.56531131 -0.40544441 11973563
0.78600001 -0.55543745 -0.40484428 12104891
0.78619987 -0.54545486 -0.40494746 12236218
0.7874707 -0.53505838 -0.40495041 12170681
0.7874828 -0.52527392 -0.4048447 12565184
0.78700012 -0.51469064 -0.40535942 12302524
0.7871201 -0.5046342 -0.4054217 12565185
0.78750008 -0.49506706 -0.40581566 12236222
0.78780007 -0.48515153 -0.40451774 12434370
0.78839999 -0.47500092 -0.40423596 12303039
0.78899986 -0.4656904 -0.40357038 12565955
0.79000002 -0.46291706 -0.40772653 12829128
0.78900003 -0.45904747 -0.40146402 13092811
0.79593754 -0.72445577 -0.39481932 10196134
0.78900003 -0.71234143 -0.39530712 14078176
0.79062498 -0.71556717 -0.39427045 10985651
0.78635299 -0.70620745 -0.3947376 13881048
0.78255886 -0.69498432 -0.39482665 13552339
0.78473806 -0.68514878 -0.39513779 11050669
0.78599989 -0.67504007 -0.39472416 12170690
0.78599977 -0.66491985 -0.39472416 11841206
0.78579998 -0.65463316 -0.39462247 11973050
0.78580534 -0.64451957 -0.39462548 11840951
0.78599989 -0.63455921 -0.39472416 11907001
0.78586662 -0.62525338 -0.39465645 11907257
0.78515625 -0.61521083 -0.39435458 11841465
0.78406268 -0.60534859 -0.3952392 11907000
0.78331053 -0.5955869 -0.39536372 12038842
0.78348744 -0.58526379 -0.39508274 12038586
0.78559995 -0.57505947 -0.39502579 11973562
0.78730297 -0.56506979 -0.39512503 12040124
0.78696793 -0.55505216 -0.39523837 11908025
0.78682363 -0.54496634 -0.395136 12301242
0.78783345 -0.53546089 -0.39527544 12433340
0.7879616 -0.52532315 -0.3949995 12302526
0.78777796 -0.51519901 -0.39561573 12368321
0.78783333 -0.50509185 -0.3956438 12302784
0.78736693 -0.4955768 -0.3954089 12303040
0.78717667 -0.48553726 -0.39504346 12368832
0.78783339 -0.47465983 -0.3947233 12500160
0.78820008 -0.46473214 -0.39490709 12499390
0.78879994 -0.4576996 -0.39520743 13027017
0.79275006 -0.4524278 -0.39446178 11711157
0.78900003 -0.71086377 -0.38514829 13880791
0.79099995 -0.71552843 -0.38469264 12038336
0.78652942 -0.70495784 -0.38486132 13881049
0.78448582 -0.69499016 -0.38464776 13420495
0.78549993 -0.68515533 -0.38500717 10788523
0.78600001 -0.67504007 -0.38460386 12433606
0.78619993 -0.66508824 -0.38470104 11906743
0.78686678 -0.65459996 -0.38502759 11972792
0.78615999 -0.64389122 -0.38468197 11709877
0.78600001 -0.63455927 -0.38460392 11973049
0.78600001 -0.62535906 -0.38460386 11841977
0.78599989 -0.61523885 -0.38460389 12039099
0.78582752 -0.60485923 -0.38527974 12038329
0.78538704 -0.59527636 -0.38507295 12170170
0.78542835 -0.58523989 -0.38537371 11973047
0.78649998 -0.57512182 -0.38484859 12170683
0.78738719 -0.5645625 -0.38510475 12105660
0.78800005 -0.55500609 -0.38466021 12171452
0.78802788 -0.5448789 -0.38467324 12236218
0.78826672 -0.53489548 -0.3847889 12301496
0.78800005 -0.52549058 -0.38466015 12368318
0.78780645 -0.51536721 -0.38531011 12368577
0.78784007 -0.50509554 -0.38550475 12434368
0.78800005 -0.49521178 -0.38570967 12237245
0.78748012 -0.48495629 -0.38532865 12566210
0.78653842 -0.47501311 -0.38472721 12697024
0.78731251 -0.46489826 -0.3849009 12433853
0.78860003 -0.4579525 -0.38550714 13092809
0.79425013 -0.45416966 -0.38497487 11185327
0.79613334 -0.72474986 -0.37527287 10195874
0.78900003 -0.7112332 -0.37498945 13946330
0.7907778 -0.71534592 -0.37521684 12169409
0.78662503 -0.70527363 -0.37478057 13749463
0.78479993 -0.69513738 -0.37483138 13486030
0.78577405 -0.68481368 -0.37511769 11051438
0.78677148 -0.67491245 -0.37471759 12367811
0.78712517 -0.66494966 -0.37501812 11775671
0.78700024 -0.65457994 -0.37509167 11841463
0.78612006 -0.64385825 -0.37546131 11841208
0.78527993 -0.63397795 -0.37506086 11907257
0.785923 -0.62508482 -0.3751547 11907514
0.7863999 -0.61541969 -0.37480435 11841978
0.78691697 -0.60490292 -0.37491986 12039099
0.78680015 -0.59468365 -0.37486395 12038841
0.78627586 -0.5852108 -0.37477252 12104634
0.78680021 -0.57521021 -0.37499592 12433598
0.78721231 -0.565005 -0.374809 12170682
0.7879644 -0.55517787 -0.37456271 12368062
0.78879291 -0.54524821 -0.37501809 12367805
0.7889998 -0.53539276 -0.37498948 12302268
0.78836 -0.52573198 -0.37468514 12499647
0.78689289 -0.51541048 -0.37523812 12237248
0.78641385 -0.50494266 -0.3754755 12170940
0.78656024 -0.49506891 -0.37567261 12499389
0.78635997 -0.48573858 -0.37557694 12762560
0.78596658 -0.47537553 -0.3753877 12828610
0.78723538 -0.46529949 -0.37479988 12565955
0.78900003 -0.45913544 -0.37578106 13092552
0.79435492 -0.4558121 -0.37482959 11776949
0.79525012 -0.72487491 -0.36492744 10458277
0.78900003 -0.7127108 -0.36483064 14341086
0.79088891 -0.71709269 -0.36436626 10786985
0.78609532 -0.70544612 -0.36510795 13683926
0.78371894 -0.69394809 -0.36479664 12763079
0.78630769 -0.68488163 -0.36511844 11511218
0.7879616 -0.6750927 -0.36541456 12104893
0.78800005 -0.66492611 -0.36541784 11841977
0.78700006 -0.65400302 -0.36468533 11775927
0.78599989 -0.64375955 -0.36528349 11907258
0.78599989 -0.63455927 -0.36528346 12039097
0.78657156 -0.62502348 -0.36541629 11973561
0.78700006 -0.6151005 -0.36482701 11710391
0.78700012 -0.60496724 -0.36482704 11841978
0.78700006 -0.59483427 -0.36482704 11973306
0.78682142 -0.58496374 -0.36513922 12171455
0.78641391 -0.5749011 -0.36455658 12105664
0.78763348 -0.5648877 -0.36512074 12171198
0.78819358 -0.55406994 -0.36520159 12828355
0.7889998 -0.54462808 -0.36534369 12433854
0.78899974 -0.53539282 -0.36483067 12434624
0.78851849 -0.52604288 -0.36512026 12369088
0.7872501 -0.51538223 -0.36520496 12303296
0.78599977 -0.50470495 -0.36541486 12105661
0.78603327 -0.49473706 -0.36529875 12434624
0.78642422 -0.48527545 -0.36522788 12697539
0.78691673 -0.47502708 -0.36570716 12763076
0.7883448 -0.46500713 -0.36525846 12762564
0.79000002 -0.46024573 -0.36251888 12697282
0.78900003 -0.45966315 -0.36760125 13157832
0.79476935 -0.45561498 -0.36498758 11710901
0.79500002 -0.72557825 -0.35488588 10590120
0.78900003 -0.7127108 -0.35467175 14142939
0.79054546 -0.71696752 -0.35486147 11444916
0.78675014 -0.70548439 -0.3545129 13617365
0.78484374 -0.69511718 -0.35549903 12762565
0.78659368 -0.68527275 -0.35560492 11643833
0.78727603 -0.67505538 -0.35535967 12038842
0.7871381 -0.66483426 -0.3549158 11907511
0.78700024 -0.6547116 -0.35469389 12038586
0.78611541 -0.643996 -0.35500252 12038330
0.78604007 -0.63459134 -0.35518146 12038587
0.78658617 -0.62506288 -0.35555628 12039098
0.78676933 -0.61513227 -0.35537022 11842232
0.78666663 -0.60522258 -0.35567039 11974076
0.78635734 -0.59493977 -0.35512871 11907770
0.78592002 -0.58481938 -0.35512811 12236221
0.78549999 -0.57472044 -0.35513571 12302271
0.78694451 -0.56454498 -0.35482261 12368576
0.78814292 -0.55431509 -0.35507703 12434367
0.78832138 -0.54416031 -0.35495901 12237245
0.7880401 -0.53474152 -0.35424003 12368832
0.78800005 -0.52529293 -0.35481521 12500162
0.78742874 -0.51510423 -0.35480821 12565441
0.78674215 -0.50457025 -0.35466561 12434367
0.78693336 -0.49530348 -0.35466346 12303038
0.78700024 -0.48521248 -0.35469401 12434624
0.78745735 -0.47456437 -0.35503286 12434366
0.7883448 -0.46519831 -0.35482287 12565954
0.79000002 -0.4602457 -0.35512125 13027275
0.79443759 -0.45665926 -0.35501885 11776952
0.79468757 -0.72529227 -0.34513512 10459303
0.78900003 -0.71139151 -0.34622806 13551571
0.7905333 -0.71607113 -0.34437993 13288143
0.78804177 -0.70462006 -0.3448627 13946839
0.78669238 -0.69532686 -0.34562847 12169400
0.78599977 -0.68516028 -0.345043 12300991
0.78599989 -0.67491323 -0.34488434 12170941
0.78612483 -0.66525495 -0.3445231 11842232
0.78678578 -0.65486193 -0.34466529 12039355
0.78603441 -0.64429575 -0.34489983 11973048
0.78537488 -0.63440025 -0.3445397 11841464
0.78492302 -0.62464356 -0.34527767 12104379
0.78514278 -0.61496097 -0.34558755 12170426
0.78541154 -0.6053142 -0.34457001 12170681
0.78527576 -0.59536982 -0.34520224 12236477
0.78440011 -0.58429933 -0.34495354 12170685
0.78549987 -0.57439059 -0.34482253 12236478
0.78734392 -0.56490964 -0.34505543 12564928
0.78839999 -0.55436337 -0.34517351 12433597
0.7889998 -0.54462808 -0.34543648 12367803
0.78883988 -0.53528488 -0.34536594 12367804
0.78812003 -0.52557105 -0.34505069 12434625
0.78770012 -0.51514888 -0.34486622 12434368
0.78768015 -0.50499338 -0.34485751 12565696
0.78744441 -0.49521545 -0.34454915 12499646
0.78714305 -0.48497191 -0.34482026 12499390
0.78620005 -0.47459656 -0.34421116 12303037
0.7876001 -0.46529725 -0.34482434 12566209
0.79000002 -0.4602457 -0.34494951 12566208
0.79503709 -0.45772597 -0.34504274 11447986
0.79340011 -0.72411686 -0.3349804 10261922
0.78900003 -0.71168464 -0.33496976 13616849
0.79045451 -0.71654886 -0.33530757 13880278
0.78819358 -0.7047807 -0.33478704 14012888
0.78761548 -0.69536334 -0.33475971 11511983
0.78618538 -0.6848107 -0.33520535 12629696
0.78600001 -0.67504013 -0.33492279 12169914
0.78596544 -0.66504943 -0.33503506 11906999
0.78565383 -0.65472358 -0.33463511 12038839
0.78562951 -0.64488643 -0.33497071 12104376
0.78503561 -0.63437164 -0.33431509 11972793
0.7846207 -0.62413538 -0.33509356 11908026
0.78437936 -0.61501479 -0.3349902 11974076
0.7850666 -0.60531873 -0.33452466 11777465
0.78537935 -0.5948773 -0.33484644 11974074
0.78499997 -0.58491319 -0.33549637 11974331
0.78633332 -0.57499987 -0.33506435 12172224
0.78791678 -0.56509191 -0.33481696 12368833
0.78874266 -0.55473745 -0.33530059 12434112
0.78883851 -0.54469508 -0.33506098 12631233
0.78899974 -0.53539282 -0.33527753 12367803
0.7887665 -0.52600265 -0.33517778 12696769
0.78800005 -0.51534462 -0.33485278 12564927
0.78800005 -0.50519866 -0.33485278 12499645
0.78800005 -0.49505267 -0.3348527 12697281
0.78766674 -0.48504427 -0.3351545 12565951
0.78588456 -0.47461927 -0.33473247 12500160
0.78741926 -0.46521956 -0.3352893 12829640
0.79120004 -0.46075779 -0.33361694 12434881
0.79594123 -0.45898861 -0.33575636 11316401
0.79305887 -0.7252267 -0.32493275 10919851
0.78858346 -0.71371961 -0.32448608 13880531
0.79000002 -0.71823764 -0.3255308 14406621
0.78699994 -0.70516521 -0.32443854 14144216
0.78703237 -0.69488537 -0.32454607 11315376
0.78716683 -0.68525654 -0.32528353 12104379
0.78623331 -0.67524111 -0.32489794 11841722
0.78581238 -0.66533673 -0.32449439 11973308
0.78503323 -0.65485215 -0.32526055 11907256
0.78499991 -0.64477819 -0.32530823 11841463
0.78557116 -0.63500094 -0.32475552 11973563
0.78536659 -0.6248551 -0.32453933 11973306
0.78565705 -0.61510116 -0.32458067 12236734
0.78622866 -0.60481966 -0.32476443 12039612
0.78720599 -0.59498864 -0.32529935 12236988
0.78679997 -0.58486021 -0.32513216 11973816
0.78638226 -0.57476568 -0.3251774 12237245
0.78748286 -0.56493902 -0.32462174 12302782
0.78784627 -0.55511039 -0.32450214 12368574
0.78783339 -0.54474461 -0.32463878 12434366
0.78824008 -0.53487647 -0.32480645 12697537
0.78827995 -0.52567774 -0.32482311 12434109
0.78790009 -0.51527971 -0.32466593 12697023
0.78732002 -0.50476301 -0.32442769 12697537
0.78719229 -0.4952535 -0.32451713 12697280
0.78680003 -0.4857164 -0.32428658 12236986
0.78611088 -0.47546265 -0.32484782 12237243
0.78757137 -0.46640062 -0.32512119 13158346
0.79281825 -0.46086943 -0.32525441 12171452
0.78900003 -0.72009909 -0.31034222 14603490
0.79184622 -0.72455239 -0.31517008 11116205
0.78794748 -0.7143836 -0.31487972 13945813
0.79000002 -0.71916234 -0.31905788 14735074
0.78556526 -0.70441115 -0.31442857 14275291
0.78662509 -0.6953128 -0.31499022 11577265
0.78800005 -0.68598145 -0.31548309 12367552
0.78700012 -0.67497796 -0.31508276 11973049
0.78652006 -0.6644398 -0.31488934 12104377
0.78555167 -0.65430057 -0.31526288 12104633
0.78499991 -0.64477807 -0.31520078 12235706
0.78574181 -0.6354177 -0.31475714 12169914
0.78600001 -0.62535906 -0.31468236 12170173
0.78599989 -0.61523885 -0.31468245 12236475
0.78653336 -0.60460675 -0.31489605 12104889
0.78771436 -0.59478098 -0.31517079 12302523
0.78707421 -0.58424467 -0.3153168 12170937
0.78684008 -0.57445163 -0.31501839 12433853
0.78700006 -0.56535619 -0.3150827 12237244
0.78700012 -0.55522305 -0.31508273 12302781
0.78700006 -0.54508984 -0.31508279 12368576
0.78720015 -0.53509223 -0.31516358 12565954
0.78744012 -0.52511692 -0.31526029 12368832
0.78730005 -0.51488781 -0.3152037 12434622
0.78684008 -0.50445551 -0.3150183 12368573
0.78683996 -0.49524441 -0.31501815 12499902
0.78700012 -0.4852125 -0.3150827 12500415
0.78756684 -0.47449845 -0.31530902 12434624
0.78845006 -0.46589422 -0.31557062 12961224
0.7930401 -0.46156442 -0.31482428 12040380
0.78883338 -0.72148585 -0.30412176 14538463
0.79090905 -0.72621876 -0.3055394 11314355
0.7868948 -0.7145924 -0.30534557 14012120
0.7851153 -0.70460629 -0.30513895 14144475
0.78645456 -0.69501078 -0.30532461 11183280
0.78724146 -0.68538463 -0.30520323 12827591
0.78700024 -0.67497796 -0.30494964 12104635
0.78700012 -0.66484463 -0.30494967 11973047
0.78611112 -0.65509808 -0.30511531 12038840
0.78499991 -0.64477819 -0.30509347 12169912
0.78556651 -0.63512719 -0.30531344 12302012
0.78636658 -0.62491304 -0.30488724 11908027
0.78618163 -0.61496258 -0.3048825 12039612
0.78672242 -0.60475272 -0.30484065 12105403
0.78710014 -0.59491026 -0.30498788 12171454
0.78700024 -0.58470112 -0.30494964 11974331
0.78700012 -0.57456791 -0.30494958 12368320
0.78715169 -0.56496167 -0.30475655 12302268
0.78748506 -0.5551452 -0.30538762 12236730
0.78765637 -0.54519862 -0.3049719 12434366
0.78702962 -0.53470582 -0.30517763 12500159
0.78713346 -0.52491212 -0.30500075 12632000
0.78763902 -0.51510769 -0.30519575 12500416
0.78786671 -0.5051133 -0.30528462 12566209
0.787 -0.49555129 -0.30546153 12303293
0.78664303 -0.48532087 -0.30593064 12895175
0.78731441 -0.4744769 -0.30536187 12434882
0.78852934 -0.46688065 -0.30527002 12763845
0.79385716 -0.46235088 -0.30494598 11447730
0.79266667 -0.73458236 -0.29446608 11116975
0.78807694 -0.72422475 -0.29436892 14406365
0.79000002 -0.72779292 -0.29778975 11511477
0.78420007 -0.71415937 -0.29514694 14077655
0.78292006 -0.70465124 -0.29512361 14275800
0.78475684 -0.69541901 -0.29507047 11248557
0.78569996 -0.68495965 -0.29463729 12827846
0.78640002 -0.6748299 -0.29459324 12104377
0.78696162 -0.6650244 -0.29466057 12104633
0.78664303 -0.65513909 -0.29527393 11906997
0.78549987 -0.64519 -0.29517335 12301242
0.78530538 -0.63491672 -0.29510194 12170426
0.78633326 -0.62495339 -0.29506898 12105146
0.78700006 -0.6151005 -0.29481658 12434111
0.78766686 -0.60547841 -0.29506591 11974073
0.78768015 -0.59534937 -0.29507101 12237502
0.78700012 -0.58470112 -0.29481661 12105659
0.78659993 -0.57427603 -0.29466781 12236733
0.78692603 -0.56489247 -0.29499471 12500163
0.78771436 -0.55539626 -0.29488674 12368831
0.78800005 -0.54486012 -0.29519117 12631233
0.78768015 -0.53449821 -0.29507089 12499391
0.7876001 -0.52522314 -0.29504117 12697283
0.78743339 -0.51497424 -0.2949799 12237245
0.78679991 -0.50442988 -0.29474342 12434624
0.78553843 -0.49449748 -0.29511935 12566209
0.78436011 -0.48523772 -0.29551938 12632003
0.78566676 -0.47469252 -0.29502532 12501188
0.78858346 -0.46741951 -0.29525575 12501188
0.79386681 -0.46378791 -0.29521713 11645880
0.78780007 -0.72380036 -0.28491014 13223117
0.79000002 -0.72840935 -0.28299451 11578296
0.78313643 -0.71383357 -0.2847839 13486287
0.78122222 -0.70392251 -0.28520161 13288906
0.78305906 -0.69547981 -0.28476807 11116460
0.78434503 -0.68539494 -0.28451568 12894150
0.78479993 -0.67492658 -0.28480777 12368062
0.78593332 -0.66486239 -0.28521854 12433598
0.78616005 -0.65493315 -0.28530052 12367805
0.78585172 -0.64506954 -0.28498307 12302268
0.78499991 -0.63434255 -0.28507566 12433855
0.7854799 -0.62494427 -0.28505334 12302525
0.78653342 -0.61565512 -0.28543612 12500160
0.78761119 -0.60543579 -0.28490511 12368319
0.78783339 -0.59546477 -0.28498536 12499647
0.78676927 -0.5855931 -0.28530905 12302268
0.78585708 -0.57498223 -0.28538755 12039867
0.7855925 -0.56475323 -0.28489083 12303809
0.78696781 -0.55504948 -0.28541595 12369089
0.78770602 -0.54492772 -0.2851572 12434624
0.78737509 -0.53463602 -0.28459024 12631745
0.78723347 -0.52497971 -0.284769 12565952
0.78642315 -0.51537651 -0.2851834 12565953
0.78531981 -0.50531977 -0.28499585 12368830
0.78420013 -0.49542019 -0.28459027 12434624
0.78293121 -0.48532805 -0.28488719 12565954
0.78382063 -0.47508234 -0.28496954 12763587
0.78800011 -0.46830276 -0.28446865 13290187
0.79435718 -0.46456701 -0.28508237 11316912
0.78871435 -0.72221243 -0.27593896 12235966
0.79081821 -0.72630346 -0.27386096 10262178
0.78555 -0.71474576 -0.27459133 13551823
0.78237516 -0.70449275 -0.27493522 11513010
0.78369462 -0.69537908 -0.27431157 10394022
0.78430015 -0.68582034 -0.27452511 11381683
0.78374314 -0.67477632 -0.27482802 11118510
0.78559458 -0.66504693 -0.27500284 11447216
0.78558046 -0.65462852 -0.27506268 11052202
0.78591657 -0.64461017 -0.27509153 11381939
0.78648388 -0.63477105 -0.27514017 11908281
0.7864514 -0.62524331 -0.27518827 12434881
0.78648555 -0.61517072 -0.27536875 12566210
0.7873795 -0.60509926 -0.27480921 12566210
0.7871601 -0.5949558 -0.27460626 12500673
0.78613782 -0.5848549 -0.27501088 12303037
0.78503323 -0.57497013 -0.27478334 12500418
0.78451729 -0.56521946 -0.27533138 12566210
0.78475863 -0.55500209 -0.27522701 12763588
0.78606677 -0.54536277 -0.27422568 12698052
0.78608 -0.5352518 -0.27422974 12763330
0.78680009 -0.52561015 -0.27448064 12828867
0.78637928 -0.51507896 -0.27509439 12763331
0.78499991 -0.50511426 -0.27477014 12566465
0.78326946 -0.49497366 -0.27487046 12171964
0.7818749 -0.48495209 -0.27474645 12566208
0.77900004 -0.47389746 -0.27175948 12303038
0.78174084 -0.4742721 -0.2753619 12894660
0.78626329 -0.46813783 -0.27419829 12961480
0.79438466 -0.46457756 -0.27504796 10790569
0.78900003 -0.72009909 -0.26878333 12828359
0.78811115 -0.71406102 -0.26601815 11709877
0.79016668 -0.71592313 -0.26178139 11447734
0.78718168 -0.70497978 -0.26483488 11052203
0.78743744 -0.69528329 -0.26444495 10460070
0.78690308 -0.6851446 -0.26429152 11052971
0.78647357 -0.6750555 -0.26481608 11776694
0.78788567 -0.66516936 -0.26484382 11974073
0.78771883 -0.65473312 -0.26488647 11843003
0.7879687 -0.64502537 -0.26450965 11382452
0.78839391 -0.63542867 -0.26524764 11250865
0.79000002 -0.63131559 -0.26080164 9934493
0.78864276 -0.62502182 -0.26569325 10987692
0.79000002 -0.62484276 -0.26080164 9934491
0.78846663 -0.61458522 -0.26546207 10724263
0.79000002 -0.61836982 -0.26080164 10197919
0.78853106 -0.60487539 -0.26469925 11776181
0.78818744 -0.59480923 -0.26481456 11513010
0.78766674 -0.58488876 -0.26463801 11513266
0.78703219 -0.57506639 -0.26451334 11184558
0.78636098 -0.56474292 -0.26465642 11447986
0.78621614 -0.5550409 -0.26501811 11513522
0.78736109 -0.54503137 -0.26453587 11184815
0.78754848 -0.53488332 -0.2646887 11711156
0.78770971 -0.52547479 -0.26480293 11710642
0.78763902 -0.51510864 -0.26463035 11842485
0.78693098 -0.50464118 -0.26423222 11908277
0.78459269 -0.49485317 -0.26513535 12105912
0.78191298 -0.4855403 -0.26481536 12303292
0.77899998 -0.47480923 -0.26607814 12895174
0.78066671 -0.47389248 -0.26218638 13290702
0.78537935 -0.46794122 -0.26516777 13158859
0.79385722 -0.46487471 -0.26499325 10527397
0.78900003 -0.69146961 -0.25862449 11381682
0.79264295 -0.6956526 -0.25450802 8750477
0.78900003 -0.68431222 -0.25793183 11973817
0.79152191 -0.68517828 -0.25348547 7500667
0.78900003 -0.67484599 -0.25770092 10000285
0.79159093 -0.67470175 -0.25290048 7171446
0.78900003 -0.66468716 -0.25862449 8816266
0.79314727 -0.66527808 -0.25331131 8355719
0.78900003 -0.65545189 -0.25862449 9935004
0.79376471 -0.65541154 -0.25372624 8093060
0.78900003 -0.645293 -0.25862452 11777467
0.79414713 -0.64522916 -0.25390244 8291207
0.79376954 -0.63501137 -0.25464812 9080469
0.79337162 -0.62495697 -0.25468642 9672349
0.79254556 -0.61527276 -0.25488663 10132642
0.78900003 -0.60281056 -0.25862449 10065822
0.79107994 -0.60495526 -0.25404367 10790056
0.78900003 -0.59408832 -0.25780356 11578031
0.79040927 -0.59505564 -0.25277722 11250347
0.78900003 -0.58526349 -0.25770098 11118763
0.79056525 -0.58481425 -0.25269878 10921640
0.78900003 -0.57510465 -0.25770095 11316399
0.79076183 -0.57475728 -0.25267687 11119277
0.78900003 -0.56494582 -0.25770092 11184814
0.79068184 -0.56480336 -0.2528635 11382192
0.78900003 -0.55478692 -0.25770092 10921641
0.79040015 -0.55484647 -0.25260618 11250347
0.78899997 -0.54436415 -0.25690934 11184300
0.79031259 -0.54576522 -0.25188458 11579055
0.78874987 -0.53506941 -0.25500241 11776690
0.79000002 -0.53977013 -0.25155464 12433850
0.78860706 -0.52530187 -0.25460428 11514547
0.78870356 -0.51529145 -0.25503862 11448242
0.7888146 -0.50531089 -0.25466454 10855593
0.78799999 -0.4950529 -0.25534245 9803162
0.78638697 -0.48492298 -0.25526556 9145231
0.78592682 -0.47514316 -0.25612605 9737883
0.79166669 -0.4717162 -0.25167176 10856105
0.78800011 -0.46891832 -0.25829515 13028300
0.79496562 -0.46736628 -0.25537416 10659495
0.79425806 -0.5949204 -0.24462686 9145489
0.79415143 -0.58485717 -0.24441928 9408917
0.79415619 -0.57485127 -0.24450602 9211541
0.79485732 -0.56493539 -0.24469392 9080211
0.79537499 -0.55490208 -0.24482115 9146258
0.79472417 -0.54498404 -0.24464634 9540759
0.79324353 -0.53500396 -0.24499698 9606038
0.78900003 -0.52523392 -0.24938916 10330016
0.79400015 -0.52497756 -0.24442381 9474966
0.78900003 -0.51507509 -0.24938914 10725031
0.79415166 -0.51488066 -0.24452554 10001053
0.78900003 -0.50861037 -0.24938916 11711156
0.79363894 -0.50467837 -0.24511316 10527138
0.78900003 -0.49198675 -0.24938916 10658468
0.79328138 -0.49528977 -0.24498612 10593189
0.78900003 -0.48552203 -0.24938914 9342864
0.79293931 -0.48501742 -0.24415649 11382448
0.78900003 -0.47998086 -0.24938916 9211792
