# .PCD v0.7 - Point Cloud Data file format
VERSION 0.7
FIELDS x y z rgb
SIZE 4 4 4 4
TYPE F F F U
COUNT 1 1 1 1
WIDTH 763
HEIGHT 1
VIEWPOINT 0 0 0 1 0 0 0
POINTS 763
DATA ascii
0.78883338 -0.14347751 0.16924262 15196892
0.78818184 -0.13494466 0.16887869 15196631
0.78784615 -0.12473519 0.16808374 14407115
0.79395658 -0.12532225 0.16303439 11512995
0.7876001 -0.11461359 0.16737764 13421250
0.79235291 -0.11573155 0.16242783 11579303
0.78740901 -0.10456339 0.16636333 12697785
0.79049999 -0.10592169 0.16165783 11973804
0.78753841 -0.095188841 0.16617168 12631734
0.79044443 -0.094116122 0.16156946 12039340
0.7872631 -0.085103557 0.16718879 13157560
0.79178578 -0.084212303 0.16214962 11973032
0.78825003 -0.075862862 0.16834779 13420216
0.79285717 -0.074649312 0.16302873 11973544
0.78781247 -0.064756058 0.16802303 12695981
0.79271436 -0.064872466 0.16255872 12039595
0.78753334 -0.055053327 0.1677321 11710119
0.79285711 -0.055158418 0.16223396 11842731
0.78793335 -0.045489356 0.16818745 10726311
0.78850007 -0.034816552 0.16886301 9871004
0.78850007 -0.024664141 0.16886301 10725025
0.78833342 -0.014047094 0.16836594 10262419
0.78850007 -0.0052822684 0.16886301 9866634
0.79320025 -0.0053137536 0.16336256 10987939
0.78850007 0.0048701419 0.16886301 10787732
0.79319984 0.0048991712 0.16336252 11053475
0.78850007 0.015022552 0.16886301 10259846
0.78871435 0.024523476 0.16956881 10262157
0.78900003 0.035349771 0.16989419 11448489
0.78900003 0.044585086 0.16989419 8555661
0.78833342 0.054699242 0.16975065 9345174
0.78900003 0.064902782 0.16989419 9740447
0.78900003 0.075061634 0.16897069 11120297
0.79261535 0.074832126 0.16360219 10988452
0.78860009 0.085178681 0.16980807 13157564
0.79330313 0.085180305 0.16405959 11448487
0.78875005 -0.1523101 0.1769951 10328982
0.79154545 -0.15632696 0.17414664 10789534
0.78571433 -0.1448642 0.17528903 12104110
0.79000002 -0.14954583 0.17010953 15131355
0.77875006 -0.13397177 0.17794161 13355461
0.78304356 -0.13539776 0.17346725 12365740
0.77864295 -0.12434981 0.17703776 12630194
0.78249997 -0.1254091 0.17279521 12430504
0.77818745 -0.11486047 0.17678723 12630192
0.78280002 -0.11519779 0.17222126 13155252
0.77806264 -0.10505061 0.17653088 12565171
0.78194451 -0.10500279 0.1720338 12960185
0.77780014 -0.094704792 0.17612964 12367786
0.78191668 -0.095388822 0.17157048 13882568
0.77800012 -0.085254163 0.17586318 12104356
0.78207153 -0.084750034 0.17153907 14539725
0.77740014 -0.074911587 0.17685786 12103591
0.78280002 -0.074880466 0.17222081 13552062
0.77695847 -0.065075994 0.17654411 12233892
0.78284615 -0.065158606 0.17152742 14867664
0.77693105 -0.055315558 0.17626069 12036771
0.78250003 -0.054700524 0.17124127 14802643
0.77704173 -0.045376692 0.17656285 11380899
0.78315383 -0.044452924 0.17159456 14672855
0.77709103 -0.035551712 0.17708507 11053476
0.782875 -0.034909092 0.1723512 14409431
0.77773356 -0.025237391 0.17657003 10857123
0.7834667 -0.025423756 0.17236716 13949648
0.77854556 -0.016316049 0.17758383 10922657
0.7831201 -0.014853485 0.17346187 13882315
0.77900004 -0.0052186265 0.17868282 9804180
0.78343999 -0.0052486509 0.17419182 13026750
0.77883339 0.0048110215 0.1786446 9869206
0.78303349 0.0048354794 0.17410095 12828858
0.77900004 0.011802136 0.17807494 9144453
0.78311116 0.015259157 0.17459315 12433584
0.78386128 0.025029745 0.17520204 11776167
0.78613335 0.035222426 0.17571189 10987168
0.77900004 0.049490962 0.17868282 8026496
0.78477144 0.045130238 0.17527477 11778489
0.77900004 0.054961931 0.17868282 9013133
0.78348005 0.055278014 0.17420045 12634053
0.77900004 0.060432881 0.17868282 7959415
0.78315163 0.065198064 0.17512572 12172986
0.77900004 0.076845758 0.17868282 9405306
0.78382766 0.074916631 0.17446508 12106159
0.77800006 0.085460886 0.1779314 12630448
0.78433347 0.084979177 0.17360492 11973289
0.7772857 0.092793562 0.17880765 13091516
0.78567994 0.095234483 0.17527737 12500149
0.79142863 0.095543489 0.17094587 13685195
0.78772736 0.10436492 0.17799993 12764346
0.79356527 0.10534077 0.17337285 11711403
0.78900003 0.11107937 0.17912951 11777452
0.7920323 0.11497226 0.174787 11579819
0.78850013 -0.15255888 0.18455334 10856098
0.79074997 -0.15755637 0.18554324 9606032
0.77900004 -0.14016895 0.18506561 12172474
0.78418177 -0.14586288 0.18487705 11382443
0.77736682 -0.1344168 0.18467715 11645875
0.77710021 -0.12527369 0.18461366 11777200
0.7765559 -0.11518828 0.18448438 12368823
0.77636695 -0.10516229 0.18443917 12040114
0.77680588 -0.095221207 0.18454467 12828600
0.77616692 -0.085148521 0.1843915 12959672
0.7763828 -0.075388938 0.18471098 13025462
0.77672011 -0.065207474 0.18543422 12301737
0.7768389 -0.055127487 0.18528612 12300710
0.77616012 -0.045174263 0.18529995 12628909
0.77615654 -0.034952156 0.1849571 12368821
0.77660024 -0.025200151 0.18449458 11975091
0.77719468 -0.015213211 0.18463565 12237748
0.77696699 -0.0052063307 0.18458126 12105392
0.77675027 0.0047989679 0.18452996 12236722
0.77850014 0.013112035 0.184946 12368049
0.78036368 0.017359231 0.18497457 12433070
0.78206658 0.024971824 0.18487987 12038827
0.78292012 0.035076998 0.18508023 11644583
0.7790001 0.048761502 0.18579507 11184549
0.78117388 0.043742839 0.18466686 11381414
0.77866656 0.054938011 0.18498746 11185577
0.77866662 0.064962715 0.18498594 10987426
0.7772668 0.07485424 0.18465115 11447203
0.77570587 0.084476613 0.18454798 11972519
0.77470374 0.09476088 0.18454552 13157565
0.77715391 0.1018566 0.18595535 14276815
0.78415805 0.10624693 0.18353342 13026493
0.78822219 0.11291903 0.18520409 11513769
0.79000002 0.11779581 0.18469924 11514026
0.79184008 0.12445743 0.18533625 11579819
0.78854555 -0.15212399 0.19513655 11316395
0.79175001 -0.15717745 0.19493097 9671570
0.77900004 -0.14016895 0.19236022 13753042
0.78352004 -0.14487781 0.19527167 11251626
0.77776009 -0.13448496 0.19478637 11448746
0.77752012 -0.12534115 0.1947272 11777198
0.77690023 -0.11523896 0.19457072 12237495
0.77700019 -0.10524843 0.19459555 11842740
0.77703357 -0.09524858 0.19460329 12433848
0.77636015 -0.085170478 0.19443524 13091002
0.77663356 -0.07519874 0.19450352 12696500
0.77700019 -0.065231271 0.19459479 12434613
0.77730018 -0.05524743 0.19467087 12434100
0.77700025 -0.045223899 0.19459611 12564399
0.77600044 -0.035043161 0.19512287 12300712
0.7764076 -0.025395229 0.19485027 12104105
0.77753347 -0.015219619 0.19473003 12106165
0.77736014 -0.0052081086 0.19468619 11778999
0.77736694 0.0048020412 0.19468814 11911099
0.77884221 0.013879471 0.19544049 12371393
0.78028578 0.017997667 0.19359003 11711924
0.78163886 0.024957821 0.19483951 11777456
0.7822665 0.035047472 0.19499728 11052960
0.77900004 0.049490962 0.19144839 7108720
0.78131253 0.044663146 0.19527526 11383726
0.77900004 0.055975065 0.19246155 9608085
0.7800625 0.05446627 0.1968457 12172470
0.77823335 0.064925291 0.1949043 10987168
0.77664018 0.074793607 0.19450557 11249567
0.77525711 0.084770896 0.19493674 11577762
0.77433336 0.094513386 0.19483468 12564915
0.77692312 0.1018261 0.19415723 13750218
0.78269237 0.10695191 0.19531542 12961216
0.78792858 0.11264299 0.19469681 11448233
0.79053849 0.11727563 0.19542381 11448233
0.7881667 -0.15212116 0.20553894 11710890
0.79193747 -0.15756233 0.20482203 9933969
0.77900004 -0.14016895 0.20603761 12498863
0.78291661 -0.14530876 0.2048562 12236204
0.77833331 -0.13458365 0.204951 12038826
0.77830541 -0.12455596 0.20494376 12170927
0.77776676 -0.11445711 0.20480154 12368821
0.7772668 -0.10528467 0.20466982 12041397
0.77727795 -0.095279306 0.20467295 12305598
0.77703363 -0.085243769 0.20460819 12305086
0.7770558 -0.075241253 0.20461412 12171703
0.77736682 -0.065262519 0.20469671 11710892
0.77747232 -0.055259168 0.20472321 11973291
0.77740014 -0.045246888 0.20470411 11447720
0.77664542 -0.035349492 0.2052398 11579818
0.77735722 -0.025029104 0.20501962 11906471
0.7788887 -0.015246282 0.20509624 12037027
0.77819997 -0.0052141249 0.20491515 11972518
0.77777785 0.0048033963 0.20480394 11776427
0.77833337 0.014830419 0.20495057 11908016
0.7790001 0.021376314 0.20542972 11645101
0.78025001 0.026662536 0.2053017 11447980
0.77900004 0.036725391 0.20968492 12040625
0.78088897 0.034782525 0.20511347 10856095
0.77900004 0.042196352 0.20922902 13619660
0.78021896 0.045344025 0.204932 11316393
0.77900004 0.058001354 0.20542973 11120555
0.77999997 0.0537282 0.20525864 10790821
0.77852768 0.064951226 0.2050018 10527648
0.77863336 0.074986249 0.20503074 10856098
0.77654845 0.084634513 0.20521429 11183774
0.77563995 0.094673768 0.20515004 12236720
0.77850008 0.10079265 0.20347697 12105650
0.78435004 0.10574913 0.20561495 12632252
0.78871435 0.11156688 0.20412357 11316649
0.79235303 0.11646493 0.20542324 11448233
0.78880006 -0.16113707 0.21823153 9802123
0.78642315 -0.15425423 0.21514827 10986139
0.79033333 -0.1582434 0.21150182 9867661
0.7790001 -0.14108077 0.21515587 13158076
0.78175002 -0.14652134 0.21536365 12104618
0.77863997 -0.13463676 0.21505602 12697783
0.77803844 -0.12521522 0.21474862 12632247
0.77741396 -0.1151578 0.21484186 12632248
0.77810341 -0.10464317 0.21490809 12697783
0.77826917 -0.094698876 0.21495511 13289151
0.77760011 -0.08530651 0.21477051 13288896
0.77743345 -0.075279012 0.21472265 12501179
0.77720016 -0.065248631 0.21465796 11910839
0.77720016 -0.055240136 0.21465833 11582133
0.77827996 -0.045296341 0.21495751 11777971
0.7784999 -0.035286125 0.2150197 11908012
0.77811998 -0.025250722 0.21491328 12170411
0.77853322 -0.015238103 0.21502692 11381152
0.77900004 -0.0052186269 0.2151559 10986397
0.77816665 0.0048059672 0.21492657 11184291
0.77888 0.014839739 0.21512288 11184293
0.77899992 0.024741391 0.21541642 10791073
0.78000003 0.026729569 0.21178009 9671308
0.77900004 0.034901738 0.21530785 11382181
0.78000003 0.034946542 0.21178009 7763822
0.7790001 0.044020008 0.215073 10395802
0.78012508 0.047507897 0.21569514 11251111
0.7790001 0.055127706 0.21499009 10067097
0.78000003 0.054902054 0.21556249 10264218
0.77899992 0.064992018 0.2151559 9737878
0.77872002 0.074994013 0.2150777 10986915
0.77641207 0.084981062 0.21508089 11184030
0.77553338 0.094660804 0.21510543 11842219
0.77833337 0.10077115 0.21557768 12632253
0.78477281 0.10598171 0.21490981 11645613
0.78900003 0.11107936 0.21514724 11250855
0.79272741 0.11641617 0.21472643 11316646
0.78830779 -0.16186053 0.22468267 9671306
0.79157156 -0.16678777 0.22498092 10000273
0.78413641 -0.15486473 0.22483321 10656917
0.77876198 -0.14385948 0.22559384 12828085
0.78060013 -0.1481328 0.22345567 11710115
0.77788234 -0.13514858 0.22507632 13024950
0.77730018 -0.12530671 0.22469409 13089972
0.77719474 -0.11528126 0.22466403 12827572
0.77847052 -0.10480391 0.22492577 12500407
0.77884364 -0.094900571 0.22525427 12567485
0.77886659 -0.085444577 0.22514732 12041401
0.77816665 -0.075350195 0.22494578 11909812
0.77720016 -0.065248609 0.22466652 11975087
0.77722245 -0.055241618 0.22467221 11908526
0.77859253 -0.045719318 0.22516896 11448492
0.78000003 -0.041745204 0.22456205 11317679
0.77896762 -0.03474877 0.22532353 11711663
0.78000003 -0.038823612 0.22456205 9475220
0.77846658 -0.025261737 0.2250305 11579819
0.77894425 -0.015247307 0.22516987 11644581
0.77889997 -0.0052183471 0.22515653 11906979
0.77872211 0.0048102047 0.22510512 11841445
0.77879995 0.014837747 0.22512731 11513251
0.77891648 0.024869017 0.22516195 11315102
0.77816665 0.034863073 0.22494291 11643813
0.77799994 0.04476805 0.22516197 10986911
0.78000003 0.046815503 0.22091007 13422020
0.77885181 0.054951128 0.22564913 10198682
0.78000003 0.055032481 0.22091007 13553606
0.77861094 0.064959317 0.22507183 10264988
0.77746683 0.074872479 0.22473969 10857381
0.7757501 0.084468089 0.22481266 11249312
0.77523988 0.094624385 0.22500665 11776169
0.77781826 0.10122943 0.22443062 12303283
0.78412503 0.10672539 0.2248289 11974320
0.78850007 0.1119325 0.22516331 11382439
0.79150003 0.1166834 0.22457807 11382696
0.78845459 -0.16116761 0.23488237 9539723
0.79218745 -0.16676933 0.23514129 9999759
0.78509086 -0.15497071 0.23513407 10723225
0.77850008 -0.14395264 0.23483746 12564916
0.78137511 -0.1488279 0.23501989 11643814
0.77763343 -0.13537271 0.2348028 13024949
0.77772003 -0.12537433 0.23482986 12827572
0.77706695 -0.11526317 0.23463264 12760749
0.77796149 -0.10516738 0.23476113 13024177
0.77765524 -0.095168799 0.23493424 12894389
0.77740008 -0.085283644 0.23473167 13486271
0.77733356 -0.075268358 0.23471156 12368563
0.77728009 -0.065254688 0.23469606 12040886
0.77750009 -0.055261653 0.23476401 11646641
0.77807993 -0.045285072 0.23493837 11382954
0.77793324 -0.035261717 0.23489246 11053217
0.77799994 -0.025246359 0.23491417 10855844
0.7785666 -0.015240042 0.235084 10460569
0.77807993 -0.0052131196 0.23493785 10986397
0.77750015 0.0048027863 0.23476174 11051163
0.77772003 0.014817639 0.23482835 11378844
0.7786333 0.024859827 0.23510423 10788501
0.77716017 0.034818646 0.23466001 11051930
0.77723348 0.044831138 0.23468287 11446690
0.77867997 0.054938968 0.23511975 11382695
0.77716136 0.064982846 0.23483628 10922402
0.77603364 0.07473623 0.23522843 10724771
0.77566671 0.084686756 0.23511726 10922404
0.77574986 0.094493397 0.2348188 11908011
0.77900004 0.10055325 0.23339242 12039339
0.78447837 0.10557998 0.23519219 11842732
0.78871435 0.11156686 0.23366587 11382439
0.7919445 0.11644086 0.23521028 11316647
0.78900003 -0.16105461 0.24346887 9474188
0.79226321 -0.16579242 0.2453713 9605516
0.78626931 -0.15422583 0.24498715 10460312
0.77883345 -0.14287403 0.24519289 11974833
0.78160006 -0.14704205 0.24515121 11710892
0.77766675 -0.13537842 0.24482509 12434867
0.77706689 -0.12526783 0.2446371 12434354
0.77713907 -0.11527402 0.24466035 12302255
0.77723348 -0.10527922 0.24469016 12631217
0.77766669 -0.095327109 0.24482758 12302255
0.7779001 -0.085338764 0.24490243 12433072
0.77783334 -0.075317092 0.24488115 12301741
0.77710027 -0.065239817 0.24464813 12762805
0.77808332 -0.055302009 0.24495713 11908525
0.77833325 -0.045301836 0.24503769 11448749
0.77705586 -0.035221085 0.24463423 11317421
0.7778666 -0.025241563 0.2448891 11054761
0.77788883 -0.015227232 0.24489662 10922147
0.77766669 -0.0052103186 0.24482511 11710636
0.77711129 0.004798823 0.24465042 11907241
0.77676696 0.01479916 0.2445419 11972261
0.77772224 0.024832549 0.2448445 11183258
0.7778002 0.034847271 0.24487145 11643808
0.77786106 0.044868052 0.24488933 11907237
0.77896661 0.054959722 0.24523583 11447463
0.77782869 0.064761184 0.24500746 10264988
0.77624011 0.074755542 0.24528594 10593442
0.77596688 0.084720813 0.24519929 11053477
0.77662969 0.094997838 0.24500363 11907755
0.78499997 0.1049434 0.24512471 11842989
0.78900003 0.11107936 0.24470025 11250851
0.79268175 0.11624122 0.24491215 11382438
0.78709519 -0.15356241 0.25494447 10855839
0.79040003 -0.15887327 0.25531274 9277066
0.77840006 -0.14279482 0.2550787 11578537
0.78154558 -0.14694856 0.25477731 11908271
0.77660638 -0.13500169 0.25498679 12170413
0.77696019 -0.12525079 0.25460753 12038311
0.77706689 -0.1152631 0.25464255 11840676
0.7775358 -0.10473385 0.25473124 11709602
0.77870363 -0.094946288 0.25524732 12038566
0.77900004 -0.085459359 0.25527626 11907752
0.77889991 -0.075420104 0.25524381 12105133
0.77728021 -0.065255903 0.25471288 12039341
0.77730018 -0.055246968 0.25471938 11513510
0.77880013 -0.045327634 0.25521156 10922404
0.77741945 -0.035092641 0.25493446 10856612
0.77682167 -0.025402334 0.25514585 11316391
0.77733344 -0.015216017 0.25472924 10658974
0.77724004 -0.0052075852 0.25469977 11383981
0.77642453 0.0050417166 0.25492755 11580333
0.77600032 0.014784397 0.25520146 12038569
0.77764523 0.024685556 0.25500783 11379352
0.77867997 0.034886464 0.25517231 11708573
0.77806664 0.044878777 0.25497112 11775913
0.77896005 0.054959293 0.25526297 11775912
0.77761286 0.065018646 0.25499749 11315101
0.77563322 0.074696928 0.2550799 10723740
0.77513862 0.084630281 0.25491756 10854816
0.77600008 0.094593748 0.25504416 12104878
0.78470379 0.10490403 0.25496519 11711146
0.78887504 0.11175441 0.25551108 11316644
0.79074997 0.11650981 0.25431088 11316646
0.7924332 0.12455101 0.25503585 11447976
0.78694993 -0.15320936 0.26497206 11118755
0.79100001 -0.15830036 0.26545826 9473675
0.77780002 -0.14323185 0.26544473 11711917
0.78155565 -0.14733866 0.26404196 11710891
0.77666682 -0.13539715 0.26492527 11907756
0.77700025 -0.12525733 0.26462519 12629939
0.77644473 -0.1151707 0.26443446 12629680
0.77700031 -0.10524808 0.26462498 12630192
0.77772224 -0.095331907 0.2648699 12892335
0.77796668 -0.085346468 0.2649518 12826544
0.77752799 -0.075287975 0.26480296 12564911
0.77706689 -0.065237105 0.26464748 12631472
0.77705586 -0.055230614 0.26464403 12170923
0.77849984 -0.045308795 0.26513445 11644323
0.77728587 -0.035362463 0.26485175 11119780
0.77618551 -0.024985539 0.26485208 11382696
0.77711135 -0.015211158 0.26466262 11316650
0.77763337 -0.0052097053 0.26484102 11974067
0.77693951 0.004548497 0.26501897 11579565
0.77612013 0.014786215 0.26523444 11776168
0.77702874 0.02494007 0.26476389 11709602
0.77783322 0.034850247 0.2649062 12169381
0.77750003 0.044844471 0.26479396 11906978
0.77703339 0.054823559 0.26463354 11841444
0.77671444 0.064669512 0.2646552 11711148
0.77523988 0.074659057 0.26493275 12040114
0.7745294 0.084776439 0.26532903 11710634
0.77564281 0.09461125 0.26526362 12763580
0.78537053 0.10512967 0.2650561 12039856
0.78900003 0.11107937 0.26224735 11316645
0.79160875 0.11547805 0.2654539 11250597
0.79357147 0.1245525 0.26492038 11382440
0.78900003 -0.16043893 0.27887091 9736588
0.78641677 -0.15439518 0.27519366 10789534
0.79033333 -0.15885986 0.27194068 9539211
0.77800006 -0.1439746 0.27543786 10855587
0.78112507 -0.14832321 0.27517128 11315880
0.77706695 -0.13527364 0.27465299 11447467
0.77684635 -0.12516284 0.27478445 11710121
0.77608371 -0.1151175 0.27521366 11645355
0.77639306 -0.10529498 0.27499872 12170412
0.77700025 -0.095244288 0.27462944 11315615
0.77643371 -0.085178249 0.27533662 12104360
0.77625042 -0.075163476 0.27527189 12300970
0.77636695 -0.065177709 0.27531287 12892336
0.77690649 -0.055447154 0.27493677 12235435
0.77728009 -0.045237761 0.27472821 12170410
0.77730018 -0.035233207 0.27473566 12105390
0.77674103 -0.02500434 0.2749418 11580076
0.77652979 -0.015306531 0.27510408 11187119
0.77714837 -0.0050038523 0.27508473 11122098
0.77670616 0.0049029854 0.27516624 11121581
0.77643359 0.014792576 0.27533692 11382954
0.77661794 0.02500893 0.27513492 11185059
0.77656692 0.034792874 0.27538368 11381667
0.77658355 0.044792082 0.27538967 11250080
0.77570015 0.054728225 0.27507702 11315101
0.77466655 0.064629637 0.27470976 11972516
0.77444124 0.075222574 0.27484328 11644580
0.77396435 0.084889792 0.27484903 11315873
0.77496433 0.094787523 0.27513951 12565685
0.77900004 0.10055325 0.27898374 10197393
0.78504175 0.10471168 0.2747117 12237237
0.79000002 0.10937075 0.27645025 11185063
0.78833336 -0.16178057 0.28564757 9342086
0.79121435 -0.1668444 0.28441468 9539208
0.77900004 -0.15111086 0.28810203 10724003
0.78354555 -0.15499888 0.28436002 10987169
0.77700013 -0.14526786 0.28463167 12105908
0.77630591 -0.13514082 0.28437746 12171956
0.7763797 -0.12521999 0.28456169 12105905
0.77593356 -0.11509569 0.28515059 11513768
0.77599996 -0.10497817 0.28477129 11710634
0.77652812 -0.095185913 0.28446019 12104876
0.7760402 -0.085134804 0.28519061 11906983
0.77526653 -0.075068399 0.2849054 12104617
0.77563995 -0.065115958 0.28504327 12893875
0.7769708 -0.055008806 0.28489053 13156277
0.77796668 -0.045277912 0.28498885 12301999
0.77836108 -0.035281282 0.28513417 11316134
0.77710724 -0.025413861 0.28499946 11316388
0.77637529 -0.015084017 0.28497297 11446945
0.77660739 -0.0053976527 0.284814 11250083
0.77606285 0.0046796361 0.28485781 11185061
0.7760002 0.014784398 0.28517589 11578537
0.77590656 0.024544878 0.28479978 11512482
0.77539992 0.034740452 0.28495392 11973032
0.77531236 0.044605892 0.28526163 11973034
0.77475852 0.054786831 0.2854687 11775397
0.77383351 0.064560123 0.28528509 11776169
0.77311134 0.075359657 0.2850185 11972518
0.77300018 0.085301891 0.28497821 11183260
0.77410704 0.094294548 0.28506216 12631734
0.77816671 0.10044569 0.28506029 13026493
0.7859565 0.10609772 0.28491119 11710891
0.78900003 0.11107937 0.28995332 11053475
0.79375863 -0.17448291 0.29502982 10197910
0.7882309 -0.16283871 0.29506502 9276805
0.79027271 -0.16725726 0.29462487 9474185
0.77820003 -0.15095568 0.29509231 12565941
0.78295243 -0.15624733 0.29523548 10986909
0.77596557 -0.14494893 0.29499671 12500150
0.77527773 -0.13496214 0.29489094 12368564
0.77526659 -0.12497812 0.29488644 12500411
0.77491659 -0.11494425 0.29475376 12236980
0.77499986 -0.10497709 0.29478598 12696756
0.77575028 -0.095090061 0.29507142 12565172
0.77586693 -0.085115999 0.29511592 12762035
0.77516645 -0.075058945 0.29484993 12630449
0.77516645 -0.065076724 0.29484972 13026493
0.77602804 -0.055156484 0.29517606 12960698
0.77751851 -0.045453142 0.29523742 12893619
0.77829987 -0.035277132 0.2951304 12038567
0.77744013 -0.025229778 0.29480496 11579559
0.77639425 -0.01495144 0.2949042 10987937
0.77600032 -0.005198529 0.29516733 11447974
0.7759726 0.0047926027 0.29515663 11777454
0.7755667 0.014775596 0.29500103 11382957
0.77508318 0.024745785 0.29481757 11250857
0.77423328 0.034688104 0.29449412 11579050
0.77411771 0.044756949 0.29471707 12433071
0.7738573 0.054856915 0.29525709 12564397
0.77339298 0.0648463 0.29488602 12104104
0.77296793 0.075491689 0.2950936 11710374
0.77289301 0.085096441 0.29547098 11513511
0.77446151 0.094601721 0.29493022 12959931
0.77880007 0.10052744 0.2953217 13289153
0.78528583 0.10592246 0.29480186 11776428
0.78900003 0.11177202 0.29618716 11053475
0.79038095 0.11629661 0.29468843 11119268
0.7924999 0.12456179 0.29475987 11250854
0.79227579 -0.17421833 0.30522755 9802899
0.7883572 -0.16360453 0.30448151 9145477
0.79014289 -0.16754188 0.30596444 9145480
0.7781111 -0.15154633 0.30598897 12433840
0.78326315 -0.15676823 0.30463681 10591892
0.77513331 -0.14491905 0.30536014 12236720
0.77391678 -0.13472578 0.30524418 12237236
0.77370018 -0.12472536 0.30515847 12105910
0.77394462 -0.11479948 0.30525607 12303031
0.77426666 -0.10487767 0.30538252 12829115
0.77469426 -0.094961375 0.30555084 12763322
0.77463323 -0.08498048 0.30552658 12894134
0.77449995 -0.074993402 0.30547377 13418679
0.77446663 -0.065018743 0.3054606 13485500
0.77436113 -0.055038814 0.30541927 13025465
0.77582777 -0.045090012 0.30471247 13157305
0.77677798 -0.035207659 0.30455321 12499890
0.77693355 -0.025211668 0.30461562 11578272
0.77654576 -0.015450168 0.30487686 11644067
0.77572006 -0.005197403 0.30504787 11776941
0.7747646 0.0049970997 0.30531138 11120558
0.77406675 0.014747023 0.3053039 10462887
0.77400011 0.024712007 0.30527821 10922922
0.77386677 0.034671597 0.30522496 11251373
0.77319467 0.044596814 0.30495951 11053993
0.77302802 0.055444848 0.30489403 11316390
0.7724334 0.065347902 0.30465788 11775652
0.77171421 0.075093724 0.3045027 12104360
0.76900005 0.083960384 0.30960706 13486530
0.77122235 0.085307501 0.30468103 11249310
0.77393341 0.094468541 0.30488634 12894136
0.77883339 0.10053173 0.30536041 12368310
0.7854349 0.10602681 0.3049491 11513257
0.78900003 0.11177202 0.30403715 11053219
0.79041183 0.11639474 0.30560184 11053475
0.79267997 0.12458955 0.30503875 11119268
0.79244006 -0.17412658 0.31533462 9474445
0.7882728 -0.16314369 0.31501648 9079686
0.79018188 -0.16706981 0.31493995 9079687
0.77700001 -0.15155099 0.31514275 12565942
0.78305882 -0.15729342 0.31472427 10131603
0.7737307 -0.14479651 0.3149246 12632249
0.77300018 -0.13456534 0.31483659 12698558
0.77300012 -0.12461251 0.31483662 12370110
0.7729094 -0.11456403 0.31529248 12566461
0.77290338 -0.10486836 0.31584623 12368828
0.77340013 -0.094803013 0.31499818 12829629
0.77340013 -0.084845021 0.31499818 13091514
0.77348399 -0.074981771 0.31520742 13288123
0.77372009 -0.064955905 0.31512883 14010817
0.77350026 -0.054978039 0.31503889 14010816
0.77396572 -0.044920459 0.31447786 13025207
0.77486122 -0.035120748 0.31468481 12829110
0.77499998 -0.025149008 0.31474099 11776935
0.77497238 -0.015170041 0.31472981 11249052
0.77449995 -0.0051889489 0.31453922 11381412
0.77406257 0.0045539639 0.31492895 10856099
0.77372009 0.014740683 0.31512883 10264734
0.77323353 0.024687339 0.31493059 10461597
0.77282763 0.034687355 0.31551415 11513768
0.77236122 0.044548739 0.31547889 11381928
0.77197206 0.055368938 0.31532109 11513510
0.77089995 0.065218106 0.31488356 11577758
0.76900005 0.079459779 0.31770813 12892590
0.77000028 0.074791573 0.31430399 11511454
0.76873088 0.084761292 0.31545034 10919061
0.77000004 0.086322799 0.3104603 12828857
0.76900005 0.090261243 0.31680802 13288636
0.77261543 0.094656758 0.31467873 12368051
0.77759999 0.10037254 0.3148922 12368051
0.78530008 0.10596949 0.31478968 11513514
0.78900003 0.11107937 0.3130416 11119011
0.79122734 0.11560528 0.31527323 11053475
0.78840005 -0.162348 0.32480007 9145479
0.79099995 -0.16686475 0.32556358 9013893
0.778 -0.15169844 0.32389823 10461335
0.78378576 -0.1568923 0.32486194 9079428
0.77432001 -0.14476766 0.32444039 12237231
0.77331275 -0.13439389 0.3243565 12829627
0.77266681 -0.12455972 0.3246488 12764096
0.77185172 -0.1155943 0.32480791 13027782
0.77159989 -0.10542002 0.32510409 13159369
0.77224976 -0.094661735 0.32447317 13158854
0.77216661 -0.084709711 0.32443845 13289921
0.77214283 -0.074686617 0.32455644 12960184
0.77266663 -0.064867467 0.32464796 13024435
0.77250004 -0.054907668 0.3245779 12892848
0.77259982 -0.044966266 0.32461992 12301741
0.77280557 -0.035027843 0.32470584 12104876
0.77280003 -0.025077773 0.32470319 11513769
0.77269441 -0.015125321 0.32465938 11447720
0.7723999 -0.0051743346 0.32453516 11711149
0.77230573 0.0047705402 0.3244952 12106162
0.77243328 0.014716448 0.32454941 11777452
0.77213889 0.024651779 0.32442504 11907497
0.77148259 0.035062615 0.32499123 12039082
0.77148145 0.045000881 0.32492065 11446433
0.77176654 0.055353891 0.32517421 11250852
0.77087998 0.065216325 0.32480118 11315102
0.76900005 0.078641489 0.32482731 11840161
0.77000022 0.073434323 0.32536769 11708317
0.7686429 0.084756389 0.32507923 11248797
0.76900005 0.090261228 0.32490912 12565683
0.77281821 0.095154665 0.3252041 11973807
0.77800006 0.10042418 0.3250691 10987429
0.78538889 0.10516258 0.32457656 11053220
0.79000002 0.10937075 0.32638419 10921889
0.78875005 -0.16084985 0.33186924 8882049
0.79275012 -0.16547474 0.33568552 9211016
0.78631574 -0.15486002 0.33547255 10986913
0.7778334 -0.14390519 0.33198053 12566457
0.78277779 -0.1453263 0.33653566 10591641
0.77635717 -0.13476005 0.33269301 11118499
0.78216672 -0.13677345 0.33810249 10788250
0.7752105 -0.12477948 0.33465233 10197659
0.77388477 -0.11486015 0.33505982 10066332
0.77332002 -0.10540114 0.33437821 9803159
0.77376938 -0.094568968 0.33452189 9671826
0.77295995 -0.084798336 0.33472779 9673107
0.77223343 -0.074772857 0.3344124 10000531
0.77300012 -0.064895093 0.33474419 10131603
0.77316666 -0.054954749 0.33481643 10195854
0.77304024 -0.044992212 0.33476138 9999244
0.77276665 -0.035027497 0.33464304 10394004
0.77219993 -0.025058145 0.33439687 10131349
0.77213317 -0.01511446 0.33436796 10657954
0.77151728 -0.0050441008 0.33484924 10526621
0.77122205 0.0047634263 0.33487624 10920606
0.77106899 0.014752774 0.33465317 11380643
0.77157128 0.024557721 0.33489841 10985370
0.77127582 0.03499094 0.33399674 11774884
0.77137035 0.044993307 0.33423862 11774630
0.77133316 0.055323556 0.3340219 11974064
0.77132142 0.065447785 0.33459735 11579307
0.76900005 0.078859702 0.33331028 11447974
0.7704168 0.074119397 0.33580431 10658202
0.76843995 0.084797509 0.33456638 10920861
0.76871437 0.090742052 0.33494288 11184035
0.77250004 0.095558576 0.3347041 11908786
0.77649999 0.10023054 0.33534738 10988456
0.78533328 0.10558002 0.33561236 11251627
0.79000002 0.10937075 0.3328571 10725281
0.78850007 -0.15249249 0.34191632 9868175
0.79200006 -0.15589872 0.34616721 10000275
0.78791666 -0.14484674 0.34289452 9933711
0.79062498 -0.14550036 0.34723383 10000532
0.78677773 -0.1344074 0.34500977 9868688
0.79050004 -0.13761234 0.34972292 10329495
0.77900004 -0.12284425 0.34098795 10987684
0.78415388 -0.12542228 0.34522456 9803153
0.77840006 -0.1152757 0.34181949 9671823
0.78322226 -0.1156644 0.346506 9408651
0.778 -0.1053876 0.34146205 10132117
0.7831111 -0.10444577 0.34584457 9343371
0.77766675 -0.095324449 0.34101179 9475216
0.78333336 -0.095307656 0.34614709 9541263
0.7762 -0.084427401 0.34267104 10658972
0.78200006 -0.08552862 0.34805536 9540492
0.77600008 -0.075137094 0.34331131 10658460
0.78200006 -0.077550434 0.34962383 9737358
0.77590001 -0.065137759 0.34235662 11251111
0.78133339 -0.064676218 0.34749666 9145993
0.77750009 -0.055262461 0.34306335 10330783
0.78280008 -0.054722436 0.34814894 9015178
0.77750003 -0.045251686 0.34306335 10264471
0.78316671 -0.04466499 0.34831202 9080456
0.77615386 -0.034831807 0.3426792 10590865
0.78100002 -0.035401307 0.34734839 9605256
0.77633345 -0.025192279 0.34345943 10394000
0.77580011 -0.014824508 0.34358662 9539466
0.78200006 -0.015307443 0.34962383 9276549
0.77478951 -0.0050944374 0.34497243 9538695
0.77446669 0.0032699974 0.34456778 9144450
0.77200001 0.018322725 0.34153837 9341571
0.77300006 0.028299298 0.34107602 9869201
0.77420014 0.036138583 0.34233403 10328209
0.78100002 0.03590434 0.34917673 9473929
0.77476925 0.044966299 0.34402406 9868171
0.77422225 0.055026714 0.34413692 10066581
0.77416003 0.064623229 0.34496167 9737364
0.7727409 0.075623713 0.345085 9145997
0.76900005 0.085760631 0.34021118 9934992
0.77190489 0.08500883 0.34580272 9606801
0.76900005 0.090261236 0.34021118 11514026
0.77308697 0.094521172 0.34485406 10922146
0.77716666 0.10092449 0.34412655 10462109
0.78531587 0.10631014 0.34519795 10659232
0.78900003 0.11107937 0.34721228 10921891
0.79218531 0.11565361 0.34469494 10922148
0.78900003 -0.13088591 0.35090637 10527131
0.79200006 -0.13528951 0.35516995 10263961
0.78850007 -0.12457324 0.35137665 10066580
0.79084617 -0.12563838 0.35600087 10198168
0.78790009 -0.11502495 0.35152465 10198166
0.79090905 -0.11504319 0.35630128 10132375
0.7883001 -0.10493316 0.35151857 10198166
0.79230005 -0.10546444 0.3570123 10198424
0.7881819 -0.094350129 0.35205308 9934994
0.79145449 -0.096260183 0.35654661 10001045
0.78725004 -0.084675759 0.3539699 9869202
0.79100007 -0.0855413 0.35889462 10000789
0.78653848 -0.074814647 0.35378152 9803152
0.79033333 -0.074674912 0.3589001 9935509
0.78693324 -0.065695949 0.353306 9672079
0.79083341 -0.064542823 0.35820249 9935509
0.78780007 -0.055071734 0.35314047 9277836
0.7906 -0.055266768 0.3571704 9869973
0.78791672 -0.044936184 0.35319266 9080456
0.79066664 -0.045094088 0.3572005 9738387
0.78714275 -0.034493763 0.35363725 9145479
0.79100001 -0.034927405 0.35883299 9541008
0.7860589 -0.02485748 0.35339069 8948101
0.79000002 -0.024711059 0.3587487 9277836
0.78629416 -0.015012872 0.35479701 8882307
0.77900004 -0.0070422795 0.35010621 8486521
0.78513342 -0.0052597146 0.35617602 8948614
0.78574997 0.0040512113 0.35601828 8882564
0.79000002 0.0095029166 0.35874873 9211273
0.78900003 0.011337951 0.35644758 8618879
0.79100001 0.011366691 0.35920286 9474445
0.79300004 0.029959705 0.35825464 8948618
0.78670007 0.036351923 0.35467574 8949129
0.79075003 0.033576433 0.35816401 8817545
0.77900004 0.045843657 0.35010621 8421757
0.78473681 0.045214064 0.35559019 9014152
0.77900004 0.057697408 0.35192984 9146512
0.78361541 0.054864381 0.35613519 8948618
0.77800006 0.065817185 0.35193399 9146256
0.78280008 0.064573035 0.35657966 9080974
0.77658337 0.074637204 0.3528094 8883340
0.78216672 0.074714899 0.35854897 9606804
0.77607155 0.084732197 0.35372356 9541779
0.78049999 0.085218892 0.35808903 10331037
0.77672732 0.094806597 0.3527227 10198937
0.78266668 0.095835723 0.35847282 10527901
0.77900004 0.10055325 0.35010621 10330522
0.78563648 0.10551262 0.35492781 10659488
0.78900003 0.11107936 0.35460049 10725280
0.79150003 0.11623466 0.35521778 10791074
0.78900003 -0.010826807 0.36014169 9277836
0.7931053 -0.014793501 0.36495042 9277836
0.78900003 -0.0048238519 0.361527 9277836
0.79235303 -0.0056352708 0.36680305 9343629
0.78900003 0.0030261669 0.36152697 9343116
0.79213655 0.0053988462 0.36604357 9343372
0.78900003 0.0390439 0.36014169 9014411
0.78885716 0.044840213 0.36165935 9145996
0.79093331 0.044199292 0.36645645 9343629
0.78839999 0.055255413 0.36319098 9277837
0.79055554 0.053927295 0.36763808 9475215
0.78773344 0.064797804 0.36325392 9409423
0.79000002 0.064985037 0.36799577 9475215
0.78727776 0.074897856 0.36458048 9738131
0.79000002 0.075341716 0.36947528 10066839
0.78693324 0.084997423 0.36472878 10396061
0.79000002 0.084403783 0.36984515 10527131
0.78730774 0.095531024 0.36376569 10593695
0.79000002 0.094575509 0.36799577 10658976
0.78838468 0.10531522 0.36284271 10725280
0.79000002 0.10567193 0.36737931 10659489
0.78900003 0.11107937 0.36014169 10791075
0.79129171 0.1152636 0.36504719 10856611
0.79292858 0.10539859 0.3746675 10725025
0.79176009 0.1151747 0.37437791 10791074
