# .PCD v0.7 - Point Cloud Data file format
VERSION 0.7
FIELDS x y z rgb
SIZE 4 4 4 4
TYPE F F F U
COUNT 1 1 1 1
WIDTH 1004
HEIGHT 1
VIEWPOINT 0 0 0 1 0 0 0
POINTS 1004
DATA ascii
0.78840005 -0.13226262 0.11919338 12171951
0.78844452 -0.12566693 0.11911806 12040365
0.77850008 -0.14098963 0.12844929 13028285
0.78652954 -0.14412379 0.12614055 12171437
0.79169238 -0.14644614 0.12271175 11974315
0.77600002 -0.13396555 0.12691203 12567478
0.78481251 -0.13581835 0.12259571 11908779
0.77604765 -0.12484338 0.12609413 12172465
0.78354555 -0.12497663 0.12202679 11974572
0.77564704 -0.11531875 0.12717536 11975089
0.78554541 -0.11493044 0.12283444 11908266
0.79033333 -0.11260447 0.1202263 12105901
0.77688891 -0.10523097 0.12848631 12763578
0.78529418 -0.10485636 0.12594229 11447459
0.79221433 -0.10425863 0.12183546 12171181
0.77900004 -0.094577625 0.1294442 13618113
0.78550005 -0.0949056 0.1278747 11710630
0.77683336 -0.084616512 0.12878023 12565681
0.78578568 -0.08515016 0.12675624 11579044
0.7768572 -0.075868234 0.1288276 11775909
0.78553855 -0.075565532 0.12713079 11710630
0.78616667 -0.066457726 0.12879033 11447458
0.78880006 -0.055141408 0.12922606 11776423
0.78825003 -0.16074818 0.1383613 10723482
0.77628571 -0.15240331 0.138078 11052444
0.78628576 -0.15436471 0.13472521 10789016
0.79242855 -0.15795633 0.13246751 10986908
0.76440001 -0.14344713 0.13810825 12630448
0.77380008 -0.14475796 0.13418908 12236715
0.78325003 -0.14826632 0.13152224 11183772
0.7646957 -0.13479064 0.13647708 13025719
0.77221441 -0.13533278 0.13154273 12369841
0.7646538 -0.1254686 0.13641505 13091511
0.77171427 -0.12440521 0.13158672 11908775
0.76526093 -0.11510577 0.13712619 13222840
0.77168745 -0.1150288 0.13172686 12105899
0.76641673 -0.10471138 0.13721696 13354426
0.7722941 -0.10524699 0.1320495 12565422
0.76604998 -0.094799653 0.13715187 12894133
0.77358818 -0.095091917 0.13205703 12696238
0.7652083 -0.0848419 0.13700074 12763061
0.77206254 -0.085037291 0.13201597 12696239
0.76622224 -0.075288132 0.13748175 12829112
0.77219057 -0.074467696 0.13244101 12499121
0.76627779 -0.065227583 0.13809134 12762291
0.77340007 -0.064928226 0.13303369 12170415
0.78366667 -0.06212024 0.13021965 10723735
0.76717657 -0.054791585 0.1381474 12499890
0.77378953 -0.055236787 0.13381694 12104873
0.78359997 -0.054775547 0.13112298 10855321
0.7673077 -0.04576344 0.13855326 12500660
0.77442873 -0.045076277 0.13502471 11908006
0.7852307 -0.045137625 0.13217102 11775907
0.79000002 -0.040430997 0.13127203 11250077
0.76775002 -0.035697058 0.13903117 13288892
0.77441168 -0.035261985 0.1363548 12104877
0.78560007 -0.034139529 0.1336617 11973546
0.79270005 -0.035000831 0.13079035 11447456
0.7735334 -0.025100796 0.13758604 12169901
0.78568745 -0.025149642 0.13411306 11579046
0.79325008 -0.024813401 0.13088115 11315872
0.77433336 -0.015154898 0.13772875 11973030
0.78558826 -0.01510454 0.13431983 10855575
0.79330003 -0.014599837 0.13088985 10921628
0.77533334 -0.0056486106 0.13836111 11250854
0.78576463 -0.0051569454 0.13499774 10790041
0.79318184 -0.0049773767 0.13112293 10724505
0.77640003 0.0040694573 0.13918903 11448487
0.78576469 0.0047981651 0.13683888 11316899
0.78626657 0.014980314 0.13800952 11643548
0.7855556 0.025078999 0.13788469 10723222
0.78615391 0.034657709 0.13799022 10065549
0.78799999 0.042315848 0.13905507 10460047
0.78654552 -0.16261984 0.14492266 10394005
0.79150003 -0.16712524 0.14464346 10591640
0.76640004 -0.15046085 0.14528736 11381155
0.77423531 -0.15520191 0.14495984 10722970
0.78250003 -0.15911719 0.14193103 10328725
0.75735712 -0.14324102 0.14560123 12828600
0.76141673 -0.14606892 0.14300711 12301485
0.75686651 -0.13529971 0.14525238 12894393
0.76000005 -0.13497102 0.14052041 11906214
0.75762075 -0.12494538 0.14552075 12697013
0.76014292 -0.12457285 0.14080098 12039340
0.75844449 -0.11545874 0.14674225 12960185
0.76062512 -0.11382529 0.14230439 11645096
0.75900012 -0.1071256 0.14871201 12697013
0.76108003 -0.10458837 0.14435177 12630962
0.76113898 -0.095082052 0.14518164 12894392
0.76109374 -0.084941939 0.14495072 12565684
0.76129419 -0.075233527 0.14542037 12170413
0.75900006 -0.061054878 0.14921968 11973288
0.76141185 -0.065023974 0.14497083 12630707
0.75900006 -0.053947542 0.14921968 13420220
0.76149994 -0.055153169 0.14456469 12565169
0.75900006 -0.045951795 0.14921968 13158076
0.76209384 -0.044967271 0.14446916 12368047
0.7623421 -0.03459955 0.14479545 12368047
0.76313883 -0.024911402 0.14481221 12235947
0.76442873 -0.014962484 0.14490703 12170925
0.7651999 -0.005125632 0.145951 12039341
0.7712 -0.0051640319 0.14078584 12500922
0.76490021 0.0047251186 0.14679144 11973804
0.77208334 0.0047704033 0.14184919 11974318
0.76669997 0.01487737 0.14669207 11644067
0.77447063 0.015074329 0.14180373 11446942
0.76780009 0.025053043 0.14735316 11973031
0.77336007 0.024726598 0.14225908 11578019
0.768125 0.034864716 0.14764084 11380640
0.7734763 0.034911659 0.14265926 11973031
0.78000003 0.038598534 0.14056632 12893871
0.76900005 0.042554803 0.14938544 11644586
0.77318531 0.044964321 0.14569858 12236720
0.7846154 0.046035822 0.1415351 12235688
0.77317405 0.054863442 0.14743538 11776171
0.78540009 0.055289242 0.14300466 11513255
0.79000002 0.055738021 0.14051905 10526871
0.76900005 0.066257998 0.14938544 11710630
0.77370012 0.06491188 0.14676048 11644581
0.78468752 0.064890996 0.14324293 11381409
0.79000002 0.064985044 0.14051905 10855834
0.76890004 0.074949078 0.14864591 12564912
0.77394748 0.075200975 0.14538257 12235434
0.78641176 0.075084269 0.14160874 10920087
0.76900005 0.083960392 0.14938544 10459282
0.77421051 0.085052557 0.14638452 11709862
0.78615385 0.084770441 0.14251918 11644839
0.79100007 0.08728981 0.14069693 11382437
0.77509099 0.093289725 0.14825489 14933460
0.78614289 0.095165707 0.14600775 13157565
0.78866673 0.1036473 0.14889762 11316134
0.78554541 -0.16241395 0.15494014 9999248
0.79180008 -0.16749737 0.15474206 9999504
0.76600003 -0.15038234 0.15956198 11315361
0.77362508 -0.15550625 0.15481038 10393749
0.75594455 -0.14310127 0.15481496 12104106
0.7621001 -0.14872687 0.15428761 12104107
0.75424981 -0.13483287 0.15446691 12697530
0.75558341 -0.12445477 0.15473911 12763578
0.75746661 -0.11501404 0.15512457 12631220
0.75833333 -0.10538253 0.15530066 12960440
0.75872231 -0.094779663 0.15538055 12500148
0.75900012 -0.085042119 0.15543862 12236720
0.75897247 -0.075266875 0.15543278 12105648
0.75861114 -0.064576015 0.15535773 12105391
0.75833321 -0.054788109 0.1553006 12171183
0.75808322 -0.045008656 0.15524909 12236975
0.75856674 -0.035270337 0.15534824 12368819
0.75894988 -0.026226979 0.15756024 11710891
0.76018757 -0.024667898 0.15301192 12368048
0.75900006 -0.018410889 0.15899228 11184547
0.76042855 -0.014630601 0.15458547 11907241
0.76099992 -0.0050977613 0.15495665 11776426
0.76119977 0.0047015245 0.15499717 11842218
0.76197207 0.015410176 0.15425974 11710374
0.76313335 0.025259566 0.15449303 11381409
0.76422232 0.035135347 0.15471298 11381666
0.7653001 0.045038741 0.15493032 11644840
0.76566666 0.054917421 0.15500359 11250082
0.76521897 0.065072045 0.15513784 11513254
0.76473546 0.074804939 0.15460612 11578275
0.76434308 0.085113242 0.15486492 11314073
0.76650006 0.093827434 0.1558046 14407117
0.77216679 0.097562142 0.15331078 14736851
0.77542865 0.10294563 0.15607628 14737624
0.78476918 0.10652886 0.15399672 12237235
0.79100001 0.10950919 0.15088035 11711402
0.78788894 0.11194882 0.15694579 11777195
0.79263645 0.11623152 0.15397085 11711402
0.78742856 -0.1624905 0.16455038 9867915
0.76600003 -0.15038234 0.16404504 11775913
0.77322221 -0.15441877 0.16407512 11117983
0.78080004 -0.15877149 0.16630156 10591124
0.7573334 -0.14336285 0.1648484 11842216
0.76137507 -0.14813882 0.1657293 11776938
0.75608861 -0.13516149 0.16520232 11842733
0.75680006 -0.12465696 0.16473316 12039601
0.75780004 -0.11506531 0.1649505 12301230
0.75799996 -0.10533671 0.16499346 11841960
0.75870025 -0.094776005 0.16514653 12369074
0.759 -0.084968083 0.1650631 12499379
0.76000005 -0.08693333 0.16898718 13750213
0.75900012 -0.075269535 0.16521116 11644328
0.75900012 -0.064608537 0.16521116 11775910
0.75851995 -0.054802027 0.16510779 11973287
0.75810009 -0.045010056 0.16501671 12040367
0.75820005 -0.035253596 0.16503797 12172211
0.75890011 -0.025514271 0.16518964 11908781
0.75900012 -0.01879164 0.16444968 11776936
0.76000017 -0.013591838 0.16483583 11710115
0.76000017 -0.0050913421 0.16453929 11578530
0.76069438 0.0046998649 0.16468973 11710631
0.76099986 0.015389376 0.16475576 11710892
0.76129991 0.025197793 0.16482219 11316391
0.76136094 0.035003196 0.16483332 11381413
0.76183319 0.044834267 0.16493511 11710889
0.7623055 0.054676756 0.16503699 11710374
0.76211089 0.065366179 0.16499524 11907497
0.76139992 0.075108953 0.16484071 9933195
0.7612775 0.084899567 0.16481453 11906984
0.76319337 0.09505935 0.16502154 14143688
0.76677781 0.10176975 0.16709977 15262939
0.77385008 0.10596237 0.1646366 13289920
0.78100002 0.10995308 0.16268656 11645609
0.77900004 0.11149517 0.16956456 11645609
0.78666663 0.11443848 0.16488922 11645866
0.79000002 0.11830954 0.16394483 11580073
0.786125 -0.16238672 0.17548439 9867660
0.76550007 -0.15230097 0.17602403 11512484
0.7743333 -0.15655251 0.17488706 10722969
0.75772005 -0.14457273 0.17507955 12829627
0.7608 -0.14900562 0.17343837 12434613
0.75690621 -0.13530746 0.17505516 12500918
0.7578333 -0.12482694 0.17471622 12236979
0.75890005 -0.11523285 0.1749613 12170672
0.7589708 -0.10573301 0.17476808 12236462
0.76000005 -0.10116673 0.17877264 11185057
0.75899994 -0.09570311 0.1727861 12171953
0.76000017 -0.093945369 0.17767371 11974576
0.75900006 -0.084153697 0.17054167 13487041
0.76000017 -0.085217699 0.175532 12038569
0.759 -0.074025765 0.17143007 12105904
0.76000017 -0.075847715 0.17658287 12301997
0.75899994 -0.064608544 0.17231852 11447969
0.76000017 -0.06469366 0.17788303 12500402
0.75899994 -0.055089794 0.17219159 12368043
0.76000017 -0.054685805 0.17766064 12302767
0.75899994 -0.045110136 0.17250554 12106158
0.76000017 -0.04534515 0.17799427 11974574
0.75899994 -0.035068695 0.17254059 12237744
0.76000017 -0.035591464 0.17801012 11514023
0.75899994 -0.025325086 0.17309105 11908008
0.76000017 -0.025893986 0.17856735 11776422
0.75900006 -0.018707028 0.1737992 11710371
0.76000017 -0.014105823 0.17545152 11183512
0.7601335 -0.005091846 0.17524578 11249308
0.76088554 0.004572934 0.17529173 11052702
0.76117629 0.015497603 0.17522322 11053473
0.76199991 0.025221184 0.17478335 11117980
0.76236653 0.03504907 0.17486885 11315106
0.76247996 0.044871554 0.17489496 11185062
0.7622999 0.054675829 0.17485315 11052703
0.76253325 0.06540323 0.17490707 11973548
0.76163977 0.075131752 0.17470217 9998986
0.76099986 0.085078046 0.17518285 12696754
0.76137018 0.094516367 0.17503558 13354686
0.76585722 0.10218855 0.17451756 14144717
0.77253848 0.10751244 0.17539129 11382182
0.77639997 0.11112304 0.17445132 11711146
0.78562498 0.11601195 0.17502761 11645609
0.7913667 0.12438305 0.17503275 11645609
0.77850008 -0.16194877 0.18859121 9670795
0.7858001 -0.16438928 0.18483868 9736332
0.79200011 -0.1682011 0.18404384 9736332
0.7630834 -0.15279102 0.18544906 12103850
0.77180004 -0.1569414 0.18425478 10854558
0.75796664 -0.14525655 0.18539214 12433840
0.75803018 -0.13575001 0.18500468 12434352
0.75866687 -0.12496486 0.18467596 12433586
0.759 -0.11524828 0.18475634 12631738
0.76000005 -0.11006258 0.18588933 12500919
0.75900006 -0.1071538 0.1837692 13355456
0.76000017 -0.10435051 0.18537432 12369074
0.76006687 -0.094947785 0.18501626 12369333
0.76000017 -0.085154153 0.18499973 12367791
0.76030004 -0.075397402 0.18507348 12235691
0.76066661 -0.064751036 0.18516296 11776939
0.76036 -0.054934215 0.1850885 12170667
0.7608332 -0.045171563 0.18520322 11973803
0.76088881 -0.034983162 0.18541448 12039856
0.76000017 -0.025234133 0.18480909 11710631
0.76010013 -0.014878171 0.18502386 12038566
0.76095986 -0.0050975871 0.18523361 12038566
0.76164496 0.004849303 0.18522829 11381666
0.7619372 0.015296919 0.18513724 10724257
0.76236659 0.025234193 0.18468402 10986652
0.76305586 0.035080798 0.18485013 11314588
0.76306701 0.044905756 0.18485284 11316644
0.76300031 0.054726146 0.18483689 11447460
0.76417249 0.06452769 0.18496901 12301997
0.76437503 0.074730083 0.18461365 10459795
0.76287496 0.084853925 0.18536738 13683906
0.76445836 0.094951749 0.18489432 14472908
0.77000004 0.099391535 0.18923654 15262937
0.76800001 0.10093127 0.18245353 14012359
0.77362502 0.1048442 0.18491939 12894650
0.78000003 0.1098123 0.18621618 11579562
0.77800006 0.11135204 0.18027477 11579562
0.78644454 0.11491871 0.18519624 11645354
0.79000002 0.11861777 0.18767884 11447976
0.79136008 0.12438208 0.18522428 11579818
0.77616668 -0.16176732 0.19620194 9670281
0.78540003 -0.16614492 0.19485638 9670795
0.79000002 -0.16927283 0.19600117 9671051
0.75900006 -0.15078494 0.1936405 12630448
0.76407695 -0.15427463 0.19534181 11972264
0.77260005 -0.15891275 0.19530013 9932940
0.75811112 -0.14488915 0.19538605 12828854
0.75877428 -0.13509616 0.19467206 12829111
0.75900018 -0.12526314 0.1941251 12169643
0.76000005 -0.12251681 0.19923313 12629422
0.759 -0.11524826 0.19349243 12302514
0.76000011 -0.11463761 0.19897899 12368303
0.75899994 -0.10704099 0.19355588 12499892
0.76000017 -0.1029459 0.19592896 12631476
0.76049995 -0.095000304 0.1949134 12499894
0.76060003 -0.085221618 0.19494061 11973294
0.76038897 -0.075407401 0.19488549 12499376
0.76027787 -0.064716987 0.19485515 12105902
0.76079994 -0.054965381 0.1949894 12367532
0.76099986 -0.045182116 0.19504157 12038570
0.76099986 -0.034755021 0.19483195 11710637
0.76006263 -0.024998169 0.19502345 11447721
0.76013905 -0.014878701 0.19482094 11774884
0.76099986 -0.0050980421 0.19504152 11840163
0.76166636 0.0047057727 0.19521183 11709348
0.76226455 0.015205809 0.19510339 11315107
0.7629202 0.025251634 0.19464086 10986656
0.76330024 0.035092361 0.19473849 11249822
0.76324022 0.044915996 0.19472326 11250595
0.76306695 0.05473062 0.19467834 11316132
0.76484615 0.064846165 0.19492474 12236975
0.76600027 0.074455783 0.19479345 10985624
0.76566643 0.085388884 0.19534254 14012874
0.76721054 0.09430667 0.19488566 14671058
0.7711429 0.099024035 0.19570839 14934487
0.77525008 0.10370173 0.19506486 12763321
0.78180003 0.10823552 0.19579975 11710889
0.78706664 0.11277644 0.1946588 11579816
0.79063642 0.11753599 0.19565488 11579560
0.77616674 -0.16176732 0.20437759 9472903
0.78541666 -0.16691691 0.20451196 9604746
0.79000002 -0.16988929 0.2080223 9670795
0.76343757 -0.15334882 0.2052671 12104364
0.77300006 -0.15899503 0.20535548 9998478
0.75866675 -0.14450237 0.20510055 12302254
0.75900012 -0.13479345 0.20518988 12697014
0.75899994 -0.12614104 0.20646457 12565428
0.76000017 -0.12320112 0.20320207 12170156
0.75900006 -0.11485342 0.20884231 12763574
0.76000017 -0.11468846 0.203859 12434098
0.75899994 -0.10580886 0.20774411 13025206
0.76000017 -0.10416908 0.20334747 12762291
0.75900006 -0.099256776 0.20963199 14011075
0.76035297 -0.094982252 0.20529339 12695989
0.76099992 -0.08526621 0.2048398 11776427
0.76079994 -0.075448908 0.20478657 11908265
0.76000017 -0.06469366 0.20546025 12105391
0.76010013 -0.054914959 0.20548692 12499635
0.76055557 -0.045155864 0.20560867 12234408
0.76023346 -0.035348848 0.20552237 12039085
0.76000017 -0.025551844 0.20546025 11710896
0.76067734 -0.01503252 0.2049256 11512998
0.76099992 -0.0050980421 0.20483983 11906728
0.76159972 0.0047055562 0.20500176 11709350
0.7623437 0.015641032 0.20486662 11381667
0.76290029 0.025250828 0.20445786 10658716
0.76369452 0.035111368 0.20467122 11183260
0.76429993 0.044977713 0.20483509 12104363
0.7631669 0.054737326 0.20452991 11973808
0.76419997 0.064653397 0.20480518 12697783
0.76527792 0.074596144 0.20509265 10328721
0.76466668 0.08527749 0.20492801 14144458
0.76641178 0.093441829 0.2051326 14736337
0.77150011 0.098683663 0.20495619 15197147
0.77566677 0.10330366 0.20439614 12895421
0.78257149 0.10782059 0.20593378 11448231
0.78754556 0.11171374 0.20511404 11514023
0.79093754 0.11702413 0.20514351 11645609
0.77542865 -0.16157036 0.21520452 9472905
0.78561538 -0.16697074 0.21486114 9538954
0.79000002 -0.16988929 0.21264581 9605003
0.75900006 -0.15078494 0.21673934 11776172
0.76306671 -0.15397863 0.21456103 12499640
0.77100003 -0.15858364 0.21655336 10262421
0.7589668 -0.14455962 0.21495292 12236719
0.75868005 -0.13473697 0.21487074 12500150
0.75849992 -0.12493876 0.21481945 12434353
0.7584402 -0.11516313 0.21480249 12171182
0.75870007 -0.10543318 0.21487674 12236719
0.75899994 -0.097146787 0.21551776 13091256
0.76020014 -0.092176057 0.21435255 12960697
0.7608332 -0.085247062 0.21459036 12237488
0.76086098 -0.075454853 0.2145986 12105132
0.75899994 -0.061806615 0.21550919 12039348
0.76000017 -0.066839144 0.21482709 12170927
0.75899994 -0.055210024 0.21580414 12105651
0.76000005 -0.053722095 0.21257694 12235949
0.75899994 -0.044829581 0.21655229 12104875
0.76000017 -0.045527112 0.21249606 11906213
0.75899994 -0.0352908 0.21585092 11578530
0.76000005 -0.035337295 0.21168737 11183775
0.75899994 -0.02742197 0.21635859 11316901
0.76000017 -0.023883868 0.21402252 11053734
0.76059997 -0.014759886 0.21465182 11448233
0.76103318 -0.0050981096 0.21464761 11711401
0.7622776 0.0047096116 0.21499984 11579044
0.76277804 0.015425588 0.21513981 11513252
0.76229984 0.025230816 0.21500342 11119779
0.7629168 0.035075024 0.21517786 11315361
0.76403332 0.04496374 0.21549281 11380384
0.76429021 0.054961614 0.2148457 11315877
0.7640937 0.064978041 0.21573384 12171440
0.76347077 0.074682102 0.21512336 10658204
0.76300031 0.085091501 0.21520229 14078923
0.76600003 0.094316192 0.21474145 14999767
0.77150005 0.099284716 0.21579103 15262426
0.77557147 0.10322592 0.21537726 12829113
0.78333336 0.10844778 0.21543427 11579817
0.78806251 0.11302489 0.21615948 11579816
0.79008335 0.11708912 0.21374685 11579816
0.79113817 0.12492138 0.21460818 11514024
0.78900003 -0.17152131 0.22715314 9604489
0.77450007 -0.16220759 0.22569723 9736077
0.78450006 -0.16779119 0.22493465 9604489
0.75900012 -0.15103878 0.22536966 12170926
0.76352942 -0.15537106 0.22517753 11973294
0.75820005 -0.14530174 0.22449748 12499377
0.75791651 -0.13548812 0.22441387 12302512
0.75799984 -0.12485613 0.22443901 12631477
0.75799996 -0.11509643 0.22443894 12434100
0.75875008 -0.10544046 0.22466056 12039855
0.75891453 -0.094930604 0.22483605 12368560
0.76000005 -0.090491682 0.22058322 11251108
0.75899994 -0.085509695 0.22655866 12040624
0.76000017 -0.084345452 0.22187716 11448487
0.75899994 -0.074914172 0.22704497 12367278
0.76000017 -0.075813502 0.22214 12038826
0.75888902 -0.064599603 0.22470167 12564913
0.75843334 -0.054795016 0.22456561 12434868
0.75847238 -0.045031484 0.22457719 12499631
0.75886667 -0.035284448 0.22469503 12104875
0.75900024 -0.025594367 0.22486198 11383206
0.76000005 -0.02288308 0.22058322 11974831
0.75899994 -0.01574564 0.22794707 10725021
0.76000017 -0.014373989 0.22321332 11251879
0.75900006 -0.0086383093 0.22917716 10658971
0.76055169 -0.0049719336 0.22503944 11251621
0.76161098 0.0047056885 0.22550599 11250849
0.76212883 0.015268501 0.22494122 11249819
0.76199991 0.025220806 0.22473143 11250083
0.76216662 0.035040569 0.22478028 11316388
0.76288009 0.044896223 0.22498974 11446946
0.76414281 0.054680735 0.22459365 11316132
0.76303238 0.065587923 0.22520632 12104620
0.76176649 0.075145602 0.22555214 10788761
0.76216114 0.084856793 0.22495128 14210507
0.76653856 0.093287192 0.22455095 15065561
0.77183342 0.098275065 0.22552244 14934233
0.77633339 0.10339224 0.22456592 11579306
0.78262502 0.10766411 0.22600546 11513769
0.7879374 0.113007 0.22477223 11513768
0.79000002 0.117878 0.22540669 11448231
0.79022253 0.12512606 0.22473137 11514024
0.79196423 0.13540408 0.22489437 11580073
0.78900003 -0.17152131 0.23269434 9473159
0.77250004 -0.16130538 0.23294674 10328212
0.7844286 -0.16816945 0.23475799 9538953
0.75843751 -0.15222748 0.23566514 12303027
0.76400006 -0.15714806 0.23515797 12302512
0.75730002 -0.14512964 0.23486866 12565684
0.75744438 -0.13540304 0.23491481 12105389
0.7576943 -0.12480549 0.23499171 12564913
0.75779998 -0.11506582 0.23502395 12696757
0.75749981 -0.10526723 0.23492903 12368305
0.75752771 -0.094630748 0.23493767 12631217
0.7578333 -0.084910922 0.23503338 12369076
0.75838876 -0.07520847 0.23520496 12301998
0.75830573 -0.064550109 0.23517945 11973545
0.75799996 -0.054763716 0.23508592 12106415
0.75799984 -0.045004003 0.23508593 12696752
0.75799996 -0.035244297 0.23508589 12564653
0.75816667 -0.025490131 0.23513669 11710378
0.75866681 -0.014850114 0.23529127 11317162
0.75896305 -0.0054132645 0.2358121 11382440
0.76000005 -0.0021260532 0.23185132 11909552
0.759 0.0033553119 0.23850553 11908526
0.76033336 0.0053644348 0.23425131 11447973
0.76099986 0.015517296 0.23435974 11380639
0.76146656 0.02520331 0.23437671 11314590
0.76163858 0.035015576 0.23442987 11315875
0.7616998 0.044825718 0.23444884 11184543
0.76174974 0.054636858 0.23446403 11119010
0.76168549 0.065201744 0.23457247 11907753
0.76103991 0.075073972 0.23513813 11380895
0.76257128 0.085175551 0.23484556 14013386
0.76728576 0.092370264 0.23398721 15131353
0.77225006 0.096634544 0.23509684 14802646
0.77644444 0.10123418 0.23565732 12303027
0.78428572 0.10687923 0.23524025 11381926
0.78855562 0.11183771 0.23399933 11447976
0.79093754 0.11667692 0.23535015 11513769
0.78875005 -0.17146696 0.24646831 9407623
0.77344453 -0.16351615 0.24580996 9407623
0.7840001 -0.16859899 0.24497749 9407623
0.75866663 -0.15249538 0.24506161 12565685
0.7626155 -0.15782283 0.24495652 11644840
0.75815398 -0.14508735 0.24503253 12828857
0.75799996 -0.13535009 0.24472322 12433840
0.75779986 -0.12469685 0.24554026 12893876
0.75753325 -0.11502574 0.24557996 12697012
0.75700003 -0.10519777 0.24540864 12499122
0.75700003 -0.094564825 0.24540871 12630451
0.75700003 -0.084818028 0.24540867 12368819
0.75755537 -0.075125828 0.24558711 12631219
0.7576111 -0.064490117 0.2456052 12631477
0.75775003 -0.054935358 0.24533454 12499893
0.75799996 -0.045003999 0.2448456 12695729
0.75800002 -0.035244297 0.24484558 12234920
0.75790614 -0.025260106 0.24514741 11446438
0.7575832 -0.014829591 0.2455961 11052197
0.75753325 -0.0050746617 0.24557981 10987428
0.75802851 0.0047582872 0.24561317 11447205
0.75868976 0.015190004 0.24518982 11511453
0.76000011 0.016004574 0.2404083 12235179
0.75899994 0.024807956 0.24652736 11577760
0.76000017 0.025565188 0.24165955 11709347
0.75900012 0.034259509 0.24846849 12434868
0.76034486 0.035109542 0.24369904 11645095
0.75900006 0.043778259 0.24872231 12631221
0.76042312 0.044887457 0.2440521 11512996
0.7607221 0.054563496 0.24483334 11381413
0.76102757 0.06527368 0.24493217 11381670
0.7608332 0.075053684 0.24486928 11381928
0.76179981 0.084834188 0.24505171 13619144
0.7675001 0.091881908 0.24521858 15131610
0.7731334 0.096179575 0.24490719 15131355
0.77825004 0.10045644 0.24501207 13420994
0.78570592 0.10553588 0.2448142 11447975
0.79033333 0.10941689 0.24788982 11447975
0.78900003 0.11107937 0.24008258 11447976
0.78688896 -0.17208722 0.25479025 9342343
0.76685721 -0.16132198 0.25488284 11118242
0.77440006 -0.16599326 0.25575846 9276295
0.78100002 -0.16978219 0.25684464 9276809
0.75899994 -0.1533343 0.25513434 12105651
0.76083344 -0.15797712 0.25407341 12303029
0.75878805 -0.14492939 0.2546266 12368565
0.75775754 -0.13505751 0.25476506 12500150
0.75648487 -0.12479567 0.25519437 12434097
0.75559378 -0.11506239 0.25578356 12434355
0.75609106 -0.10531138 0.25533009 12565171
0.75700003 -0.09456484 0.2551555 12696755
0.75695997 -0.084813349 0.25514179 12171437
0.7568 -0.07505168 0.25508729 12565170
0.75682765 -0.064576186 0.25497434 12433846
0.7570715 -0.054695945 0.25492558 12171190
0.75774986 -0.044988539 0.25452024 12762038
0.7579 -0.035239879 0.25457117 12564400
0.75761753 -0.025681913 0.25473705 12105133
0.75700003 -0.014818074 0.2551555 11382955
0.75700003 -0.0050712456 0.25515553 10988457
0.7573548 0.0045921383 0.25510427 11710891
0.75799984 0.015328709 0.25460532 11644837
0.75830007 0.025098499 0.25470462 11447716
0.75852782 0.034872804 0.25478101 11316388
0.75894308 0.045475781 0.25504863 11314846
0.76000005 0.048283868 0.25082919 11315872
0.75899994 0.054953605 0.2567648 11842733
0.76000017 0.056047533 0.25212312 11710891
0.75880945 0.065464005 0.2570338 11053214
0.76006681 0.064657599 0.25227454 12040368
0.75856513 0.075061694 0.25599059 12236718
0.76000011 0.074208975 0.25133753 11578535
0.75891662 0.081823282 0.25683764 14210249
0.76079172 0.086257577 0.25413182 14539473
0.76662505 0.092227213 0.25615469 14934232
0.77323526 0.096405156 0.2546618 14605270
0.77900004 0.10055325 0.25892356 11316390
0.78531253 0.10344309 0.2545839 11316389
0.79157144 0.1085305 0.25542417 11382437
0.78591675 -0.17361362 0.26489735 9211015
0.79049999 -0.17739911 0.26551923 9276807
0.76639998 -0.16122581 0.26550192 11645360
0.77423537 -0.16661036 0.26511961 9211019
0.75836372 -0.15308051 0.26521659 12237491
0.76114291 -0.15808387 0.26469865 12500666
0.75746661 -0.14516096 0.265064 12435125
0.75697219 -0.13531989 0.26489216 12171443
0.75600034 -0.12505762 0.26526037 11908526
0.75470352 -0.11498911 0.26478723 12105650
0.75490886 -0.10466479 0.26457065 12368303
0.75573528 -0.094666623 0.26424828 12565683
0.75483352 -0.084869385 0.26502299 12762035
0.75475615 -0.074784741 0.26486656 12958386
0.7542572 -0.065087266 0.26482067 12565428
0.75552636 -0.055652618 0.26470876 12499895
0.75638914 -0.044908095 0.26468694 12630963
0.75643343 -0.035171848 0.26470172 12301998
0.75644445 -0.025432041 0.26470578 11973803
0.75650018 -0.014808746 0.26472551 11448487
0.75646681 -0.0050676721 0.26471373 11645609
0.75694448 0.0046757613 0.26488167 12105131
0.7574445 0.015317734 0.26505616 11973288
0.75753337 0.025072889 0.26508728 11907755
0.75738883 0.034820281 0.26503673 11841960
0.75763881 0.045473561 0.26512435 12169640
0.75790006 0.055247404 0.26521498 11514282
0.75719452 0.064943604 0.2649681 11249568
0.75628597 0.075364158 0.26477665 12697013
0.75818181 0.083990842 0.2652342 14801616
0.76062506 0.088833436 0.26394469 15262425
0.76417643 0.093066826 0.26525104 14801877
0.77275008 0.097486541 0.26453441 12302514
0.77666664 0.10025206 0.26450893 10987426
0.78750002 0.10570929 0.26451495 11316646
0.791875 0.10916769 0.26366264 11447974
0.78659999 -0.17376386 0.27526096 9342087
0.79150003 -0.17762354 0.27512518 9276550
0.76719999 -0.1613941 0.2747578 12105137
0.7750715 -0.166554 0.27498212 9539210
0.78000003 -0.16956478 0.27934185 9539209
0.75754172 -0.15315683 0.27528736 11644840
0.76133341 -0.15837766 0.27532867 12302769
0.75633359 -0.14494409 0.27529153 12171438
0.75602806 -0.13515088 0.27518088 11974575
0.75597256 -0.12452196 0.27516097 12040369
0.75463313 -0.11458685 0.27467263 12105906
0.75361115 -0.10472796 0.2743009 12434096
0.75288242 -0.094828859 0.27475941 12302260
0.75184214 -0.085214399 0.27508909 12302255
0.75132382 -0.074974023 0.2748093 12302255
0.75112128 -0.06529548 0.27538952 12171186
0.75292504 -0.055099308 0.27519265 12828083
0.75397223 -0.044765286 0.27443072 12959668
0.75364518 -0.034928545 0.27451068 12565425
0.75333339 -0.025328316 0.275078 11974320
0.75321412 -0.014744224 0.27503365 11841962
0.75311422 -0.0050452137 0.27499691 12235692
0.75371426 0.0046562916 0.27521589 12169898
0.75502789 0.015269675 0.27481285 11841447
0.75556684 0.025008498 0.27500993 11249828
0.75611132 0.034762248 0.27520943 11842215
0.75597233 0.045372486 0.27515799 11974058
0.75526679 0.055055302 0.27489999 11842991
0.75407892 0.064861521 0.27479264 11644068
0.75405395 0.075151324 0.27462739 12763065
0.75767857 0.085134581 0.27540076 14998997
0.76000005 0.089204863 0.27128968 15262169
0.75900006 0.091752738 0.27804005 15262426
0.76153338 0.09330947 0.27403095 13223102
0.77183342 0.097821303 0.2755096 11183777
0.78700006 0.10582616 0.27411103 11316390
0.79066664 0.10915481 0.27483299 11316646
0.78737503 -0.17370397 0.28566873 9210759
0.79288894 -0.17731875 0.28519484 9210759
0.7665 -0.16124684 0.28437567 11776943
0.77438474 -0.16625874 0.28611502 9539469
0.78000003 -0.16956478 0.28208086 9342345
0.75771439 -0.15331832 0.28529841 11842216
0.76100004 -0.15830831 0.28500801 12040622
0.75624025 -0.14492644 0.28499612 12105388
0.75514257 -0.13491721 0.28533942 11973802
0.75486672 -0.1252232 0.28535905 11973291
0.75408316 -0.11538511 0.28506485 12040112
0.75294465 -0.1046348 0.28463447 12302255
0.75114822 -0.094715245 0.28483394 12105396
0.75002784 -0.084914841 0.28528827 12236719
0.74900001 -0.072148681 0.28652552 11974321
0.75000006 -0.076170944 0.28478158 12040113
0.74871433 -0.06536141 0.28591466 12302000
0.75000006 -0.066037133 0.28132725 12433070
0.74844998 -0.055299737 0.28696507 12630190
0.75018752 -0.054637488 0.28249481 13287606
0.74879998 -0.047788113 0.28815159 12761519
0.75105417 -0.044140838 0.28422466 12828082
0.74900001 -0.034825832 0.28928089 12302515
0.75124145 -0.035052106 0.28413868 12171443
0.74874991 -0.024735836 0.28765008 11447974
0.75050008 -0.025584882 0.28318289 11513770
0.74839985 -0.014299983 0.28694552 12038567
0.75000006 -0.015119992 0.2824246 11512224
0.74844992 -0.0050137332 0.28643891 11644068
0.75010002 -0.0050254897 0.28180367 11576993
0.74874991 0.004296592 0.28754064 11842735
0.75059998 0.004900706 0.28330815 11841706
0.74900001 0.012078217 0.28884253 11185321
0.75128961 0.015517512 0.28437492 12039343
0.75240636 0.024739986 0.28481269 11710379
0.75363886 0.034648299 0.28489459 11973802
0.7535556 0.045227472 0.28486389 11710892
0.75266671 0.054865528 0.28452796 11908012
0.75194466 0.064492546 0.28484106 11118236
0.75158548 0.07512971 0.28512424 13289922
0.75576675 0.085174762 0.28498921 14933976
0.75844449 0.091390103 0.2840496 14341582
0.76316673 0.095090814 0.28521174 11644584
0.77000004 0.097588949 0.28837866 11249314
0.78800005 0.10540441 0.28128457 11382183
0.79233336 0.10814833 0.2846882 11316645
0.78725004 -0.17367649 0.29414701 9144967
0.79257149 -0.17733558 0.29629764 9144967
0.76750004 -0.16145721 0.29193476 12040370
0.77383333 -0.16520958 0.29494289 9868688
0.78100008 -0.16978218 0.29615659 9210759
0.75866669 -0.15269271 0.29262006 11645611
0.76238471 -0.15571778 0.29637104 11448235
0.75765222 -0.1447341 0.29409045 11842218
0.76033336 -0.14749067 0.29899797 12960956
0.75658351 -0.13517678 0.29457358 11842218
0.75639284 -0.12490805 0.29587072 11250340
0.75488883 -0.11501792 0.29489639 11645098
0.75306684 -0.10465277 0.2943787 11908012
0.7517243 -0.094907902 0.29488698 11119011
0.75043333 -0.084961943 0.29510635 11447465
0.74883997 -0.074508019 0.29581028 11579051
0.75000006 -0.07841526 0.29352981 11315883
0.74744433 -0.065375522 0.29480401 12039596
0.74724984 -0.054861486 0.2947273 12303538
0.74763608 -0.044785812 0.29463881 12764090
0.74733317 -0.035225622 0.29499695 12499634
0.74677777 -0.02510801 0.29453936 11841704
0.74638468 -0.014409041 0.29485416 11645098
0.74676663 -0.0050020674 0.29453605 11449003
0.74752766 0.0046182806 0.29483572 11514539
0.74872732 0.014796634 0.29560152 11513770
0.75000006 0.018971084 0.29259339 11645098
0.74900001 0.024089161 0.29874936 11577506
0.75030452 0.025368882 0.29367813 11644069
0.74900001 0.030050797 0.29980141 11839908
0.75077784 0.034516677 0.29435855 11973034
0.74900001 0.046489131 0.29914388 11841964
0.75100011 0.044835333 0.29404563 11974065
0.74900001 0.055621538 0.29877856 12367534
0.75041378 0.055367429 0.29352057 12170413
0.74899995 0.065793641 0.29818285 10526102
0.75019056 0.0643024 0.29300132 10855320
0.7487334 0.074736364 0.29618806 13684166
0.75000006 0.07486289 0.29142287 13421508
0.74900001 0.081338398 0.29848635 14868183
0.75337934 0.08521127 0.29455638 15065562
0.75900006 0.090864323 0.29491997 15459807
0.76183343 0.093285061 0.29512775 11578533
0.77200007 0.097842425 0.29364705 11183776
0.77800006 0.10042418 0.29866004 11447206
0.78766674 0.10474726 0.29867992 11316645
0.78677785 -0.17185809 0.3044875 9079428
0.77507693 -0.16319449 0.30423847 10066066
0.78166676 -0.16748779 0.30616674 8947585
0.76640004 -0.15351075 0.30443627 10921119
0.77200001 -0.15758607 0.30780354 11446948
0.76268178 -0.14486434 0.30422723 10591637
0.75900006 -0.13479343 0.30025047 12500402
0.76168764 -0.13493651 0.30499348 10066063
0.75900006 -0.12413244 0.30202729 12303283
0.76159996 -0.12491335 0.30603594 9868684
0.75825 -0.11469134 0.30306107 10592923
0.76070011 -0.11515103 0.30786851 10856095
0.75676924 -0.10489468 0.30414197 10920860
0.76000005 -0.10650424 0.30954191 12039853
0.7570436 -0.094763473 0.30579895 10066067
0.75519049 -0.08486966 0.30481148 10395033
0.75464714 -0.075098872 0.30570316 11447722
0.75382358 -0.065046407 0.30526757 11381411
0.7486667 -0.052337531 0.3014206 10462368
0.75328571 -0.055557005 0.30529949 11118756
0.74737501 -0.044702381 0.30297923 12040370
0.75225008 -0.046429791 0.30814585 11711664
0.74627602 -0.035422869 0.30383322 12367790
0.74571896 -0.025071582 0.30405393 11841964
0.74585193 -0.014890575 0.30416915 10856870
0.74644011 -0.0049995659 0.30402067 11053992
0.74745828 0.0046177707 0.30356008 11513517
0.75066668 0.0020020402 0.30925515 11449005
0.74812508 0.015128867 0.30383033 11511974
0.75075006 0.016937567 0.30928949 11380899
0.74839979 0.024771044 0.30481741 11576994
0.74893105 0.034280427 0.30491266 11644584
0.75000006 0.035943467 0.30166483 11315621
0.74877775 0.045232661 0.30458125 11776168
0.75000006 0.041942324 0.30678582 10920861
0.74834353 0.055590946 0.3051219 11907755
0.74846417 0.065259621 0.30540547 10394006
0.74799973 0.074663252 0.30552998 13552837
0.74870002 0.08174435 0.30493876 14868696
0.75325 0.086543724 0.30480486 15197149
0.75900006 0.090864323 0.30380413 15460066
0.76316667 0.093153231 0.30546251 12170673
0.77266675 0.097326063 0.30323777 11184034
0.77900004 0.10055325 0.30086759 11316390
0.78516674 0.10257789 0.30600348 11250340
0.79200006 0.10748649 0.30573261 11184804
0.78875005 -0.17146696 0.31478977 9079171
0.79276478 -0.17594682 0.31545892 9079172
0.77800006 -0.16123688 0.31384078 9932681
0.78453332 -0.16627215 0.31573498 9407365
0.77394998 -0.15511727 0.31495431 12235949
0.76814288 -0.14335358 0.31183171 13289662
0.77187502 -0.14600272 0.3163 10788505
0.76681811 -0.13487688 0.31134072 13026233
0.77100003 -0.13511962 0.31673065 10525591
0.76740003 -0.12496592 0.31273705 12565683
0.77088892 -0.12607761 0.31698534 10591640
0.76492864 -0.11461411 0.31359896 11644839
0.77059996 -0.11665006 0.31891063 9933449
0.76368737 -0.10489872 0.31473547 11118239
0.76288235 -0.095036313 0.31418645 10593182
0.75900006 -0.081488453 0.31091145 9934737
0.76282358 -0.084837615 0.31489921 9408651
0.75900006 -0.075269543 0.31091145 8750721
0.76381242 -0.075186625 0.31635264 8816257
0.75900006 -0.065496959 0.31091145 9143938
0.76328576 -0.064974852 0.31535134 8618110
0.7585001 -0.054209512 0.31100276 10987172
0.76358336 -0.055016294 0.31621972 9342603
0.75660002 -0.04297433 0.31311864 10461082
0.76200008 -0.045880925 0.31749257 10657950
0.7547273 -0.03477269 0.31382343 10592671
0.76066667 -0.037149806 0.31871709 11383474
0.74900001 -0.026643196 0.31032196 10460571
0.75654548 -0.025682144 0.31570578 10461085
0.76000005 -0.021993492 0.31843778 11250856
0.74900001 -0.012031342 0.31032196 8817804
0.75400001 -0.015287247 0.31345612 8554632
0.76000005 -0.014876798 0.31843778 10857385
0.74900001 -0.0076477858 0.31032196 8621451
0.75536364 -0.0040959963 0.31473216 8357763
0.75606257 0.004891092 0.3138051 9343630
0.7604 0.005588043 0.31860539 10133913
0.75660008 0.015594975 0.3145369 10197139
0.76050001 0.013597751 0.3186473 10329239
0.75580001 0.025014972 0.31491396 10459542
0.7562778 0.034769267 0.31511244 10462109
0.74900001 0.049338445 0.31032196 11842988
0.75540006 0.045514945 0.31536716 10263702
0.74900001 0.055767659 0.31090641 11776683
0.75245458 0.055012275 0.31495959 10855581
0.74900001 0.064827003 0.31149089 8683392
0.75207138 0.064629473 0.31599882 10000277
0.74870002 0.074031398 0.31265172 12829115
0.75216675 0.075078577 0.31721261 12170930
0.74900001 0.080900043 0.31119865 14408145
0.7553333 0.0855195 0.31461704 14210767
0.76100004 0.089322239 0.31885678 14736856
0.7628333 0.09192019 0.31396824 13946828
0.77328575 0.097231828 0.3157303 11118242
0.78583336 0.10312726 0.3159202 10987682
0.79080003 0.10800135 0.31505048 11119268
0.79188454 -0.17578778 0.32495248 9144965
0.78652185 -0.16546477 0.3247461 9276548
0.79000002 -0.16988929 0.32915828 9408395
0.77650005 -0.15361522 0.32327506 9670536
0.78183335 -0.15684818 0.32819572 11578788
0.77505004 -0.14490259 0.32384056 10524047
0.77479166 -0.13487698 0.32373238 10591380
0.77485001 -0.12491132 0.32375664 10920350
0.77450007 -0.11488222 0.32481822 10328979
0.77366674 -0.10505518 0.32494733 9934481
0.77347845 -0.095009036 0.32511404 9671824
0.76900005 -0.086162567 0.32040852 8422532
0.77387506 -0.085235544 0.32584032 9540493
0.77400005 -0.074945122 0.3261188 10000526
0.76900005 -0.064559653 0.32040852 7894904
0.77420008 -0.064995728 0.3262026 9474186
0.76900005 -0.058258802 0.32040852 8684419
0.7735557 -0.054982755 0.32593089 8947331
0.76700002 -0.044641983 0.32173079 9210248
0.77277786 -0.045380026 0.32660708 9276040
0.76524997 -0.036480352 0.32242897 8422019
0.77150005 -0.034971491 0.32686841 9671566
0.76375002 -0.023887917 0.32179698 11448488
0.77100003 -0.025017804 0.32665658 7369067
0.7650001 -0.014975452 0.32232365 8291714
0.77150005 -0.015102101 0.32686841 7107182
0.76300001 -0.0024321449 0.32148096 8489090
0.77188897 -0.0047688531 0.32783851 7961464
0.76558334 0.0047296709 0.32346895 7632500
0.77300006 0.0047744066 0.32931355 8421755
0.76533341 0.015474667 0.32336307 8026483
0.77260005 0.014718687 0.32914314 9277061
0.76380008 0.025280619 0.32271534 9012866
0.77216673 0.02465445 0.32895851 7236968
0.76358336 0.035102952 0.32262358 8291198
0.77216673 0.035496876 0.32895854 6909801
0.76358342 0.044789106 0.32366842 8947329
0.77000004 0.041708846 0.3280355 7303276
0.75900006 0.05799292 0.32157245 9868946
0.76370001 0.05406059 0.32463917 9342601
0.75814289 0.065405808 0.32171696 8355192
0.76311111 0.065151125 0.32609484 9407877
0.77000004 0.06153727 0.32983807 7434605
0.75757134 0.075997055 0.32223466 11315110
0.76166672 0.075434752 0.32656726 10854301
0.75866669 0.08194416 0.32202351 12434874
0.76380002 0.085362837 0.32485926 11711151
0.76800001 0.092841879 0.32088965 13157825
0.7748462 0.095556892 0.32549423 10921634
0.78000003 0.098856337 0.32864371 10921891
0.78680003 0.1050301 0.32487607 10987425
0.79000002 0.10937075 0.32176065 11053218
0.78893745 0.11453322 0.32663769 10987425
0.79071426 0.11528806 0.32191816 10987682
0.78894109 0.12465146 0.32697874 11119269
0.79204768 0.12519458 0.32214826 11053476
0.7884286 -0.16335586 0.33404139 9802895
0.79044443 -0.16772321 0.3357186 9737359
0.78678948 -0.15475491 0.3358714 10197138
0.78542852 -0.14526527 0.33540401 10263188
0.77900004 -0.13378617 0.33004603 12631734
0.78444999 -0.13518071 0.33557528 9802898
0.77900004 -0.12466791 0.33004603 12171441
0.78393757 -0.12488388 0.33569703 10460568
0.77900004 -0.11554963 0.33004603 11316133
0.78470576 -0.11482847 0.33624941 10461081
0.78350008 -0.10463845 0.33551079 10132629
0.77900004 -0.093665801 0.33186969 12303796
0.78390908 -0.095506482 0.33646634 8948099
0.778 -0.085352466 0.33144367 11513764
0.78325003 -0.085009672 0.3364327 8684411
0.77700001 -0.075235605 0.33101764 9801605
0.78220004 -0.074824713 0.33598155 8748921
0.77700001 -0.065231271 0.33101764 10590867
0.7816667 -0.064709075 0.33575234 8814974
0.77763635 -0.054858658 0.33211771 9670794
0.78344452 -0.054360095 0.33824798 8816259
0.77685726 -0.045995839 0.33147782 10066325
0.78299999 -0.045008149 0.33738333 8553344
0.77500004 -0.035127599 0.33016559 9803153
0.78363645 -0.035099156 0.33651575 8289913
0.77500004 -0.025149008 0.33016559 9474445
0.78500003 -0.024970196 0.33726951 7894898
0.77516669 -0.015173096 0.33023658 8619652
0.78472733 -0.014941785 0.33698475 8224374
0.77725005 -0.0047492338 0.33249015 8356220
0.78362501 -0.0054793218 0.33728191 7895923
0.77690911 0.0052118469 0.33362636 8224118
0.78257143 0.0041773706 0.338626 8553595
0.77700007 0.014803452 0.3337484 7566187
0.78260005 0.014911549 0.33889958 8026994
0.77516675 0.024750233 0.33205128 9145479
0.78250009 0.024985539 0.33794272 7435374
0.77560008 0.034748007 0.33223692 7699574
0.78275001 0.035757426 0.33782127 7896183
0.77545458 0.045138504 0.33300206 7697518
0.78271431 0.044493087 0.33868822 8750720
0.77512503 0.054009046 0.3331694 8420726
0.78300011 0.05524274 0.33907279 9079426
0.77430004 0.065319642 0.33421934 8750461
0.78066665 0.06421417 0.33867106 9408393
0.76766664 0.073927522 0.3306357 8025969
0.77520001 0.075016424 0.3366048 9869201
0.76800001 0.081154346 0.33077925 8750722
0.77454561 0.085471176 0.33426154 9606288
0.78200006 0.08995644 0.33863977 10067350
0.7766 0.092607521 0.33230335 10527390
0.78436369 0.097074531 0.33632734 10790303
0.78829169 0.10552254 0.3345218 10856096
0.78886354 0.11492105 0.33372173 10987682
0.79000002 0.11368603 0.33840528 11053475
0.78880948 0.12433115 0.33297151 11053475
0.79011112 0.12644461 0.33763093 11119268
0.78900003 -0.14012124 0.34167105 9605778
0.79204762 -0.14507753 0.34573179 10329496
0.78877783 -0.13351677 0.34260094 9869203
0.79053843 -0.13512769 0.34703588 10461081
0.78866667 -0.12529176 0.34337381 9869201
0.79045451 -0.12507035 0.34869388 10461081
0.78850001 -0.11511288 0.34237814 9803408
0.79090905 -0.11504193 0.34704316 10263702
0.78828579 -0.10572355 0.34188947 10066323
0.79153848 -0.10493814 0.34676358 10263702
0.78850007 -0.094808064 0.34237805 10197909
0.79150003 -0.095168777 0.34738651 10263702
0.78800005 -0.084601976 0.3421616 10066323
0.79200006 -0.085031427 0.3476066 10132116
0.78810006 -0.075387925 0.3422049 9868944
0.79175001 -0.0748116 0.34749675 10197909
0.78746158 -0.064834051 0.34214082 9803408
0.7906667 -0.064939156 0.34712368 10000787
0.78800011 -0.055421613 0.34375507 10000530
0.79037499 -0.054558042 0.34851176 10132116
0.7876429 -0.044393267 0.34345552 9606029
0.79049999 -0.04508302 0.34879825 10000531
0.78821427 -0.035066795 0.34304544 9277320
0.79045451 -0.034566596 0.34852591 9737616
0.78888893 -0.025599189 0.34223863 8553081
0.79093337 -0.024183251 0.34658289 9408905
0.78900003 -0.014520934 0.34167105 8290165
0.79153335 -0.014568182 0.34647626 9408905
0.7881667 -0.0051266984 0.34300271 9145733
0.79075003 -0.0055299802 0.34775117 9408651
0.78747052 0.0051338966 0.34458977 9408651
0.79014289 0.0042189509 0.34930071 9343370
0.78753334 0.015005227 0.34472567 9014406
0.79000002 0.015051129 0.3495017 9080455
0.78823084 0.024812423 0.34431976 9080455
0.79030001 0.025232783 0.34870976 9014664
0.78808337 0.034848694 0.343582 8948870
0.79140007 0.035458706 0.34826842 9212043
0.78820008 0.044539176 0.34409332 9212042
0.79160005 0.044730607 0.34835643 9409164
0.78837502 0.053777479 0.3437078 9146248
0.79129994 0.055645041 0.34748441 9408906
0.78650004 0.065383926 0.34312177 9343370
0.79075003 0.064814389 0.3477515 9671823
0.78681827 0.075271718 0.34524933 9934994
0.79014289 0.074509025 0.34930071 9934994
0.78649998 0.084797315 0.34412146 10592924
0.79049999 0.085690729 0.34910646 10395545
0.78828579 0.093843222 0.34268042 10724510
0.79072726 0.095504709 0.34662715 10724510
0.79117864 0.10516866 0.34473389 10856096
0.79143995 0.11512917 0.34458348 10987682
0.79215014 0.015092443 0.35509136 9212042
