# .PCD v0.7 - Point Cloud Data file format
VERSION 0.7
FIELDS x y z rgb
SIZE 4 4 4 4
TYPE F F F U
COUNT 1 1 1 1
WIDTH 839
HEIGHT 1
VIEWPOINT 0 0 0 1 0 0 0
POINTS 839
DATA ascii
0.78900003 0.078755759 0.099705793 14605525
0.79361308 0.074809507 0.095603451 12039597
0.78900003 0.085220478 0.099705793 14802650
0.79335707 0.085092805 0.09447775 11710633
0.78900003 0.090761669 0.099705793 14868444
0.7933715 -0.045115549 0.10502899 14736852
0.79196686 -0.034970168 0.10471036 15262682
0.78900003 -0.022964653 0.10841338 14276043
0.7918278 -0.025183681 0.1037017 14671058
0.78870004 -0.014516113 0.10797615 14736852
0.79169995 -0.01457121 0.10282308 14605522
0.7883572 -0.0050177793 0.1071379 13946568
0.792 -0.005537183 0.10216723 14605265
0.78833336 0.0048691132 0.10700277 14144459
0.79116678 0.0048857671 0.10182963 14737364
0.78868747 0.015257446 0.10682016 14079179
0.79084611 0.014496941 0.10178903 14606290
0.78820831 0.02516453 0.10606249 13882313
0.79000002 0.025222851 0.10168157 14343119
0.78761911 0.035375632 0.10576218 13882314
0.79000002 0.034932226 0.10168156 14145741
0.78755987 0.04516707 0.10556767 14276815
0.79000002 0.041867491 0.10168156 14474706
0.78753573 0.054970626 0.10485031 14408401
0.78755987 0.064784423 0.10505162 14408145
0.78743327 0.074912079 0.10503457 14539475
0.78763992 0.08507368 0.10506305 14670806
0.78824991 0.094444335 0.10576087 14999772
0.79075003 0.097905263 0.10177693 15263200
0.78900003 0.10184405 0.10894111 14407893
0.79325938 0.10459942 0.10443366 12829373
0.79036695 -0.14499035 0.11467925 15525856
0.79064012 -0.13485903 0.11471838 15526113
0.79143351 -0.12480441 0.11483373 15394526
0.79180002 -0.11466745 0.11488631 15197146
0.79207993 -0.10543731 0.11492883 15262939
0.79203326 -0.09523271 0.11492231 15197146
0.79211992 -0.085044585 0.11493462 15065560
0.79183328 -0.074818321 0.11489363 15394524
0.79199988 -0.064636476 0.11491758 15131094
0.7917999 -0.055352718 0.11488801 14999254
0.79056686 -0.045088194 0.1147085 14604239
0.78900003 -0.033730388 0.11688348 15064277
0.79000002 -0.035622545 0.11302456 15327705
0.78858322 -0.02466769 0.11534362 14473166
0.78790009 -0.014500923 0.11524434 14736597
0.78783345 -0.0052776458 0.11523477 14276046
0.78794456 0.0048669707 0.11525138 14079181
0.78803343 0.015013739 0.1152645 13947594
0.78730565 0.025134321 0.11515808 13158079
0.78569996 0.035202619 0.11492347 13026749
0.78638911 0.045357764 0.11502591 13355713
0.7852999 0.055405397 0.11486537 13684166
0.78519988 0.064590819 0.1148499 13750215
0.78630543 0.074806497 0.11501246 13947338
0.78723341 0.085029975 0.11514825 14078924
0.78788894 0.095245607 0.11524373 14407890
0.78900003 0.10266497 0.11489275 15329251
0.79150003 0.10749623 0.11461239 13092547
0.79046702 -0.15518671 0.12487339 15460319
0.78900003 -0.14407922 0.12345373 15131354
0.79000026 -0.14508179 0.1250861 15197147
0.79016691 -0.13477834 0.12482595 15131354
0.79144454 -0.1248057 0.12502886 15197146
0.79166663 -0.11464822 0.12506391 15262939
0.79199988 -0.10542638 0.12511507 15328732
0.79199988 -0.095228888 0.12511505 15262939
0.79196656 -0.085028008 0.12510961 15131353
0.79186106 -0.074821249 0.12509328 15328476
0.79196656 -0.064633906 0.12510958 15131353
0.79086685 -0.05528814 0.12493515 14605008
0.78895438 -0.043148085 0.12555723 14670545
0.79000002 -0.04796071 0.12334602 14605008
0.78859991 -0.034821987 0.12457692 14999254
0.78770012 -0.024640251 0.12535715 14604752
0.7871601 -0.014487071 0.12527107 14802390
0.78764009 -0.0052753836 0.12534806 14341838
0.78800005 0.0048670541 0.12540556 14605781
0.78800005 0.015013026 0.12540554 14408658
0.78793341 0.025156014 0.12539577 14079180
0.78752005 0.035283647 0.12533051 13355457
0.78777778 0.04492553 0.12516615 13421251
0.78682142 0.054920323 0.12541734 13618373
0.78692007 0.064732157 0.12523608 13750215
0.78753352 0.074922115 0.12533261 13881546
0.78720003 0.085026063 0.12527812 14078925
0.78813338 0.095275357 0.1254269 14539474
0.78900003 0.10184405 0.12464113 15460320
0.79075009 0.10669988 0.1249176 12960701
0.79232001 -0.16482314 0.13536908 15591906
0.79270369 -0.15521291 0.13564119 15789284
0.79128587 -0.14482884 0.13499394 15526112
0.79128015 -0.13496752 0.13519132 15394525
0.79283321 -0.1250252 0.13545562 15394525
0.79259992 -0.11478426 0.13541628 15328732
0.79227996 -0.10546391 0.13536133 15262939
0.79213327 -0.095245555 0.13533579 15262683
0.79155999 -0.084985018 0.13523728 15064790
0.79160005 -0.074796624 0.13524297 15065047
0.79064012 -0.064526424 0.13507845 14999510
0.78899997 -0.054161746 0.13664705 14473423
0.79016668 -0.056317288 0.13299501 14539216
0.78843331 -0.044966683 0.13470264 14342094
0.78774077 -0.034579013 0.13499385 14605266
0.78673345 -0.025530931 0.13533238 14670802
0.78661114 -0.015396146 0.13531214 14671059
0.78776932 -0.0054181935 0.13480231 14341837
0.78800005 0.0048670541 0.13462916 14408401
0.78820002 0.015017492 0.13466331 14474708
0.78883308 0.025184939 0.13477211 14145230
0.78840005 0.035323359 0.1346987 13750471
0.78832006 0.044546761 0.13468505 13684422
0.78806669 0.05467926 0.13464117 13618629
0.78820002 0.064836971 0.13466425 13684678
0.78800005 0.074966505 0.13462912 13947595
0.78796005 0.085108235 0.13462248 14144719
0.78839999 0.095308296 0.13469802 14473171
0.78900003 0.10184405 0.13479999 15656931
0.79120004 0.10676125 0.13517681 12631736
0.79360008 -0.16508932 0.14487554 15657186
0.79313785 -0.15500756 0.14478901 15789285
0.79235703 -0.14502241 0.14504573 15591905
0.79315996 -0.13528924 0.14479597 15460319
0.79299992 -0.12505199 0.14476553 15460318
0.79295999 -0.11483601 0.14475802 15394526
0.79295999 -0.10555425 0.14475831 15394526
0.79231238 -0.095036387 0.14498641 15394525
0.79113352 -0.084939763 0.14534876 15197146
0.78900003 -0.073996365 0.14920709 15328732
0.79025018 -0.075263575 0.14413039 15131353
0.78899986 -0.064780496 0.14743778 15065303
0.79000002 -0.065133758 0.14236845 14933974
0.7889331 -0.055151965 0.14494631 14539472
0.78775001 -0.044927847 0.14472793 14473936
0.78657138 -0.0349303 0.14483856 14605522
0.78571993 -0.025496501 0.14527488 14539730
0.78663349 -0.015396542 0.14544462 14737108
0.78772426 -0.0051490413 0.14488266 14473936
0.78794456 0.0048669707 0.1447646 14210766
0.78843331 0.015022686 0.14485493 14342352
0.7889998 0.024609443 0.14376169 14013387
0.79000002 0.026969513 0.14873862 13749958
0.78899986 0.035173859 0.14333168 13881801
0.79000002 0.035805553 0.14894411 13749958
0.78899986 0.044760998 0.14333169 13816008
0.79000002 0.044230618 0.14894411 13947338
0.78899974 0.055012062 0.14433326 13684167
0.79000002 0.053148858 0.1490263 13881545
0.78899974 0.064902782 0.14495884 13684422
0.78841662 0.075005203 0.14485276 14079180
0.78853321 0.085170701 0.14487457 14407890
0.78899974 0.095379323 0.14495888 14605012
0.79110718 0.10562521 0.14501467 13026494
0.79229993 -0.16482085 0.15483615 15525857
0.79100013 -0.15541971 0.15474181 15789285
0.79188573 -0.14513212 0.15488918 15591905
0.79316646 -0.13529129 0.15500611 15394527
0.79244417 -0.1249647 0.15486567 15394526
0.79269993 -0.11479787 0.1549177 15394527
0.79273325 -0.10552438 0.15492401 15657699
0.79135305 -0.095371909 0.1549257 15394269
0.78900003 -0.082169622 0.15673387 15591134
0.79000002 -0.086013377 0.15455274 15065047
0.7889998 -0.075474024 0.15511768 15591391
0.7887665 -0.065296046 0.1550708 15262169
0.78820002 -0.055101246 0.15495946 14867667
0.78648382 -0.044707894 0.15480027 14539216
0.78506666 -0.034665886 0.15526214 14605523
0.78470004 -0.025463624 0.15518999 14671316
0.78612494 -0.015615487 0.1548963 14802903
0.78700006 -0.0052722199 0.15472452 14605524
0.78770012 0.004866567 0.15486188 14671061
0.78859991 0.01502586 0.15503906 14605524
0.78900003 0.021101 0.15432608 14144717
0.79000008 0.026469186 0.15555547 13881545
0.79000014 0.035394572 0.15531424 13815752
0.7902801 0.044657513 0.15537043 14012874
0.78900003 0.059361596 0.15142356 13815495
0.79013819 0.05466314 0.15546958 13881545
0.78899986 0.065549262 0.15447123 13947081
0.79000002 0.062395878 0.15790345 13947081
0.7889331 0.075055286 0.1551048 14144460
0.7889998 0.085220486 0.15511771 14605011
0.78899974 0.095049493 0.15531561 15000026
0.79146445 0.10554199 0.1549404 12895165
0.79369229 -0.17454599 0.16511622 11380901
0.79136008 -0.16462529 0.16484451 15460064
0.79092008 -0.15527438 0.16475406 15789285
0.79170001 -0.14523292 0.16491587 15526113
0.79156005 -0.13501745 0.16488524 15328734
0.7918666 -0.12487186 0.16495015 15328734
0.79296005 -0.11483527 0.16517816 15394527
0.79315996 -0.10558098 0.16521937 15525343
0.79170007 -0.09519653 0.16491613 15196121
0.78900009 -0.081854783 0.16485673 14998998
0.79000002 -0.086666107 0.16456129 14670033
0.78873318 -0.075449601 0.16522035 15459804
0.78777796 -0.065214716 0.16501953 15394013
0.78693324 -0.055012479 0.16484135 15065561
0.78571415 -0.044943258 0.16471839 14736596
0.78483999 -0.034654938 0.16532303 14539474
0.78491998 -0.025470825 0.16534065 14671317
0.78585291 -0.015164425 0.16488774 14868952
0.78700012 -0.0052722204 0.16485761 14671060
0.78736132 0.0048648962 0.16493323 14736853
0.78874981 0.014764535 0.16522428 14539475
0.79000002 0.018749937 0.16548601 14276559
0.78900003 0.020573268 0.16065887 14539731
0.79034507 0.025394503 0.1647615 14013387
0.79080009 0.035430603 0.16472878 13947595
0.79100013 0.044698104 0.1647696 14276559
0.79143339 0.054912265 0.16486144 14144973
0.7907601 0.065047368 0.16472195 13881545
0.78900003 0.075985163 0.16127454 14078667
0.79038101 0.074795701 0.1659632 14079180
0.78899986 0.085220493 0.16342947 14539218
0.79000002 0.085328482 0.16826011 14342096
0.78899974 0.094323851 0.16507863 14933976
0.79000002 0.09827432 0.16641071 15197407
0.79120004 0.10398399 0.16481127 13750219
0.7917586 -0.16457945 0.17496333 15460064
0.79248381 -0.15480199 0.17453524 15723492
0.79244429 -0.1442384 0.17475857 15460320
0.79103357 -0.13492702 0.17496164 15197148
0.79221207 -0.12517838 0.17480098 15197147
0.79288471 -0.11468256 0.1746569 15394526
0.79253328 -0.1054976 0.17529173 15525598
0.78900003 -0.090250522 0.17912951 14538446
0.79128581 -0.095277764 0.17488356 14933206
0.78878933 -0.083909638 0.17616539 14670033
0.79000002 -0.086666107 0.17195892 14472655
0.78764009 -0.075345613 0.17513017 15196634
0.78527766 -0.065008275 0.17552207 15196890
0.78490007 -0.054869551 0.17543896 15131097
0.78408355 -0.044718795 0.17525753 14933975
0.78392881 -0.034810673 0.17489766 14736596
0.78491998 -0.025470544 0.17452826 14671061
0.78596663 -0.015384583 0.17476042 14868440
0.78663999 -0.0052689649 0.17490979 14802390
0.78760016 0.0048662219 0.17512435 14868183
0.78894109 0.013618773 0.17542255 14868440
0.79000002 0.018056409 0.17565773 14605011
0.79047251 0.025238872 0.17483641 13881545
0.79103351 0.035441343 0.17496167 13816008
0.79196143 0.044610899 0.17445475 14013389
0.79259986 0.054993715 0.17438179 14144975
0.79253566 0.065392368 0.17496295 13947595
0.79183328 0.075328976 0.1751395 13815754
0.78900003 0.08891461 0.17174126 14407632
0.7901727 0.085218921 0.17486753 14276047
0.78900003 0.093928061 0.17253284 14736595
0.79000002 0.094770193 0.17643645 14539217
0.79164708 0.10475265 0.17482406 13355716
0.79376668 -0.17441842 0.18485574 11315110
0.792346 -0.16497295 0.18523997 15394272
0.79249984 -0.1549467 0.18444434 15591906
0.79199994 -0.14508073 0.18501158 15394527
0.79104018 -0.13492818 0.18514805 15197148
0.79187876 -0.12462007 0.18483746 15197148
0.79272407 -0.11492954 0.18477409 15394270
0.79191995 -0.1054161 0.18535388 15262684
0.78900003 -0.091943659 0.18574816 14472912
0.79027778 -0.096975476 0.18425006 14867413
0.78773344 -0.084575064 0.18529518 14406861
0.78470004 -0.075065963 0.18458095 14933717
0.78170961 -0.064623795 0.18496953 15065304
0.78219992 -0.054680027 0.18490867 15065304
0.78296685 -0.044653352 0.18509105 14933719
0.78374088 -0.034400996 0.18486466 14670804
0.78416675 -0.02544694 0.18445426 14605267
0.78458333 -0.015355898 0.18455306 14868183
0.78626662 -0.0052657453 0.18495078 14605524
0.78775012 0.0048667779 0.18529993 14868953
0.7888146 0.01468702 0.18537876 14934489
0.79000002 0.018749937 0.18120594 13947594
0.78900003 0.022684196 0.18678163 14342096
0.79000008 0.025986733 0.18426149 14078923
0.79088002 0.035435878 0.18510988 13815751
0.79282767 0.044930622 0.18479703 14013387
0.79283327 0.0550084 0.18463831 14276559
0.79140747 0.064894207 0.18481962 14144716
0.79116672 0.075267419 0.18517663 14210253
0.79068017 0.085400715 0.18506418 14341839
0.78900003 0.098149918 0.18744129 14802388
0.79000008 0.094253875 0.18466355 14539216
0.79121882 0.10514407 0.18484154 12960957
0.7935999 -0.17438146 0.1950365 11446950
0.7917037 -0.16449052 0.19498144 15394784
0.79083353 -0.15525813 0.19528161 15591906
0.79100019 -0.14532363 0.19505112 15525856
0.79100013 -0.13471542 0.19480902 15262684
0.79135305 -0.12500866 0.19513768 15197148
0.79267997 -0.11479425 0.19480997 15328734
0.79177785 -0.10519294 0.19499947 15065562
0.78883314 -0.093002051 0.19478802 14341839
0.79000002 -0.098687224 0.19507647 14736597
0.7876001 -0.084560432 0.19540571 14341839
0.78512019 -0.075106233 0.19479173 14868183
0.78194278 -0.064811505 0.19504985 14999769
0.78143328 -0.054626659 0.19479162 14999769
0.78190893 -0.045009606 0.19465877 14868183
0.77899998 -0.033094466 0.1977009 14605269
0.78123087 -0.035479613 0.19410363 14671060
0.77900004 -0.028014291 0.19783118 14144719
0.78146148 -0.024935862 0.19423276 14473681
0.7833336 -0.015580483 0.19484664 14868438
0.78579992 -0.0052627753 0.19495846 14473680
0.78653336 0.0048586973 0.19513941 14737110
0.78759271 0.015211879 0.19499187 15065819
0.78885692 0.025055133 0.19492567 14802646
0.79000002 0.029846365 0.19045296 14144460
0.78900003 0.035349771 0.19806188 14144973
0.79000002 0.035394575 0.19291885 13947337
0.78900003 0.042368613 0.19870839 13947594
0.7904402 0.045110792 0.19440617 13947594
0.79041696 0.054842196 0.19517761 14079180
0.79000026 0.064985037 0.1950765 14078924
0.79011148 0.075167872 0.19510339 14144460
0.79023367 0.085353389 0.19513296 14276303
0.78900003 0.097457267 0.19390601 14736597
0.79000002 0.093482688 0.19541273 14539217
0.79115641 0.10467306 0.19478421 12960957
0.79353565 -0.1741688 0.20490527 11446694
0.79150009 -0.16485302 0.20504175 15460320
0.79104012 -0.15529758 0.20551887 15723234
0.79237479 -0.14512531 0.20551883 15591136
0.79257703 -0.13547541 0.20499149 15328221
0.79240596 -0.12472684 0.20552698 15262427
0.79206657 -0.11470668 0.20485847 15328476
0.79096442 -0.105489 0.20490205 14999767
0.78870356 -0.094320975 0.20511639 14276046
0.79000002 -0.099611931 0.20339878 14473423
0.78725004 -0.084326133 0.20512521 14539475
0.7850666 -0.075099945 0.20488518 14868440
0.78296685 -0.06481678 0.20525424 14868183
0.78268003 -0.054714613 0.20517974 14933976
0.78191996 -0.045510534 0.20498067 14868183
0.77899998 -0.033906091 0.2046348 14539218
0.78037506 -0.039025113 0.20594537 14736597
0.7790001 -0.028014287 0.20512581 14341839
0.78081256 -0.023508413 0.20503087 14407633
0.7833032 -0.0150798 0.20484036 14802391
0.78436667 -0.0052534086 0.20470069 14078924
0.78441679 0.004845344 0.20471346 14473938
0.78569996 0.01497092 0.20504932 14605524
0.78796881 0.024929199 0.2050653 14671317
0.7889598 0.035348166 0.20497784 14408145
0.78900003 0.041583609 0.20429574 13947594
0.79000002 0.046055846 0.20557453 14013387
0.79000026 0.054813314 0.20524822 14013131
0.79004014 0.064988233 0.20525879 13947594
0.79000026 0.075156778 0.20524821 14013131
0.79000014 0.085328482 0.20524815 14210510
0.79000014 0.094575502 0.20524818 14407889
0.7926923 0.1041806 0.20501982 12763322
0.79281473 -0.17441608 0.21484524 11249315
0.79056007 -0.16445832 0.21464585 15394527
0.79076022 -0.15524225 0.21470024 15591905
0.79233325 -0.14534841 0.21512775 15656928
0.79351842 -0.13528097 0.21503679 15394269
0.79260004 -0.11478528 0.21520145 15262169
0.78900003 -0.1013329 0.21668647 14538447
0.7904349 -0.10554118 0.21453285 14867668
0.78869426 -0.094832905 0.21506384 14275788
0.78718525 -0.084721625 0.21516369 14605009
0.78535986 -0.075127117 0.21507384 15000024
0.78433341 -0.064930335 0.21479374 15065561
0.78456008 -0.054845758 0.21485649 14868183
0.78367752 -0.044549305 0.21479213 14867927
0.77900004 -0.030749768 0.21150859 14144460
0.78127998 -0.034792155 0.21571362 14407632
0.77900004 -0.024670927 0.21606772 14407632
0.78028572 -0.025320422 0.21472754 14276046
0.77900004 -0.019199967 0.21819532 14605011
0.78148502 -0.014935389 0.21456422 14802390
0.78253347 -0.0052415943 0.21521416 14013131
0.7829169 0.0048362091 0.21532018 14737110
0.78440744 0.014742903 0.21521896 14539731
0.78720587 0.025352422 0.21492696 14473938
0.7882334 0.035316281 0.21493663 14539731
0.7889998 0.043829475 0.21623868 14408145
0.79000002 0.046722177 0.21241462 14276559
0.79003358 0.054815825 0.21450408 14144973
0.79016012 0.064997733 0.21453817 14013130
0.78900003 0.079679288 0.2197649 14473425
0.79000026 0.075156778 0.2144952 14078667
0.78900003 0.08601208 0.21923716 14407632
0.79000008 0.085087247 0.21417359 14341839
0.78900003 0.093994029 0.2177639 14473425
0.79000002 0.094883755 0.21367323 14407633
0.79266673 0.1043842 0.21480471 12565943
0.79208332 -0.17443459 0.22456406 11381415
0.79000038 -0.16499381 0.22488455 15460065
0.79036695 -0.15516472 0.22477195 15526113
0.79199994 -0.14551894 0.22465703 15525343
0.79296148 -0.13511313 0.22479494 15394013
0.79263854 -0.12499572 0.22541618 15262941
0.79163343 -0.11464573 0.22512931 15065306
0.78900003 -0.10262585 0.22641432 14473168
0.79026324 -0.1066562 0.22391339 14801620
0.7883333 -0.094789512 0.2251149 14012617
0.78643328 -0.084435865 0.22549154 14802388
0.78386676 -0.074985094 0.22475474 14868181
0.78305584 -0.064822637 0.22452293 15065561
0.78383338 -0.054794747 0.22474413 15131355
0.78322875 -0.044800859 0.22470222 14933720
0.78156 -0.034511704 0.22501069 14276046
0.77900016 -0.023212004 0.22451732 14078667
0.78018188 -0.027808003 0.22478104 14078667
0.7790001 -0.017528286 0.22290641 14473425
0.77999997 -0.01374663 0.22547504 14604756
0.77900004 -0.0030302426 0.22901566 14473684
0.78065223 -0.0054671546 0.22443037 13749704
0.77900004 0.00025233286 0.2297451 14078926
0.7816 0.0048295534 0.22502145 14802392
0.78332168 0.015121536 0.22492811 14342097
0.78544432 0.0250789 0.22520889 14407890
0.7871924 0.035129398 0.22500163 14539730
0.78875983 0.044572558 0.22523735 14473937
0.78899992 0.053204715 0.22690685 14342350
0.79000002 0.055914152 0.22286156 14276559
0.78900003 0.065595433 0.22830756 14079180
0.79000002 0.064732842 0.22323786 14210766
0.7889998 0.075700991 0.22566128 14144717
0.79000002 0.07279364 0.22148186 14078923
0.7889998 0.085220478 0.22530605 14407632
0.78899986 0.093752153 0.2251302 14276561
0.79000002 0.09827432 0.22651635 14211282
0.792 0.10479932 0.2249624 12237235
0.79231834 -0.17519552 0.23502149 10723228
0.79000026 -0.16526575 0.23483862 15328734
0.79080009 -0.15524879 0.23507649 15591905
0.79273516 -0.14520444 0.23499669 15526112
0.79251713 -0.13530922 0.23481861 15262941
0.79163331 -0.12483805 0.23532405 15131355
0.78900003 -0.11056822 0.23731199 14539218
0.79030442 -0.11477409 0.23468761 14933976
0.78860706 -0.10477818 0.23501733 14341839
0.78670973 -0.095337257 0.23462917 14012619
0.78430003 -0.085124277 0.23497753 14933976
0.78272003 -0.074874505 0.23450735 14802390
0.78213322 -0.064747043 0.23433179 14605011
0.77900004 -0.05080995 0.23521608 14999769
0.78120697 -0.054739077 0.23493512 14999513
0.77900004 -0.048074469 0.23521607 14933976
0.78068 -0.044558514 0.23440607 14999769
0.78177124 -0.035302892 0.23526859 14144716
0.78100008 -0.025470693 0.23506463 13947081
0.78030568 -0.015275543 0.23469761 14276046
0.77900016 -0.003824068 0.23553792 14276305
0.78000009 -0.0081469165 0.2338746 13157311
0.77900004 0.00025233286 0.23521607 14078928
0.78113341 0.0057413066 0.23494554 15131357
0.78292614 0.014713638 0.234975 15131613
0.78509998 0.025068399 0.23521978 14276561
0.78686208 0.035382338 0.23498534 14539475
0.78793335 0.044525664 0.23514543 14210765
0.78830552 0.054695852 0.23525596 14276558
0.78839993 0.064853348 0.23528424 14144715
0.78865695 0.074897818 0.23522936 14144715
0.78849989 0.085024588 0.23460539 14342096
0.78895813 0.094297074 0.23468304 14408403
0.79000002 0.09827432 0.23113987 14145489
0.79140633 0.1051695 0.23490794 11908784
0.79234797 -0.17451081 0.24529462 11315622
0.79000038 -0.16499381 0.2449016 15262941
0.79046696 -0.15518428 0.2451551 15460318
0.7924332 -0.14536713 0.24483734 15460318
0.79267997 -0.1352084 0.24491467 15262682
0.79165632 -0.12461039 0.24494508 15131098
0.78899997 -0.11184694 0.2456238 14473425
0.79005879 -0.11626538 0.24432115 14868183
0.78799999 -0.1051007 0.24490139 14144460
0.78482759 -0.095161565 0.24508503 14341839
0.78316712 -0.08499936 0.24472536 14933976
0.7839002 -0.074984998 0.24495587 15131355
0.78394473 -0.06489791 0.24497032 14670804
0.78204 -0.054671835 0.24528885 14868183
0.78146422 -0.044893485 0.24530517 14933976
0.78188872 -0.034930762 0.24503748 14276301
0.78088003 -0.025341131 0.24492319 13684164
0.77891666 -0.014411636 0.24673915 13881030
0.78033334 -0.016950401 0.2426212 14078667
0.77810711 -0.0050180894 0.24528746 13683911
0.78000003 -0.0079643168 0.24099599 13223616
0.77832133 0.0040270048 0.24594155 14736855
0.78037506 0.0075608515 0.24248165 14605268
0.77900004 0.011802136 0.24919741 15131868
0.78151852 0.015229855 0.24437608 15000282
0.78437138 0.024916427 0.24496834 15000282
0.78696007 0.035258554 0.24498871 14539731
0.78700012 0.045393277 0.24500118 14342351
0.78700006 0.055526372 0.24500117 14276558
0.78716004 0.064751893 0.24505043 14144971
0.78800011 0.075115651 0.24513356 14144972
0.78844821 0.085289009 0.24468692 14342352
0.78899974 0.094328396 0.24454102 14408402
0.79000002 0.09827432 0.24963389 14868442
0.79115641 0.10467261 0.24479067 12039856
0.79240751 -0.17419016 0.25520283 11250088
0.79000014 -0.16434106 0.25518206 15460320
0.79064018 -0.15521839 0.25538883 15526111
0.79227769 -0.14533891 0.25498962 15525598
0.79246658 -0.13517168 0.25504917 15459548
0.79149997 -0.1256818 0.25479966 15262169
0.78861111 -0.11297621 0.25504097 14604497
0.79000002 -0.11844223 0.25501394 15065048
0.78653347 -0.10470088 0.25498125 13749703
0.78430784 -0.095365085 0.25496623 14341583
0.78314316 -0.084865928 0.25558415 15065562
0.78366667 -0.075166211 0.25537592 15131355
0.78423345 -0.064921558 0.25515372 14999769
0.78263998 -0.05471275 0.25463763 14802390
0.78199977 -0.044598263 0.255344 14802390
0.78189981 -0.034525208 0.25531074 14539218
0.78050005 -0.025329204 0.25485381 13683908
0.77850002 -0.014539732 0.25497186 13749187
0.78000003 -0.019833278 0.25651693 13683394
0.77627599 -0.0050763832 0.25513431 13091773
0.77572238 0.0047922605 0.25510776 14276560
0.77766675 0.014211293 0.25567105 14737110
0.78016669 0.017299224 0.25139675 14934489
0.77900004 0.020312516 0.25892356 14868696
0.78327274 0.025041975 0.25500643 14934489
0.78659999 0.035243258 0.25500351 14606037
0.78663898 0.045371566 0.25501606 14408658
0.78633326 0.055479404 0.25491694 14145742
0.78676659 0.064719379 0.25505754 14079692
0.78750014 0.07491979 0.2552954 14144715
0.78775871 0.084959589 0.25522003 14210253
0.78879988 0.093509145 0.25479394 14407632
0.79000002 0.09827432 0.25518212 14868185
0.79269695 0.10519262 0.25526589 12105649
0.79277271 -0.17504521 0.26493481 10592158
0.78900009 -0.16295765 0.26795647 15460577
0.79004174 -0.1660452 0.26421168 15197405
0.78900009 -0.15523356 0.26846018 15394527
0.79015791 -0.15493001 0.26341054 15460318
0.78900003 -0.1447389 0.26871207 15197147
0.79041678 -0.1449987 0.26364237 15394268
0.78885704 -0.13429232 0.26787162 15262939
0.79037505 -0.13504604 0.26293477 15196890
0.78859997 -0.12528154 0.2667287 14999510
0.7902 -0.12553605 0.26172101 15065303
0.78794283 -0.11490119 0.26479217 14735825
0.79000002 -0.11995538 0.26073033 15130583
0.78563994 -0.10458164 0.26480827 13814980
0.78341401 -0.094989829 0.26481679 14144460
0.77877784 -0.08381474 0.26837012 15131353
0.78116679 -0.085622914 0.2640622 15262940
0.77866673 -0.076611981 0.26853427 15526111
0.78154176 -0.074149571 0.26403436 15591904
0.77900004 -0.069046482 0.26986548 15526111
0.78255576 -0.064781174 0.26468328 15591904
0.77900004 -0.052633602 0.26986548 15723489
0.78236681 -0.05469308 0.26461872 15591904
0.77900004 -0.044933736 0.26905498 15460319
0.78131813 -0.04539134 0.26434806 15394527
0.77881831 -0.034969512 0.26731569 14933976
0.78046161 -0.035585839 0.26264125 14933976
0.77788001 -0.024806004 0.26568636 14276046
0.78020006 -0.027509879 0.26187927 14473424
0.77657902 -0.015012874 0.26481158 14341838
0.77487093 -0.0053087724 0.2655066 13486529
0.7751289 0.0046426784 0.26507068 14473938
0.77700013 0.015000934 0.26495034 14474194
0.77900004 0.020312516 0.26439452 14605524
0.78264302 0.026104037 0.26504165 14737367
0.78559995 0.035198282 0.26479486 14802904
0.78553325 0.045307647 0.26477212 14342866
0.78535998 0.055411767 0.2647149 14277072
0.78604007 0.064659484 0.26494363 14407888
0.78636676 0.074810915 0.26505253 14341838
0.78661531 0.085105985 0.26492399 14407631
0.78853565 0.094203822 0.26532355 14605011
0.79000002 0.09827432 0.26257974 14933720
0.79181814 0.10502017 0.26520318 12039855
0.79268175 -0.17494033 0.27511075 10328727
0.78855997 -0.16404282 0.27502286 15262941
0.79000002 -0.16988929 0.27552554 14538964
0.78851992 -0.15480255 0.27500844 15328733
0.78892291 -0.14543545 0.27500772 15197147
0.78810352 -0.13519071 0.27499083 15131353
0.78707403 -0.12483597 0.27491289 14933974
0.78446895 -0.11510006 0.2742807 14605009
0.78338253 -0.10492537 0.27434632 13815494
0.77900004 -0.090930313 0.27807191 13947081
0.78222233 -0.09517502 0.27470872 13947080
0.77711135 -0.084849827 0.27567667 14605011
0.78033334 -0.08925917 0.27215338 14802390
0.77627784 -0.075165078 0.27527982 15328732
0.77683324 -0.065217279 0.27547461 15460318
0.78000003 -0.063657135 0.27021191 15526111
0.77627778 -0.055176374 0.27527806 15591904
0.78000003 -0.055744495 0.27021191 15723488
0.77623349 -0.045177653 0.2752631 15460063
0.77644473 -0.035193909 0.27533954 15064792
0.77513337 -0.0251549 0.27487469 14275789
0.77402943 -0.015366209 0.2747502 14341839
0.77344012 -0.0051811915 0.27518046 13684166
0.77488583 0.0049183876 0.27491722 14802903
0.77734482 0.014686836 0.27550167 14539987
0.77866673 0.020911708 0.27825645 14408145
0.78212923 0.025124473 0.27484649 14474195
0.78559983 0.035198215 0.27490976 14802647
0.78527761 0.045292813 0.27479795 14473683
0.78533328 0.055410016 0.27481738 14342351
0.78599989 0.064656012 0.27505052 14342351
0.78572202 0.074748948 0.27495426 14341839
0.78614283 0.084715724 0.27477187 14407632
0.78836662 0.095304385 0.27495578 14538961
0.79107147 0.10601642 0.27530351 11382182
0.79295462 -0.17533799 0.28532982 10130835
0.7887665 -0.16408522 0.28525212 15328478
0.79000002 -0.16988929 0.28477257 14407378
0.78806674 -0.15471418 0.28499797 15262683
0.78849989 -0.1455712 0.2851539 15328220
0.78800005 -0.13533184 0.28497404 15262685
0.78721434 -0.12526003 0.28501979 15131098
0.78396159 -0.11523019 0.28464466 14473167
0.78244454 -0.10507103 0.28479797 13946823
0.77777791 -0.092711449 0.28542304 13947081
0.78100002 -0.097352706 0.28405809 13749700
0.77510709 -0.084969334 0.28504029 14341839
0.77441663 -0.074985504 0.28549892 14802389
0.77406675 -0.064985245 0.28536925 15197146
0.77369457 -0.054992665 0.28523239 15526111
0.77379996 -0.045036186 0.28527078 15394270
0.77413887 -0.035088405 0.2853955 15130584
0.77370012 -0.025107684 0.28523451 14144203
0.77300036 -0.015131725 0.28497756 14342095
0.77243346 -0.0051747132 0.28476757 13683909
0.773139 0.0047771819 0.28502768 14737367
0.77473336 0.014761912 0.28525165 14539731
0.77712125 0.024456009 0.28503379 14473937
0.78140002 0.028789651 0.28130546 14671317
0.77880007 0.031975873 0.28839234 14802901
0.78262979 0.035405714 0.28441906 14737110
0.78466672 0.045009602 0.28518656 14670804
0.78507996 0.055391178 0.28483656 14605010
0.78568 0.064630151 0.28505343 14539218
0.78563327 0.074741147 0.28503639 14341838
0.78618509 0.085122198 0.2848278 14407632
0.78820002 0.09436167 0.28504559 14473425
0.79116672 0.10490523 0.28519309 11974061
0.79299992 0.11535515 0.28492269 11316390
0.79238111 -0.17490913 0.29517019 9933712
0.78895813 -0.16397066 0.29532507 15328219
0.79000002 -0.16962509 0.2956048 14209228
0.78800005 -0.1547014 0.29511994 15130583
0.78788012 -0.14545593 0.29507452 15196633
0.78780001 -0.13529751 0.29504412 15131099
0.78744012 -0.12509802 0.29490957 15328221
0.78559369 -0.11520788 0.29536813 14998999
0.78288895 -0.10462359 0.29503858 13814982
0.77772236 -0.093211532 0.29460868 13486016
0.78025007 -0.09792605 0.2958715 13486017
0.77478558 -0.085193433 0.29502967 13946826
0.77269703 -0.074573688 0.29530719 14473425
0.77176672 -0.064792 0.29536009 14933719
0.77125013 -0.054819115 0.29516184 15393756
0.76900005 -0.041156493 0.29880559 14998999
0.77110344 -0.04500372 0.29495022 15393756
0.77147222 -0.034966953 0.29524705 14933205
0.77166665 -0.025041156 0.2953214 14078410
0.77136087 -0.015099483 0.29520553 14539218
0.77076662 -0.005163861 0.29497904 13618116
0.7719118 0.0045581982 0.29515269 14671318
0.77396166 0.014886209 0.29508874 14605524
0.77588242 0.024561213 0.29485509 14539731
0.77866673 0.033064716 0.29527023 14802390
0.78053856 0.037501309 0.29471388 14671060
0.78350013 0.045302685 0.29494247 14670802
0.78406686 0.055319712 0.29456189 14736595
0.78416669 0.064506441 0.29459986 14736596
0.7848888 0.074670456 0.29487309 14538961
0.78566664 0.084862165 0.29516429 14473425
0.78810346 0.095114462 0.29528591 14342352
0.79087114 0.10531288 0.29488033 11579303
0.79243475 -0.17517433 0.30532938 9605004
0.78891283 -0.16347294 0.30517751 15131098
0.79000002 -0.16919577 0.3044225 14341070
0.78793341 -0.15468863 0.30523977 14999768
0.78649986 -0.14520207 0.30468333 15065047
0.78591686 -0.13497394 0.30445588 15130585
0.78606671 -0.12487896 0.30451441 15393757
0.78459269 -0.11525948 0.30527043 15459550
0.78269458 -0.10510588 0.30504221 14604755
0.77825004 -0.091754608 0.30513296 13025980
0.78093338 -0.09664084 0.30527049 13288896
0.7754001 -0.085067317 0.30492297 13552069
0.77269709 -0.075069271 0.30517542 14144205
0.76900005 -0.062399358 0.30654663 13815495
0.77017659 -0.06561356 0.3039296 14341839
0.7686857 -0.054507356 0.30510935 15065049
0.77000004 -0.059235852 0.30099675 15065562
0.76900035 -0.044756982 0.30510646 15525342
0.76889682 -0.034882512 0.30608919 14670290
0.77000004 -0.034772214 0.30125427 14867413
0.76846153 -0.024937104 0.3055833 14144460
0.77000004 -0.024986755 0.30099675 14012874
0.76888895 -0.015350186 0.30636215 14342353
0.77000004 -0.014171254 0.3015976 14276046
0.76900023 -0.0059017367 0.30555651 13947082
0.77000004 -0.0022741999 0.3024388 13354946
0.77150005 0.004995659 0.3048557 14868440
0.77360022 0.014739456 0.30511922 14736854
0.774921 0.024934456 0.30530411 14670804
0.77731019 0.034701888 0.30491704 14868183
0.78000003 0.038598534 0.3012538 14736595
0.77764022 0.044380646 0.306456 14605011
0.78137505 0.046098426 0.30189779 14539217
0.77850008 0.052877091 0.30819148 14670802
0.78172004 0.055594228 0.30389225 14736594
0.78285736 0.06518399 0.30523506 14736595
0.78283882 0.075213425 0.30494729 14670545
0.78310013 0.084585257 0.30519697 14802131
0.78716654 0.094907038 0.30499089 14407890
0.79148 0.10587356 0.30531779 11250597
0.79169571 -0.17549467 0.31527993 9341575
0.78892285 -0.16390432 0.31457391 14999768
0.79000002 -0.16906734 0.31662342 12762039
0.78792006 -0.15468644 0.31538033 15065305
0.78636003 -0.14517625 0.31475595 14933462
0.78502846 -0.13469155 0.31500995 14933206
0.78450006 -0.12462967 0.31492862 15328476
0.78413808 -0.1153951 0.31525967 15460062
0.78265524 -0.10494281 0.31497967 14802392
0.77837503 -0.09268102 0.31338182 13288640
0.78053337 -0.096103936 0.31473973 14144205
0.77650005 -0.085187085 0.31353772 13354433
0.78025001 -0.084684074 0.31961614 13091002
0.77537507 -0.075081535 0.31490108 13618375
0.7727778 -0.065179572 0.31414703 14013132
0.76900005 -0.053758193 0.3114073 14341326
0.77299994 -0.05518122 0.31645969 14341326
0.76900005 -0.044756979 0.3114073 15196378
0.77220017 -0.044943999 0.31632152 14998998
0.7689091 -0.034442905 0.31218877 14670033
0.77130783 -0.035308059 0.31664926 14604239
0.76876926 -0.025361359 0.31283697 14144716
0.77085721 -0.024241367 0.31705809 14145229
0.76900005 -0.018203396 0.31185737 14145490
0.77115011 -0.014463156 0.31543955 14211282
0.77147621 -0.0049958793 0.31490758 14078667
0.77253336 0.0047738655 0.31465057 14868440
0.77388 0.014744387 0.31519839 14868698
0.77440751 0.024423156 0.31500939 14671575
0.77543992 0.034742992 0.31401622 14868953
0.77628565 0.044517338 0.31410071 14473938
0.78100002 0.047789693 0.31992337 14802649
0.77812499 0.052852094 0.31305346 14605266
0.78114283 0.056681264 0.31541225 14736853
0.78176671 0.065221235 0.31474826 14670802
0.77900004 0.075933933 0.31180951 14736595
0.78065223 0.075101927 0.31445923 14605009
0.7823478 0.084264919 0.31466588 14999254
0.78703439 0.095306501 0.31483537 14473428
0.79205 0.10465298 0.31527066 10987426
0.79276919 -0.17476961 0.32467562 10066068
0.78900003 -0.16182423 0.32181513 14144204
0.7910527 -0.16475585 0.32618722 11249570
0.78866661 -0.15411465 0.32388529 12893880
0.79014289 -0.15697217 0.328161 10921118
0.78783995 -0.14544968 0.32457191 12367794
0.78696001 -0.13533826 0.32494631 11447205
0.78680003 -0.12499442 0.32506457 11250085
0.78725004 -0.11493039 0.32525006 11447719
0.78665006 -0.10471527 0.32500309 11382183
0.78557152 -0.095113367 0.32469124 11579305
0.78533345 -0.085232966 0.32507342 10789276
0.7856667 -0.075156562 0.32551816 10921892
0.778 -0.064406909 0.32051575 13947341
0.78492314 -0.065332428 0.32591584 11776687
0.77875006 -0.053529121 0.32264781 14078412
0.78414291 -0.054813765 0.32672021 12368307
0.77650005 -0.044587165 0.32201955 13683908
0.78366667 -0.045408234 0.32774436 12105904
0.77550006 -0.035152406 0.32221043 13420478
0.78175008 -0.034977343 0.32755098 12829628
0.77470005 -0.025139272 0.32187819 12829114
0.78080004 -0.025337687 0.32715291 12764093
0.77580005 -0.015368444 0.32288176 12435385
0.78033334 -0.01436377 0.32695737 12830658
0.77560008 -0.0051939762 0.32225204 11907498
0.78100002 -0.0052292156 0.32723674 12500921
0.77724999 0.0038908785 0.32248229 11711147
0.78350008 0.0055742222 0.32755238 11053475
0.77840006 0.014830125 0.32250282 11251113
0.78390002 0.01493421 0.32753626 10724767
0.77814293 0.024971534 0.32161671 12501436
0.78371435 0.025544377 0.32706687 10462112
0.77875006 0.033979882 0.32082474 14803676
0.78418183 0.034299862 0.32640362 10790823
0.78576934 0.046523485 0.32555962 12236982
0.78684217 0.054933164 0.32493842 13157054
0.79000002 0.058512129 0.32915828 9866891
0.78721046 0.065238938 0.32479909 13091259
0.79000002 0.063135639 0.32915828 9735305
0.78704351 0.075075805 0.32528716 11906985
0.78752631 0.085061423 0.32444328 12960189
0.79000002 0.087177895 0.32915828 9933712
0.78853858 0.0934074 0.32301208 13618633
0.79210001 -0.15550821 0.33467156 10592924
0.78900003 -0.14381537 0.3305887 10527131
0.7910527 -0.14535828 0.33495957 10592924
0.78900003 -0.13537164 0.33111644 10461337
0.79235709 -0.13435605 0.33610564 10592923
0.78900003 -0.12534472 0.3305887 10395545
0.79229409 -0.12466656 0.33557269 10395545
0.78900003 -0.11518588 0.3305887 10461080
0.79206681 -0.11470661 0.33558381 10526873
0.78900003 -0.10502703 0.3305887 10527385
0.79163164 -0.10518252 0.33618104 10461336
0.78900003 -0.094868183 0.3305887 10263957
0.79176193 -0.095597185 0.33598527 10329750
0.78900003 -0.084709331 0.3305887 9869201
0.78900003 -0.061621048 0.3305887 9079173
0.78820002 -0.055099465 0.33062291 9144966
0.78837508 -0.044040203 0.33263421 9211272
0.79220003 -0.045922548 0.33675316 9671822
0.7876001 -0.034777276 0.33276942 9737358
0.79120004 -0.034936238 0.33706713 9540236
0.78727269 -0.025045222 0.33271506 10329752
0.7908572 -0.024076367 0.33718628 9408393
0.78699988 -0.014605702 0.33319309 9343375
0.79150009 -0.015185364 0.3387396 9540238
0.7871539 -0.0056991349 0.33321995 9080202
0.7908572 -0.0045047882 0.33824405 9343116
0.78800005 0.0039446922 0.3324762 8948099
0.79145467 0.0051407949 0.3366718 9408908
0.7881667 0.01563189 0.33239248 8947842
0.79145455 0.015247395 0.33684039 9277066
0.78850007 0.025174962 0.33314869 9079685
0.7911666 0.025259906 0.33798 9277322
0.78850007 0.036019728 0.33153331 9211273
0.79146671 0.03546169 0.33718246 9408907
0.78880006 0.043097071 0.33087429 9079687
0.79237503 0.045008872 0.33583122 9540236
