# .PCD v0.7 - Point Cloud Data file format
VERSION 0.7
FIELDS x y z rgb
SIZE 4 4 4 4
TYPE F F F U
COUNT 1 1 1 1
WIDTH 854
HEIGHT 1
VIEWPOINT 0 0 0 1 0 0 0
POINTS 854
DATA ascii
0.79283339 -0.014592887 0.095541567 12171438
0.78900003 -0.0015914912 0.099705793 14736595
0.7923795 -0.0054353969 0.095327519 11973801
0.78900003 0.0048732301 0.099705793 14736593
0.78900003 0.076293007 0.098474421 13420992
0.79120833 0.074652769 0.093653955 11447716
0.78900003 0.084112242 0.098412856 13486786
0.79105008 0.085998714 0.093666576 11710891
0.79271424 -0.045078177 0.10494212 14736852
0.7912668 -0.03493965 0.10461893 15131866
0.78879994 -0.023504734 0.10718972 14210764
0.79084212 -0.02605404 0.10276221 14605779
0.78852165 -0.014271414 0.10550292 14539986
0.79000002 -0.017313443 0.10168156 14343120
0.78839993 -0.0052818791 0.10516566 14210764
0.78820002 0.004868289 0.10513933 14342351
0.78834784 0.014939344 0.10547967 14211279
0.79000002 0.015975831 0.10168156 14869466
0.78823996 0.02498219 0.10588236 13882314
0.79000002 0.026147554 0.10168157 14211536
0.78844994 0.035325252 0.10609537 13684936
0.79088891 0.03584642 0.10097194 14277072
0.78847355 0.044749778 0.10624429 14079438
0.79090905 0.044356715 0.10112395 14474450
0.78792 0.054852728 0.10583854 14342354
0.79033333 0.053293329 0.10141546 14540500
0.78763998 0.064790443 0.105062 14474196
0.78736669 0.074905977 0.10502623 14539476
0.78755987 0.085065424 0.1050519 14736598
0.78812504 0.094659567 0.10589725 15000285
0.7906 0.097239316 0.10175786 15132385
0.78900003 0.10245974 0.10832542 14474716
0.79281479 0.10536391 0.10437585 12369336
0.79132003 -0.15535228 0.11481825 15591906
0.79223329 -0.14533061 0.11495111 15526112
0.79200006 -0.13509251 0.11491609 15460319
0.79106677 -0.12474732 0.11478006 15328734
0.79192001 -0.11468419 0.11490382 15262940
0.79211992 -0.10544291 0.11493415 15328733
0.79146671 -0.09516523 0.11483903 15262939
0.79136008 -0.084963463 0.11482424 15131351
0.79096687 -0.074736662 0.11476693 15525852
0.79064023 -0.064525776 0.11471903 15130838
0.79056007 -0.055265188 0.11470723 14999253
0.78900003 -0.041303352 0.11817642 14868181
0.79028594 -0.045335673 0.11440363 14604752
0.78894985 -0.033913128 0.11549058 15065303
0.79000002 -0.037348654 0.11216152 15197146
0.7882778 -0.024658423 0.11529873 14473166
0.78790003 -0.014500456 0.11524438 14736596
0.78800005 -0.005278918 0.11525956 14276044
0.78800005 0.0048670531 0.11525958 14144972
0.78800005 0.015013027 0.11525954 14013387
0.78786123 0.025154466 0.11523991 13223871
0.7877667 0.035295215 0.11522616 13026492
0.78787506 0.044866744 0.11501134 13355457
0.78676462 0.054857582 0.11529677 13618629
0.78599989 0.064655609 0.11496772 13750216
0.78583312 0.074759714 0.11494275 13947340
0.78559989 0.084853552 0.11490695 14078669
0.78691667 0.095130309 0.1151012 14473428
0.788625 0.10352726 0.11477376 15395300
0.7902 0.10847373 0.1146557 11514026
0.79216659 -0.16479351 0.12514299 15591650
0.79199994 -0.15483095 0.12533437 15525856
0.79290611 -0.14487489 0.12502666 15197147
0.79223329 -0.1351331 0.12515336 15131354
0.79125017 -0.12477628 0.12499836 15197146
0.79140007 -0.11460911 0.12502137 15197146
0.79189986 -0.10541344 0.12509972 15328732
0.79105574 -0.095115662 0.12496611 15328731
0.79110014 -0.084934406 0.12497338 15131096
0.79094458 -0.074735776 0.12494972 15328731
0.79000026 -0.064473256 0.12479912 15197146
0.79000026 -0.055226222 0.12479912 14604752
0.78890598 -0.044473119 0.12502989 14605009
0.79000002 -0.049215663 0.12156265 14670802
0.78813797 -0.034928758 0.12466237 14802388
0.78674084 -0.025121536 0.12499885 14605265
0.78682137 -0.015071698 0.12541451 14736851
0.78800005 -0.0052789189 0.12540551 14407629
0.78800005 0.0048670541 0.12540552 14671315
0.78800005 0.015013026 0.12540554 14539730
0.78803343 0.025160257 0.12541097 13881799
0.78847998 0.035326943 0.12548323 13421248
0.78847992 0.044555236 0.1254832 13487043
0.78790009 0.054667179 0.12539002 13683909
0.78708005 0.0647441 0.12526016 13749958
0.78606665 0.074781783 0.1250979 13815754
0.78523999 0.084815376 0.12496647 14144719
0.78716677 0.095160715 0.12527338 14605013
0.78899997 0.10342725 0.12437727 14999515
0.79026669 0.10792813 0.12539668 11907757
0.79256004 -0.16487373 0.13540703 15460321
0.79250002 -0.15498774 0.13519798 15789284
0.79259253 -0.14488146 0.13561903 15526111
0.79295999 -0.13525569 0.13547674 15394525
0.7925998 -0.12498929 0.13541637 15394525
0.79255998 -0.1147778 0.13540961 15262941
0.79235995 -0.10547505 0.13537487 15328733
0.79123348 -0.095137917 0.13518181 15197146
0.79136008 -0.084961407 0.13520339 14933974
0.79163343 -0.074800901 0.13525006 14999767
0.79000014 -0.064473256 0.13497086 15065560
0.79000014 -0.055226225 0.13497086 14473423
0.78861529 -0.044266932 0.13459219 14407630
0.79000002 -0.049678016 0.13589555 14276044
0.78717858 -0.034562901 0.13508059 14670803
0.78559989 -0.025494389 0.13513868 14670803
0.78613889 -0.015385891 0.13523096 14802133
0.78780776 -0.0054186312 0.13480879 14407373
0.7881667 0.0048682 0.13465834 14473681
0.78800005 0.015013026 0.13462916 14539731
0.78896642 0.025189979 0.13479444 14144973
0.7889998 0.034929987 0.13446416 13750216
0.79000002 0.038476918 0.1374367 13816008
0.78899986 0.04516837 0.13392507 13618630
0.79000002 0.04279219 0.13774495 13815753
0.78866655 0.054719638 0.13474379 13683911
0.78796005 0.064816765 0.13462286 13749960
0.78657573 0.075080812 0.13488951 13947340
0.78621423 0.084722869 0.13491766 14210256
0.78780001 0.095236778 0.13459615 14538964
0.78900003 0.1025367 0.13410734 15394273
0.7904706 0.10715092 0.13537802 12105649
0.79339999 -0.17433956 0.14483808 11446438
0.79130012 -0.16461259 0.14537972 15526115
0.79096687 -0.15528329 0.14531855 15723491
0.79215616 -0.14554743 0.14495833 15591904
0.79300004 -0.13526231 0.14476553 15526111
0.79323334 -0.1250878 0.14480853 15394525
0.79284006 -0.1055393 0.14473644 15460318
0.79136372 -0.094901212 0.14497216 15394268
0.79153574 -0.085046627 0.14509366 15196889
0.79122233 -0.074762017 0.14536576 15197146
0.79000026 -0.064473264 0.14514253 14999511
0.78900003 -0.054078866 0.14788337 14473423
0.79000002 -0.055945437 0.14319043 14539216
0.78854275 -0.044841148 0.14495355 14539216
0.79000002 -0.049678016 0.14236845 14473423
0.78662974 -0.034941278 0.14503305 14670802
0.78499991 -0.025473513 0.14514278 14670802
0.78619993 -0.01538677 0.14536515 14867668
0.78786218 -0.0051501263 0.1449088 14538959
0.78838879 0.0048706909 0.14484569 14210766
0.78886646 0.015029772 0.14493443 14342352
0.78899974 0.025190923 0.14495887 13947594
0.78900003 0.032711107 0.14218824 13816008
0.79000008 0.036198664 0.14598686 13816008
0.78900003 0.048279215 0.14034118 13749961
0.79000026 0.044514056 0.14530197 13815752
0.78899992 0.055552024 0.14207278 13618374
0.79000002 0.054166038 0.14745429 13749958
0.78891289 0.065296859 0.14377892 13749960
0.79000002 0.063664041 0.14897346 13749702
0.78842413 0.074754246 0.14527394 14144461
0.78825921 0.085346051 0.1453367 14407891
0.78876448 0.095080018 0.14469935 14539734
0.78900003 0.10184405 0.14034118 15460320
0.79075873 0.10532934 0.14537761 13027006
0.79269993 -0.17418475 0.15491588 11446695
0.79044014 -0.16443403 0.15540057 15460066
0.79004014 -0.15510176 0.15532191 15723492
0.79141182 -0.1449607 0.15493608 15591906
0.7924999 -0.13517649 0.15487665 15394526
0.79263866 -0.12499501 0.15490371 15394269
0.79300004 -0.11484162 0.1549743 15394527
0.79286659 -0.10554229 0.15495007 15723491
0.7917273 -0.095450751 0.15514857 15328219
0.79085207 -0.084840186 0.15506901 15262169
0.78900003 -0.072395578 0.15819612 15591133
0.79008347 -0.075500876 0.15471378 15591134
0.78895438 -0.064723969 0.15619999 15327962
0.79000002 -0.066014424 0.15223195 15131096
0.78847992 -0.055120248 0.15501402 14801876
0.78746676 -0.044911668 0.15481482 14604754
0.78566664 -0.034489077 0.15487045 14670804
0.78446674 -0.025457066 0.15514404 14736597
0.78566664 -0.015627045 0.1549626 14868183
0.78768003 -0.0052759326 0.15485734 14736853
0.78800005 0.0048670536 0.15492108 14671061
0.78871989 0.015027867 0.15506235 14539731
0.78899992 0.022997539 0.15419415 14013387
0.79000002 0.027732758 0.15637107 13881801
0.79000014 0.035394572 0.15531424 13881801
0.79000014 0.044641599 0.15531425 14013388
0.79000026 0.054813311 0.15531425 13881546
0.78900003 0.068596907 0.15511769 13881291
0.79000008 0.064663403 0.15531425 13881547
0.78899974 0.075061634 0.15511768 14078669
0.7889998 0.085220478 0.15511769 14539220
0.7889998 0.094455786 0.15511769 14868442
0.79135507 0.10502132 0.1551625 13289923
0.79355997 -0.17437483 0.1653038 11380900
0.79040015 -0.16442567 0.16464463 15525858
0.79004014 -0.15510175 0.1645698 15854565
0.79103357 -0.14511101 0.16477762 15657185
0.7912001 -0.13495547 0.16481006 15394014
0.79116684 -0.12476283 0.16480353 15328477
0.79172003 -0.11465541 0.16491838 15394527
0.79272002 -0.10552194 0.16512688 15394527
0.7917667 -0.095203452 0.16492853 15131098
0.78900003 -0.082246579 0.16866283 14933718
0.7901364 -0.085252188 0.16416883 14736083
0.78892571 -0.075125225 0.16570532 15460062
0.79000002 -0.078652017 0.16147895 15525341
0.78797227 -0.065231286 0.16506021 15328476
0.78640002 -0.054975975 0.16472849 15131098
0.78541666 -0.044793539 0.16452307 14736597
0.78528577 -0.034871932 0.16482496 14670548
0.78432012 -0.025452664 0.16521397 14802133
0.78460616 -0.015105839 0.16477177 14999256
0.78626668 -0.0052660578 0.16470212 14802133
0.78725016 0.0048638196 0.16490936 14605269
0.78853327 0.015024591 0.16517907 14539476
0.78900003 0.020837134 0.16461685 14276560
0.79000014 0.026301669 0.16471539 13881802
0.79020011 0.035403721 0.16460378 13947595
0.79004019 0.044643674 0.1645698 14276304
0.78900003 0.059361596 0.16989419 14079180
0.79000026 0.054813314 0.16456129 14079181
0.78899992 0.065518469 0.16656949 13947338
0.79000002 0.064368568 0.16419141 13947339
0.78899974 0.075193562 0.16519742 14013388
0.79000002 0.070533261 0.16826011 13947340
0.78863323 0.085179932 0.16519921 14407890
0.78888547 0.095234245 0.16538425 14868697
0.79184014 0.1055521 0.16494532 13289667
0.79203993 -0.16476592 0.17426026 15460065
0.79344815 -0.15500036 0.17470008 15657442
0.79288888 -0.14459468 0.17451423 15591135
0.7904669 -0.13483192 0.17483622 15327708
0.7905941 -0.12525034 0.17463259 15328221
0.79032385 -0.11510686 0.17502071 15394527
0.79096681 -0.10528788 0.17494451 15328734
0.79050034 -0.095050499 0.17484258 14933206
0.78899986 -0.083878152 0.17580479 14670034
0.79000002 -0.08798711 0.17301573 14406862
0.78823996 -0.075402543 0.17526525 15196634
0.78641933 -0.064955674 0.17503707 15196890
0.78373343 -0.054790024 0.17517853 15065561
0.78261113 -0.044632982 0.1749292 14933975
0.78320032 -0.034581974 0.17506115 14801877
0.7834003 -0.025421519 0.17510553 14867413
0.78347266 -0.015335643 0.17512269 15064536
0.78503996 -0.0052571227 0.17455508 14801876
0.78733337 0.0048656678 0.17506522 14802648
0.78866655 0.014873073 0.17520754 14802648
0.79000002 0.018749937 0.17935653 14210512
0.78900003 0.020573268 0.17266479 14736856
0.79027301 0.025652764 0.17504664 13881801
0.79103351 0.035441648 0.17496209 13881801
0.7912001 0.044708632 0.17500024 14079180
0.78900003 0.059361596 0.17358832 14144973
0.79018778 0.05424758 0.17500649 14210766
0.78899997 0.065034725 0.17385219 14013387
0.79000002 0.064816922 0.17767526 14013387
0.78899986 0.075061627 0.17358832 13749960
0.79000002 0.075156763 0.17843185 13881801
0.7889998 0.08547236 0.1749316 14275792
0.79000002 0.083479084 0.17935653 14078926
0.7889998 0.095166199 0.17493811 14736599
0.79000002 0.093650803 0.17935653 14012874
0.79156673 0.10533042 0.17501713 13158336
0.79331034 -0.14473316 0.18490775 15459806
0.78900003 -0.1315016 0.18774913 15131355
0.79022735 -0.13521053 0.18453702 15196635
0.78900003 -0.12613632 0.18783709 15131355
0.79000002 -0.12519532 0.18367185 15262428
0.78900003 -0.11241528 0.18282361 15460320
0.7900002 -0.11564007 0.18511027 15328734
0.79036021 -0.10520676 0.1849892 15262941
0.78900003 -0.090866208 0.18620992 14407118
0.7902084 -0.096016467 0.18456824 14735827
0.78837919 -0.084516689 0.18528794 14407118
0.78673333 -0.075259544 0.18505877 14933462
0.78468579 -0.065091468 0.18470877 15065049
0.78268015 -0.05471573 0.18502361 15196634
0.78186184 -0.044748209 0.18470351 14933976
0.7820769 -0.034743723 0.18502125 14736084
0.78200001 -0.025516352 0.18507221 14670547
0.78353345 -0.015334414 0.18522491 14933719
0.78569984 -0.0052620275 0.18481885 14605268
0.78741676 0.0048654992 0.1852219 14934233
0.78861529 0.014528813 0.18536104 15065307
0.79000002 0.018749937 0.18305534 14867672
0.79043353 0.025238208 0.18500561 14144206
0.79112005 0.035445224 0.1851667 13815497
0.79183996 0.044745382 0.18533523 14012874
0.79096681 0.054878876 0.1851313 14276303
0.79004019 0.064988144 0.18491429 14144716
0.79036695 0.075192481 0.18499164 14210253
0.79024017 0.085353844 0.18496178 14341584
0.78900003 0.098334625 0.18467069 14802647
0.79000002 0.09334258 0.18521303 14473425
0.79158616 0.10569723 0.18469942 12763322
0.79307991 -0.17426816 0.19490835 11512229
0.79153335 -0.1646602 0.19545262 15591393
0.79170984 -0.15525036 0.19534613 15657186
0.79091454 -0.14495969 0.19543372 15460064
0.78899992 -0.13284165 0.1943406 15197148
0.79000002 -0.1370268 0.19571662 15262941
0.78899974 -0.12534472 0.19482954 15131355
0.78900003 -0.11934177 0.19390601 15394527
0.79028147 -0.11485162 0.19526243 15328735
0.79100025 -0.10529325 0.19532369 15131099
0.78894985 -0.092553645 0.19546339 14341839
0.79006249 -0.097885996 0.19428274 14670804
0.78753859 -0.084696487 0.19517644 14341839
0.78453577 -0.074852832 0.19523275 14933976
0.78311133 -0.064828657 0.19520582 14999769
0.78173339 -0.054650128 0.19486313 14999512
0.77900016 -0.044497307 0.19691935 14868184
0.78058827 -0.046077136 0.19248278 14999513
0.77900004 -0.033941165 0.19646344 14407634
0.7803573 -0.035761621 0.19386825 14736598
0.77900004 -0.028014291 0.19600753 14341841
0.78047997 -0.024741206 0.19444257 14473426
0.78258348 -0.015315769 0.19507612 14867927
0.78543997 -0.0052604573 0.19486861 14407888
0.78640008 0.0048580305 0.19510652 14736854
0.78759271 0.01521188 0.19499196 15065564
0.78884602 0.024334332 0.19592755 14933976
0.79000002 0.027442139 0.19211741 14341840
0.78900003 0.031655647 0.1994472 14408145
0.79017258 0.035529844 0.19495857 14013131
0.79096681 0.044696849 0.19531424 14013130
0.79102963 0.054884709 0.19505849 14144460
0.79100019 0.065067299 0.19532344 14078667
0.79086137 0.075238079 0.1952889 14144460
0.79020023 0.085349634 0.19512492 14341839
0.78900009 0.097982004 0.19273062 14736597
0.79000002 0.093566746 0.19574898 14473425
0.79137939 0.10515776 0.19506583 12829114
0.7927931 -0.17407751 0.20488542 11315364
0.79104018 -0.16455759 0.20551832 15460064
0.79157698 -0.15518855 0.20580159 15723490
0.79213786 -0.1451551 0.20567735 15525856
0.79140002 -0.13499062 0.20561457 15262941
0.79103583 -0.12507233 0.20571838 15131611
0.79144448 -0.11502698 0.20541964 15262940
0.79092008 -0.10528439 0.20548755 14933976
0.78866655 -0.093752302 0.20505542 14276046
0.79000002 -0.0993037 0.20463173 14539218
0.78646666 -0.084440239 0.20524894 14539218
0.78370392 -0.075173743 0.20503868 14868183
0.78173327 -0.064715028 0.20493004 14802903
0.77900004 -0.051721778 0.20330215 14802903
0.78014994 -0.055633713 0.20570178 14934232
0.77895659 -0.045019403 0.20396486 14737110
0.78000003 -0.04600586 0.2090411 14802646
0.77900004 -0.036585458 0.20166087 14539731
0.78024012 -0.035108998 0.20505135 14539474
0.78064013 -0.02533184 0.20464435 14342096
0.78196663 -0.015304412 0.20499092 14868183
0.78363347 -0.0052486514 0.20450817 14078925
0.78394467 0.0048422646 0.20458959 14473939
0.7859 0.014975124 0.20510201 14671061
0.78841931 0.025025619 0.20501538 14671061
0.78899986 0.034980357 0.20581958 14473938
0.79000002 0.036874101 0.20191927 14144973
0.78900003 0.040890962 0.20775899 14013387
0.79026097 0.044978794 0.20507389 14078923
0.7911877 0.054896519 0.20520878 14012874
0.79104012 0.065070406 0.20551839 13947081
0.79080021 0.075231865 0.20545585 14144460
0.79000014 0.085328482 0.20524818 14276046
0.79000014 0.094575502 0.20524821 14539218
0.79255557 0.10436846 0.20481265 12763321
0.7926001 -0.17446101 0.21482949 11052449
0.79069239 -0.16469802 0.21482447 15328734
0.79157692 -0.1551881 0.21477982 15526113
0.79234463 -0.14519225 0.21525855 15460320
0.7922799 -0.13514036 0.21511284 15328734
0.79263324 -0.12499311 0.21521004 15197148
0.79316008 -0.11486591 0.21535349 15197147
0.78900003 -0.1013329 0.21884137 14407630
0.79100013 -0.10545001 0.21461217 14736595
0.78831416 -0.094656214 0.21509163 14144459
0.79000002 -0.099611931 0.21079642 14539218
0.78583997 -0.084372312 0.21520558 14670804
0.78392011 -0.074990422 0.21468015 15065562
0.78242856 -0.064641789 0.21505676 15065562
0.78174061 -0.054649204 0.21550734 14934232
0.78159994 -0.044880558 0.21581444 14802647
0.78159374 -0.034854565 0.21473029 14407888
0.78106678 -0.02534611 0.21481277 14210510
0.78122228 -0.015291244 0.21485484 14802390
0.78203315 -0.005238479 0.21507782 14078668
0.78368777 0.0046141436 0.21496023 14671061
0.78584009 0.01497384 0.21520528 14539731
0.78805715 0.025294326 0.21502094 14473938
0.78899974 0.035085905 0.21488337 14539731
0.79000002 0.039093386 0.21819402 14671063
0.78900003 0.041506648 0.21330018 14473938
0.79000002 0.045614969 0.2147872 14342353
0.79010022 0.054820612 0.21452193 14144973
0.78900003 0.067673378 0.2197649 14078667
0.79028022 0.065007783 0.21457009 14013130
0.78900009 0.075481422 0.21892533 14078667
0.79000014 0.074971832 0.21375543 14078667
0.78900003 0.083373405 0.2197649 14341839
0.79000014 0.085328482 0.21449524 14341839
0.79000014 0.094575502 0.21449526 14342352
0.79230434 -0.17490423 0.22511928 11052450
0.79000038 -0.16526575 0.224667 15328734
0.79043365 -0.15517773 0.22478999 15526111
0.79127783 -0.14515606 0.2250296 15394526
0.79100019 -0.1349214 0.22495134 15328476
0.79163885 -0.12483554 0.22513175 15262683
0.79209995 -0.11471307 0.22526197 15065306
0.78881818 -0.10265288 0.2260931 14472912
0.79038894 -0.10685738 0.22395423 14670803
0.78764296 -0.095101811 0.22498332 14078410
0.78552926 -0.084986836 0.22539528 14736596
0.78440011 -0.075034857 0.22490971 14868182
0.78267753 -0.064941339 0.22515513 15065562
0.78183985 -0.05465655 0.22509134 14999769
0.7816999 -0.044579472 0.22505067 14999000
0.78272009 -0.034560677 0.2253473 14276048
0.78223997 -0.025385074 0.22520874 14012874
0.78183311 -0.015304452 0.22509018 14670291
0.78127998 -0.0052331509 0.22492972 14012617
0.78402948 0.0050635831 0.22507328 14736855
0.78599989 0.014974921 0.22536944 14342353
0.78706449 0.02498357 0.22493109 14408145
0.78879982 0.035341743 0.22524896 14539731
0.79000002 0.039093386 0.22004344 14473938
0.78900009 0.044920918 0.22782479 14408145
0.79000002 0.044446927 0.22267155 14473938
0.78899974 0.055007804 0.22556995 14342352
0.79000002 0.053888611 0.22050579 14408145
0.7889998 0.065056704 0.22546001 14144973
0.79000002 0.062673286 0.22050577 14210766
0.78873312 0.075036041 0.22522897 14144973
0.78891975 0.085212134 0.22528289 14407632
0.79000002 0.088102594 0.22004344 14408145
0.78900003 0.092762649 0.22669135 14605268
0.79000002 0.095705718 0.22312577 14277073
0.79204768 -0.17510016 0.23518336 10789277
0.79000026 -0.16526575 0.23483866 15328734
0.79064012 -0.15521783 0.23502949 15526112
0.79199988 -0.14528923 0.23543327 15526112
0.79199988 -0.13509214 0.23543413 15262683
0.79156673 -0.124827 0.23530492 15131097
0.78900003 -0.11056822 0.23731199 14736339
0.79043496 -0.11479306 0.23472568 14999255
0.78849995 -0.10446481 0.23524444 14407375
0.79000002 -0.10885895 0.23206456 14670034
0.78627592 -0.095590942 0.2348088 14012618
0.78303248 -0.084898025 0.23477624 14933720
0.78300017 -0.074900068 0.23459083 14867926
0.78242427 -0.064522594 0.2349176 14801620
0.78083336 -0.054587297 0.23485513 15196378
0.77900004 -0.048074469 0.23886338 15130585
0.78130305 -0.044471361 0.23458107 15065048
0.78492004 -0.03465585 0.23516756 14078667
0.78448004 -0.025459638 0.23503517 13947081
0.78162861 -0.015171918 0.23496345 14341583
0.7790001 -0.004610742 0.23734367 14079183
0.78027773 -0.0056332229 0.23265818 13749191
0.77900004 0.0008602172 0.2382555 14013646
0.78240627 0.005066569 0.23481028 14868698
0.78587997 0.014973478 0.23545294 14934747
0.7872287 0.025268236 0.23506775 14276559
0.78826672 0.035317775 0.23524526 14408145
0.78879291 0.044636685 0.23524299 14210766
0.78841656 0.054702848 0.23528934 14276559
0.78823334 0.064839564 0.23523505 14079180
0.78802788 0.074968986 0.2351746 14144973
0.78803343 0.08511623 0.23517628 14342351
0.78882593 0.093793333 0.23497094 14408657
0.79000002 0.09827432 0.23298927 14343379
0.79251862 0.10422781 0.23482935 11974576
0.79257149 -0.17495185 0.24514505 11051937
0.78899997 -0.1629964 0.24704462 15394784
0.79000008 -0.16643168 0.24368362 15197148
0.78900003 -0.15859187 0.24839437 15394784
0.79032171 -0.15489206 0.24484456 15460319
0.79091692 -0.14508989 0.24529177 15394527
0.79106688 -0.13493279 0.24533798 15196891
0.79074216 -0.12544309 0.24508879 15131098
0.7889998 -0.11387754 0.24585466 14736340
0.79000002 -0.11776972 0.24290878 14868181
0.78818524 -0.10512424 0.24495926 14144460
0.78600007 -0.095226683 0.24509867 14276046
0.78322887 -0.085085973 0.24487564 14999512
0.78350025 -0.074947596 0.24483071 15262170
0.78290939 -0.065062374 0.24506086 14801877
0.78148001 -0.054632217 0.2451136 14933463
0.77900004 -0.048074469 0.24068701 15262171
0.78052002 -0.044768319 0.24473688 15130585
0.77900004 -0.037132554 0.24980529 14933206
0.78217655 -0.035180565 0.24462506 14407375
0.78246671 -0.025392631 0.24450181 13749700
0.7790001 -0.012347451 0.24648954 13947080
0.78082609 -0.016518639 0.2443492 13947336
0.77760011 -0.0052116667 0.24480322 13684168
0.77718168 0.0044429465 0.24502856 14737368
0.78150004 0.0089441724 0.24145828 14474451
0.77880007 0.011920839 0.24828224 14935003
0.78337044 0.015266263 0.24434227 14868953
0.78602946 0.024882533 0.24534521 15000026
0.78756005 0.035286378 0.24517436 14539732
0.78803855 0.044459708 0.24511136 14407889
0.78800005 0.054674551 0.24531248 14210766
0.78796005 0.064817235 0.24529982 14210766
0.78796673 0.074963212 0.24530202 14210766
0.78800005 0.085112467 0.24531248 14407888
0.7888146 0.094297677 0.24453999 14407890
0.79000002 0.09827432 0.24870919 14802393
0.7923333 0.10413515 0.2448059 12171441
0.79328585 -0.17519866 0.25509313 10657435
0.78899986 -0.16320953 0.25485912 15460576
0.79000002 -0.16896459 0.25518209 15131356
0.7889998 -0.15497468 0.25501305 15460576
0.79000002 -0.15324464 0.25148329 15724005
0.78899974 -0.14500275 0.25512296 15394782
0.79000002 -0.14122352 0.25148329 15263454
0.78899986 -0.13458005 0.2557826 15328476
0.79000002 -0.1347506 0.25148329 15460063
0.78899986 -0.12516883 0.25556278 15262170
0.79000002 -0.12642831 0.25148329 15393757
0.78873318 -0.11514818 0.25477254 14801620
0.78731042 -0.1046765 0.25507408 13880775
0.78500009 -0.095309429 0.25521657 14473168
0.78288901 -0.084970854 0.25563225 15065560
0.78270018 -0.074871689 0.25556958 15262682
0.78194457 -0.064732529 0.25532272 15130583
0.78173321 -0.054648578 0.25525558 15064790
0.78070009 -0.0454388 0.25491974 14998998
0.77900004 -0.030749768 0.25527626 14604241
0.78000021 -0.035381895 0.25494 14670291
0.77900016 -0.026972204 0.25592753 13749702
0.77999997 -0.02382764 0.25332147 13552579
0.77882618 -0.014096333 0.25561491 13815493
0.78000009 -0.018737681 0.25304756 13618370
0.77642876 -0.0050085173 0.25501701 13092028
0.77552801 0.0047905059 0.25504479 14210768
0.77682787 0.014676092 0.25562671 14737110
0.78049999 0.017154384 0.25074279 15131868
0.77809089 0.021946039 0.25712928 14934489
0.78292859 0.026243588 0.2542021 15065562
0.78563339 0.03520105 0.25468794 14736853
0.78657132 0.045236517 0.25512433 14539474
0.78674215 0.055329792 0.25489932 14276558
0.78706682 0.064743988 0.2551555 14210765
0.78736132 0.074906789 0.25525039 14144716
0.78766674 0.085076697 0.25534895 14210766
0.78869992 0.093497641 0.25476193 14407890
0.79000002 0.09827432 0.25518209 14868185
0.78884602 -0.16353336 0.26524979 15394525
0.79000002 -0.16914955 0.26461405 14868439
0.78849995 -0.15479955 0.26484829 15460062
0.78869683 -0.14510274 0.26466292 15459548
0.78830308 -0.1349647 0.26503417 15459548
0.78806669 -0.12519647 0.26470295 15130583
0.78794456 -0.11503288 0.26466215 14735826
0.78510714 -0.10444797 0.26482359 13814981
0.77900004 -0.091842145 0.26986548 14341839
0.78192854 -0.095131502 0.26479766 14143689
0.77853858 -0.084989317 0.2681627 15065561
0.78084213 -0.085373618 0.26347911 15328732
0.77751726 -0.075129904 0.26583362 15526111
0.7802 -0.074633166 0.26114887 15657440
0.7773217 -0.065062448 0.26505527 15525855
0.78000003 -0.06822212 0.26108193 15656927
0.77819341 -0.055457279 0.26576382 15657441
0.7802 -0.054540209 0.26114887 15854306
0.77885729 -0.045503803 0.2668635 15591134
0.7802223 -0.045004614 0.2619679 15327962
0.77856243 -0.035403859 0.26572514 14999512
0.78000003 -0.034441229 0.26108193 14867413
0.77763343 -0.025235474 0.26483673 14341839
0.7762053 -0.014986202 0.26483855 14341837
0.7752499 -0.0053646192 0.2654438 13487041
0.77452779 0.0047830953 0.2655946 14605268
0.77488458 0.014624942 0.26501983 14539732
0.77739292 0.023913985 0.2650831 14737110
0.78049999 0.029183121 0.26429302 15000282
0.78333342 0.03509878 0.26494631 14934489
0.78551608 0.045161359 0.26494426 14539218
0.78627998 0.055476781 0.26502529 14407632
0.78700006 0.064738266 0.26526737 14407888
0.78690022 0.07486134 0.26523325 14342095
0.78619993 0.084918603 0.26499745 14407632
0.78824133 0.09430331 0.26517639 14604757
0.79000002 0.09827432 0.26165503 15000028
0.79120016 0.10504111 0.26530352 11908270
0.79188895 0.11498737 0.26464695 11316645
0.79263645 -0.17493013 0.27509436 10262934
0.7888748 -0.16395372 0.27505657 15263198
0.79000002 -0.16958106 0.27583382 14407635
0.78808004 -0.15471719 0.27485639 15328477
0.78800005 -0.14547782 0.27482805 15328475
0.78793341 -0.13532077 0.27480489 15196891
0.78700006 -0.12502699 0.27447927 14999256
0.78667754 -0.11469973 0.27454475 14670034
0.78417867 -0.10458631 0.27473965 13815495
0.77800012 -0.092850968 0.27583882 14012874
0.78108341 -0.097269513 0.27393913 13815238
0.77646691 -0.085181981 0.27534807 14670547
0.77552783 -0.075094193 0.27501583 15262939
0.77499992 -0.065063208 0.27482754 15460062
0.77602792 -0.05515603 0.27519202 15657440
0.77723336 -0.045236014 0.27561852 15591134
0.77625018 -0.035186104 0.27527088 15064792
0.7749334 -0.02514825 0.27480409 14275533
0.77406073 -0.015399895 0.27490744 14473167
0.77352011 -0.0051818215 0.27520892 13749444
0.77383351 0.0047802171 0.27532119 14737367
0.77455163 0.014882984 0.27482614 14539731
0.77690637 0.024297349 0.27544743 14539731
0.78000003 0.029468561 0.27203789 14671317
0.77900004 0.031254437 0.27898374 14737110
0.78214824 0.034977503 0.27502301 14802903
0.78522855 0.045425501 0.27491099 14539218
0.78657156 0.055431586 0.2749213 14407632
0.78686219 0.064600021 0.27519253 14407632
0.78693336 0.074864715 0.27445635 14341839
0.78668004 0.084970266 0.27436915 14407632
0.78823334 0.095288806 0.27490962 14539473
0.79053867 0.10588793 0.27550015 11250853
0.79200006 -0.17532052 0.28516933 9933714
0.78879982 -0.16409209 0.28526247 15262941
0.79000002 -0.16988929 0.28477257 14276050
0.78829998 -0.15476069 0.28508177 15262682
0.78823334 -0.14552175 0.28505772 15328219
0.78788888 -0.13531296 0.28493315 15328220
0.78793341 -0.12517519 0.28495032 15065561
0.78717148 -0.11505312 0.28480583 14473168
0.78334486 -0.10415172 0.28496483 13815752
0.77777284 -0.093520634 0.28491744 13815496
0.78000003 -0.098351024 0.28481987 13749703
0.77587998 -0.085118286 0.28513166 14276303
0.77444434 -0.074989274 0.2855095 14867925
0.77383345 -0.064965889 0.28528464 15262425
0.77386135 -0.05500314 0.28529316 15525855
0.77456671 -0.045081042 0.28555185 15394270
0.77400005 -0.03508351 0.2853443 15065048
0.77343339 -0.025098406 0.28513628 14078410
0.77294463 -0.015131028 0.28495654 14473167
0.77239996 -0.0051745684 0.28475487 13618116
0.77283353 0.0047746128 0.2849153 14671319
0.77390009 0.014745018 0.28530923 14539475
0.77545452 0.024844075 0.28480834 14408145
0.77826685 0.032805201 0.2858865 14802903
0.78133339 0.037080731 0.28396422 14868439
0.78468758 0.045034707 0.28503814 14605267
0.78599983 0.055523697 0.28476104 14539218
0.78522569 0.065007202 0.28559858 14605011
0.7862162 0.074723601 0.28450024 14341583
0.78720003 0.085027382 0.28468308 14407633
0.7883333 0.095300369 0.28509384 14407889
0.78900003 0.10328066 0.28790101 11382182
0.79031587 0.10649386 0.28410676 11382439
0.792207 0.11536995 0.28479728 11316390
0.79155564 -0.1755805 0.29500958 9736333
0.78849995 -0.16495374 0.29530722 15065049
0.79000002 -0.16988929 0.29032081 14275792
0.78796005 -0.15469372 0.29510483 15130839
0.78764009 -0.14541209 0.29498413 15196633
0.78690928 -0.13489392 0.29521301 15327962
0.78696674 -0.12502131 0.29565242 15328218
0.78622222 -0.11478276 0.29537201 14736341
0.78338474 -0.10442387 0.29501361 13749447
0.77857143 -0.091401339 0.29445419 13354944
0.78094113 -0.096104726 0.29516619 13354945
0.77582139 -0.084919445 0.29477474 14012874
0.77321887 -0.074644998 0.29535243 14538705
0.77229995 -0.064837635 0.29556563 14933718
0.7710278 -0.054803055 0.29507878 15328732
0.77169997 -0.044913497 0.29533523 15262940
0.77155548 -0.034972977 0.29527971 14867925
0.77086675 -0.025014726 0.29501614 14078409
0.77105546 -0.015093209 0.29508877 14408143
0.77056676 -0.0051623643 0.29490265 13617859
0.77124989 0.004765776 0.29516393 14671063
0.77322233 0.014532232 0.29541677 14605270
0.77491415 0.024872964 0.29488334 14473939
0.77757907 0.03359573 0.29562414 14737110
0.7804445 0.03780897 0.29371101 14671317
0.78361112 0.045202017 0.29500115 14605524
0.78430003 0.055335235 0.29464838 14671061
0.78312927 0.065188445 0.29494995 14736597
0.78368974 0.075601533 0.29457855 14473425
0.78486675 0.084776059 0.29486215 14407889
0.78765631 0.094989717 0.29533592 14407634
0.78900003 0.1028702 0.29446834 11381926
0.79011118 0.1073311 0.2958084 11316390
0.79052007 0.11499572 0.29421446 11250596
0.79215986 -0.17465892 0.305356 10065299
0.78869992 -0.16287148 0.30489063 15196634
0.79000002 -0.16827106 0.3044225 14736341
0.78773338 -0.15464999 0.30516207 15065047
0.78643346 -0.14518934 0.3046571 15065047
0.78569686 -0.13518757 0.30478966 15064791
0.78527999 -0.1247545 0.30512986 15394013
0.78429997 -0.11511295 0.30535957 15394270
0.78336388 -0.10494481 0.30516446 14539219
0.77880007 -0.091271698 0.30698842 13024955
0.78204012 -0.095608369 0.30497006 13354688
0.77611119 -0.085348874 0.30479732 13683141
0.77291197 -0.075055182 0.30511498 14209485
0.76900005 -0.060959164 0.30960706 13617862
0.77060008 -0.064695194 0.30483869 14406864
0.76895005 -0.055195011 0.30733663 14736341
0.77000016 -0.054053422 0.30268666 15262169
0.76900005 -0.044756979 0.30960706 15197146
0.77004027 -0.04481741 0.30461749 15459292
0.76878947 -0.033567842 0.3070589 14670034
0.77005899 -0.036335442 0.30324644 14801619
0.76875883 -0.02507023 0.30516469 14209483
0.77000004 -0.021381589 0.30099675 14276046
0.76900005 -0.015593042 0.3079268 14538448
0.77000016 -0.014686276 0.30348602 14472911
0.76895654 -0.0046035461 0.30614564 13749701
0.77000004 -0.0069609182 0.30202681 14341837
0.76900005 0.0012992352 0.3057065 14802902
0.77040011 0.0064727915 0.30439949 14802647
0.77239293 0.014911235 0.30496636 14737111
0.77391678 0.024711201 0.30524409 14671317
0.7761001 0.034774389 0.3046495 14737110
0.77782762 0.044331457 0.30587476 14539987
0.78100008 0.047124837 0.30147237 14539731
0.7787779 0.054643217 0.30746627 14605781
0.78123528 0.055442832 0.30215991 14605524
0.77900004 0.062986001 0.30852693 14802903
0.78130293 0.065379143 0.30413806 14736597
0.78223342 0.075334519 0.30486175 14670545
0.7832002 0.084595881 0.30523834 14801876
0.78723329 0.09486381 0.30484444 14539475
0.78900003 0.10184405 0.30103567 11184034
0.7920953 0.10498548 0.30574909 11382183
0.79217398 -0.17471352 0.31506565 9473417
0.78882354 -0.16246742 0.31454679 14999255
0.79000002 -0.1675467 0.31559601 14209743
0.78716004 -0.15453891 0.31507564 14999510
0.7850799 -0.14493909 0.3142429 14802389
0.78426486 -0.13447481 0.3145653 14868182
0.78386223 -0.12465602 0.31451523 15262940
0.78372729 -0.11524909 0.31453651 15394271
0.78371447 -0.10491453 0.31468031 14802391
0.77883339 -0.091822684 0.31356609 13288126
0.78176475 -0.09620636 0.31517729 14473170
0.77647364 -0.084992461 0.31338349 13485504
0.78049999 -0.083796158 0.31926206 13485761
0.77495658 -0.074843347 0.314612 13683912
0.77277279 -0.064795189 0.31458482 14012876
0.7688334 -0.05464666 0.31133983 14275789
0.77272218 -0.054923855 0.31653571 14275790
0.76900005 -0.044756979 0.3114073 15262939
0.77184623 -0.04478379 0.31589848 14868181
0.76862502 -0.034389898 0.31283018 14604496
0.77174997 -0.035884213 0.31749001 14539216
0.76866674 -0.025392577 0.31262231 13881290
0.77075005 -0.024334539 0.31685299 14144719
0.76900005 -0.014410026 0.31166449 14473425
0.77064717 -0.015351192 0.31578967 14210768
0.76900005 -0.0055516893 0.3122074 14144460
0.77099997 -0.004836014 0.31648466 14078411
0.76900005 0.00024909366 0.3114073 15328732
0.77181488 0.0052032522 0.31469294 14802904
0.77330446 0.014970809 0.31464937 14868698
0.77431047 0.024565997 0.3152484 14671576
0.77529168 0.034888733 0.31410763 14934233
0.77745461 0.043934699 0.31392252 14473938
0.78060001 0.047400955 0.31793213 14474195
0.77887511 0.054269824 0.31244335 14540244
0.78158349 0.055602252 0.31696194 14539989
0.77900004 0.063168362 0.31180951 14802903
0.78107703 0.065446399 0.31489486 14539731
0.78204 0.075317226 0.31486014 14539474
0.78369993 0.084649771 0.31461066 14933463
0.78723079 0.094390392 0.31489235 14999770
0.79260004 -0.17416109 0.32467782 10000276
0.78900003 -0.16043893 0.32135338 14407632
0.7913686 -0.16482167 0.32524568 11776170
0.78841668 -0.15401499 0.3226546 13420995
0.79063642 -0.15555568 0.32740524 11052705
0.78809518 -0.14523174 0.32388681 12302514
0.79033333 -0.14498504 0.32929716 10461082
0.78778952 -0.13544032 0.32406554 11973550
0.79000002 -0.13475062 0.32915828 10461338
0.78785002 -0.12479378 0.32512957 11513514
0.79000002 -0.1292024 0.32915828 10461338
0.78763354 -0.11498655 0.32448781 12237236
0.78781819 -0.10512149 0.32506666 11645356
0.78663635 -0.095003754 0.32516611 11447206
0.78531575 -0.085182928 0.32469586 11184033
0.77900004 -0.070870131 0.32092774 12960447
0.78464288 -0.0753216 0.32522491 11119012
0.77825004 -0.065333873 0.32153058 13947340
0.78380001 -0.065249905 0.32621053 11315620
0.77766675 -0.055277046 0.32219899 14143948
0.78490007 -0.054869711 0.32795459 10986655
0.77680004 -0.044119097 0.32220465 13683909
0.78339994 -0.04541295 0.32751077 12302772
0.77613342 -0.034633663 0.32302046 13223871
0.78150004 -0.037252307 0.32744622 12829629
0.77586681 -0.025176354 0.32327396 12698043
0.77564704 -0.014916621 0.32307506 12435129
0.78225005 -0.014391438 0.32913524 10264991
0.77557147 -0.0054546748 0.32302067 12236721
0.78250003 -0.0057026683 0.32923996 9737873
0.77637506 0.0038891321 0.32211888 11907501
0.78310001 0.0055726883 0.32738504 11380643
0.77900004 0.014841558 0.3227514 11315879
0.78500009 0.014955869 0.32799622 10920863
0.77866668 0.024859056 0.32231012 11514542
0.78446156 0.025396455 0.32756001 10396575
0.77775002 0.033937421 0.32041276 15066078
0.78393328 0.035122767 0.32626849 10856615
0.78484213 0.045222104 0.32449904 12829373
0.78736365 0.05504987 0.32546595 12631478
0.78740007 0.064770468 0.32531339 12565173
0.78745461 0.074580692 0.32508415 12302001
0.79000002 0.078855574 0.32915828 9078145
0.78790009 0.085102618 0.3236745 13486788
0.79000002 0.085328497 0.32915828 9801355
0.78874999 0.093041539 0.32325235 13553609
0.79038459 0.095903188 0.32718447 13356744
0.79161918 -0.11490649 0.334337 10395546
0.792 -0.10516128 0.3347632 10461338
0.78900003 -0.092097588 0.3305887 10132373
0.79175007 -0.095383145 0.3348026 10263959
0.78900003 -0.084709331 0.3305887 9934737
0.79240018 -0.08507406 0.33572572 10066580
0.78880006 -0.075455822 0.33050489 9408393
0.7919445 -0.074829675 0.33553249 9869201
0.78844446 -0.064960688 0.33117688 9276807
0.78900003 -0.055156328 0.33243576 9079686
0.78833342 -0.044037223 0.33277056 9211019
0.79155564 -0.046068966 0.33660215 9671825
0.78669995 -0.034738008 0.3323893 9868689
0.79066664 -0.034294192 0.33714935 9605774
0.78627276 -0.025011282 0.33229288 10592157
0.79141665 -0.024755863 0.33808747 9408652
0.78716666 -0.015097613 0.33366296 9606290
0.7911666 -0.015178449 0.33859682 9212043
0.78745461 -0.0051094783 0.33396581 9080457
0.79083329 -0.0046814308 0.33845404 9343629
0.78790009 0.0041298349 0.33271089 9145222
0.7915833 0.0048894789 0.33754066 9277836
0.78900003 0.015032077 0.33243576 9013122
0.79140007 0.015077801 0.3362276 9211530
0.78833342 0.025168078 0.33215487 8751235
0.79107702 0.02561307 0.33630392 9146250
0.78842866 0.035588372 0.33219534 9277580
0.79150003 0.035593547 0.33732957 9474701
0.78866667 0.044156574 0.33126998 9277324
0.7911818 0.0450457 0.3358821 9540237
0.78900003 0.05104981 0.3305887 9146250
0.79213643 0.055299673 0.33494091 9474956
