# .PCD v0.7 - Point Cloud Data file format
VERSION 0.7
FIELDS x y z rgb
SIZE 4 4 4 4
TYPE F F F U
COUNT 1 1 1 1
WIDTH 1113
HEIGHT 1
VIEWPOINT 0 0 0 1 0 0 0
POINTS 1113
DATA ascii
0.78756005 0.035283852 0.10505469 14144716
0.78649992 0.045362677 0.10491388 14013389
0.78460008 0.055354495 0.10466108 14079439
0.78239995 0.065405041 0.10515236 14145490
0.78216648 0.075327076 0.10525001 14671322
0.78179991 0.085225709 0.10532986 14539738
0.7820645 0.095279932 0.10508431 15066082
0.78540748 0.10486029 0.10517301 15328999
0.78900003 0.11107936 0.10524698 11711151
0.7869131 -0.17403543 0.11489999 12630456
0.79025 -0.17919299 0.11558953 10459543
0.78180003 -0.16446783 0.11526779 15131103
0.78056002 -0.15506807 0.11508357 15855080
0.77900004 -0.14655173 0.11850227 15525859
0.78114301 -0.14499299 0.11490806 15855079
0.78400022 -0.13451077 0.11480486 15723492
0.78496665 -0.12470436 0.11481716 15460576
0.78488886 -0.11458509 0.11480495 15657184
0.78623331 -0.10465609 0.11500181 15656670
0.78791678 -0.0947375 0.11524747 15327962
0.78763336 -0.084563233 0.11520395 15064788
0.78610015 -0.075198792 0.11497435 14999250
0.77606672 -0.063944794 0.11732736 13814719
0.78322232 -0.066775233 0.11302801 14801615
0.755 -0.051012028 0.11661462 12367786
0.76310003 -0.053526938 0.11518717 12828080
0.77282369 -0.057539351 0.11393895 13485497
0.71850002 -0.040135778 0.11770789 12696755
0.72444445 -0.041410491 0.11509413 12301738
0.73333335 -0.044018105 0.1147933 12235688
0.74471432 -0.046831634 0.11303387 12498857
0.75266671 -0.04850712 0.11155844 13288118
0.76000005 -0.049570683 0.11027446 13682876
0.71724141 -0.034915637 0.11512656 13683651
0.72100002 -0.038587555 0.11136712 13946307
0.71536118 -0.025725033 0.1146805 14737109
0.78800005 -0.020036696 0.11064775 14802386
0.71782857 -0.015848335 0.1151973 14934489
0.72000003 -0.011565508 0.11121266 15394525
0.787 -0.013258991 0.1111199 15262937
0.72358835 -0.0078287711 0.11674915 14934489
0.73263627 -0.004127407 0.11612482 14670804
0.74433333 -0.0038240741 0.11467901 14933973
0.755 -0.0024043031 0.11485136 15855074
0.77585715 -0.0044200192 0.11309232 15591132
0.78510004 -0.0052594906 0.11115776 15525338
0.73616672 0.0019665197 0.1188776 13815753
0.74436361 0.0049925288 0.1181412 14276559
0.75455558 0.0049548028 0.11674319 15131608
0.76362509 0.0042671729 0.11549007 15854302
0.77445453 0.0048618149 0.11434568 15525337
0.78474998 0.0053065512 0.11179529 15459546
0.7464 0.012827086 0.11913301 14342352
0.75554544 0.015198522 0.11830754 14276557
0.76312506 0.016774485 0.11675543 15065300
0.77320004 0.014731993 0.11490206 15459800
0.78526676 0.014961887 0.11209743 15591132
0.76457149 0.023261542 0.11860393 14802388
0.77474999 0.025190115 0.11649211 14933972
0.7856667 0.025902428 0.11256322 14801874
0.77657145 0.032716114 0.11864986 14078666
0.78500009 0.035522971 0.11417751 14407631
0.78602785 0.045338985 0.11496805 13947337
0.78546649 0.055416621 0.11488908 13881804
0.78361309 0.065226287 0.11535862 13684685
0.78248006 0.075355947 0.11536854 14671578
0.78139997 0.085311905 0.11520927 14473945
0.78024012 0.09523467 0.11503759 14737633
0.7858519 0.10519327 0.11511391 15132905
0.78743756 -0.17325827 0.12497087 13485764
0.79054546 -0.17841934 0.12530559 10327444
0.7821787 -0.16435157 0.12506841 15131360
0.78106666 -0.15516828 0.12521903 15855081
0.77900004 -0.14655173 0.12032592 14933722
0.78132349 -0.14505096 0.1255284 15591396
0.78346676 -0.13454922 0.12468393 15920359
0.78511983 -0.12472805 0.12494655 16051685
0.78492862 -0.11491996 0.12471855 16051426
0.78435493 -0.10464544 0.12570865 15524825
0.77900004 -0.091842145 0.1294442 15262167
0.7838276 -0.095163979 0.12517606 15064275
0.7779091 -0.084513508 0.12793729 13946050
0.78300005 -0.085624158 0.12359802 14735822
0.7764138 -0.074772976 0.12543793 13288377
0.78100002 -0.076172367 0.12100005 14472906
0.77430779 -0.065147594 0.1248281 13222584
0.75266665 -0.050854374 0.12447774 11841189
0.76433343 -0.054630302 0.12302604 11775139
0.77149999 -0.05826829 0.12530982 12433070
0.71800005 -0.04010785 0.12351014 12960185
0.7242223 -0.042908296 0.12429461 12367791
0.73000002 -0.044196058 0.12813777 12301484
0.71683329 -0.035011519 0.12498893 13618115
0.71516675 -0.025718141 0.12469807 14407890
0.71744448 -0.015719432 0.12509437 14540246
0.71900004 -0.0098662535 0.12536533 15066846
0.72426927 -0.005365381 0.12510811 14474453
0.73025 -0.0014729865 0.12476143 14211282
0.73440009 0.0046682968 0.12473406 13882317
0.73900002 0.010619449 0.12452752 13750731
0.74426478 0.015314346 0.12464377 13882060
0.74812508 0.021916354 0.12606457 13816524
0.75505567 0.025191113 0.1251668 13882060
0.76228577 0.027525464 0.12207375 14013645
0.77100003 0.02912854 0.12089515 14671317
0.75900006 0.030452011 0.12967452 13882571
0.76438463 0.032461442 0.12618563 13750217
0.77376473 0.036374886 0.12366638 14276303
0.77700007 0.042089999 0.12645084 14473683
0.78304356 0.046721626 0.12445408 14210768
0.78535986 0.055411395 0.12498424 13881805
0.78476661 0.065470904 0.12489181 13749964
0.78217852 0.075522356 0.12506653 14342870
0.7790001 0.086792968 0.1281179 14540249
0.78052008 0.084449232 0.12370244 14408664
0.77900004 0.092346817 0.12670872 14605787
0.78049999 0.096263714 0.1244618 14737376
0.78518528 0.10503606 0.12495479 15329511
0.78900003 0.1113872 0.12618037 11908529
0.79270846 0.11616848 0.12483761 11908785
0.78747827 -0.17407931 0.13542053 12959164
0.79025 -0.17873064 0.13270062 10195861
0.7829259 -0.16490902 0.13518725 14934239
0.78222209 -0.15499046 0.13567741 16118253
0.78249997 -0.14504984 0.13532677 15854309
0.78351545 -0.13497689 0.13452955 15722721
0.77900004 -0.12010878 0.13856246 15524826
0.78287512 -0.12500347 0.13478017 15656667
0.77810001 -0.11377778 0.13785456 15064788
0.78166664 -0.11520503 0.13284689 15591130
0.77805895 -0.10453454 0.13603583 15196374
0.78116673 -0.10657659 0.13208848 15393751
0.77710724 -0.094933815 0.13510545 13683135
0.78000003 -0.098351024 0.13143636 15261654
0.77620023 -0.08515311 0.1344305 12893619
0.7753824 -0.074865907 0.13493069 12959412
0.77453327 -0.065025434 0.13504958 12959155
0.75666672 -0.051124644 0.13813037 12498606
0.7626667 -0.05331545 0.13565877 12564655
0.77325004 -0.058129057 0.13437329 13090998
0.71900004 -0.040163711 0.13630609 12893621
0.72312498 -0.041665602 0.13518044 12827572
0.73233336 -0.044625271 0.13512248 12432557
0.74600005 -0.04865754 0.13967827 12695729
0.71706671 -0.035023227 0.13510017 13420994
0.71472239 -0.025702676 0.1346575 14144976
0.71758324 -0.015721925 0.13519742 14408404
0.71900004 -0.0098662535 0.13546449 14671833
0.7247858 -0.0048462399 0.13516091 14540247
0.73000002 -0.0014724822 0.13155566 14277075
0.7341668 0.0037413784 0.13459693 14342868
0.74075007 0.0089104874 0.136095 14211025
0.74505723 0.014948816 0.13501854 14013903
0.74850005 0.021269478 0.13401465 13553352
0.75443476 0.025668642 0.13526709 13882316
0.75900006 0.030452011 0.13322818 14014158
0.76363164 0.033748798 0.13507491 14277073
0.77083331 0.03814492 0.13440205 14277073
0.77545166 0.044059705 0.13547091 14408404
0.78075004 0.049145643 0.13293281 14145233
0.77900004 0.051314622 0.13856246 14211284
0.78331047 0.055395521 0.1345831 13882317
0.78455567 0.065453701 0.13495706 13881805
0.78170371 0.075075872 0.13497651 14079441
0.77885711 0.085362077 0.13469526 14474199
0.78000003 0.080596395 0.13782734 14408663
0.7790001 0.09234681 0.13491514 14737371
0.78093338 0.097148016 0.13525032 14934752
0.78551865 0.10501023 0.13495439 15329256
0.78900003 0.11200289 0.13479999 11711407
0.79093343 0.11690772 0.13512999 11908784
0.78870004 -0.18198083 0.14693443 10197141
0.79200006 -0.18622883 0.14419079 10196884
0.78582144 -0.17471197 0.14469887 12893884
0.78207147 -0.16432795 0.14518809 15131361
0.78267753 -0.15471795 0.14489037 15986410
0.78479993 -0.14488627 0.14510639 15920360
0.78315389 -0.13527885 0.14501141 14735569
0.77778268 -0.12459376 0.14554761 14932946
0.78100008 -0.12851472 0.14257386 14471882
0.77600008 -0.11523521 0.14451416 14867154
0.77616704 -0.10513545 0.14441675 14670032
0.77677166 -0.095137447 0.14466029 13485756
0.77756679 -0.085301325 0.14467992 13354170
0.77753139 -0.075516216 0.14524262 13222327
0.77523816 -0.065432608 0.14471948 12827313
0.73666668 -0.051497877 0.1482749 12301484
0.74540007 -0.051410772 0.14479718 12235691
0.75500005 -0.054044653 0.14540298 12761521
0.76285726 -0.055625301 0.14436121 13156536
0.7718572 -0.058089491 0.14245424 12959413
0.71900004 -0.040163711 0.14724684 12894650
0.72300005 -0.043700963 0.14544651 12828342
0.73149997 -0.047369525 0.1439822 12630449
0.74199998 -0.04839664 0.14153254 12169642
0.71796668 -0.035066169 0.14535564 13618116
0.71563888 -0.025736978 0.14488536 13947340
0.71752769 -0.015720252 0.14526613 14210769
0.71900004 -0.0098662544 0.14135566 14606040
0.72379428 -0.0056844698 0.14508688 14606040
0.73388892 0.0032997718 0.14466129 14277075
0.74155563 0.0083427271 0.14578879 14277075
0.74633336 0.014354883 0.1447221 14144976
0.75059998 0.019220831 0.14721802 14079183
0.75533342 0.025009343 0.14496186 14013390
0.76417392 0.03331349 0.14509994 14144976
0.77116674 0.038161412 0.14529401 14211025
0.77580655 0.04490092 0.14508474 14474454
0.77887511 0.052218217 0.14309877 14145490
0.78126323 0.055990007 0.14541329 13948111
0.7826668 0.065298706 0.14471081 13816526
0.78211993 0.075322032 0.14461 13882319
0.77900016 0.087179795 0.14438078 14408405
0.7805385 0.082337745 0.14544283 14342870
0.77900016 0.093365908 0.14585708 14868700
0.78084624 0.097558253 0.14409204 15000543
0.78614289 0.10522956 0.14515369 15395560
0.78900003 0.11107936 0.14495884 11579565
0.79095459 0.11581746 0.14489764 11842992
0.79336005 0.12469557 0.14483303 11842991
0.78846157 -0.1821958 0.15458575 10131348
0.79176933 -0.1875236 0.15566193 10065555
0.78352183 -0.17479998 0.15475732 12631483
0.78160596 -0.16559005 0.15499505 14671838
0.78262872 -0.15442994 0.15491177 15789289
0.784931 -0.14503729 0.15507783 15525603
0.78337032 -0.13539039 0.15475856 13880260
0.7766155 -0.12484976 0.15478002 14998739
0.78000003 -0.12939292 0.15882626 13683139
0.77494425 -0.114948 0.15507548 15064276
0.77586675 -0.10509448 0.15525983 15195863
0.7767669 -0.095215015 0.15453187 13748415
0.77756006 -0.085299991 0.15468885 13617085
0.77859998 -0.075391561 0.15489624 13353912
0.76455563 -0.061206147 0.15567906 13156278
0.77471435 -0.066080809 0.15446807 13090485
0.73416668 -0.051323105 0.15550993 12301742
0.74472731 -0.054600097 0.15560256 12498606
0.75628579 -0.057929993 0.1545018 13156278
0.71900004 -0.040163711 0.1548212 13223358
0.72354174 -0.045436841 0.15452488 12828344
0.73033333 -0.049345408 0.15726237 12302256
0.71851522 -0.034632891 0.15578808 13552579
0.71718156 -0.025409853 0.1550418 13749960
0.71813893 -0.015735529 0.15547723 14078926
0.71900004 -0.0098662544 0.15902919 14210769
0.72428572 -0.0053251074 0.15493855 14539991
0.7337001 0.0036814534 0.15506245 14408661
0.74233341 0.0089295339 0.15549943 14342868
0.74636859 0.012935996 0.15445945 14342611
0.75276923 0.018140558 0.155453 14013647
0.75745845 0.024556139 0.15482922 13947855
0.76033336 0.028725551 0.1566024 13947599
0.76431251 0.032683838 0.15473619 14144977
0.77177775 0.037389986 0.15574794 14276563
0.77612501 0.042158112 0.15406157 14737370
0.78226668 0.047624983 0.15636028 14540248
0.78346163 0.055699889 0.15494983 14079697
0.7830559 0.065329909 0.15486731 13816526
0.78239995 0.075349398 0.1547374 13947855
0.77900004 0.089003451 0.15345563 14474456
0.78119218 0.084093094 0.15534054 14277077
0.77891999 0.095072433 0.15495935 14737628
0.78440744 0.10486509 0.15496016 15198439
0.78900003 0.11107936 0.15511768 11711154
0.79204762 0.11619201 0.15501028 11842992
0.78866673 -0.18129595 0.16274552 10065558
0.79247057 -0.18592145 0.16529405 9934740
0.78572011 -0.17478634 0.16543873 12697278
0.78280795 -0.16488889 0.16475651 14671582
0.78366679 -0.15476584 0.16507842 15394531
0.78542304 -0.14485918 0.1652343 15328480
0.78562963 -0.13605174 0.16508262 14012104
0.77726674 -0.12384668 0.1639718 15064791
0.78140002 -0.12816367 0.16606228 13748932
0.77550012 -0.11503067 0.16517335 15393498
0.77620012 -0.10513932 0.16532089 15393242
0.77700025 -0.095244288 0.16458178 13814208
0.7778334 -0.085329026 0.16475879 13287864
0.77899992 -0.075611636 0.16470151 13287607
0.78000003 -0.074613102 0.16673891 13418936
0.75900006 -0.06016646 0.16876484 13354170
0.76336378 -0.061490703 0.16486067 13419450
0.77631253 -0.067108847 0.16500334 13353400
0.73462498 -0.051787362 0.16635469 12170416
0.74444455 -0.054754838 0.16455685 12236205
0.75400007 -0.058004983 0.1644679 13222071
0.7237587 -0.043708965 0.16502045 13157566
0.73049998 -0.049356669 0.16499123 12499380
0.71899992 -0.032776367 0.16398522 13552580
0.72015393 -0.036078796 0.16687107 13618372
0.71886665 -0.025010496 0.16573198 13684165
0.71891665 -0.015755244 0.16574316 13816010
0.71899998 -0.0093051903 0.1654814 14079696
0.72203708 -0.0044561308 0.16467848 14408661
0.72800004 0.00091845385 0.16442668 14606040
0.73363161 0.0050346293 0.16492818 14474454
0.74200004 0.0089255245 0.16411634 14408148
0.74670005 0.012130262 0.16498068 14408148
0.75557905 0.017194087 0.16502564 14276562
0.75875002 0.022004951 0.1629369 14079439
0.76136363 0.025850864 0.16548379 14078925
0.76680005 0.03184393 0.16421799 14144718
0.77268755 0.036204956 0.16547643 14671318
0.77714288 0.040797155 0.16422109 15000284
0.78412491 0.046304349 0.16563071 14605527
0.78581476 0.055237509 0.16512054 14276562
0.78443342 0.065442935 0.16523896 14078927
0.78312021 0.075418413 0.16496195 13684170
0.78174996 0.085579239 0.165016 14408663
0.77900004 0.094170474 0.16105418 14737628
0.78080952 0.095304489 0.16586836 14737628
0.78518534 0.10523948 0.16498786 15132904
0.78900003 0.11107936 0.16527654 14014422
0.79238099 0.11633015 0.16479017 11711150
0.79338104 -0.1844189 0.17481904 9934739
0.78766668 -0.17421982 0.17496379 13552331
0.79000002 -0.17913631 0.17658243 10328474
0.78417867 -0.16477112 0.17495339 15066597
0.78433347 -0.15489793 0.17531443 15460580
0.78531992 -0.14498182 0.17461686 15394273
0.78610003 -0.13500719 0.17479101 14604244
0.77900004 -0.1210206 0.17230004 15064279
0.78290486 -0.12481551 0.17530367 14011593
0.77760881 -0.1142757 0.17417143 15327962
0.78099996 -0.11798013 0.17853212 15196123
0.77700019 -0.10524862 0.17458616 15459035
0.77700025 -0.095244281 0.17458616 13551293
0.77736014 -0.085278034 0.17466663 13222071
0.77787489 -0.07509502 0.1751214 13287864
0.75750011 -0.061229765 0.17463578 13222585
0.76377785 -0.064124607 0.17618357 13288377
0.77392858 -0.067176148 0.17389286 13419193
0.73400003 -0.052819517 0.1754459 12302000
0.7453078 -0.057339158 0.17444116 12170668
0.75200003 -0.059611563 0.17425016 13091000
0.72462505 -0.044304684 0.17516783 13157565
0.73000002 -0.049322888 0.17257029 12630967
0.71900004 -0.030401194 0.17636606 13618630
0.71999997 -0.035106789 0.17419542 13552580
0.71899992 -0.02501498 0.17501952 13552580
0.71899992 -0.015757425 0.17501956 13684168
0.71900004 -0.0095857223 0.17558056 14013646
0.72322232 -0.0048988932 0.17473128 14276818
0.72866672 0.00023602892 0.17225587 14606040
0.73365229 0.0036797547 0.17514779 14540247
0.74214286 0.0084319506 0.17593646 14342868
0.74618185 0.011518174 0.17512383 14408661
0.75631815 0.016829927 0.17484416 14342355
0.76000005 0.01981709 0.17521429 14342098
0.76285714 0.025193157 0.17517035 14210512
0.76850003 0.030833162 0.17357755 14210512
0.77326089 0.035515159 0.17524087 14737112
0.77700001 0.040269047 0.17458615 15000540
0.78403699 0.046078 0.17507717 14737369
0.78620005 0.055470195 0.17481367 14408404
0.78557682 0.064831898 0.17453432 14276818
0.78387117 0.074955784 0.17476885 14078927
0.78205878 0.085170031 0.17507735 14079185
0.78203565 0.095650055 0.1751291 14671836
0.78453588 0.10475026 0.17502984 15066854
0.78858334 0.11255953 0.17611121 12303804
0.79100001 0.11680889 0.1740271 11645613
0.78773916 -0.1738953 0.18509601 13881552
0.79000002 -0.17913631 0.18490474 9868437
0.78414816 -0.16516666 0.18496172 15066336
0.78330028 -0.1546935 0.18516943 15855337
0.78563327 -0.14503869 0.18480326 15789031
0.78700024 -0.13515972 0.18512435 15328223
0.78489298 -0.12489306 0.18495508 13880007
0.77884632 -0.11223112 0.18523876 15393755
0.78093755 -0.11663847 0.18506831 14867156
0.7771669 -0.10527197 0.18462989 15459548
0.77700025 -0.095244281 0.1845905 13551293
0.77723348 -0.08526618 0.18464607 13222071
0.77634305 -0.075254865 0.18487298 13222071
0.7560001 -0.062290728 0.18402372 13353914
0.76400006 -0.065932639 0.18578966 13222328
0.77075005 -0.068315245 0.18400492 13222328
0.73394126 -0.053130597 0.18492146 12499378
0.74500006 -0.058186982 0.1848342 12170156
0.72509682 -0.044236615 0.18471593 13223614
0.73025 -0.049339779 0.18716127 12960441
0.71900004 -0.030906154 0.18006907 13947340
0.72061777 -0.034549147 0.18494153 13486789
0.71899992 -0.023752587 0.18269904 13618375
0.72007161 -0.026497334 0.18635784 13552582
0.71899992 -0.015757427 0.18427707 13486789
0.71899992 -0.0083934609 0.18469782 13881804
0.7228182 -0.0033763538 0.18440276 14211282
0.72712505 0.0010882453 0.18763283 14474454
0.73355561 0.0048226267 0.18510982 14540248
0.74150008 0.0083412789 0.18251987 14408661
0.73675001 0.011450368 0.18882486 14408663
0.74527282 0.013330996 0.18505841 14408662
0.75421429 0.018030524 0.18409052 14408661
0.75840002 0.021550799 0.18638429 14342611
0.76322728 0.025918191 0.18456493 14211026
0.77311122 0.034443762 0.18497364 14671577
0.77883339 0.040364061 0.185027 15329250
0.78422219 0.046360113 0.18498026 15065821
0.78676671 0.055510841 0.18506907 14671576
0.78673339 0.064715318 0.18506154 14342611
0.78520584 0.074482642 0.18497306 14013905
0.78334504 0.085366063 0.18505636 14277077
0.7818076 0.095212683 0.18495798 14474456
0.7836296 0.10502981 0.18483956 15329766
0.78842866 0.11244984 0.18453696 13092805
0.79124999 0.11741781 0.18566084 11645613
0.78778958 -0.17388169 0.19487005 13947089
0.79025 -0.17873064 0.19606407 9802389
0.78328592 -0.16458464 0.19492367 15131358
0.78218174 -0.15488933 0.19472553 15723495
0.78342426 -0.14513068 0.19553217 15789287
0.78505713 -0.13495621 0.1955571 15591910
0.78313339 -0.12441637 0.19521169 14472401
0.77789479 -0.11342268 0.19500999 14604242
0.78028578 -0.11821948 0.19411173 13748165
0.7768802 -0.10523218 0.19456452 15459549
0.77773345 -0.095331602 0.1947795 13616830
0.77843994 -0.085399054 0.19495684 13288119
0.77606261 -0.075036645 0.1949833 13353657
0.74750006 -0.061004754 0.19858056 12236720
0.75562501 -0.062776618 0.1958725 12827827
0.76383334 -0.066217005 0.19517131 13287864
0.77000004 -0.068248771 0.19194041 13287864
0.73336369 -0.053612888 0.19513702 12565941
0.74390006 -0.05844859 0.1944865 12039597
0.7263571 -0.044163216 0.19496837 13158078
0.73066664 -0.049367931 0.19581813 12829113
0.72169465 -0.034403734 0.19510545 13355202
0.71900004 -0.021648599 0.19437622 13552582
0.72041672 -0.025908597 0.19475882 13486789
0.71899992 -0.015757428 0.19437617 13552581
0.71899992 -0.006873914 0.19465671 13881546
0.72033334 -0.0020148279 0.19389272 14276560
0.72500008 0.0037973581 0.19557093 14539733
0.73087496 0.007722734 0.19202441 14408661
0.72900003 0.010475749 0.19878623 14671063
0.73215002 0.012665386 0.19492671 14276819
0.74433333 0.016216211 0.19279838 14474455
0.75819999 0.021545116 0.19521227 14342869
0.76500005 0.025853304 0.19390723 14408661
0.77066666 0.028515086 0.19782023 14540247
0.77446169 0.034704521 0.1948653 14934492
0.77900004 0.040372699 0.19144839 15526372
0.78383344 0.045279637 0.19501993 15328993
0.78672004 0.055507645 0.19518702 15065822
0.78712004 0.064747766 0.19528647 14868186
0.78548378 0.07487265 0.19505742 14211027
0.7831766 0.085235812 0.19543777 14539994
0.78159374 0.095054083 0.1946007 14606044
0.78444451 0.10473209 0.19503094 15066851
0.78866673 0.11185336 0.19443977 13553611
0.79194444 0.1165444 0.19545367 11645611
0.78782344 -0.17322059 0.20522559 14474206
0.79044443 -0.17841512 0.20495218 9737110
0.78351867 -0.16503413 0.20499094 15000031
0.78136003 -0.15522823 0.20483312 15723495
0.77900004 -0.14290443 0.20299821 15657445
0.78032011 -0.14559489 0.20507143 15657445
0.782143 -0.1346489 0.20503865 15591652
0.78342873 -0.12505029 0.20518063 15328222
0.77818757 -0.11281149 0.2036605 13880264
0.78100008 -0.11692817 0.20623483 13814471
0.77693355 -0.10524037 0.20458132 15196378
0.77802777 -0.095367625 0.20486879 13748160
0.77899992 -0.085459359 0.20512581 13222327
0.77606249 -0.075608507 0.2047475 13222072
0.74554545 -0.061640128 0.20543601 12170926
0.75550002 -0.065197513 0.20565477 13025207
0.76350009 -0.068211779 0.20461755 13222328
0.73346436 -0.054469492 0.20515437 12697527
0.74100006 -0.058739588 0.20205843 12171183
0.72736365 -0.042955428 0.20484422 13289665
0.73063636 -0.048277952 0.20553032 13223872
0.72334379 -0.034273468 0.20518322 13157824
0.71900004 -0.021648599 0.20195056 13355203
0.72062957 -0.025448062 0.20522067 13092031
0.71899992 -0.015389227 0.20400199 13420996
0.72000003 -0.018729024 0.2085522 13157824
0.71899992 -0.0073048752 0.20414606 13749961
0.72000015 -0.0027488752 0.20534322 13947597
0.72416234 0.0045054718 0.20522839 14407891
0.72871435 0.01144651 0.20760269 14539479
0.73189992 0.014206633 0.2048012 14473684
0.76750004 0.023606114 0.20209938 14474455
0.7743637 0.02810256 0.2049799 14474455
0.77730012 0.034191743 0.20440674 14737113
0.78120005 0.037561852 0.20771603 14605529
0.78405899 0.045443259 0.20489119 15000287
0.78493339 0.055380777 0.20484681 15000029
0.78515613 0.064930663 0.20513509 14868443
0.784091 0.07473062 0.20454475 14276818
0.78193325 0.085371047 0.20498323 14606042
0.78136003 0.09537071 0.20483385 14539996
0.7851482 0.10509779 0.20507547 15132389
0.78900003 0.11177202 0.20568104 13947601
0.79215795 0.1167979 0.20492788 11579819
0.79312003 -0.18519665 0.21511683 9671822
0.78803849 -0.17471997 0.21538129 13092551
0.79000002 -0.17913632 0.21264581 9474192
0.78388894 -0.16470559 0.21507841 15000031
0.78196645 -0.15534769 0.2150602 15526118
0.78199983 -0.14515376 0.21520153 15525860
0.78376675 -0.1346011 0.21463916 15525860
0.78516001 -0.12473477 0.21502011 15460064
0.77900004 -0.1109905 0.21150859 13946057
0.78248006 -0.11529984 0.21531191 14340814
0.77715391 -0.1051327 0.21485631 14669779
0.77675027 -0.095212631 0.21544111 13748675
0.77693355 -0.085233808 0.21549085 13287864
0.76436371 -0.071980052 0.21565858 13287606
0.77434778 -0.076992087 0.21473329 13353399
0.74405557 -0.062470164 0.21450043 12367792
0.75475001 -0.067636073 0.21551828 13222071
0.76050007 -0.069187082 0.21093588 13419191
0.7344287 -0.05472469 0.21506551 12697527
0.72900003 -0.041209914 0.21426757 13158078
0.73096156 -0.046428002 0.21518299 13289664
0.72603136 -0.034612343 0.21497476 13223872
0.72237504 -0.024077924 0.21505575 12894652
0.71900004 -0.011549446 0.21036653 13420996
0.72086221 -0.015071589 0.21527806 13092031
0.72052813 -0.0056698751 0.2150321 13618375
0.7220791 0.0046418477 0.21518044 14211026
0.72650003 0.013724187 0.21559633 14408149
0.73170006 0.017881028 0.21305065 14342099
0.74100006 0.019321661 0.21159926 14473684
0.73100001 0.020772194 0.21901135 14868442
0.74433345 0.021151075 0.21428895 14934235
0.76174998 0.023875225 0.21529362 14737112
0.77537507 0.027707204 0.21460636 14605526
0.77844453 0.032042656 0.21500245 14737112
0.78177792 0.036756728 0.21531245 14605270
0.78370023 0.045203667 0.21461959 14737114
0.78340012 0.055273119 0.21453848 14869213
0.78439289 0.065114163 0.21474461 14671834
0.78353369 0.075273432 0.21518484 14342868
0.78224999 0.085405059 0.21513699 14671834
0.78139985 0.095375769 0.21490161 14671835
0.78503579 0.10494941 0.2151798 15066850
0.788625 0.11264276 0.21504496 12895680
0.79054546 0.11752277 0.21430661 11645612
0.79221439 -0.18500963 0.22496532 9671824
0.78753847 -0.17475247 0.22510102 12434876
0.78385723 -0.1650988 0.22508141 15460322
0.78163993 -0.1552833 0.22503349 15855337
0.78236681 -0.14535117 0.22524275 15657958
0.78463894 -0.13475282 0.22497851 15460579
0.78503323 -0.12471448 0.22509213 15328992
0.7834816 -0.11550514 0.22515532 14999513
0.77743495 -0.10459831 0.22453538 13880008
0.78025001 -0.10934202 0.22554819 13946570
0.77553332 -0.095065668 0.22509089 13946053
0.77476001 -0.084995434 0.22486579 13353657
0.76364285 -0.072671168 0.22482786 13222328
0.77292866 -0.078074403 0.22575498 13222071
0.74587506 -0.06273105 0.22488753 12434099
0.75560004 -0.067859441 0.22549629 12828085
0.73605001 -0.053956848 0.2249188 12960699
0.74116677 -0.058464076 0.22610772 12829113
0.73150009 -0.045146216 0.22515604 13092285
0.72826087 -0.033937778 0.22389922 13026493
0.73033333 -0.03756775 0.22736079 12763322
0.72582752 -0.024492579 0.22467136 12894651
0.72356004 -0.015012863 0.22525436 12960445
0.72134304 -0.005557688 0.22528549 13355716
0.72177154 0.0043397406 0.22541887 13947854
0.72599995 0.014567079 0.22499032 14342612
0.73000002 0.019034835 0.22212964 14407891
0.73049998 0.020757986 0.22484519 13947598
0.75433332 0.024967054 0.22480512 14868442
0.77475005 0.029270219 0.22486311 14868696
0.77776921 0.032326583 0.22476007 15000282
0.78135723 0.03696895 0.22495179 14276816
0.78461111 0.045257166 0.22497071 14540247
0.78503323 0.055387605 0.22509237 14869214
0.78455883 0.065184191 0.22517072 14540249
0.78268981 0.074805669 0.22463857 14474456
0.77880013 0.086488232 0.22676878 14474455
0.78080004 0.083602354 0.22320765 14671835
0.77810711 0.094973139 0.22525083 14803420
0.78000003 0.095204353 0.22091007 15329765
0.77850008 0.10048871 0.22686276 14737884
0.78412503 0.10542873 0.22467601 14935264
0.78850007 0.1119325 0.2251633 13422026
0.79131258 0.11684868 0.22446322 11514026
0.79342109 -0.18451203 0.2351722 9671826
0.78711104 -0.17466332 0.23479727 12829635
0.79000002 -0.17913631 0.23853748 9342608
0.78251731 -0.16449252 0.23520268 14934237
0.78070009 -0.15509653 0.2348149 15526373
0.7816 -0.14533894 0.23495539 15591909
0.78420007 -0.13467596 0.23495023 15394273
0.78511995 -0.12472787 0.23522602 15328737
0.78376925 -0.11520224 0.23503312 15262687
0.77850008 -0.10287044 0.23461075 13617091
0.78118753 -0.10775992 0.23576346 14407121
0.77603453 -0.094972111 0.23419735 13551552
0.77433336 -0.084948182 0.23471497 13287864
0.75900006 -0.070827454 0.23983815 12894389
0.76325005 -0.072418757 0.23552246 12959669
0.77186674 -0.07745149 0.23486993 13222070
0.74605888 -0.062534109 0.2351319 12697527
0.75516671 -0.067526877 0.23538356 12433840
0.73660004 -0.053652454 0.23526034 13158078
0.74144453 -0.058197364 0.23429176 13026492
0.73283333 -0.045228314 0.23500273 13092286
0.72900003 -0.0304827 0.23035838 12565687
0.73140025 -0.034864698 0.23482862 12499894
0.72870004 -0.023817921 0.23128729 12565687
0.73087996 -0.025018528 0.23670277 12302515
0.72708338 -0.014660966 0.23486154 12565430
0.73000002 -0.018561913 0.23836461 12236722
0.72312909 -0.0058312677 0.2351132 12960702
0.72212505 0.0045145345 0.23494823 13882317
0.72600007 0.014008232 0.23473445 14145233
0.73033333 0.019043526 0.23704971 14342098
0.73100001 0.020772194 0.2352709 14078927
0.76125002 0.026978081 0.23564935 15132127
0.77400005 0.029241882 0.23008245 14934489
0.77857155 0.032018807 0.23378505 15395040
0.78173685 0.036084965 0.23527311 14736855
0.78386682 0.045214482 0.23484926 14540247
0.78350013 0.055279076 0.2353272 14540247
0.78266686 0.065296687 0.23540562 14474198
0.78176653 0.0752877 0.23513722 14473942
0.77899998 0.087266631 0.23235035 14935007
0.7808333 0.084413409 0.23638064 14803164
0.77856004 0.095027834 0.23508433 15132644
0.77880007 0.10052744 0.23515661 15263974
0.78404546 0.10580027 0.23490182 15132388
0.78845459 0.11184216 0.23488235 13553356
0.78704762 -0.17373307 0.24527884 14079443
0.79000002 -0.17913629 0.24501038 9276814
0.78188473 -0.16462645 0.24502741 14868187
0.78123999 -0.15520233 0.24503773 15526374
0.78241932 -0.1452141 0.24522993 15460581
0.78338271 -0.13480698 0.24457496 15262946
0.78450006 -0.12497339 0.24536872 15262945
0.78382772 -0.11547724 0.24508889 15197150
0.78283346 -0.1051233 0.24553941 14210253
0.77828568 -0.092669927 0.24150808 13222586
0.78200012 -0.09565495 0.24629481 13025464
0.77656519 -0.084879458 0.24515235 13222328
0.78000003 -0.089221045 0.24829996 13485758
0.75900006 -0.070827454 0.24250339 12696498
0.76414293 -0.073485181 0.24541871 12893877
0.77263641 -0.078349836 0.24463938 13156535
0.74613345 -0.062410355 0.2446219 13158077
0.75475001 -0.067636646 0.24555957 12368048
0.73785722 -0.054050706 0.24315132 13487043
0.74180013 -0.056895304 0.24655834 13486785
0.73579323 -0.045261122 0.24444808 13486786
0.74000001 -0.049998544 0.24942547 13683909
0.73461306 -0.034934111 0.24461779 12631479
0.73266673 -0.024636459 0.24524029 12236722
0.72892308 -0.012627781 0.24451073 12170929
0.73049998 -0.016580468 0.24622338 12105136
0.72628576 -0.0054152906 0.24462356 12565431
0.72457153 0.0045481957 0.24519785 13355459
0.72683334 0.01243266 0.24479853 13948110
0.73092312 0.017612157 0.24557637 14211026
0.73574996 0.021914782 0.24525964 14211025
0.74500006 0.024658138 0.2476211 14144976
0.75600004 0.026792025 0.24950902 13881547
0.76100004 0.026969222 0.24225163 15526372
0.77800006 0.031822201 0.24887674 15263970
0.78269249 0.035421833 0.24492854 14869213
0.78344482 0.045186751 0.24481133 14540249
0.78288907 0.055235788 0.24514697 14606042
0.78263342 0.065295964 0.24547498 14277077
0.78296018 0.075403668 0.24557656 14473687
0.77850008 0.088338055 0.24842958 14671582
0.78129625 0.084860072 0.24471572 14539738
0.77790016 0.094947934 0.24489641 15066340
0.77855557 0.10110377 0.24601626 15197926
0.78370011 0.10602655 0.24452162 15000804
0.78861547 0.11244605 0.24550405 13092292
0.79143751 0.1172145 0.2442957 11447976
0.78682607 -0.17401631 0.2551958 13816528
0.79000002 -0.17913631 0.25425738 9277072
0.78153336 -0.16441104 0.25519073 15065823
0.78190619 -0.15499091 0.25531372 15789289
0.78244138 -0.14509767 0.25548717 15789546
0.78281504 -0.13556077 0.2551001 15394531
0.78373361 -0.1254236 0.25499281 15131615
0.78474998 -0.11489361 0.25552124 15196894
0.78370017 -0.10450725 0.25534657 14209740
0.77766669 -0.092799142 0.25827646 13288635
0.78204352 -0.09534663 0.25420129 13222586
0.77600002 -0.084874399 0.25545803 13156535
0.78066665 -0.089297302 0.25216654 13156791
0.75900006 -0.070827454 0.25849491 12828598
0.76375008 -0.073287636 0.25474668 12565170
0.77208334 -0.078375734 0.25481305 13156791
0.74672735 -0.061895765 0.25471267 13749700
0.75352943 -0.066690721 0.25522622 13289149
0.74390894 -0.054697756 0.25523135 14209994
0.73875004 -0.042131964 0.25159857 13552578
0.74140912 -0.045204427 0.25581807 13947079
0.73751438 -0.03523308 0.25504896 13486785
0.73355556 -0.024666917 0.25498068 12960184
0.72900003 -0.010003476 0.25083759 12105136
0.73103458 -0.014459225 0.255079 12499891
0.72792596 -0.0045005237 0.25444376 12236722
0.73000002 -0.0083082551 0.25801745 12236208
0.72550005 0.0045866626 0.2550467 12368308
0.7275455 0.01308977 0.25521451 13684938
0.73078579 0.017956214 0.25462762 14014159
0.73400003 0.023205481 0.25513241 14079694
0.74375004 0.026577076 0.2541723 14013901
0.75900006 0.02867518 0.25227597 14473684
0.76100004 0.028750738 0.25115922 14868442
0.74900001 0.030050797 0.2594727 14540501
0.75600004 0.030331647 0.25835809 15395810
0.76300001 0.030612495 0.25449625 15395555
0.77595007 0.034224547 0.25527245 14737626
0.78155559 0.037659511 0.25326574 14540248
0.78268594 0.045014661 0.25543544 14540248
0.78288913 0.055371735 0.25512451 14606042
0.78244466 0.065278925 0.25548753 14211284
0.78176683 0.075287148 0.25526488 14474199
0.77770376 0.085952237 0.25552452 14474202
0.78087509 0.081600681 0.25291908 13947344
0.77603352 0.094720401 0.2552118 15000548
0.77720004 0.10123134 0.25468522 15066083
0.78294128 0.10656516 0.25473279 14934240
0.7883572 0.11270332 0.25438792 13025987
0.7914167 0.11775107 0.25548559 11447465
0.79336363 -0.18446474 0.26512921 9737362
0.78657711 -0.17503813 0.26455751 12500669
0.77885729 -0.16267455 0.26747128 15000031
0.78035295 -0.1655596 0.26388741 15197666
0.77846682 -0.1546527 0.26785707 15723753
0.78080004 -0.15511498 0.26317632 15657960
0.77820009 -0.14500402 0.26776502 15921131
0.78115785 -0.14527315 0.26348928 15986925
0.77809101 -0.13685797 0.26822492 15723752
0.78213042 -0.13452139 0.26410216 15526373
0.78402954 -0.12568538 0.26491246 15065565
0.7848888 -0.1151646 0.26462328 14934234
0.77900004 -0.10004859 0.26621819 13486276
0.78207147 -0.10580858 0.26491207 14538964
0.77657169 -0.094480075 0.2648032 13354687
0.77422225 -0.084736399 0.26498818 12959157
0.75771433 -0.070961304 0.26552886 14275531
0.76417655 -0.074999265 0.26472443 13025465
0.77116662 -0.079184063 0.26444283 12959414
0.74608004 -0.063337475 0.26551342 15328475
0.75260007 -0.067940712 0.26370651 15262937
0.73779994 -0.053825188 0.26871747 15460320
0.74348396 -0.055176355 0.2644631 15591647
0.73600006 -0.045036156 0.26708311 15065562
0.74142855 -0.04563392 0.26230401 15328734
0.73453659 -0.035121433 0.26489782 14605009
0.73238909 -0.024624832 0.26485986 14736594
0.72900003 -0.010003476 0.26961023 14605009
0.73124355 -0.01424638 0.26460898 14210251
0.72776926 -0.0043536471 0.2651571 13881287
0.73000002 -0.0083082551 0.26399875 13683908
0.72573686 0.0045710769 0.26500461 13486530
0.72683781 0.014265599 0.26522118 13025981
0.73000002 0.019034835 0.26228982 14474711
0.72900003 0.020715363 0.26875693 13289152
0.73192006 0.023542942 0.26451856 14079440
0.74250001 0.028051807 0.26503798 13487045
0.75775003 0.032175764 0.26427317 14605781
0.76350003 0.03331653 0.26181775 14606294
0.77483326 0.03743786 0.26478878 14671576
0.77812505 0.042036589 0.26557648 14539991
0.78105569 0.047388092 0.26437896 14474455
0.78214276 0.05505266 0.26487181 14540247
0.78193307 0.06523636 0.26539031 14145490
0.77900004 0.078669414 0.26257086 13749963
0.78072733 0.074688323 0.26523036 14342356
0.77741188 0.08466059 0.26503268 14277077
0.77608019 0.094726905 0.26522139 15000805
0.778 0.10110775 0.26337329 14803684
0.78352946 0.10621392 0.2651751 14672096
0.78850001 0.11193251 0.26485002 13947859
0.79179996 0.11703692 0.26503271 11250601
0.78677273 -0.17547865 0.27490097 12434878
0.77800012 -0.16457875 0.27498263 15066337
0.78166676 -0.16962278 0.2738404 14934753
0.77628613 -0.15499832 0.27515459 15526631
0.77593344 -0.14506721 0.27515987 15921130
0.77654576 -0.13553822 0.27523881 15657958
0.78050005 -0.13130303 0.27129811 15394788
0.77900004 -0.12849757 0.2775248 15394787
0.78267747 -0.12463117 0.27450526 15197409
0.78431046 -0.11554689 0.27461603 15000030
0.77900004 -0.10004859 0.27168912 13354944
0.78200018 -0.10534048 0.2747629 14210257
0.77795666 -0.094135903 0.27473229 13419965
0.78000003 -0.098351024 0.27842885 13354174
0.77608341 -0.085218884 0.27483743 13222073
0.75750011 -0.071575902 0.27482885 12828345
0.76600003 -0.076265708 0.273433 12564915
0.77166677 -0.078934975 0.27545461 12499120
0.73728573 -0.06165034 0.27587643 15196890
0.74445456 -0.065119334 0.27429199 14736339
0.73320514 -0.055439062 0.27494374 15262683
0.72850007 -0.042685028 0.279089 14933463
0.73147064 -0.045343846 0.27455023 14999769
0.72533333 -0.033956707 0.2773563 14144716
0.73104995 -0.035189942 0.27242106 14276046
0.71900004 -0.026137108 0.2793774 14276046
0.72448653 -0.024197333 0.27599591 14210766
0.73046154 -0.024887374 0.27120245 14539217
0.72426313 -0.014933653 0.27609658 14342095
0.73049998 -0.016009456 0.27101943 14473424
0.71900004 -0.0056582741 0.27937743 14605270
0.72348791 -0.0055922712 0.27445933 14407633
0.71900004 0.0027576857 0.2793774 14802651
0.72212833 0.0043503209 0.27451667 14473171
0.72491431 0.014691472 0.27473879 14276049
0.72900003 0.020715363 0.27473003 13749449
0.73276192 0.025076222 0.27467364 12894653
0.74400008 0.02941652 0.2729812 13158337
0.74849999 0.031782988 0.27769756 13815754
0.75400001 0.032016534 0.27238163 14342354
0.76499999 0.035353236 0.27540356 14474453
0.77333337 0.037667509 0.27393728 14606038
0.77728587 0.04171589 0.27473018 14540247
0.78111106 0.04729031 0.27506685 14540247
0.78267998 0.055222508 0.27480593 14474455
0.78280026 0.065307952 0.27484706 14145490
0.77900004 0.078061529 0.27837586 14013392
0.78136003 0.075100876 0.27441472 14276563
0.77773339 0.084911242 0.27488896 14277077
0.77789485 0.093990147 0.27446842 14869219
0.78100002 0.098251745 0.27714127 14935013
0.78456008 0.10495169 0.27472967 14606305
0.78900003 0.11107936 0.27517676 15066855
0.79204768 0.11610419 0.27509093 12105654
0.78900003 -0.18075661 0.28995332 9671314
0.78660882 -0.17565061 0.28514865 11842740
0.77812505 -0.16460517 0.28504577 14868705
0.78183341 -0.16996336 0.2845732 15132133
0.77661318 -0.1553411 0.28522554 15263716
0.7760002 -0.14507906 0.28517592 15724008
0.77743757 -0.13510692 0.28536409 15592165
0.77900004 -0.12877113 0.2844547 15394786
0.78135991 -0.1236172 0.2850962 15328737
0.78236669 -0.1151327 0.28476655 14999772
0.78219438 -0.1050377 0.2847046 13881034
0.77900004 -0.093209885 0.28536654 13222844
0.78026092 -0.094969906 0.28523234 13091772
0.7782107 -0.08451236 0.28541321 13025723
0.78000009 -0.087597951 0.28502277 13091515
0.7561667 -0.071451269 0.28496316 12564404
0.76283336 -0.074756779 0.28480074 11973037
0.77236366 -0.078487188 0.28515324 12499380
0.73350006 -0.062762566 0.28532788 14801875
0.74500012 -0.066974349 0.28464442 13880517
0.72572732 -0.05449488 0.28666678 14867924
0.73066658 -0.055868004 0.28185743 14998998
0.71879995 -0.042508774 0.28821784 14472909
0.72373688 -0.04515766 0.28419393 14867669
0.73000002 -0.048468418 0.28023371 15130585
0.71754545 -0.034229483 0.28562787 14012873
0.72137505 -0.037342601 0.28114182 14078667
0.71593183 -0.025364893 0.28586772 14013130
0.71606231 -0.015693171 0.28576609 14407889
0.71692687 -0.0057425094 0.28515598 14736855
0.71857148 0.0023965284 0.28473681 14539479
0.72092861 0.0073473742 0.28555205 14342102
0.72583336 0.01336302 0.28344738 13815502
0.73120004 0.017355777 0.28754184 12040118
0.73405266 0.023488149 0.28414068 12500666
0.74400002 0.028980797 0.28517351 12829117
0.7486667 0.031790067 0.28214237 13684168
0.75050008 0.031867914 0.2889812 13223875
0.76233339 0.035939652 0.2846131 14342612
0.77216673 0.038210899 0.28466651 14277075
0.77696311 0.043775007 0.28586394 14342868
0.78145462 0.048317418 0.28302124 14540247
0.77900004 0.051314622 0.28901383 14342870
0.78268981 0.055349063 0.28472522 14408662
0.78247237 0.06528011 0.28480554 14276820
0.77819061 0.075983562 0.28597972 14079187
0.78081822 0.072704248 0.28312236 14144721
0.77661145 0.084790662 0.28448957 14013907
0.77752191 0.09395425 0.28533772 14803170
0.78087503 0.098510444 0.28376576 14868963
0.78544843 0.10506997 0.28496742 14671841
0.78900003 0.11107936 0.28533563 14935014
0.79236376 0.11636371 0.28511745 12039862
0.78871435 -0.18121889 0.29617807 9408142
0.79266673 -0.1863721 0.29483151 9408142
0.77775002 -0.1713523 0.29856232 14342618
0.78439134 -0.1753938 0.29495993 13224137
0.77675003 -0.16496298 0.29570961 15000034
0.78066665 -0.1697097 0.29237273 15395304
0.77566677 -0.15500501 0.29503834 15526375
0.77526659 -0.1449417 0.29488572 15658216
0.77644455 -0.13516226 0.29533321 15526373
0.77803999 -0.12564221 0.2961221 15394786
0.7803638 -0.12347429 0.29192716 15460320
0.77886683 -0.11571145 0.29753399 14933979
0.78064704 -0.11455727 0.29279515 14933721
0.77900016 -0.1039564 0.29761103 13223618
0.78068185 -0.10524923 0.29312599 13420741
0.77875 -0.094471283 0.29545262 12828601
0.78000003 -0.09515553 0.29075435 12894394
0.77733332 -0.085077867 0.29516596 12762552
0.78000003 -0.087395057 0.29029784 13025979
0.7335 -0.070165008 0.29960549 13090487
0.74600005 -0.071360737 0.29947147 12170157
0.75462502 -0.071965724 0.29453623 12038828
0.76381832 -0.075669877 0.2954869 12236464
0.77242863 -0.078798614 0.2939395 12630967
0.71900004 -0.060362011 0.29957572 13486530
0.7243104 -0.063614868 0.29622245 14012616
0.7330001 -0.066422507 0.29458115 13551808
0.74522227 -0.068961695 0.29363096 12894136
0.7185455 -0.053749427 0.29693857 14473167
0.72100008 -0.055806328 0.29238939 14670031
0.708 -0.041206684 0.29996479 14078665
0.71580952 -0.044815563 0.29544029 14407373
0.70794451 -0.034667458 0.29809839 14012872
0.71296674 -0.036045942 0.29377306 13947079
0.70731264 -0.025229603 0.29604772 14341837
0.71081823 -0.026548021 0.29162744 14078666
0.70768756 -0.01587053 0.29615393 14802134
0.71039999 -0.014403826 0.29183456 14605269
0.71397293 -0.005858162 0.29490212 14539221
0.71864283 0.0015552901 0.29438049 13947598
0.72288895 0.0063504567 0.29574236 12632253
0.72799999 0.011030247 0.29281637 12500412
0.73291308 0.015387456 0.29545012 12040374
0.73757142 0.021946836 0.29325479 12500670
0.74431586 0.026474053 0.29526511 12698048
0.74900001 0.030050797 0.29454115 12895428
0.75536364 0.032561794 0.29559052 13487562
0.76283336 0.036263268 0.29492328 14605784
0.77000004 0.038103681 0.29288512 14277075
0.77563643 0.04466049 0.29489014 14211540
0.77870601 0.053655267 0.29582146 14079700
0.78049999 0.057199642 0.29337549 14145235
0.77900004 0.068821684 0.29649082 13948112
0.78093559 0.06453301 0.29489043 14079698
0.7773847 0.075003304 0.29499316 14145493
0.77594483 0.084718578 0.29514584 14014163
0.77700013 0.094332322 0.29485574 14605791
0.78100002 0.098983079 0.2988975 14737377
0.78587997 0.10512841 0.29506072 13487310
0.78900003 0.11107937 0.29364744 13421773
0.79156518 0.11555304 0.29524562 11448236
0.7875883 -0.1833636 0.3048338 9342603
0.79111123 -0.18803103 0.30369008 9408395
0.7768501 -0.17315657 0.30494714 12499897
0.78250009 -0.17858131 0.30450797 9013383
0.77499992 -0.16485031 0.30476546 15066083
0.7737813 -0.15519412 0.30496418 15395046
0.77294141 -0.14514567 0.30507165 15724008
0.77383345 -0.13470882 0.30521131 15592167
0.77540731 -0.12479708 0.30452028 15394529
0.77691692 -0.11523858 0.30460802 14539476
0.77754843 -0.10514687 0.30500382 13355204
0.77754563 -0.095393762 0.30444464 12763066
0.77692008 -0.085234255 0.3044309 12565173
0.72266674 -0.070820503 0.30222324 12695730
0.74633336 -0.07256157 0.30398181 10130317
0.75850004 -0.074332118 0.30182716 11907498
0.76380002 -0.076639578 0.30393499 12565428
0.77183342 -0.079252519 0.30442116 12631222
0.7185334 -0.064248249 0.30605212 13420736
0.72060007 -0.066232771 0.30142245 13420480
0.71557587 -0.054800719 0.30458796 13947081
0.70761549 -0.043862063 0.30521539 14012619
0.71123081 -0.048567779 0.3033784 14078667
0.70528203 -0.03508202 0.30503276 14144205
0.70423794 -0.025324652 0.30496061 14605012
0.70661771 -0.015919523 0.30502152 14013134
0.71100003 -0.01142094 0.30955815 12829888
0.71521878 -0.0054073283 0.30490515 13092544
0.71900004 0.00023289771 0.30210048 12500665
0.72376198 0.0037936796 0.30494308 12303285
0.7306 0.0081043486 0.30714601 12895422
0.73471433 0.013760154 0.30415502 12632508
0.74214286 0.018607689 0.30698699 12698303
0.74542856 0.02409599 0.30477148 12763841
0.75300002 0.028448496 0.30757344 12829635
0.75733334 0.031272385 0.3049103 12895171
0.76355565 0.035010666 0.30403152 12829891
0.77175009 0.038190279 0.30620134 12304060
0.77617395 0.044419207 0.30380553 14014421
0.78125 0.048263241 0.30859518 12830408
0.77883339 0.052519411 0.30201897 13948373
0.78143752 0.055705257 0.30569857 14014167
0.77900004 0.069551148 0.30086759 14671835
0.7817083 0.065217249 0.30496559 13553358
0.77773696 0.075665601 0.30373502 13882322
0.78133339 0.072807483 0.30786708 12040119
0.77563322 0.084682941 0.30501619 14342873
0.77705884 0.093456708 0.30450535 14737378
0.78171432 0.098290369 0.30583709 14671841
0.78709531 0.10458576 0.3046959 11974067
0.79025006 0.10940535 0.30613846 10987425
0.79280001 0.11532936 0.30508494 10987682
0.79322213 -0.19479527 0.31488737 10198167
0.78799999 -0.18378456 0.3151961 9474444
0.79000002 -0.18807511 0.31528774 9474445
0.77850008 -0.17197302 0.31160939 10591903
0.78364283 -0.17573036 0.31537446 9342859
0.77686673 -0.16427697 0.31314084 11052455
0.78220004 -0.16748011 0.31785196 9802644
0.77490908 -0.15485461 0.3149569 14605790
0.77380764 -0.14522642 0.31482169 13881807
0.77554548 -0.13533576 0.31472123 14408668
0.78050005 -0.13221604 0.31971854 8224642
0.77711111 -0.12527341 0.31327975 15329511
0.78160006 -0.12270506 0.31797421 14803684
0.77829999 -0.11544381 0.31225878 14474200
0.7821818 -0.11477321 0.31741267 13421771
0.77862501 -0.10455664 0.31211531 13487048
0.78231257 -0.10505144 0.31702965 11645103
0.77900004 -0.09822493 0.31180951 12565689
0.78294122 -0.094732784 0.31511593 11644589
0.77550006 -0.081444472 0.31131685 13025979
0.78355551 -0.086164214 0.31536949 10855070
0.77650005 -0.079731703 0.31353843 10130833
0.71775001 -0.062988453 0.31144679 13486787
0.71575004 -0.056742679 0.31078759 13684422
0.70600003 -0.04109028 0.31068677 13617864
0.70250005 -0.032666873 0.31133693 12236467
0.70222217 -0.025251918 0.31231198 14210771
0.70633334 -0.016669191 0.31174982 12961217
0.71140003 -0.012092683 0.31339696 12500923
0.717125 -0.0066878567 0.3144632 12106165
0.72028571 -0.0021752589 0.31649217 12171958
0.72470587 0.0023365673 0.31432521 12435129
0.7318334 0.0072345524 0.31477341 12698043
0.73675001 0.011667205 0.31322333 12895423
0.74421048 0.016476024 0.31585631 12829631
0.74725002 0.022328675 0.3133153 12895426
0.75485712 0.026380138 0.31640533 12829632
0.76300001 0.031635184 0.31637654 13027013
0.77355552 0.036672391 0.3158662 10132120
0.78000003 0.038598534 0.31951374 8947848
0.77775002 0.040763829 0.31267571 9079431
0.78438896 0.046062861 0.31519333 9540239
0.78679162 0.055511761 0.31539333 9869461
0.78680015 0.064721815 0.31493714 9934998
0.7859565 0.074568383 0.31563836 9737879
0.77800006 0.086763158 0.31140924 13487310
0.78257143 0.084785812 0.31572837 11185068
0.77900004 0.091434985 0.31180951 12698051
0.78460008 0.095861904 0.31543103 12040121
0.78850001 0.10331834 0.31438223 10855842
0.79084617 0.10778021 0.31555477 10856096
0.78900003 -0.18075661 0.32135338 9869201
0.79299998 -0.18547437 0.32581553 10066324
0.78837508 -0.17438488 0.32225296 10000531
0.79136372 -0.1757399 0.32669652 10329496
0.7865625 -0.16512482 0.32473758 10197913
0.79050004 -0.16907093 0.32844192 10329753
0.778 -0.15346718 0.32124478 9934746
0.78364289 -0.15568021 0.32651359 10329755
0.77800006 -0.14545342 0.32197332 10197657
0.78346163 -0.14463848 0.3268604 10066583
0.77850008 -0.13916716 0.32072175 9341066
0.78511763 -0.13456215 0.32539713 9276810
0.78623819 -0.12516601 0.32470429 8619140
0.78733325 -0.11494217 0.32528594 8750723
0.78736836 -0.1050034 0.32515475 8487551
0.79000002 -0.10146134 0.32915828 8750722
0.78795004 -0.094925873 0.32341769 8355453
0.79033333 -0.094102621 0.32868069 8619138
0.78792316 -0.084594972 0.32318607 8289916
0.79089999 -0.085469082 0.32842317 8553088
0.71850002 -0.0073357755 0.32123366 9737617
0.72049999 -0.0039827898 0.32044113 11448235
0.72650003 0.0010886281 0.32140887 12369337
0.73450005 0.0053998632 0.32236892 12237751
0.74450004 0.0089555969 0.32589462 12303800
0.74620008 0.013873222 0.322961 12763580
0.7538572 0.016633989 0.32720953 12500664
0.75659996 0.02380508 0.32392174 12698044
0.76144451 0.026986793 0.32696682 12698044
0.76585722 0.031497657 0.32422182 12961731
0.77363646 0.035322238 0.32546639 11053479
0.78039998 0.038618326 0.32515791 9145482
0.78752947 0.043312341 0.32433122 9408650
0.79025 0.047199823 0.32695037 9540236
0.78900003 0.053820409 0.32135338 9342857
0.791381 0.054777991 0.32620689 9474443
0.79219997 0.065166242 0.32544336 9540236
0.78880006 0.077442616 0.32164133 9606803
0.79168421 0.074681468 0.32586363 9737617
0.78800011 0.085266203 0.32263845 10198426
0.79090005 0.085425459 0.3278679 10395546
0.78833324 0.095115282 0.32280532 10592925
0.7906363 0.094988801 0.32824633 10592924
0.78900003 0.10184405 0.32135338 10856098
0.7917037 0.10542183 0.32547545 10790303
0.78850007 -0.16126078 0.33037919 10395545
0.78850007 -0.15418506 0.33253294 10329754
0.79136366 -0.15519364 0.33680147 10395547
0.78850007 -0.14538541 0.33296394 10066582
0.79085714 -0.14455117 0.33745149 10066582
0.78862506 -0.13589963 0.33089334 9474445
0.79100007 -0.13461229 0.3363665 9540238
0.78900003 -0.12903886 0.3305887 9211273
0.79121441 -0.1247698 0.33548865 9408652
0.78900003 -0.1161094 0.3305887 9079685
0.7913202 -0.11474571 0.33526909 9277065
0.79195833 -0.10541955 0.33530763 9211272
0.74500006 0.0019853781 0.33133748 9211273
0.75700003 0.0020173572 0.33844659 8948871
