# .PCD v0.7 - Point Cloud Data file format
VERSION 0.7
FIELDS x y z rgb
SIZE 4 4 4 4
TYPE F F F U
COUNT 1 1 1 1
WIDTH 1111
HEIGHT 1
VIEWPOINT 0 0 0 1 0 0 0
POINTS 1111
DATA ascii
0.78712487 0.095153093 0.096700884 15263717
0.79100001 0.094695225 0.091624506 15131613
0.78785717 0.10433286 0.097451761 15197924
0.787579 -0.17383505 0.10525038 12894401
0.79042858 -0.17896929 0.10411386 10591901
0.78276676 -0.16467281 0.10532808 15394789
0.77900004 -0.15202269 0.10847218 15855337
0.78107679 -0.15559252 0.10453847 16118510
0.77900004 -0.14928721 0.10847218 15921130
0.78079414 -0.14479254 0.10484973 16052715
0.78126675 -0.13508931 0.10513263 16052458
0.78138912 -0.12505047 0.10515098 15789286
0.78166676 -0.11502867 0.10518622 15789541
0.78383875 -0.10540085 0.10473672 15855334
0.78680009 -0.094602101 0.10495462 15789540
0.78736007 -0.084532797 0.10502735 15591903
0.78783995 -0.075362869 0.10509114 15854306
0.7878387 -0.065071747 0.10526659 15788513
0.774625 -0.052794792 0.10831319 13814719
0.78610522 -0.055632241 0.1053378 16249317
0.79000002 -0.054301523 0.10168156 16183269
0.73400003 -0.041574385 0.10936341 12695467
0.74475002 -0.043346763 0.10893315 12432552
0.75533342 -0.044261988 0.10841825 12959152
0.76366669 -0.046240568 0.10782636 13090483
0.77333337 -0.044405594 0.10647476 13288377
0.78587496 -0.04527634 0.10459485 16578797
0.79033333 -0.045073513 0.10172447 16051683
0.71900004 -0.031747747 0.10937501 14209222
0.72464287 -0.034299973 0.10816963 13551291
0.73466659 -0.0362624 0.10659526 13287862
0.74450004 -0.035486288 0.10628255 13090739
0.75900006 -0.036179215 0.10657569 12696240
0.76066667 -0.033585217 0.10680971 13354427
0.77366668 -0.035061702 0.10682395 12368045
0.78611112 -0.034705352 0.10454936 16446698
0.79000002 -0.036732186 0.10168156 16117476
0.71783334 -0.024413718 0.10891701 15789284
0.72222221 -0.025696214 0.10666735 15196631
0.74600005 -0.028575119 0.10649668 14143686
0.76450002 -0.027491085 0.10734798 14802644
0.77800006 -0.023425048 0.10924359 15000278
0.78669989 -0.02460444 0.10493517 15723488
0.71877778 -0.016780132 0.10859312 15855588
0.72000003 -0.015147267 0.10699883 15065558
0.78800005 -0.01450253 0.10511357 15460059
0.72250009 -0.0099142818 0.10906116 15131607
0.78800005 -0.005278918 0.10511358 15131095
0.7887665 0.00487214 0.10521634 15262681
0.78855997 0.015023789 0.1051897 15394525
0.78813344 0.025162632 0.10513184 14671058
0.78800005 0.035304971 0.1051136 14144971
0.78736669 0.045412116 0.10502919 14013644
0.78559995 0.055426273 0.10479325 13948112
0.78441948 0.065412618 0.10534475 14013906
0.78325009 0.075085148 0.10516494 14539995
0.78180546 0.085356668 0.10520019 14474455
0.78126657 0.095359489 0.10512595 15066593
0.78503716 0.10481186 0.10512413 15329512
0.78695661 -0.17372425 0.11490642 12762555
0.79000002 -0.17913631 0.11462738 10591386
0.78124011 -0.1643514 0.11518505 15196895
0.77900004 -0.15840548 0.11303131 15921132
0.78020841 -0.15484546 0.11510998 15789546
0.78120011 -0.1451347 0.11518084 15789287
0.78426659 -0.13468677 0.11563405 15723237
0.78568 -0.12481777 0.11584238 15657698
0.78496552 -0.11475404 0.11586441 15657698
0.78654844 -0.10487574 0.11496088 15591391
0.7879445 -0.094741002 0.11525175 15327704
0.78740001 -0.08453919 0.11517057 15130325
0.77900004 -0.070870131 0.11850227 14669517
0.78479308 -0.075200424 0.11462571 15130068
0.77638888 -0.064475968 0.11709233 13946050
0.78325009 -0.066330113 0.11215457 14998481
0.75650001 -0.051113375 0.11596328 12499115
0.76400012 -0.053590547 0.11532362 12893617
0.77376473 -0.057609554 0.11407758 13551547
0.7182501 -0.040121816 0.1168265 12893620
0.72333336 -0.041535184 0.11454092 12432811
0.73360002 -0.044417761 0.11434245 12630444
0.74550003 -0.046883211 0.11165982 12630187
0.75300002 -0.049114116 0.11189944 13419959
0.76100004 -0.049635909 0.11041955 13222838
0.71672398 -0.034890212 0.11504264 13749442
0.72000003 -0.038534034 0.11121266 14077634
0.71491665 -0.025708854 0.11460751 14737109
0.78700006 -0.020931289 0.11050734 14736593
0.7174722 -0.015720204 0.11501874 14934232
0.78750002 -0.010806224 0.11149874 15328217
0.71900004 -0.0098662544 0.11863258 15000283
0.72328579 -0.0078634629 0.1163151 15000283
0.73360002 -0.0033691798 0.1169129 14342352
0.74600005 -0.0035990304 0.11487846 15065815
0.75750005 -0.0024128575 0.11523167 15986147
0.78646159 -0.0048448881 0.11198653 15591132
0.7373333 0.0019680683 0.11906833 13421252
0.74441665 0.0045985454 0.11846656 14276302
0.75439996 0.0055425563 0.11758383 14539472
0.76433343 0.0056206086 0.11656769 15854818
0.77490008 0.0040610116 0.115336 15459546
0.78654993 0.0052256966 0.11264869 15459546
0.74766666 0.012495072 0.1189867 14276559
0.75544441 0.016162327 0.11904282 14342607
0.76375008 0.014549843 0.1170729 14802386
0.77536368 0.015100659 0.11546933 15328473
0.7875334 0.015004604 0.11242319 15591132
0.76275003 0.023461774 0.11915263 14605522
0.77455562 0.02473066 0.11691421 14933459
0.78623807 0.025495421 0.11276244 14801873
0.77672732 0.033975028 0.11848471 14012870
0.78539133 0.035426773 0.11363208 14473680
0.78569442 0.045319233 0.11491796 13947595
0.78543317 0.055415202 0.11488362 13816012
0.78396988 0.065153129 0.11508691 13881550
0.78260005 0.075367413 0.11538574 14606042
0.77900004 0.089611337 0.11759044 14671325
0.78124994 0.084968232 0.11499106 14408663
0.77900016 0.094968311 0.11633667 14737374
0.78000009 0.09540724 0.11236486 14869217
0.78503573 0.10521285 0.11515274 15198440
0.78747612 -0.17409055 0.12505876 12564920
0.79099995 -0.17936306 0.12495708 10393496
0.78175008 -0.16426167 0.12499965 15196896
0.78106678 -0.15516728 0.12521552 15855594
0.78220582 -0.14553723 0.125129 15526628
0.7851333 -0.13483633 0.12494894 15920613
0.78627998 -0.12491308 0.12513013 16051941
0.78520006 -0.11469385 0.12501827 15985891
0.78468758 -0.10479534 0.12601945 15393753
0.78564525 -0.094910242 0.1255562 15064530
0.77833337 -0.082957417 0.12811805 13683134
0.78352004 -0.085589267 0.12476043 14735822
0.77706909 -0.074585542 0.12541966 13222326
0.78125 -0.077020429 0.12113054 14603978
0.77473074 -0.0651832 0.12489741 13222327
0.75650001 -0.051113375 0.12349434 11840930
0.76485717 -0.053982258 0.12402303 11906724
0.77184635 -0.05784991 0.1250605 12235689
0.7183333 -0.040126469 0.12525181 13025207
0.7203334 -0.041924503 0.12559937 12564656
0.73000002 -0.044196058 0.12471988 12367277
0.71636671 -0.034989737 0.12490825 13683651
0.71330559 -0.025651697 0.12437352 14473680
0.71608335 -0.015688531 0.1248576 14671061
0.71899998 -0.0094454559 0.12536535 14803162
0.72388005 -0.0049758782 0.12550178 14408404
0.73033333 -0.0014731545 0.12306634 14145489
0.73514712 0.004297385 0.12473712 13882061
0.74000001 0.0089014657 0.12556221 13750218
0.74383336 0.015047878 0.12447027 13816523
0.74722224 0.022011166 0.12630269 13685195
0.75512499 0.025881089 0.12480859 13882316
0.76350003 0.02795092 0.12150298 14144972
0.77100003 0.02912854 0.12089515 14408143
0.75900006 0.030452011 0.12878612 14013903
0.76480001 0.032956593 0.12564817 13881803
0.77293336 0.036440946 0.12372708 14342095
0.77694124 0.042301446 0.12567593 14342353
0.78257895 0.047405172 0.12444423 14276305
0.78515989 0.055398501 0.12495348 13947599
0.7849642 0.065159068 0.12472752 13684685
0.78296441 0.075139187 0.12499801 14276821
0.78105569 0.085273385 0.12521413 14474456
0.77900016 0.094561242 0.12254036 14803168
0.78031248 0.095700309 0.1271511 14737375
0.7847693 0.10483893 0.1251027 15394790
0.78900003 0.11138722 0.12618037 11907759
0.78712505 -0.17395823 0.13532262 12959677
0.79025 -0.17919299 0.13408768 10328214
0.78166682 -0.16464421 0.13496888 15065569
0.78024012 -0.15500471 0.13512991 16052716
0.78184384 -0.1450242 0.13506427 15854823
0.78376496 -0.13487184 0.13460556 15657185
0.77900004 -0.1210206 0.13856246 16116963
0.78306687 -0.1249536 0.13463764 15590877
0.77761132 -0.11372603 0.13730122 15261911
0.78173333 -0.11589483 0.1322138 15525083
0.77707714 -0.10504863 0.13625778 15064533
0.78033334 -0.10478675 0.13149253 15393497
0.77746445 -0.09504088 0.13581617 13682879
0.78100002 -0.097107619 0.13114661 15261910
0.77712005 -0.08525452 0.13458823 12893620
0.77606273 -0.074918255 0.13474731 12959413
0.77510011 -0.065073632 0.13514763 12893619
0.74700004 -0.050471503 0.13898996 12301484
0.75400001 -0.051536743 0.13705832 12630448
0.76466674 -0.053755298 0.13481669 12696240
0.77329415 -0.057786249 0.13456482 13090998
0.71900004 -0.040163711 0.13546449 12762294
0.72500002 -0.043218903 0.13642707 12630451
0.73275 -0.045868408 0.13548845 12498864
0.74349999 -0.048494477 0.13659877 12367278
0.71759999 -0.035049036 0.13520212 13552323
0.71488899 -0.025709383 0.13469192 14210764
0.71722227 -0.015713848 0.13513026 14408402
0.71900004 -0.0098662535 0.13546449 14737626
0.72427595 -0.004782598 0.13525701 14474454
0.73406911 0.0035646083 0.13471757 14342868
0.74059999 0.0089086834 0.13520108 14211282
0.74494123 0.014865295 0.13486572 14013904
0.74825001 0.021700729 0.13265571 13882317
0.75445461 0.025540788 0.13531989 14013133
0.75900006 0.030452011 0.13145135 14407891
0.76389474 0.033290908 0.13474421 14342098
0.77133328 0.03786923 0.13599509 14407891
0.77556676 0.043953884 0.13534856 14539477
0.78075004 0.049145643 0.13293281 14342099
0.78380007 0.055304881 0.13482636 13881806
0.78586662 0.064644717 0.13518468 13882064
0.7840001 0.074451245 0.13499495 14079698
0.78096676 0.085263848 0.13525616 14474456
0.78060007 0.095279925 0.13519228 14803422
0.78514296 0.10502811 0.13505985 15460583
0.78850007 0.1119325 0.13471456 11711151
0.79118752 0.11706166 0.13482314 11908783
0.78900003 -0.18075661 0.14772944 10263190
0.79265004 -0.18484531 0.14488634 10131348
0.78629631 -0.17482597 0.14497139 12894141
0.78139997 -0.16438366 0.14447828 15196898
0.78123081 -0.15498894 0.14458914 16052461
0.78268993 -0.14525379 0.1445905 15986154
0.77900004 -0.13105069 0.14950438 14604239
0.78230786 -0.13520171 0.14485453 14801620
0.77719235 -0.12494068 0.14523526 14867153
0.78100002 -0.12818873 0.14120361 14275274
0.77537507 -0.1152394 0.14483605 14867154
0.77587998 -0.10509636 0.14527261 14735568
0.77678806 -0.095079958 0.14494736 13485501
0.77753335 -0.08529745 0.1446732 13353914
0.77735305 -0.075485781 0.14490771 13156535
0.76900005 -0.060959164 0.14938544 12827313
0.77533329 -0.065612063 0.14465249 12762033
0.73300004 -0.051241547 0.14753842 12301485
0.74375004 -0.051991876 0.1444757 12433327
0.75500005 -0.05425239 0.1440068 13025205
0.76362509 -0.056732737 0.14408445 13025205
0.77175003 -0.058919832 0.1422417 13090997
0.72286665 -0.043885991 0.14544217 12828343
0.73283339 -0.048658293 0.14292468 12302256
0.7187143 -0.034380145 0.14562675 13618372
0.71677405 -0.025101338 0.14497851 13947594
0.71722209 -0.015715472 0.14520243 14276305
0.71899998 -0.0091929771 0.14623693 14605527
0.72348148 -0.0043993047 0.14486933 14671576
0.73410016 0.0036847042 0.14483725 14277075
0.74250007 0.008931539 0.14510842 14211282
0.74637502 0.013934088 0.14440644 14145489
0.75112498 0.018487148 0.14657439 14013904
0.75639135 0.024656329 0.14455007 13882061
0.76000005 0.028712958 0.14674751 13948110
0.76394129 0.032443613 0.14482327 14144975
0.77099997 0.037169941 0.14485121 14276305
0.77610725 0.044446889 0.14460115 14671063
0.78066665 0.048987404 0.14799745 14539477
0.77900004 0.051314622 0.14129794 14868442
0.78269559 0.055544313 0.14495572 14078927
0.78527993 0.064596966 0.14519382 14079183
0.78383344 0.074566536 0.14492606 13816526
0.78077155 0.085373394 0.14514312 14408663
0.77900004 0.093258642 0.1467689 14803423
0.78042316 0.095537715 0.14492808 14803424
0.78542304 0.10520838 0.14500782 15329769
0.78900009 0.11191895 0.14453904 11579311
0.79100007 0.11659132 0.1450541 11842992
0.78900003 -0.18075661 0.15327062 10131605
0.79280961 -0.18552338 0.15489256 10065814
0.78592306 -0.17439681 0.15472618 13026243
0.78219986 -0.16455057 0.15469639 14868705
0.78266686 -0.15456915 0.15478913 15854825
0.78460711 -0.14504638 0.15484564 15525347
0.77900004 -0.13105069 0.15315168 13748930
0.78308344 -0.13594209 0.15517716 14011847
0.77603573 -0.12491025 0.15497009 14998738
0.77474993 -0.11491808 0.1550377 15064275
0.77620697 -0.10526535 0.15517135 15130326
0.77716696 -0.095264994 0.15461124 13748416
0.77815992 -0.085365705 0.15480907 13616829
0.7786333 -0.075395368 0.15490349 13287864
0.75900006 -0.06016646 0.15810385 13222073
0.76566672 -0.061593488 0.15501572 13156279
0.77480018 -0.066049352 0.15423012 13090485
0.73300004 -0.051241551 0.15526496 12301485
0.74400002 -0.054626424 0.15497516 12827571
0.75550002 -0.05812037 0.15648517 13287866
0.72290319 -0.044211723 0.1547319 13025464
0.73033333 -0.049345408 0.15726237 12498863
0.71886104 -0.034266725 0.1556326 13618373
0.71693325 -0.024945419 0.15521599 13750217
0.71633309 -0.01569736 0.15508471 13947854
0.71866661 -0.0090200836 0.15558986 14408661
0.72417402 -0.0038856177 0.15527035 14606040
0.73326105 0.0027059675 0.1551304 14474454
0.74209094 0.0079808468 0.15505575 14408662
0.74671423 0.012230895 0.15442014 14277076
0.75394744 0.017435422 0.15556519 14079697
0.75833333 0.023443878 0.1538237 13882317
0.76063651 0.027119143 0.15617882 14013390
0.76600003 0.032530032 0.15508112 14210512
0.77236366 0.037400011 0.15497138 14407891
0.77585709 0.041639339 0.15435025 14802905
0.78287506 0.047448799 0.15529004 14671320
0.78572005 0.055437364 0.1544769 14013648
0.78532135 0.065189034 0.15419914 14013135
0.78269696 0.074875548 0.15504526 13947855
0.78048396 0.08506541 0.15509373 14342870
0.78083998 0.095307052 0.15534334 14606045
0.78500009 0.10480624 0.15473932 15133160
0.78900003 0.11107936 0.15511768 11842738
0.79200011 0.1161851 0.15500072 11711406
0.78740907 -0.17402734 0.16460867 13684172
0.79040003 -0.17885713 0.16612554 10131094
0.78238457 -0.16445062 0.16501787 14671582
0.78256685 -0.15454891 0.16484451 15460068
0.78511113 -0.14473777 0.16497137 15394016
0.78473085 -0.13583405 0.1650888 14011847
0.7778126 -0.12436586 0.16407214 14867155
0.78125006 -0.12800166 0.16685356 13683138
0.77606666 -0.11511454 0.16529483 15459290
0.77630794 -0.10501385 0.16513401 15392983
0.77722239 -0.095271394 0.16462809 13748415
0.7786333 -0.085417815 0.16492701 13288120
0.7788887 -0.075419106 0.16498131 13288118
0.76290917 -0.061291859 0.16476108 13353656
0.77570599 -0.067048319 0.16457324 13353911
0.73479998 -0.051367383 0.16510317 12235950
0.74518186 -0.054791488 0.1652154 12235435
0.75440001 -0.05803575 0.16421035 13222073
0.7240001 -0.043659739 0.16491829 13157565
0.73100001 -0.049390454 0.16510591 12630707
0.71899992 -0.033430941 0.16576196 13618372
0.72000003 -0.038534034 0.16514972 13552579
0.71810013 -0.02498476 0.16555639 13684167
0.7174167 -0.015722757 0.16539884 13816011
0.71876472 -0.0082788449 0.16546071 14145234
0.72236848 -0.0033222637 0.16462351 14474456
0.72775006 0.000235732 0.1660735 14540249
0.7335909 0.0036789202 0.16506408 14474456
0.74290001 0.0082420055 0.16431434 14342869
0.74700004 0.011435312 0.16452181 14408663
0.75590479 0.016852478 0.16520974 14342356
0.75900006 0.021567848 0.16165751 13948112
0.762577 0.025314186 0.16502978 14079183
0.76800001 0.031263161 0.1631255 14210768
0.77252388 0.035219021 0.1654847 14539477
0.77742857 0.041072488 0.16376226 14933978
0.78505558 0.046306536 0.16485792 14802649
0.78800005 0.054806318 0.16519876 14276820
0.7874667 0.06477502 0.16495675 14079441
0.78446668 0.074625827 0.16524762 13684426
0.78233331 0.085415117 0.16479661 14408663
0.78300017 0.095571928 0.1649379 14671581
0.78650004 0.10540543 0.16508161 15133161
0.78900003 0.11154112 0.16620007 13290700
0.79165 0.11636683 0.16443901 11711407
0.78800005 -0.17315021 0.17521304 14868961
0.79099995 -0.17843837 0.17495422 9933459
0.78346157 -0.16474755 0.17476963 15066597
0.78288925 -0.15461317 0.17499429 15526116
0.78400016 -0.14473777 0.1752408 15525859
0.7849642 -0.13513878 0.17473555 14604243
0.77900004 -0.12010878 0.17138821 15460320
0.78272003 -0.12493604 0.17477457 13946826
0.77765018 -0.11371236 0.17418697 15393754
0.78079998 -0.11782803 0.17763397 15065306
0.77620023 -0.10513987 0.17531398 15524570
0.77677798 -0.095216721 0.1754443 13616829
0.77686685 -0.085225396 0.17546369 13222328
0.77658349 -0.075196408 0.17539902 13288119
0.75840008 -0.060474265 0.17431214 13551291
0.76355565 -0.062912822 0.17513639 13353912
0.77381253 -0.067004159 0.1743203 13353910
0.73511112 -0.051965024 0.17550129 12302256
0.74453843 -0.055405006 0.1748026 12170155
0.75375003 -0.058870647 0.17510162 12695727
0.7245999 -0.043197729 0.17522772 13289407
0.73063642 -0.048589095 0.17489766 12697014
0.71899992 -0.033290677 0.17508964 13552836
0.71999997 -0.038293242 0.17429975 13487043
0.71895999 -0.025013776 0.17500995 13618372
0.71845174 -0.015771912 0.17504922 13684166
0.71899998 -0.0090246582 0.17501949 14079182
0.72234792 -0.0040984275 0.17480579 14342611
0.72780001 0.0002357482 0.17375681 14539991
0.73337501 0.0043939338 0.17508243 14605783
0.74183339 0.0089235194 0.17449601 14342612
0.74600005 0.011594606 0.17518409 14408404
0.75664705 0.016608395 0.17470136 14277075
0.76000005 0.01981709 0.17432472 14211282
0.76437932 0.025309164 0.17532647 14210769
0.77367872 0.034863062 0.1750693 14671063
0.77880007 0.040362336 0.17499104 15131614
0.78454167 0.045486301 0.17513146 14868442
0.78789294 0.054996822 0.17499115 14539478
0.78760004 0.064786501 0.17512344 14342100
0.78593534 0.074914776 0.17493142 14079182
0.78208351 0.085385822 0.17481124 14079441
0.77900004 0.093258634 0.17868282 14342870
0.78171432 0.095546372 0.17440057 14671837
0.78460711 0.10475846 0.1750444 15001574
0.78855544 0.11347917 0.17564349 11908787
0.7902 0.11772309 0.17348173 11711405
0.78799999 -0.17325284 0.18525641 14802398
0.79055554 -0.1784403 0.18462275 9933716
0.78507137 -0.16535194 0.18499802 15262948
0.78479993 -0.15499139 0.18552543 15855339
0.78504008 -0.14493059 0.18558283 15789288
0.78636104 -0.13504848 0.18497618 15328479
0.78535712 -0.12496708 0.185066 13683654
0.77810544 -0.11287803 0.18509284 15327964
0.78130007 -0.11772066 0.18469679 14670292
0.77624011 -0.10514586 0.18531956 15459548
0.77600032 -0.095121711 0.18526123 13617086
0.7760402 -0.085134618 0.18527074 13287865
0.77553356 -0.075095922 0.18514965 13287864
0.75833338 -0.061888877 0.18548129 13288121
0.76430005 -0.064883761 0.18514913 13288121
0.77174997 -0.067952946 0.18424629 13222071
0.73383337 -0.052160725 0.1846406 12499381
0.74466676 -0.056417663 0.18474896 12236208
0.75285721 -0.059679508 0.18501879 12367278
0.72565395 -0.043744929 0.18473974 13223872
0.73075002 -0.048946328 0.1864323 12828858
0.71899992 -0.032308813 0.18175226 13487043
0.72079176 -0.035343561 0.18600297 13552580
0.71899992 -0.024691287 0.18369438 13618374
0.72000003 -0.027156688 0.18832579 13552582
0.71897137 -0.01573272 0.18439008 13552325
0.71899992 -0.0086639738 0.18475795 13947339
0.7226088 -0.003658639 0.18464652 14211025
0.72840005 0.00057726295 0.18719658 14474455
0.73382765 0.0047481963 0.18514252 14540249
0.74100006 0.0089134956 0.1829768 14408662
0.73800004 0.01060508 0.18914551 14540247
0.74504346 0.013440911 0.18537506 14342869
0.75433332 0.018259568 0.18396761 14474198
0.75814289 0.022051157 0.18657467 14342613
0.76323807 0.02620388 0.18442404 14211283
0.76900005 0.030853223 0.18809065 14277077
0.77346164 0.034729227 0.18493287 14737370
0.77816671 0.040329512 0.18486667 15328993
0.78432143 0.046358649 0.18482098 15197407
0.78686678 0.055517588 0.18509272 14802649
0.78700012 0.064738266 0.18512383 14473685
0.78539991 0.074584998 0.1848783 14013647
0.77900004 0.089611329 0.18233013 14079698
0.78185189 0.084852092 0.18503202 14342868
0.7790001 0.093623362 0.18251249 14342870
0.78040004 0.09622734 0.18558155 14540249
0.78374088 0.10504521 0.18486671 15197926
0.7883572 0.1124398 0.18452057 12961220
0.79091674 0.11736796 0.18558322 11777198
0.78809094 -0.17426167 0.19502378 13618124
0.79000002 -0.17913629 0.19507647 9670801
0.7840358 -0.16474113 0.19510941 15196897
0.78433335 -0.15514638 0.19509467 15789289
0.78692007 -0.14527655 0.19523861 15789032
0.78790003 -0.13531415 0.19548054 15657700
0.78451866 -0.12443468 0.19504794 14275533
0.77831584 -0.11348392 0.19473252 14670035
0.78100008 -0.11832794 0.19533372 13748678
0.77700019 -0.10524862 0.19459485 15393755
0.77656692 -0.095190987 0.19448784 13682880
0.77732015 -0.085274398 0.19467783 13222330
0.77584863 -0.074881189 0.19480145 13222073
0.74800003 -0.061045557 0.1987128 12039340
0.7560001 -0.062486861 0.19582193 12762036
0.7638182 -0.065590739 0.19470458 13288122
0.7712 -0.068355128 0.19494529 13288121
0.73445457 -0.053614452 0.19519085 12565686
0.74483329 -0.058318526 0.19452488 12170671
0.72775012 -0.042954411 0.19486991 13223616
0.73061532 -0.047917895 0.19574001 13025981
0.72362506 -0.034286253 0.1951001 13355203
0.71900004 -0.021648599 0.19016822 13815241
0.72089654 -0.025199307 0.19503616 13552582
0.71899992 -0.015140255 0.19375898 13618118
0.72000003 -0.018869484 0.1977367 13749961
0.71899992 -0.0081830621 0.1943762 13618632
0.72055554 -0.0031392248 0.19479568 14013646
0.72548145 0.0029458094 0.19540116 14408661
0.73142862 0.00757568 0.1936961 14474455
0.73417652 0.012068492 0.1950845 14277076
0.74442858 0.016053375 0.19402625 14408661
0.75300002 0.019634562 0.19034696 14671835
0.75788891 0.022325978 0.19394748 14474199
0.76431245 0.02653311 0.19488291 14473942
0.77000004 0.02909076 0.19824946 14671063
0.76900005 0.030853223 0.19079103 14540249
0.77384001 0.034894072 0.19517946 14868957
0.77900004 0.040372699 0.19327205 15263970
0.78446156 0.045324642 0.1949783 15197921
0.78777784 0.055171993 0.19565551 15000799
0.78740013 0.064769953 0.19535638 14671834
0.7858333 0.074757449 0.19496821 14276820
0.7832858 0.085189864 0.19414069 14539992
0.78254849 0.095042504 0.19504045 14539996
0.78536004 0.10505755 0.19485138 15132132
0.78887504 0.11175442 0.19433734 13816528
0.79157895 0.11632198 0.19541696 11645612
0.7877273 -0.17384602 0.20515937 13749966
0.79000002 -0.17913631 0.20524819 9605521
0.78362972 -0.16505648 0.20501977 15065566
0.78427273 -0.15463266 0.20509467 15723753
0.78770375 -0.14562684 0.20506087 15657703
0.78772742 -0.13503475 0.20516004 15591908
0.78482151 -0.12488104 0.20515046 15393759
0.77870005 -0.11222409 0.2030423 13814469
0.78143752 -0.11625627 0.20588313 13880007
0.77743345 -0.10530896 0.20471433 15196123
0.7776112 -0.095316976 0.20475864 13617345
0.77896547 -0.085392542 0.20514794 13156793
0.78000003 -0.087395057 0.20447612 13222586
0.77606261 -0.075607769 0.20474675 13156793
0.7456364 -0.061647538 0.20546155 12236463
0.75540006 -0.065189108 0.20562854 13024951
0.76455557 -0.068365492 0.20460191 13222330
0.7341786 -0.054521777 0.20535438 12631478
0.74050003 -0.058699951 0.20192149 12171183
0.72900003 -0.041404955 0.20492999 13355203
0.73095661 -0.046785019 0.20501152 13223360
0.72562855 -0.034667931 0.20507336 13223617
0.72168589 -0.024386991 0.20536004 13092031
0.7204839 -0.015110028 0.20476301 13420996
0.71900004 -0.0098662544 0.20026739 13486789
0.72031432 -0.0055471188 0.20497024 13815754
0.7244572 0.0042667673 0.2048354 14342611
0.73299998 0.013559228 0.20512728 14342868
0.7428 0.017632965 0.20515716 14408916
0.75800002 0.021539431 0.2040309 14474454
0.76414293 0.024016542 0.20440193 14605783
0.77200001 0.027747495 0.20599495 14605527
0.77576935 0.034902226 0.20497456 14736856
0.78408825 0.045448925 0.20489681 15000285
0.78633332 0.055479169 0.20521198 14869214
0.78636652 0.064686947 0.20522262 14803422
0.78672242 0.074844293 0.20531835 14145748
0.78549987 0.084840871 0.20500056 14540249
0.78403139 0.09477704 0.20518829 14606044
0.78589654 0.1050006 0.20494202 15132131
0.78888893 0.11208987 0.20598516 13619147
0.79094452 0.11670391 0.20435986 11645356
0.78900003 -0.18075661 0.21884137 9868946
0.79284626 -0.18556942 0.21469426 9737361
0.78755558 -0.17496637 0.21526431 12697791
0.79000002 -0.17913631 0.21079642 9539728
0.78350019 -0.16462898 0.21515377 15065566
0.78305584 -0.15464526 0.21535857 15460580
0.78560007 -0.14503223 0.21495029 15591910
0.78612107 -0.13526109 0.2147775 15526116
0.78536004 -0.12476683 0.21507449 15460066
0.78326935 -0.11519916 0.21506637 14209742
0.7772274 -0.10445559 0.214748 14801876
0.78000003 -0.10930698 0.21634507 13880520
0.77616715 -0.095141426 0.21528113 13748673
0.77686679 -0.085225239 0.21547295 13287864
0.76500005 -0.071926489 0.21540046 13287864
0.77481818 -0.077089131 0.21457583 13222072
0.74483335 -0.062535077 0.21472645 12368048
0.7561 -0.067727014 0.21502253 13222072
0.76050007 -0.069187082 0.21093588 13222073
0.73496288 -0.054634877 0.2150996 12828858
0.74000001 -0.058660313 0.21997546 12631480
0.72900003 -0.040722314 0.21329236 13289410
0.73115635 -0.045659412 0.21499324 13289410
0.72627282 -0.034548301 0.21491678 13157824
0.72220594 -0.02408546 0.21528366 12960445
0.72100008 -0.01495732 0.21517132 13157824
0.72108352 -0.0056742462 0.21519655 13618632
0.72454292 0.0045075854 0.21523505 14276562
0.72900003 0.010475749 0.21499896 14605270
0.73183882 0.015770618 0.21478246 14473683
0.74300003 0.019373812 0.21043101 14671317
0.73460007 0.020874493 0.21664819 14802648
0.74433345 0.022314174 0.21574621 14737110
0.75000006 0.023067866 0.21416929 14671317
0.76475006 0.024871714 0.21346515 14671830
0.77290004 0.027935941 0.21419588 14606295
0.77665222 0.034168545 0.21450773 14606038
0.78033334 0.038615029 0.21735092 14540245
0.78309107 0.044921771 0.21495254 14737370
0.78487998 0.055377245 0.21494211 14869214
0.78527987 0.064597808 0.21505158 14737628
0.78606689 0.07478328 0.21526535 14342870
0.78458065 0.085212931 0.21586232 14671835
0.77899998 0.096384905 0.21802162 14803425
0.78211123 0.094306692 0.21384226 14671836
0.77900004 0.10055325 0.2188032 15197926
0.78400004 0.10494143 0.2148937 15066596
0.7885555 0.11429984 0.21492326 12369080
0.79000002 0.11861777 0.21449521 11514026
0.78899997 0.12440461 0.21448755 11514026
0.79000002 0.12555304 0.21426402 11448233
0.79144466 0.13571912 0.21447223 11514026
0.78900003 -0.18157752 0.22571653 9934739
0.79178947 -0.18647201 0.22454144 9671567
0.78674996 -0.17452179 0.22525461 12632000
0.78355569 -0.16504185 0.22517659 15329250
0.78207678 -0.15515777 0.22501887 15723751
0.7827813 -0.14502789 0.22496007 15723751
0.78402799 -0.13464859 0.2248016 15591909
0.78476661 -0.12467134 0.22501518 15328480
0.78389299 -0.11555809 0.2250924 14999514
0.77757156 -0.10428806 0.22464344 13814726
0.78049999 -0.10907272 0.22531585 13682884
0.77593344 -0.095113926 0.22520748 13946053
0.77539998 -0.085065454 0.22505173 13353656
0.76358336 -0.072151966 0.22519565 13156534
0.77326667 -0.077591807 0.22491476 13288118
0.7458182 -0.061980758 0.22472002 12368051
0.75520009 -0.067179196 0.22484253 12762290
0.73610002 -0.053960808 0.22493355 12960444
0.74166673 -0.058503702 0.22625947 12894651
0.73140019 -0.045017377 0.22500211 13157823
0.72836 -0.034072906 0.2241551 12960445
0.73042858 -0.038115293 0.22739054 12828859
0.72477424 -0.024453912 0.22519392 12763066
0.72192001 -0.014976873 0.22474302 12960445
0.72206676 -0.0056811594 0.22478865 13421253
0.72436106 0.0045731906 0.2252143 13948110
0.72806668 0.011826838 0.22608355 14277075
0.73100001 0.016383601 0.2242191 14407891
0.73325002 0.020836132 0.22740792 14078926
0.74400002 0.022883322 0.22116452 14737110
0.75300002 0.024922922 0.22031432 14868696
0.77200001 0.02916632 0.22045158 14868696
0.77654552 0.032480549 0.2242281 15197405
0.78114289 0.036958184 0.22515276 14276559
0.78390938 0.045467995 0.22518566 14540247
0.78430003 0.055335626 0.22487926 14803420
0.78391457 0.065269284 0.22489938 14671833
0.77900004 0.078669414 0.2297451 14606042
0.78296793 0.075225092 0.22434698 14540249
0.7788949 0.086047895 0.22741064 14539994
0.78133333 0.083983898 0.22311457 14737372
0.77834469 0.095127277 0.22515266 14802912
0.78000003 0.091552362 0.22091007 15066340
0.7787143 0.1007769 0.22523366 14671582
0.78374994 0.10594217 0.22481401 14868960
0.7885384 0.11257713 0.22474837 13027010
0.79099995 0.11737988 0.22557014 11514026
0.79185188 0.12486836 0.22406527 11514026
0.79200011 0.13500939 0.22450982 11579562
0.78900003 -0.18106447 0.23392572 9868692
0.79231584 -0.18630461 0.23523264 9737104
0.78638464 -0.17471036 0.23503709 12566464
0.78217238 -0.16441935 0.2350987 14934493
0.78100002 -0.15515628 0.23490314 15591910
0.78136104 -0.14516495 0.23501283 15591653
0.7826876 -0.13499053 0.23518284 15394273
0.78370023 -0.12535658 0.23534855 15394273
0.78419995 -0.11540528 0.2349509 15262687
0.77875006 -0.10183955 0.23286219 13617346
0.78200006 -0.10610282 0.23542564 14078154
0.77688479 -0.094603151 0.23422958 13551552
0.78100002 -0.09847711 0.23947662 13420737
0.77482748 -0.08487796 0.23470722 13287863
0.76366669 -0.072458409 0.23565024 13156536
0.77235293 -0.07760644 0.23437636 13287607
0.74623078 -0.061978038 0.23499714 12763320
0.75500011 -0.067029417 0.23451555 12499378
0.73668748 -0.053118147 0.23483697 13223871
0.74181825 -0.057858672 0.23488361 12960699
0.73293549 -0.045373995 0.23486935 13092030
0.72900003 -0.0304827 0.23035838 12499894
0.73105907 -0.034848582 0.23528913 12434100
0.72796011 -0.023898134 0.23439389 12368308
0.73049998 -0.02769562 0.23824324 12302513
0.72536671 -0.015049314 0.23515747 12499894
0.72366667 -0.0056972108 0.23460418 13092287
0.72244447 0.0044635828 0.23476893 13882317
0.72689664 0.013619135 0.23508948 14145489
0.73037499 0.018617377 0.23421307 14276816
0.73149997 0.020786403 0.23543006 14211023
0.74000001 0.022760293 0.23383428 13947592
0.75349998 0.02493947 0.2319269 15394786
0.77233338 0.029178916 0.2350127 15131614
0.77725005 0.031867508 0.23400789 15394786
0.78168416 0.036371287 0.23525667 14868442
0.78343356 0.045189455 0.23472069 14539991
0.78436005 0.055339996 0.23499988 14540249
0.78271878 0.065528654 0.23485006 14408406
0.78100008 0.075086698 0.2350639 14408406
0.77900016 0.086500399 0.23392881 14868960
0.78000003 0.083265148 0.23720358 14671836
0.77891666 0.094920039 0.23503935 15197926
0.78000003 0.098856337 0.23917 15132133
0.77900004 0.10055325 0.23248059 15263976
0.7839601 0.10523885 0.23531669 15197927
0.78845459 0.11184215 0.23488235 13618636
0.79181254 0.11715478 0.23502882 11579562
0.78900003 -0.18075661 0.24008258 9934743
0.7930001 -0.1850691 0.24493065 9671569
0.78677779 -0.17472793 0.24493077 12895685
0.77900004 -0.16022913 0.24889345 14407893
0.78128004 -0.16465189 0.24468225 14868702
0.77883339 -0.15411788 0.24602884 15657959
0.78000003 -0.15739149 0.24221332 15197408
0.77857685 -0.14549048 0.24602292 15526373
0.78025007 -0.14336139 0.24175799 15460322
0.77861124 -0.13543946 0.24775584 15328994
0.78128576 -0.13483103 0.24309048 15328481
0.77900004 -0.12922704 0.24889345 15131103
0.7822122 -0.12481892 0.24456295 15262688
0.78480655 -0.11495686 0.24479239 15196894
0.78496015 -0.10485782 0.24436907 14078410
0.77833337 -0.091460384 0.24108893 13288377
0.7826364 -0.09543857 0.245894 13222585
0.77641678 -0.085028566 0.24488838 13287864
0.78000003 -0.089221045 0.24829996 13287864
0.76492852 -0.073049173 0.24452342 12893620
0.77266669 -0.078133829 0.24506013 13222071
0.74712509 -0.061631098 0.24417511 13092285
0.75478572 -0.066022545 0.24493773 12631478
0.76000005 -0.069141597 0.24727084 12105133
0.73860008 -0.053016573 0.24169175 13487043
0.74319053 -0.056018393 0.24586131 13420737
0.73641676 -0.044874925 0.24405462 13486786
0.74033338 -0.0465548 0.24896038 13552323
0.73372418 -0.034888495 0.24518074 12631734
0.72900003 -0.020811955 0.24116684 12105391
0.73124141 -0.024734454 0.24541186 12236976
0.72790486 -0.014534814 0.2449443 12105134
0.73025 -0.018141035 0.24827647 12105390
0.72521216 -0.0054785926 0.24490596 12434355
0.72429419 0.0045752726 0.24523188 13421251
0.72766668 0.01282518 0.24451211 14013902
0.73100001 0.017482344 0.24586537 14145489
0.73581815 0.02185126 0.2448809 14079697
0.74450004 0.024641588 0.24614549 13816524
0.75100005 0.02661483 0.24785884 13684938
0.77700007 0.032794699 0.24815106 15329247
0.78190905 0.0356999 0.24449787 14868441
0.78327805 0.045179155 0.2447567 14540247
0.78370017 0.055292983 0.24488725 14606041
0.7824412 0.065062054 0.24476545 14408662
0.78139997 0.075251929 0.24508701 14342870
0.77868766 0.087979838 0.24560229 14803422
0.7806471 0.08292 0.24452798 14276821
0.77796429 0.094695516 0.24517603 15132133
0.78000003 0.098856337 0.241909 15263719
0.77833337 0.1010747 0.2474643 15132133
0.78366679 0.10559536 0.24472547 15000803
0.78846157 0.11242402 0.24545564 12961218
0.79087502 0.11713047 0.24481776 11448233
0.78653842 -0.17446242 0.25491145 13027785
0.79000002 -0.17913631 0.2533327 9211022
0.77900016 -0.16205278 0.2557973 14736602
0.78060013 -0.16616325 0.25385016 15329510
0.77900016 -0.15485951 0.25406045 15789288
0.78000009 -0.15469599 0.25873423 15789544
0.77834612 -0.14495744 0.25513387 15789544
0.78000003 -0.14947885 0.25925595 16118509
0.77811539 -0.13538381 0.25449756 15394787
0.78050005 -0.13221604 0.25942212 15263200
0.77900004 -0.12922704 0.2534526 15196896
0.78214294 -0.12477524 0.25499955 15131359
0.78632355 -0.11457655 0.25518671 15196894
0.78633326 -0.10467354 0.25491682 14144204
0.77866673 -0.091499291 0.25820491 13156793
0.78311551 -0.095291741 0.25507081 13288379
0.77607149 -0.084882073 0.25548205 13156536
0.78066665 -0.089297302 0.25216654 13222328
0.76523083 -0.07251475 0.25544706 12564914
0.77235293 -0.07760644 0.25490421 13090743
0.74785721 -0.061284389 0.25532481 13749702
0.75536841 -0.06565547 0.25534496 13354943
0.76075006 -0.069209829 0.25374722 12565428
0.74471426 -0.054555111 0.2552489 14144460
0.73900002 -0.041280918 0.2508184 13618116
0.74188006 -0.045195576 0.25520095 13947081
0.73662972 -0.034383483 0.25467604 13486530
0.74020004 -0.038922191 0.25746402 14341839
0.73279428 -0.024842234 0.25496957 13091770
0.72900003 -0.011368758 0.25220287 12171183
0.73088014 -0.014890069 0.25565961 12499890
0.7274074 -0.0051281713 0.25470537 12236720
0.73000002 -0.0083082551 0.25972641 12894393
0.72579992 0.0044847508 0.25483471 12434099
0.72815001 0.012510638 0.25514701 13487303
0.73093748 0.017562786 0.25471085 13948110
0.73429173 0.023303898 0.25515908 14079696
0.74377781 0.026747229 0.25418121 14079696
0.75633335 0.028574431 0.25138494 15000542
0.74800003 0.030010676 0.25912628 14736856
0.75525004 0.030301556 0.25676507 15198177
0.76300001 0.031205555 0.2553792 15066078
0.77552176 0.03577565 0.25484279 14737112
0.78000003 0.038598534 0.25012597 14539477
0.77854162 0.044527173 0.25596061 14605784
0.78075004 0.045794476 0.25143161 14408662
0.77900016 0.054961927 0.2570999 14474455
0.78100008 0.05510303 0.25227341 14737626
0.77900004 0.062621266 0.25564098 14408663
0.78061301 0.065509945 0.25468394 14277075
0.78076667 0.075191468 0.25494188 14474198
0.77766675 0.085205562 0.25489876 14342873
0.78025001 0.081991717 0.25248864 13947342
0.77553326 0.094658837 0.25504693 14935013
0.77712506 0.10201915 0.25500229 14935012
0.7828334 0.10715909 0.25485235 14935008
0.78793752 0.11266067 0.25486133 12960960
0.79090005 0.11782821 0.25547329 11447976
0.78666669 -0.1754704 0.26476923 12172221
0.77870363 -0.16367973 0.26530585 15000287
0.78142864 -0.16935365 0.26443619 15132389
0.77866679 -0.15512507 0.2670581 15527143
0.78000009 -0.15459163 0.26217753 15658215
0.77900016 -0.14381625 0.26621819 15855337
0.77999997 -0.14582688 0.26473391 15921130
0.77900004 -0.13788939 0.26348269 15592165
0.78113633 -0.13464929 0.26553518 15526372
0.78341204 -0.12515482 0.26524407 15065565
0.7857576 -0.11485127 0.26534736 14999771
0.78432268 -0.10458427 0.26542836 14209998
0.7777648 -0.092501543 0.2651535 13289151
0.78116661 -0.09743277 0.26436689 13420480
0.77455562 -0.084773839 0.26510206 12959672
0.75800008 -0.071030281 0.26643252 14538190
0.76411116 -0.074390903 0.26460522 13025465
0.77162498 -0.078780189 0.26414847 13025209
0.74626082 -0.063108757 0.26565939 15460061
0.75353855 -0.067470044 0.26334456 15065047
0.73866671 -0.053655643 0.26915014 15459807
0.74342436 -0.055083759 0.26470897 15591648
0.73700005 -0.044457432 0.26771739 15065305
0.74139994 -0.045581292 0.26308605 15328476
0.73492306 -0.034925181 0.2652643 14539217
0.74066669 -0.039640106 0.26178682 15065561
0.73200023 -0.024611693 0.26471993 14736594
0.72900003 -0.010003476 0.26961023 14473423
0.73094618 -0.014332776 0.26477909 14341837
0.72803843 -0.004355181 0.26525638 14012359
0.73000002 -0.0083082551 0.26399875 13815236
0.72605538 0.0044841305 0.2642723 13420223
0.72732347 0.014461475 0.26493213 12894652
0.73033333 0.019043526 0.26155394 14606040
0.72900003 0.020715363 0.26875693 13092032
0.73240751 0.024120392 0.2647095 14079183
0.74250007 0.02848782 0.26374304 13816011
0.75700003 0.032143917 0.26224411 14736856
0.76250005 0.034162484 0.26504138 14605527
0.77355558 0.037476659 0.26556113 14605783
0.77793765 0.044362187 0.2645452 14474454
0.78050005 0.049586259 0.26764494 14540247
0.78112006 0.055113841 0.26511639 14540248
0.78268969 0.06514243 0.26552275 14145491
0.78247833 0.075594954 0.2652581 14211028
0.7775417 0.086407088 0.26480964 14474459
0.7804445 0.081454128 0.26529157 13816016
0.77616012 0.09473677 0.26524967 14935524
0.7779001 0.10186901 0.26347592 14737634
0.78323078 0.10660364 0.26554683 14737634
0.78838468 0.1124132 0.26459867 13421771
0.7915715 0.11713525 0.2657482 11185065
0.7865715 -0.17555821 0.27502963 12434878
0.77785015 -0.16454706 0.27492952 15131619
0.78160006 -0.16991262 0.27442425 15132132
0.77655917 -0.15496883 0.27511364 15460839
0.77715647 -0.14495239 0.27536362 15921130
0.7782501 -0.13620596 0.27616328 15723751
0.78075004 -0.13332383 0.27275616 15592164
0.78227288 -0.12543891 0.27515903 15262943
0.78322244 -0.11519126 0.27458647 14999516
0.78300029 -0.10514486 0.27491719 14209998
0.77883339 -0.092126638 0.27284679 13420480
0.78116661 -0.095655099 0.2756958 13354431
0.776375 -0.08502546 0.27501437 13091002
0.78100002 -0.089335434 0.27969998 13354174
0.75750011 -0.071575902 0.27482882 13024954
0.76410007 -0.075778447 0.2745395 12498865
0.77120006 -0.07918749 0.27438587 12630708
0.73750001 -0.061052084 0.27620485 15196634
0.74495649 -0.064746477 0.27459851 14867413
0.75000006 -0.068231836 0.27298737 14143435
0.73392105 -0.055150878 0.27513006 15262171
0.74100006 -0.058739588 0.27057886 15656929
0.72900003 -0.041291181 0.27928096 14933461
0.73242116 -0.045517825 0.27457002 15130841
0.72666663 -0.033628449 0.27757233 14144458
0.73104173 -0.035417981 0.27307329 14341582
0.72494447 -0.024091996 0.27630144 14276301
0.73057133 -0.025051367 0.27141237 14604753
0.72440475 -0.015026558 0.27552414 14276303
0.73100001 -0.016876055 0.27034989 14670802
0.72365952 -0.0056052874 0.27537185 14407890
0.7232222 0.0042981161 0.27468795 14407891
0.72557896 0.01450008 0.27460077 14079184
0.72900003 0.020715363 0.27473003 13684170
0.73252171 0.024995983 0.27463809 12960447
0.74416667 0.029856877 0.27434736 13354947
0.74833339 0.03177591 0.27675959 14078926
0.76300001 0.035081498 0.27504686 14342611
0.77290004 0.037526157 0.27408451 14606040
0.77747381 0.042595062 0.27498814 14671578
0.78078568 0.048299793 0.27531511 14540249
0.78268003 0.055223249 0.27480468 14540250
0.78429651 0.064924069 0.27557445 14145236
0.7836563 0.074721053 0.27462879 14079444
0.77817392 0.086187787 0.27528277 14408410
0.78066677 0.081273943 0.27409664 13684687
0.77817661 0.093804523 0.27429619 14869475
0.78100008 0.097765356 0.27695706 15000804
0.78464007 0.10496154 0.27475911 14540767
0.78866673 0.11185335 0.27465084 14672098
0.79176474 0.11681356 0.27548596 11185324
0.78900003 -0.18075661 0.28995332 9737107
0.7865653 -0.17564043 0.28513265 12105910
0.77775007 -0.16452609 0.28490826 14868703
0.78200006 -0.16999958 0.28463483 15000544
0.77603161 -0.15530495 0.28484568 15197923
0.7760002 -0.14507905 0.28517586 15789545
0.77741677 -0.13533148 0.28478575 15592166
0.7790001 -0.12816323 0.28612638 15460581
0.78141665 -0.12329998 0.2844978 15328995
0.78233349 -0.11512842 0.28475478 15065566
0.77900004 -0.10096041 0.28992566 13091518
0.78177768 -0.10498184 0.28455192 13749704
0.77900004 -0.09396974 0.28992566 12894137
0.78096426 -0.095012769 0.28458187 13157565
0.77715009 -0.084442779 0.28587264 13091516
0.78012508 -0.088322356 0.28395188 13222844
0.7569167 -0.071521267 0.28524581 12630196
0.76545453 -0.075831741 0.28455365 12038830
0.77283341 -0.079355203 0.28491771 12762552
0.72633338 -0.060977668 0.28902438 14867411
0.73405886 -0.063144453 0.28552422 14670290
0.74569237 -0.066903174 0.28437373 14012104
0.72416216 -0.05451848 0.2868225 14867667
0.73087502 -0.05590526 0.28217292 14999254
0.71900004 -0.042183541 0.28913993 14406860
0.72397566 -0.044783384 0.2851418 14802131
0.73033333 -0.047351252 0.28093132 14999767
0.71899992 -0.033683423 0.28737253 14078410
0.72160006 -0.03517678 0.28227496 14078666
0.71875989 -0.025006816 0.28601363 14013130
0.72037506 -0.025695773 0.28096512 14078923
0.71841675 -0.015745064 0.28503466 14342352
0.71841675 -0.0056533902 0.28503495 14671319
0.71888232 0.0018170404 0.28546888 14474199
0.7211501 0.0067354203 0.28460246 14342612
0.72655559 0.013185856 0.28391892 13750733
0.73118186 0.017510362 0.28706858 11974580
0.73340005 0.023507159 0.28445822 12566459
0.74371433 0.02909462 0.28500009 12961217
0.7486667 0.031790067 0.28214237 13289668
0.75000006 0.031846683 0.28615561 13290182
0.7639001 0.036732674 0.28519887 14408406
0.77200007 0.038202651 0.28189707 14342098
0.77645701 0.044659946 0.28487173 14342870
0.78000003 0.049554493 0.28116786 14474713
0.77795017 0.054888893 0.2868008 14277077
0.78133339 0.05512733 0.28164724 14474456
0.77887511 0.062474795 0.28873938 14277334
0.78156257 0.065606192 0.28395724 14211284
0.78182751 0.075167514 0.28472859 13948368
0.77796876 0.085506454 0.28521457 14079702
0.78000003 0.080596395 0.28390688 13421769
0.77733344 0.094274186 0.28558785 14803169
0.78112507 0.097856797 0.2820293 14868961
0.78541386 0.10506551 0.28495473 14606046
0.78900003 0.11107936 0.28533563 15000804
0.79214287 0.11629494 0.28527945 12040119
0.78820002 -0.18149665 0.2966688 9473933
0.79270011 -0.18643227 0.29464814 9539725
0.77780002 -0.17200109 0.29858184 14210775
0.78386366 -0.17524646 0.29448244 13224136
0.77689666 -0.16512901 0.29566252 15000547
0.78050005 -0.16967347 0.29139692 15461096
0.77536094 -0.15494399 0.29492331 15526632
0.77583349 -0.14504725 0.29510254 15723753
0.77686143 -0.13523726 0.29549351 15592167
0.77799994 -0.12516476 0.29570612 15394788
0.78050011 -0.12155777 0.29170164 15394275
0.77900004 -0.11509372 0.29767621 14934237
0.7808463 -0.11483978 0.29468805 14802395
0.77890021 -0.10377399 0.29572305 13289153
0.78041673 -0.1075386 0.29319227 13618119
0.77847993 -0.094878748 0.29563534 12894393
0.78000003 -0.095612034 0.29121083 12828602
0.77700013 -0.085042611 0.2950398 12762807
0.72700006 -0.071245156 0.29950511 12433842
0.73600006 -0.070404157 0.29804391 12236722
0.74500006 -0.071265079 0.29819569 11841450
0.75530005 -0.072607122 0.29489464 12104620
0.76409096 -0.076021165 0.29477841 12368049
0.77214289 -0.079026796 0.29486185 12499637
0.71866661 -0.062578127 0.29719305 13946823
0.72312504 -0.065150499 0.29451236 13814980
0.73333335 -0.067478485 0.29409683 13223102
0.74514294 -0.069037378 0.29277086 12762294
0.71689999 -0.054355063 0.29516858 14538959
0.72100002 -0.058842044 0.29028174 14933204
0.7152608 -0.044976883 0.29549116 14407374
0.7080667 -0.034912758 0.29866618 14012872
0.71459454 -0.035440456 0.29411119 14012616
0.70750004 -0.025443017 0.29726568 14342095
0.71417248 -0.025539398 0.29265645 14144459
0.70787507 -0.016858967 0.29794258 14736855
0.71356755 -0.015164978 0.29341954 14605269
0.71604997 -0.0059234728 0.29477933 14474455
0.71873337 0.0015793649 0.29475385 13816529
0.722579 0.0064711459 0.29581192 12632253
0.72850007 0.010752998 0.29415545 12698045
0.73318189 0.015301303 0.29518631 12040115
0.74000001 0.019295586 0.29966369 12434873
0.73683339 0.022089737 0.29263261 12500923
0.74366665 0.026263906 0.29572973 12698302
0.74900001 0.030050797 0.29717129 12632509
0.75728571 0.033423878 0.2955173 13685453
0.76520002 0.036974929 0.2946378 14408663
0.77466661 0.044685718 0.29496124 14211284
0.77614307 0.054566283 0.29489684 14013906
0.77806675 0.064916097 0.29504111 14013906
0.78000003 0.068727434 0.29029784 14079955
0.77833349 0.074784338 0.295836 14145494
0.7803334 0.075556293 0.29123342 14079702
0.77647239 0.084773891 0.29534534 13948116
0.77623075 0.094258338 0.29476506 14605792
0.78000003 0.098856337 0.29851481 14737636
0.78544009 0.1050704 0.29489544 13552847
0.78900003 0.11107937 0.29364741 13421516
0.79178274 0.1155853 0.29532725 11447980
0.78737509 -0.1838426 0.3050212 9342601
0.79042858 -0.18822134 0.30395788 9276809
0.77695245 -0.17332232 0.30484051 12433846
0.78275007 -0.1788671 0.30414689 9210247
0.77491987 -0.16483319 0.30473423 15197414
0.77411437 -0.15456447 0.30519322 15526633
0.7744 -0.14477952 0.3054345 15724010
0.77532262 -0.13511454 0.30506676 15526374
0.77642876 -0.12496914 0.30474219 15263459
0.77800006 -0.11539851 0.30503389 14605272
0.77864504 -0.10529621 0.30543485 13289411
0.77754295 -0.095182061 0.30472615 12763321
0.77620691 -0.085220598 0.3048645 12500148
0.71900004 -0.070461169 0.30378368 13025721
0.72100002 -0.070657164 0.30040902 12564658
0.73650002 -0.072176144 0.30082971 11841963
0.75700003 -0.074185118 0.30123141 11973804
0.7651667 -0.077376403 0.304782 12434355
0.77000004 -0.079064272 0.30400106 12565941
0.71788901 -0.064473391 0.30499327 13486015
0.71269703 -0.054883227 0.3049337 13881287
0.70783877 -0.044566847 0.30513304 13947081
0.71014291 -0.04798156 0.30182245 14078667
0.70549989 -0.034978785 0.30516091 14144461
0.70473802 -0.025342772 0.30517733 14605269
0.70689291 -0.016552694 0.30505079 14144720
0.71033335 -0.011687252 0.30511144 13618633
0.71584374 -0.0055197133 0.30464944 13158339
0.71900004 0.00065369566 0.30252129 12171959
0.72368193 0.0047103344 0.30529496 12500666
0.73049998 0.0087871905 0.3086431 12764095
0.73436362 0.013530493 0.30464584 12764094
0.74237508 0.018706419 0.30649295 12764095
0.74572736 0.024289876 0.30484095 12698302
0.75000006 0.028335158 0.30722475 12961474
0.75637501 0.031456627 0.30430171 13027011
0.764 0.035512906 0.30375272 12895683
0.77150005 0.038177907 0.30610126 12303549
0.77572012 0.044420384 0.30468789 13750993
0.78100002 0.049618024 0.30895334 12040891
0.7775833 0.055318475 0.3025969 14277336
0.78170002 0.055153597 0.30831659 13158858
0.77822232 0.064927652 0.30239004 13947859
0.78125006 0.065178849 0.30813867 12500416
0.77754551 0.07512901 0.30345127 13882835
0.78100008 0.073384821 0.30895337 10527395
0.77613348 0.084736951 0.3052133 14408408
0.77700007 0.093362302 0.3047561 14671584
0.78142864 0.098254159 0.30572608 14803170
0.78680003 0.10441963 0.30443236 11908534
0.79040003 0.10905625 0.30675143 10921890
0.78799999 -0.18360361 0.31479731 9474186
0.79028571 -0.18765886 0.31579873 9605772
0.778 -0.17186314 0.31140924 11051939
0.78346157 -0.17610429 0.31500837 9539210
0.77700007 -0.16449614 0.31283006 11117733
0.78216666 -0.16668113 0.31796038 10065556
0.77557153 -0.15459545 0.31433129 15065827
0.78050005 -0.1577975 0.31971854 13750481
0.77557898 -0.14519104 0.31483984 14737118
0.78000003 -0.14126188 0.31951374 9735824
0.7762382 -0.13525693 0.31330252 15658732
0.78133339 -0.13449045 0.31884024 13355979
0.77763635 -0.12568913 0.31242332 15264229
0.78200006 -0.12438405 0.31743598 15198698
0.77883339 -0.11552393 0.31174281 14605271
0.78266674 -0.11517677 0.31694472 13684429
0.77887499 -0.10459079 0.31221539 13421253
0.78225005 -0.10504283 0.3170042 11645357
0.77900004 -0.096401274 0.31180951 12698045
0.7827999 -0.095040224 0.31626612 10658464
0.77649999 -0.08245898 0.31171715 12829371
0.78276926 -0.086156659 0.3155762 10461082
0.77300006 -0.079372317 0.31121749 12697273
0.71662503 -0.062471453 0.31116736 13552323
0.71300006 -0.056520008 0.31042895 13552323
0.70360005 -0.033046383 0.31127679 13025984
0.70266664 -0.025266599 0.31250951 14342099
0.70640004 -0.017627064 0.31234983 13092291
0.713 -0.012166741 0.31329164 12698047
0.71788239 -0.0076737702 0.3142359 12237751
0.72128576 -0.0033830672 0.31608883 12171959
0.72518754 0.0028934206 0.31361231 12500923
0.73140001 0.0072578616 0.31587213 12632509
0.73563635 0.011826325 0.31402305 12829631
0.74393749 0.017334504 0.31573552 12764095
0.7477001 0.022648778 0.31363529 12829631
0.75400001 0.026725441 0.3159236 12829888
