# .PCD v0.7 - Point Cloud Data file format
VERSION 0.7
FIELDS x y z rgb
SIZE 4 4 4 4
TYPE F F F U
COUNT 1 1 1 1
WIDTH 530
HEIGHT 1
VIEWPOINT 0 0 0 1 0 0 0
POINTS 530
DATA ascii
0.78880006 -0.62278587 -0.42327482 13946841
0.78781259 -0.6153903 -0.42226091 14144220
0.78758824 -0.60514724 -0.422364 14012634
0.78861111 -0.5951274 -0.42280421 14144219
0.78900003 -0.58641791 -0.42393664 14078427
0.79000002 -0.58374482 -0.42252174 14144219
0.78900003 -0.57510459 -0.42486015 14012634
0.79028571 -0.57538128 -0.42198375 14144220
0.78900003 -0.56383747 -0.42356724 13881048
0.79000002 -0.56788111 -0.42243958 13815255
0.7888124 -0.55523252 -0.42279667 14012634
0.78817654 -0.54471052 -0.42267963 14078427
0.78880006 -0.53525627 -0.4229055 14275805
0.78868747 -0.52560359 -0.42272964 14604770
0.78852934 -0.51541865 -0.42286858 14341599
0.78888869 -0.50484455 -0.42295328 14670563
0.78900003 -0.49475735 -0.42208958 14802148
0.78900003 -0.48773852 -0.42227426 14605026
0.79000002 -0.48296699 -0.42249241 14144988
0.79009092 -0.4745906 -0.42275733 14671586
0.79093754 -0.46484187 -0.42220023 14802658
0.79009998 -0.40481535 -0.42267814 14145242
0.79092312 -0.39469534 -0.42290512 14671072
0.78900003 -0.62105036 -0.4151631 14275805
0.79042858 -0.62544668 -0.41452667 14078427
0.78851599 -0.61461812 -0.41459414 14275805
0.78865701 -0.60452622 -0.41438782 14275805
0.78895438 -0.59580755 -0.41560069 14210525
0.79000002 -0.59258091 -0.41348022 14276062
0.79038918 -0.58536738 -0.41543064 14341598
0.79096794 -0.57459784 -0.41498876 14407390
0.78900003 -0.56125164 -0.41931897 14210013
0.79025024 -0.56452024 -0.41509363 14144220
0.78899974 -0.55379742 -0.41542691 14210013
0.79000002 -0.55780184 -0.41199046 14210013
0.78899974 -0.54462808 -0.41470134 14144221
0.78899974 -0.53539276 -0.41470137 14538979
0.79000002 -0.53052306 -0.4106034 14735846
0.7889998 -0.52554172 -0.41603523 14670564
0.79000002 -0.52428132 -0.4112969 14867430
0.78899992 -0.51530594 -0.41724101 14275805
0.79000002 -0.51407313 -0.41284218 14407389
0.78900003 -0.50399268 -0.41885719 14867941
0.79000008 -0.50487268 -0.41398057 14933732
0.78900003 -0.49475735 -0.41931897 14867941
0.79003865 -0.49519479 -0.41417995 14933733
0.7902289 -0.48522067 -0.41547805 14802148
0.79044133 -0.47465256 -0.4152396 14736354
0.7911483 -0.46502915 -0.41524619 14933988
0.79208809 -0.45497164 -0.41446811 14670816
0.79196769 -0.44488525 -0.41455349 14473693
0.79193556 -0.43523878 -0.41423789 14407902
0.79179984 -0.42501625 -0.41444933 14473951
0.79142445 -0.41475779 -0.41504541 14276315
0.79100013 -0.40492821 -0.41551793 14407902
0.79145724 -0.39502677 -0.41569769 14934245
0.79129034 -0.38510886 -0.41533387 14868452
0.79085308 -0.37492493 -0.41545519 14802401
0.79428583 -0.63478792 -0.40468413 11248309
0.79086965 -0.62472725 -0.40477562 14209756
0.78900003 -0.61481649 -0.40823659 14341597
0.79000014 -0.61467105 -0.40413055 14407390
0.78900003 -0.60465765 -0.40823659 14341597
0.79004771 -0.60435933 -0.40393439 14341597
0.78900003 -0.59726942 -0.40823659 14407390
0.79046899 -0.59473705 -0.40384829 14341597
0.79128581 -0.58494616 -0.40475932 14473183
0.79175746 -0.57483947 -0.40528119 14407390
0.79106683 -0.5645749 -0.4046745 14275804
0.78900003 -0.55155456 -0.40777481 14210014
0.79013056 -0.55530065 -0.40407592 14275804
0.78900003 -0.54508984 -0.40685129 14012635
0.79000002 -0.54489148 -0.40292132 14275804
0.78900003 -0.53760922 -0.40749773 14012635
0.7900387 -0.53439003 -0.40429217 14407392
0.79047078 -0.52463377 -0.40415201 14801892
0.79078138 -0.51473308 -0.40476045 14275806
0.79080027 -0.50514287 -0.40453878 14933734
0.79083365 -0.49498069 -0.40455601 14999527
0.79100019 -0.48490104 -0.40464211 15131368
0.79100019 -0.47471634 -0.40464208 15065575
0.79197139 -0.46430573 -0.40500611 15262953
0.7944001 -0.45488915 -0.40449101 15131367
0.79519373 -0.44513667 -0.40501153 14868452
0.79357141 -0.43485996 -0.40476128 14999780
0.79339999 -0.42507836 -0.40494105 14802659
0.79379416 -0.41490659 -0.4048121 14605023
0.79287082 -0.40455809 -0.40574729 14670816
0.7927857 -0.39518759 -0.40522328 15065573
0.79266661 -0.38516173 -0.4049367 14999779
0.79214698 -0.3749935 -0.40544617 15065316
0.7918666 -0.36493683 -0.405085 14802659
0.79436374 -0.63463628 -0.39478034 11511480
0.7913847 -0.62401557 -0.39486212 14341600
0.79051638 -0.61432636 -0.39528883 14407392
0.79090345 -0.60495049 -0.39494514 14407391
0.79209673 -0.59497553 -0.39500299 14407392
0.79288876 -0.58484769 -0.39560515 14473185
0.79295999 -0.5752067 -0.39543465 14538976
0.79211992 -0.56532633 -0.3950156 14407391
0.79092878 -0.55501992 -0.39501569 14275805
0.79032278 -0.54536223 -0.39489397 14210012
0.7904709 -0.53546411 -0.39511752 14473182
0.79100019 -0.52471358 -0.3944574 14670816
0.79100013 -0.51452893 -0.39445743 14276061
0.79100013 -0.50527018 -0.39445746 14737125
0.79100019 -0.4950856 -0.39445746 14934248
0.79100013 -0.48490101 -0.3944574 15196906
0.79103357 -0.47473621 -0.39447388 15328491
0.79337835 -0.46426612 -0.39473599 15394284
0.79487509 -0.43424562 -0.39498952 15065574
0.79326653 -0.425008 -0.39465821 14933988
0.79439402 -0.4154669 -0.3947967 14670816
0.79446679 -0.40519306 -0.3952544 14605022
0.79368752 -0.39515612 -0.39480945 14999779
0.79296291 -0.38476208 -0.39571145 14999523
0.79223067 -0.37459305 -0.39492914 14933730
0.79167992 -0.36485076 -0.39479777 14802660
0.79580003 -0.63585985 -0.38539267 11643321
0.79224998 -0.62496907 -0.38521042 14341598
0.79199988 -0.61530012 -0.38475859 14473184
0.7918275 -0.60525906 -0.38560176 14407134
0.79206055 -0.59483707 -0.38504189 14473183
0.79229403 -0.58465171 -0.38468468 14473183
0.79226661 -0.57470387 -0.38488951 14670562
0.79176003 -0.56506926 -0.38556957 14604770
0.79115397 -0.55544698 -0.38505957 14538976
0.79100019 -0.54508275 -0.38519862 14407391
0.79161763 -0.53416997 -0.38484439 14538720
0.79196656 -0.52442801 -0.38474232 14801891
0.79125011 -0.51489073 -0.38472405 14210268
0.79040015 -0.50488776 -0.38490736 14539233
0.79032165 -0.49499059 -0.38506761 14999528
0.79074097 -0.48515275 -0.3848677 15197420
0.79215789 -0.47452882 -0.38488284 15263213
0.79608119 -0.46499205 -0.38560486 15329005
0.79557163 -0.41526905 -0.38496178 14999781
0.79451996 -0.40522113 -0.38505355 14802401
0.79328001 -0.39530212 -0.38445297 14933986
0.79273325 -0.38575134 -0.38511527 14933986
0.79161769 -0.37523445 -0.38484535 14802400
0.79100013 -0.3645376 -0.38519871 14802403
0.79519051 -0.63568676 -0.37491849 11775164
0.79214817 -0.62448382 -0.37504235 14341597
0.79171997 -0.61508334 -0.37442902 14341855
0.79122591 -0.60513765 -0.37473243 14341855
0.79179996 -0.59561896 -0.37502199 14341855
0.79199988 -0.58486754 -0.3746891 14538977
0.79130781 -0.57422245 -0.37409213 14538977
0.79096013 -0.56449765 -0.37592116 14736612
0.79089302 -0.55499387 -0.37496397 14605026
0.79074311 -0.54503763 -0.37497225 14539490
0.79129046 -0.53437531 -0.37476343 14868456
0.79219991 -0.52458173 -0.37465501 14868199
0.79196292 -0.51495057 -0.37495419 14210268
0.79093355 -0.5052284 -0.37498081 14539489
0.79036695 -0.49561468 -0.37471238 14802662
0.79016161 -0.48516166 -0.3753624 15263469
0.79163641 -0.4751237 -0.37483931 15329262
0.79514706 -0.4649353 -0.37484491 15262955
0.79522592 -0.40509933 -0.37506339 15131365
0.79419357 -0.3949779 -0.3746362 15065572
0.79292589 -0.38474438 -0.37506735 14933986
0.79210705 -0.37432057 -0.37514025 14736607
0.7917667 -0.36489093 -0.37537614 14867939
0.79440737 -0.6355626 -0.36495322 12038590
0.79299986 -0.62535983 -0.36482257 14407392
0.79246652 -0.61566275 -0.3645767 14341599
0.79193324 -0.60505146 -0.36525968 14275806
0.79199988 -0.59490514 -0.36529076 14342113
0.79152006 -0.58528113 -0.36506984 14342113
0.79076022 -0.57546282 -0.36471912 14407649
0.79000038 -0.56460494 -0.36516094 14473185
0.79038483 -0.55497652 -0.36475864 14407390
0.79076689 -0.54492152 -0.36472118 14670562
0.79138243 -0.53422803 -0.36500385 14867941
0.79279995 -0.52497894 -0.36473128 14933990
0.79279304 -0.5158242 -0.36488831 14210524
0.79175997 -0.50575674 -0.36517987 14473953
0.79081494 -0.49548432 -0.36495054 14868712
0.79000032 -0.48507261 -0.36504096 15263469
0.79066694 -0.47451392 -0.36467612 15329262
0.7955122 -0.46544647 -0.36504439 15263212
0.79580778 -0.39462689 -0.36496776 15131621
0.79456675 -0.38478312 -0.3655425 14868450
0.79320681 -0.37496892 -0.36507839 14736864
0.79199988 -0.36499852 -0.36529079 14802658
0.79592001 -0.63519156 -0.35576901 12696777
0.79338092 -0.62495273 -0.35460752 14473185
0.79253834 -0.61550486 -0.35455102 14407392
0.79193932 -0.60519689 -0.35520694 14407392
0.79162496 -0.59497094 -0.35469472 14473698
0.79185283 -0.58487207 -0.35480857 14473697
0.7916249 -0.57458544 -0.35515511 14408160
0.79146665 -0.56485939 -0.35485199 14473696
0.79164708 -0.555067 -0.35471541 14539490
0.79190624 -0.5451268 -0.35528183 14407904
0.79308814 -0.53559887 -0.35530639 14802405
0.79335994 -0.52535129 -0.35477409 15131113
0.79230762 -0.51523846 -0.35451853 14473695
0.7912001 -0.50539863 -0.35473549 14605282
0.79041964 -0.49493068 -0.35441378 15000296
0.79042447 -0.48505241 -0.35463762 15263725
0.79151303 -0.47452119 -0.3546586 15263724
0.79608345 -0.44515643 -0.35506043 15066344
0.79396158 -0.43445954 -0.35518819 15197417
0.79463989 -0.42529696 -0.35512611 15197673
0.79430771 -0.41469499 -0.35484394 15460331
0.79435998 -0.40513709 -0.3552241 15460330
0.79534477 -0.39549446 -0.35553423 15262951
0.79512006 -0.38505059 -0.35556155 15065572
0.79326916 -0.37472776 -0.35494745 14868193
0.79189992 -0.36495247 -0.35504773 14803427
0.79578948 -0.63579744 -0.34497726 13091279
0.79243994 -0.62491912 -0.34508818 14473184
0.79199988 -0.61530012 -0.34489581 14407392
0.79186201 -0.60515732 -0.34470743 14473184
0.79192299 -0.59506088 -0.34500462 14604769
0.7924999 -0.58507538 -0.34511277 14604770
0.79307407 -0.57487631 -0.34501934 14473954
0.79312098 -0.56485856 -0.34482002 14539747
0.79299992 -0.55501461 -0.34473309 14539747
0.79280007 -0.5453946 -0.34524345 14539490
0.7931 -0.53538954 -0.34537494 14671075
0.79291999 -0.52505928 -0.34529671 14999783
0.79155999 -0.51489455 -0.34470466 14670561
0.79096013 -0.50524461 -0.34444273 14736868
0.79128134 -0.49549153 -0.34492856 15066346
0.79253346 -0.48497409 -0.34456941 15263723
0.79384214 -0.47490266 -0.3449614 15263723
0.79565531 -0.4649516 -0.34501192 15263210
0.79585212 -0.45475331 -0.34450576 15065574
0.79551733 -0.44445124 -0.34501359 15131880
0.79479325 -0.43500137 -0.34533814 15329259
0.79366672 -0.42522278 -0.34469002 15197673
0.79324973 -0.41478518 -0.34451026 15263466
0.79436672 -0.40513965 -0.34499475 15526893
0.79497224 -0.39521462 -0.34525985 15329258
0.79437023 -0.38489425 -0.34551656 15065828
0.79323995 -0.37485564 -0.34543648 14802400
0.79307127 -0.36489436 -0.34496289 14868964
0.79500002 -0.63531512 -0.33503437 13223633
0.79267728 -0.62492526 -0.33483335 14408160
0.79314268 -0.61507249 -0.33504602 14407904
0.79342443 -0.60481113 -0.33532491 14539234
0.79299986 -0.59430623 -0.33537278 14539234
0.79299992 -0.58451772 -0.33512095 14473955
0.79309076 -0.57479465 -0.33524376 14539748
0.79360706 -0.56492668 -0.3344495 14408161
0.79374093 -0.55512679 -0.33491826 14408160
0.79343319 -0.5458315 -0.33530304 14605283
0.7929998 -0.53532243 -0.33512086 14671077
0.79266661 -0.52489239 -0.33497939 14934247
0.79173332 -0.51500684 -0.33458439 14539233
0.79161769 -0.50501037 -0.33431715 14868453
0.79212493 -0.49520889 -0.33498251 15197675
0.79382348 -0.48591822 -0.33519465 15329517
0.79533327 -0.47545478 -0.33517566 15263468
0.79463995 -0.46481022 -0.3348833 15066088
0.79390007 -0.45415273 -0.33457145 15066088
0.79584014 -0.42452541 -0.3353886 15066343
0.79496002 -0.41474912 -0.33501887 15263721
0.79500002 -0.40546426 -0.33503559 15592429
0.79477775 -0.39563572 -0.33514863 15395307
0.79296297 -0.38496861 -0.3347275 15066342
0.79226458 -0.37504843 -0.33459318 14737120
0.79282337 -0.36444739 -0.33504739 14869220
0.79313785 -0.62469876 -0.32509527 14473954
0.79424149 -0.61479586 -0.32548419 14407904
0.79436004 -0.60486054 -0.32546929 14473953
0.79319227 -0.5945158 -0.32491848 14408417
0.7924999 -0.58436352 -0.3245644 14539746
0.79231989 -0.57474196 -0.32463315 14539747
0.79253572 -0.56502521 -0.32492059 14473953
0.79281479 -0.55509746 -0.32462925 14473697
0.79300004 -0.54553282 -0.32491058 14736355
0.79299992 -0.53532243 -0.32491052 14802663
0.79300004 -0.52511197 -0.32491055 14934249
0.79275995 -0.51567459 -0.32481185 14802147
0.7920332 -0.50500304 -0.32451436 15000040
0.79261523 -0.49495333 -0.3246094 15197676
0.79463893 -0.4851132 -0.32490915 15263468
0.79554856 -0.46516097 -0.32487106 14934758
0.79474288 -0.45450315 -0.32482645 15065831
0.79490924 -0.44492045 -0.32552505 15197160
0.79427278 -0.43484327 -0.32492802 15131623
0.79380774 -0.42515367 -0.32510182 14934757
0.79368979 -0.41485405 -0.32506624 15329514
0.79490006 -0.40541279 -0.32475847 15526893
0.79441381 -0.39599687 -0.32471976 15329514
0.79263991 -0.3857061 -0.32476285 15132135
0.79123342 -0.37483397 -0.32418677 14802912
0.79289985 -0.62528008 -0.31466046 14539490
0.7929998 -0.61514878 -0.31470025 14473696
0.79259992 -0.60463393 -0.3154704 14473953
0.79183996 -0.59478569 -0.31516835 14276831
0.79164284 -0.58477467 -0.31528822 14473953
0.79133338 -0.57443857 -0.31476042 14342624
0.79160011 -0.56495357 -0.31507224 14408417
0.79199988 -0.55504227 -0.31523049 14473697
0.7925185 -0.54499394 -0.31502458 14605539
0.7929998 -0.53532243 -0.31470028 14737125
0.79249996 -0.52484769 -0.31483269 14802919
0.79251713 -0.51564455 -0.31466821 14802661
0.79232252 -0.50503653 -0.31517932 15000552
0.79336113 -0.49470446 -0.31484333 15263724
0.79482144 -0.48538223 -0.31502387 15329261
0.79452175 -0.45511794 -0.31413224 15066344
0.79299998 -0.44535565 -0.31487316 15000551
0.79195994 -0.43543243 -0.31521481 14868964
0.79174197 -0.42496753 -0.31494772 15000292
0.79322219 -0.4147687 -0.31478846 15395307
0.79484004 -0.40538204 -0.3145003 15592685
0.79468751 -0.39484107 -0.31478739 15329514
0.79410708 -0.38482609 -0.31487042 15000549
0.79312491 -0.3751485 -0.31497759 14803170
0.79300004 -0.62535912 -0.30448985 14539490
0.79299992 -0.61514878 -0.30448979 14473953
0.7923333 -0.60443062 -0.30516011 14473953
0.79136676 -0.59443003 -0.30478764 14539490
0.7912814 -0.5847553 -0.30452323 14276831
0.79176474 -0.5749923 -0.30515805 14342624
0.79235476 -0.5653134 -0.30501834 14408417
0.79228562 -0.55510944 -0.30527416 14408161
0.79320008 -0.54548258 -0.30493566 14473954
0.79364294 -0.53542441 -0.30493388 14736869
0.79292595 -0.52499497 -0.30487329 14802661
0.79211527 -0.51511246 -0.30436438 14934503
0.79156256 -0.5051083 -0.30509752 15066090
0.7928437 -0.49478531 -0.30425748 15263469
0.79563648 -0.48508883 -0.30448389 15263469
0.79562074 -0.4655126 -0.30472443 15197160
0.79392016 -0.45509675 -0.30484241 15000294
0.79313785 -0.44478676 -0.30473289 14868965
0.79442495 -0.43506289 -0.30502981 14803172
0.79415637 -0.42536771 -0.30533442 15066343
0.79348272 -0.4147467 -0.3048023 15395564
0.79396003 -0.40493324 -0.30485967 15526637
0.79540634 -0.39519417 -0.30506393 15394793
0.79555565 -0.37498501 -0.30547068 14737377
0.79307401 -0.62500453 -0.29489112 14671075
0.7941668 -0.61543226 -0.29471034 14605539
0.79396772 -0.6048969 -0.29460582 14539746
0.79331237 -0.59467214 -0.2945087 14605539
0.79391158 -0.58486015 -0.29450455 14539746
0.79440618 -0.57503474 -0.29491583 14474210
0.79339302 -0.56477541 -0.29508784 14539490
0.79300004 -0.55481493 -0.29520777 14539490
0.79393333 -0.54524368 -0.29555613 14539747
0.7947188 -0.53491241 -0.29515103 14868455
0.79375851 -0.52484566 -0.29420698 15000040
0.79285187 -0.51545954 -0.29473832 14999783
0.79164296 -0.50495249 -0.29483277 15131626
0.79419512 -0.49506003 -0.29469493 15198187
0.79539996 -0.45439294 -0.29516873 14737122
0.79490322 -0.44467291 -0.29513493 14803171
0.7955001 -0.42427224 -0.2948499 15263722
0.79432273 -0.41459751 -0.29461983 15526893
0.79473335 -0.40532783 -0.29492185 15395564
0.79517645 -0.3955335 -0.29481342 15394792
0.79468 -0.3755376 -0.29471791 14868705
0.79285288 -0.62458611 -0.28494483 14671075
0.79493552 -0.61499733 -0.28464305 14671076
0.79504007 -0.59532857 -0.28480008 14671332
0.79440743 -0.5851422 -0.28478202 14605539
0.79379159 -0.57526791 -0.28427771 14671332
0.79289645 -0.56498402 -0.28467295 14671332
0.79230279 -0.55483299 -0.28449547 14408161
0.79229987 -0.54505074 -0.28474721 14539491
0.7936756 -0.53509706 -0.28461227 15065320
0.79496002 -0.52454889 -0.28477117 15000041
0.79457146 -0.51479346 -0.28522804 14934503
0.79474294 -0.5050016 -0.2854881 15066601
0.79552001 -0.45415187 -0.28497285 14737377
0.79500002 -0.44454756 -0.28478566 14803170
0.79496002 -0.43522057 -0.28477198 15132136
0.79387999 -0.42533815 -0.28438553 15132136
0.79353344 -0.41493398 -0.28426072 15461100
0.79444003 -0.40517738 -0.28458613 15329771
0.79486674 -0.39516175 -0.28473848 15132135
0.79404014 -0.38452744 -0.28444394 14868448
0.79307407 -0.37457162 -0.28450921 14803426
0.79276001 -0.62516952 -0.27470332 14605539
0.79336351 -0.61483705 -0.2750836 14540004
0.79457718 -0.6048528 -0.27526516 14540004
0.79355997 -0.59459227 -0.27498281 14605796
0.7926538 -0.58447641 -0.27452576 14605796
0.79300004 -0.57523561 -0.27478701 14605539
0.79285705 -0.56525528 -0.27453819 14605539
0.79229611 -0.55473489 -0.27474812 14408160
0.7924 -0.54511917 -0.27457818 14605539
0.79388571 -0.53498745 -0.27509385 15065833
0.79500002 -0.52457529 -0.27548009 15131626
0.79582357 -0.51487023 -0.27483216 15131882
0.79575866 -0.50497067 -0.27529237 15197674
0.79511118 -0.45412377 -0.27510464 14736607
0.79496002 -0.44452536 -0.27546641 14934499
0.79456002 -0.43500078 -0.27532804 15197928
0.79520601 -0.42484018 -0.27461705 15263721
0.79541939 -0.41486847 -0.27483949 15526892
0.79380763 -0.40492895 -0.27484983 15395306
0.79295999 -0.39514244 -0.27477401 15066342
0.79215378 -0.3852545 -0.27463847 14868450
0.79182756 -0.37495449 -0.27425408 14934499
0.79288 -0.62526584 -0.26546478 14605026
0.79184616 -0.61496699 -0.26526216 14605026
0.79193103 -0.60488927 -0.26502079 14670819
0.79211998 -0.59499556 -0.26521093 14671332
0.79203326 -0.58473206 -0.26518142 14605796
0.79291999 -0.57517719 -0.26547843 14605539
0.79306668 -0.56507301 -0.26552734 14671076
0.79300004 -0.55481493 -0.26550496 14605540
0.79300004 -0.5455327 -0.26550493 14737126
0.79325807 -0.53528571 -0.26565194 15000297
0.79406893 -0.52472919 -0.26579988 15131882
0.79511541 -0.51484203 -0.26506895 15263467
0.79526681 -0.50464505 -0.2645891 15263209
0.79500002 -0.49479756 -0.26524389 15066086
0.79523087 -0.48541707 -0.26453593 15131622
0.79478592 -0.47486195 -0.26424411 15065829
0.794963 -0.46458364 -0.26450849 14868193
0.79522574 -0.45434275 -0.26474941 14671071
0.79500002 -0.44454756 -0.26524389 15000549
0.7949 -0.43518612 -0.2652109 15197928
0.79281479 -0.39527893 -0.26502943 15000549
0.79040027 -0.38461566 -0.26463524 14803169
0.79073346 -0.3745946 -0.26474652 14869476
0.79236645 -0.62486035 -0.25509208 14539746
0.79140007 -0.61483544 -0.25477946 14539746
0.79150003 -0.6047194 -0.25481063 14539490
0.79258806 -0.5946914 -0.25494209 14737125
0.79268754 -0.58463472 -0.2554245 14605540
0.79299992 -0.57523561 -0.25529456 14408160
0.7929998 -0.56502521 -0.25529453 14408417
0.79303324 -0.55483818 -0.25530508 14539746
0.79299992 -0.54553282 -0.25529462 14737125
0.79244435 -0.53494811 -0.25511709 15066088
0.79246646 -0.52475888 -0.25512466 15000296
0.79296958 -0.51513445 -0.25486341 15132137
0.79516667 -0.5051381 -0.25506058 15131624
0.79532003 -0.49499717 -0.25510934 14934756
0.7944001 -0.48512694 -0.25481403 14934756
0.79403239 -0.47476691 -0.25487602 15000036
0.79440004 -0.46466863 -0.25481668 14737120
0.79433334 -0.45491832 -0.25500283 14539998
0.79337502 -0.44495484 -0.25441211 14934757
0.7927779 -0.4351235 -0.25436732 15197928
0.79472733 -0.42505121 -0.25486839 15329513
0.79328555 -0.39510831 -0.25505492 15065828
0.79096693 -0.3848913 -0.2546379 14802657
0.79113901 -0.37478641 -0.25469458 14803427
0.79160005 -0.62425494 -0.2446527 14407903
0.79160005 -0.6149897 -0.24465239 14473696
0.79179996 -0.60494936 -0.24471419 14473953
0.79268962 -0.59465462 -0.24511734 14671332
0.79276913 -0.58456153 -0.24487117 14671332
0.79267997 -0.57500315 -0.24498649 14605796
0.79273331 -0.56483465 -0.24500278 14474210
0.79311997 -0.55489916 -0.24512191 14473953
0.79235995 -0.5450936 -0.24488778 14540002
0.79132003 -0.53511506 -0.2445661 15000294
0.79176658 -0.52522057 -0.24470286 15131365
0.7937575 -0.51513714 -0.24480927 15197158
0.79566664 -0.50545567 -0.24497753 14934245
0.79566669 -0.49521276 -0.24497846 14737378
0.79500002 -0.48549196 -0.24477175 15066085
0.79483336 -0.47515708 -0.2456511 15065572
0.79400003 -0.46443561 -0.24539305 14670813
0.79295999 -0.45454606 -0.24507175 14671327
0.79147619 -0.44513747 -0.24479038 15066342
0.78899992 -0.43269601 -0.24273969 15197928
0.79007143 -0.43716785 -0.24510416 15132136
0.78900003 -0.42682651 -0.24220613 15329514
0.79080963 -0.42324865 -0.24511363 15395306
0.79363334 -0.41498387 -0.24528238 15132135
0.79347998 -0.40468955 -0.24523443 15197926
0.79295999 -0.39514282 -0.24507171 15000546
0.79203993 -0.38541368 -0.24478669 14671327
0.79100013 -0.61452329 -0.23520735 14276830
0.79056025 -0.6049282 -0.2350774 14276574
0.79086685 -0.59497845 -0.23516908 14408417
0.79137045 -0.58475685 -0.23552462 14540002
0.79146433 -0.57471651 -0.23514785 14671332
0.79160005 -0.56495434 -0.23538657 14802918
0.79151851 -0.55521977 -0.23556903 14671332
0.79073089 -0.54489714 -0.23512855 14671588
0.79093122 -0.53485024 -0.23480396 15066343
0.792 -0.52504367 -0.2357028 15065827
0.79390907 -0.51574278 -0.23472077 15000291
0.79446149 -0.50540715 -0.23452085 14802912
0.79362959 -0.49504539 -0.23420188 14671327
0.7934444 -0.4849546 -0.23387158 15065572
0.79405576 -0.47469112 -0.23518616 15197158
0.79463333 -0.46480572 -0.2353562 14670813
0.79363334 -0.45493224 -0.23506021 14868450
0.7921111 -0.44513103 -0.23450553 15197927
0.78900003 -0.43216243 -0.23687018 15197927
0.79044449 -0.43603835 -0.23421866 15197926
0.78900003 -0.42664689 -0.23669061 15263719
0.7904762 -0.42351168 -0.23416971 15197926
0.79203564 -0.41487685 -0.23578052 15197926
0.79267842 -0.40487638 -0.23550877 15197926
0.79299992 -0.39496326 -0.23520534 15066082
0.79269987 -0.38573506 -0.23478423 14605789
0.79079425 -0.59486854 -0.22474317 13356756
0.79161781 -0.58507711 -0.22530405 13619415
0.79212111 -0.57510245 -0.22559179 13751256
0.79238695 -0.56533688 -0.22526591 14080220
0.79141945 -0.55508369 -0.22504978 14277087
0.79079419 -0.54466707 -0.2251787 14474466
0.79183328 -0.53453302 -0.22525732 15000808
0.79262489 -0.52451444 -0.22525099 14868707
0.79462069 -0.51540601 -0.22518505 15000549
0.79471999 -0.50541472 -0.22514983 14737377
0.7934615 -0.49512574 -0.22472149 14473948
0.7938571 -0.48538947 -0.22510412 14868706
0.79490006 -0.47519559 -0.22520147 15263207
0.79476005 -0.46488038 -0.22516263 14539742
0.79311997 -0.45463702 -0.22469801 15000550
0.7925384 -0.44495609 -0.22474755 15000549
0.79193324 -0.43541744 -0.22528772 14934756
0.79199988 -0.42525607 -0.22530659 15066340
0.79183322 -0.4149718 -0.22526067 15197926
0.79166657 -0.40511203 -0.22546665 15526376
0.79163343 -0.39522153 -0.22446309 15263204
0.79496783 -0.45491433 -0.21495023 13224909
0.79461312 -0.44504917 -0.21473256 13093067
0.79420584 -0.43485919 -0.21493623 13553873
0.79420018 -0.42488769 -0.21477109 13553616
0.79414701 -0.41486773 -0.21453634 13750994
