# .PCD v0.7 - Point Cloud Data file format
VERSION 0.7
FIELDS x y z rgb
SIZE 4 4 4 4
TYPE F F F U
COUNT 1 1 1 1
WIDTH 956
HEIGHT 1
VIEWPOINT 0 0 0 1 0 0 0
POINTS 956
DATA ascii
0.79321206 0.0046432232 0.084867805 12106160
0.79368973 0.015252523 0.08465638 11908780
0.78838468 -0.17323388 0.096929364 12828606
0.78674191 -0.16503116 0.094719671 14605787
0.78509372 -0.15504815 0.0946064 15921898
0.77900004 -0.14290442 0.098442093 16185072
0.78506887 -0.14525005 0.094064027 15921898
0.77900004 -0.1383453 0.098442093 16711416
0.78525001 -0.13485706 0.094395503 15987691
0.78559256 -0.12520988 0.095793232 16118765
0.79020005 -0.12553443 0.090608068 15264224
0.78648287 -0.11497594 0.095571823 16119020
0.79083329 -0.11545255 0.090680689 15658980
0.78730768 -0.10501236 0.095942602 16053741
0.79000002 -0.10516014 0.090585135 15922154
0.7879166 -0.09473782 0.094953775 16184555
0.78799993 -0.084986091 0.095964402 16119019
0.79016668 -0.083292641 0.091220707 15856359
0.78843749 -0.075650804 0.097557336 16119276
0.79129422 -0.074494034 0.092474975 16185326
0.78866673 -0.065287575 0.097816609 15856106
0.79160011 -0.064603992 0.092619412 15987435
0.78899992 -0.055156324 0.097858705 15066848
0.79113346 -0.055305924 0.092565291 15592934
0.78883314 -0.044680905 0.096837364 14869212
0.79058331 -0.045705512 0.091730841 15658728
0.78847992 -0.034815386 0.095946997 15000799
0.79000002 -0.034882784 0.090585135 15263970
0.7889998 -0.024679782 0.096935183 14606040
0.79041672 -0.024723604 0.091557615 14935004
0.78879988 -0.014517955 0.096910149 14277075
0.79049999 -0.01454854 0.091567166 14606296
0.7883479 -0.0050403271 0.096252017 14277075
0.79000002 -0.006084919 0.09111353 14606297
0.78843743 0.0051006381 0.095595561 14342869
0.79000002 0.0030300023 0.090585135 14606297
0.7888332 0.014644489 0.096067749 14013904
0.79000002 0.0165923 0.091201603 14475480
0.78866655 0.025179602 0.096893348 13619401
0.79083341 0.025250239 0.091605395 14277844
0.78840005 0.035322543 0.096860431 13816524
0.7906 0.035421222 0.091578633 14343125
0.78785181 0.044928413 0.096074045 14408662
0.79000002 0.044641595 0.090585135 14606294
0.78724998 0.054950386 0.095596872 14408660
0.79000002 0.054813322 0.090585135 14144971
0.78713036 0.064508379 0.096099697 14672089
0.79057139 0.065825313 0.091179058 14474454
0.78716666 0.074887216 0.096706055 14606044
0.79091668 0.075244464 0.091614954 14211796
0.78684998 0.084987663 0.096666418 14671835
0.79100001 0.085436501 0.091624498 14407890
0.78645843 0.095072903 0.096617222 15263716
0.79100001 0.094695225 0.091624506 14999257
0.78723538 0.10476176 0.097094521 15132390
0.78875005 0.11242946 0.09921243 11645614
0.78710008 -0.17387603 0.10499306 12631482
0.79000002 -0.17913631 0.10538037 10657949
0.77900004 -0.16059387 0.10719562 15461350
0.78188014 -0.16514443 0.10473537 15394788
0.77842855 -0.15445034 0.1050718 15921901
0.78000003 -0.15769583 0.10039446 16185072
0.77743345 -0.1453471 0.10461233 15856107
0.77850002 -0.13726819 0.10445406 15921901
0.78100014 -0.13245289 0.10570481 15724008
0.78265637 -0.12548044 0.10474549 15658471
0.78308022 -0.11523822 0.10445805 15527143
0.78355581 -0.1052177 0.10543586 15526886
0.78478581 -0.095475532 0.10527174 15592679
0.78579992 -0.085284539 0.10481929 15526629
0.78667998 -0.075250775 0.10493637 15461092
0.78786677 -0.065220729 0.10509536 15263970
0.78847992 -0.055118561 0.10517788 15198177
0.78899974 -0.044997472 0.10524701 14803419
0.78895813 -0.034682676 0.1050877 14606040
0.79000002 -0.038581591 0.10907917 14803419
0.78899974 -0.02467978 0.10524699 14408918
0.78891981 -0.014519743 0.10523669 14014160
0.78863984 -0.0052833934 0.10520027 13750732
0.78869981 0.0048718834 0.10520805 13750732
0.7889998 0.015032077 0.105247 13816524
0.78839993 0.025170287 0.10516749 13421767
0.78800005 0.035304971 0.1051136 13421768
0.78689998 0.045384891 0.10496725 13750735
0.78448004 0.055345658 0.10464386 13816528
0.78286147 0.065313928 0.10534409 14013648
0.78253347 0.075361453 0.10529914 14539737
0.78144443 0.085316487 0.10515191 14473687
0.78070009 0.095290489 0.10505203 14934753
0.78329629 0.10457748 0.10489315 15329768
0.78831244 0.11305994 0.10504027 11908271
0.79033333 0.11784586 0.10563162 11843246
0.78695655 -0.17372432 0.11490682 12696760
0.79000002 -0.17913631 0.11462738 10525591
0.77900004 -0.1609586 0.11266658 15263715
0.78165007 -0.1651691 0.11579454 15000030
0.7786501 -0.15468925 0.11389283 15724522
0.78000003 -0.15495683 0.11865439 15526374
0.7787649 -0.14538109 0.11299771 15658728
0.78107697 -0.14419843 0.11755299 15395557
0.77900004 -0.1383453 0.11120766 15789544
0.78285724 -0.13444474 0.11568827 15461093
0.78519982 -0.12480097 0.11491302 15132384
0.78530294 -0.11506486 0.11511771 15132384
0.78325933 -0.10467245 0.11527973 15263713
0.78329647 -0.094893388 0.11508151 15329506
0.78616673 -0.085322686 0.11499342 15526885
0.78736675 -0.075317383 0.11516877 15461092
0.78800011 -0.065449074 0.11498859 15395299
0.788818 -0.055562653 0.11403667 15263713
0.79000002 -0.052143887 0.11770973 15066591
0.78900003 -0.048137482 0.11152699 14869212
0.7902801 -0.04444088 0.11526083 14737626
0.79020017 -0.034891617 0.11465733 14868956
0.78900009 -0.023420421 0.11213148 14408918
0.79005259 -0.025443044 0.11599798 14540247
0.78900003 -0.014520934 0.11078817 14211539
0.79005003 -0.014540258 0.11555956 13948111
0.78900003 -0.0052856174 0.11078817 14079698
0.79018188 -0.0052933223 0.11515898 14013905
0.78900003 0.0021026351 0.11078817 13882319
0.7902416 0.0049764351 0.11479091 13684940
0.78900009 0.016711224 0.11297106 13553097
0.79007143 0.013731152 0.11582697 13750733
0.78856242 0.025406012 0.11476492 13027266
0.78763348 0.035287134 0.1152055 13290182
0.78613883 0.045342397 0.11498603 13487562
0.78483325 0.055372395 0.11479616 13487560
0.78303361 0.06532833 0.11544979 13290182
0.78220004 0.075329348 0.11532677 14474458
0.78113341 0.085283637 0.11516957 14408150
0.78139991 0.095376536 0.1152103 14671579
0.7855556 0.10515166 0.11507343 15132389
0.78885716 0.11158698 0.11367063 11711408
0.79227781 0.11649026 0.11526924 11843246
0.78776205 -0.1741529 0.125104 12564919
0.79000002 -0.17913629 0.12479911 10590872
0.78214294 -0.16434488 0.12506141 15131616
0.78116673 -0.15518713 0.12523268 15855596
0.7828126 -0.14566252 0.12492462 15460837
0.78473336 -0.13476972 0.12488651 15592678
0.78623998 -0.12490533 0.12512569 15395301
0.7864334 -0.11481261 0.12515713 15198177
0.78483993 -0.1044745 0.12490514 15263713
0.78555173 -0.094609164 0.12514521 15329506
0.78765392 -0.084776044 0.12520918 15461093
0.78800005 -0.075378358 0.12540554 15527142
0.78856242 -0.065046467 0.12514882 15724521
0.78900003 -0.058542609 0.12310191 15724521
0.79033345 -0.054400612 0.12523775 15527142
0.79155564 -0.045142371 0.12504691 14737626
0.79189986 -0.034966681 0.12510148 14408918
0.79152781 -0.024759792 0.12504323 14408661
0.79143345 -0.014565636 0.12502748 14145746
0.79166669 -0.0053034821 0.12506397 13948110
0.7914167 0.0048872782 0.12502371 13750733
0.79036695 0.015056789 0.12485723 13487818
0.78889263 0.025780575 0.12442647 13553611
0.79000002 0.02121581 0.12726498 13290439
0.78792006 0.035300449 0.12539363 13224389
0.78659993 0.045368634 0.12518428 13421768
0.78556001 0.055424012 0.12501836 13290182
0.78386688 0.065395862 0.12474928 13289669
0.78272003 0.075379521 0.12456598 14079700
0.78210336 0.08523237 0.12434249 14211286
0.78296155 0.095356032 0.12474649 14606044
0.78680772 0.10539151 0.12500292 15198179
0.78900003 0.11200289 0.12648821 11842735
0.79168189 0.11617727 0.12438767 11842991
0.79347825 -0.18469478 0.1348341 10197141
0.78729171 -0.17414878 0.13519804 12696504
0.79000002 -0.17913632 0.13312143 10328469
0.78218532 -0.16475371 0.13505876 14999775
0.78059995 -0.15507427 0.13519162 16250096
0.78320599 -0.14528957 0.13499586 15855337
0.78541654 -0.13488686 0.1351078 15526372
0.78636664 -0.12492505 0.13527042 15657958
0.78697246 -0.11489002 0.13537489 15657957
0.78659999 -0.10470795 0.13531227 15394785
0.78670591 -0.094862171 0.13527535 15197663
0.78696775 -0.08496546 0.13528377 15066334
0.78784621 -0.075504832 0.1348152 15132384
0.78866655 -0.065286018 0.13474302 15527142
0.78900003 -0.058850452 0.13757059 15724521
0.79065216 -0.054947637 0.13484105 15724521
0.79266655 -0.045204714 0.13542728 15000541
0.79360002 -0.035041556 0.13558723 14606040
0.79323345 -0.024812397 0.13552369 14277076
0.79267997 -0.01458894 0.13542995 14079696
0.79247999 -0.0053099608 0.13539539 13948367
0.79163337 0.0048879734 0.13524999 13553609
0.79020011 0.015054191 0.13500448 13422025
0.78900003 0.028577207 0.13233726 13290439
0.79000014 0.024375208 0.13558732 13356232
0.78890467 0.035521083 0.13416846 13355975
0.79000002 0.034469873 0.13820729 13487561
0.78834617 0.044760182 0.13454773 13421512
0.78734487 0.054786064 0.13464606 13290183
0.78519446 0.065505601 0.13507032 13289925
0.783167 0.0754226 0.13472028 13816526
0.78290355 0.084738903 0.13482201 14277077
0.78325742 0.094818063 0.13460353 14671580
0.78649998 0.10501031 0.13496391 15263461
0.788818 0.1143281 0.13493706 11776942
0.79000002 0.1180013 0.13373791 11908783
0.79010028 0.12510704 0.13498835 11842990
0.78900003 -0.18075661 0.14495882 10132118
0.787 -0.17497338 0.14491889 12828092
0.78151858 -0.16420633 0.14490512 14934498
0.78044838 -0.15517184 0.14505783 16118511
0.78316677 -0.1454981 0.14480381 16184303
0.78610003 -0.13500376 0.14534734 15592166
0.78680003 -0.12499458 0.14547671 15460579
0.78766674 -0.11499061 0.1456369 15592165
0.78796005 -0.10488879 0.14569026 15657958
0.78770012 -0.094712228 0.14564316 15658215
0.78773087 -0.084430896 0.14543591 15197664
0.78800005 -0.075251132 0.14493415 15329506
0.78858322 -0.065279022 0.14488207 15592422
0.78900003 -0.058850456 0.14551297 15855594
0.79066676 -0.054653823 0.14495631 15855594
0.79303336 -0.045225505 0.14477137 15395042
0.79331994 -0.035030499 0.14482354 15066334
0.79283321 -0.024799414 0.14473446 14540248
0.79351991 -0.0146029 0.14486188 14277077
0.79213327 0.0048905541 0.14460832 13816526
0.79043359 0.015058215 0.14522298 13619146
0.79000038 0.025222849 0.1451426 13290181
0.79000026 0.035394572 0.14514257 13421767
0.78899986 0.045552596 0.14421122 13487561
0.79000002 0.042381212 0.14688921 13684940
0.7883333 0.054696377 0.14483683 13355974
0.78644013 0.064689487 0.14540932 13487047
0.78340024 0.074525751 0.14484671 13355975
0.77900004 0.089003444 0.1488965 14211284
0.78134376 0.085078046 0.14486465 14145491
0.77900004 0.094170466 0.14950438 14605785
0.78118527 0.095283121 0.14484131 14605786
0.78611118 0.1053627 0.14493786 15395047
0.78899997 0.11235811 0.14403531 11841966
0.79079998 0.1167644 0.14547588 11843245
0.7936399 0.1247409 0.14488825 11777452
0.78688002 -0.17445491 0.15477449 13223108
0.79000002 -0.17913631 0.15901309 10328214
0.7821787 -0.16474451 0.15501976 14737632
0.78232259 -0.15441215 0.15546015 15855083
0.78478575 -0.14527568 0.15455393 16052718
0.78713328 -0.13518119 0.15475202 15723752
0.78796005 -0.12517942 0.15491341 15328993
0.7881667 -0.11506341 0.1549543 15328993
0.78875983 -0.10499526 0.15507154 15460579
0.78863329 -0.094823904 0.15504694 15592165
0.7886399 -0.084670871 0.15504824 15395043
0.78832 -0.075408973 0.15498495 15329250
0.78866655 -0.065286249 0.1550526 15395556
0.78900003 -0.058542609 0.15573336 15856107
0.79040003 -0.054050554 0.15492915 15724264
0.79177779 -0.045154463 0.15473449 15460836
0.79176658 -0.034961648 0.15473245 15329250
0.79161108 -0.024760025 0.15470351 15000285
0.79249978 0.0048932228 0.1548783 14079698
0.79148 0.01507783 0.15560581 14145491
0.79056686 0.025240123 0.15542707 13816526
0.79012018 0.035399575 0.1553383 13421768
0.78899986 0.045508616 0.15511772 13684940
0.79000002 0.040942788 0.15531428 13619147
0.7882334 0.05468953 0.1549667 13290182
0.7860769 0.064801626 0.1547545 13290182
0.78350025 0.0745354 0.15495425 13421512
0.77900004 0.089611337 0.15132803 14211284
0.78133333 0.08500021 0.15538014 13948114
0.77900004 0.092893913 0.15278694 14276822
0.78157145 0.09609478 0.15575033 14474202
0.7860384 0.10500786 0.15474838 15132388
0.78900003 0.11107937 0.15327062 11645357
0.79263645 0.11581451 0.15524019 12040370
0.78776199 -0.17388915 0.16488592 13683914
0.79049999 -0.17894144 0.1652831 10130836
0.78332001 -0.16478868 0.16500509 14737374
0.7834335 -0.15471913 0.16502839 15592166
0.7855714 -0.14483096 0.16488583 15855337
0.78716683 -0.13518761 0.16489014 15723752
0.78723335 -0.12506492 0.16490342 15526372
0.78630561 -0.1148434 0.16475607 15394786
0.78758061 -0.10501412 0.16512276 15394787
0.78811115 -0.094761625 0.16508891 15460580
0.7881 -0.084612951 0.1650874 15328994
0.78879982 -0.075453959 0.16523463 15263201
0.78897196 -0.065312713 0.16527086 15460580
0.78899997 -0.057713799 0.16548966 15724007
0.79000002 -0.053244729 0.16429709 15461092
0.79036701 -0.045074284 0.164637 15066334
0.79100013 -0.034926947 0.16476959 15132127
0.79183328 -0.02476548 0.1649441 14868956
0.79253328 0.0048937271 0.1650894 13882318
0.792 0.01508886 0.16497803 13816526
0.79126674 0.025261346 0.16482492 14013905
0.79012024 0.035399485 0.16458592 13750732
0.78899974 0.044848956 0.16521056 13816268
0.79000002 0.040942788 0.16271189 13750731
0.78802788 0.054675665 0.16507307 13487303
0.78620684 0.064544104 0.16485065 13487559
0.78393346 0.074577667 0.16513319 12961216
0.78364021 0.084641822 0.16507266 14013905
0.78423345 0.094805256 0.16519746 14342871
0.78741378 0.10545676 0.16510317 15132645
0.78900003 0.11107937 0.16897066 14935264
0.79230773 0.11561679 0.16446783 12237750
0.78813338 -0.17317919 0.17524284 15065313
0.79091662 -0.17841947 0.17493625 9933715
0.7850399 -0.1651493 0.17455646 15197155
0.78503323 -0.15503745 0.17455487 15723752
0.78499991 -0.14492396 0.17454597 15789544
0.78573316 -0.13494116 0.17470905 15789544
0.78508002 -0.12472534 0.17456394 15592165
0.77862513 -0.11162094 0.17495126 15394788
0.78185707 -0.11636734 0.17463163 15526374
0.77885723 -0.10862578 0.17526396 15460581
0.78282762 -0.10413799 0.17469187 15394787
0.78663343 -0.094581388 0.17490894 15394786
0.78800005 -0.084601969 0.17521304 15460580
0.78883982 -0.075457968 0.17540003 15328995
0.78899974 -0.065474398 0.17537171 15525861
0.79000002 -0.060774446 0.17750713 15525861
0.78900003 -0.058850452 0.17266479 15525861
0.7900002 -0.054728303 0.17523092 15789288
0.79063916 -0.045089737 0.17487508 15131871
0.79116684 -0.034933832 0.1749917 15066335
0.79255873 -0.025006374 0.17502573 14737371
0.79299992 0.0048979358 0.17446832 13816525
0.79213327 0.015090292 0.17520398 13816269
0.78900003 0.028885052 0.17912951 14013905
0.79044151 0.025017669 0.1745577 13816526
0.78900003 0.036141369 0.17860176 14211284
0.79000008 0.035153348 0.17348669 14013904
0.78895634 0.044903658 0.1755861 14013904
0.79000002 0.040942788 0.1725754 13948112
0.78800005 0.05467416 0.17521273 13684169
0.78663987 0.064706877 0.17491016 13881548
0.78418189 0.074851111 0.17486404 13486790
0.7826972 0.085038468 0.17519718 13487304
0.78257579 0.095019318 0.17466903 14408663
0.78474998 0.10477766 0.1750759 15001057
0.78853858 0.11257693 0.17575811 12105908
0.79075003 0.11699627 0.17408819 11645611
0.78794122 -0.17302872 0.18507299 15065567
0.79049999 -0.17832497 0.18502177 9868176
0.78556651 -0.16525933 0.18478532 15263202
0.78544432 -0.15511802 0.18475538 16118511
0.78569984 -0.14505301 0.18481652 16118509
0.78641671 -0.13505816 0.18498681 15855337
0.7870667 -0.125039 0.1851413 15657958
0.78511119 -0.11513109 0.18580696 15592166
0.78460711 -0.10502853 0.18528649 15394786
0.78750014 -0.094685674 0.18524271 15263200
0.78806674 -0.084608808 0.18537457 15328994
0.78888869 -0.075668193 0.18505459 15263201
0.78899974 -0.065315172 0.1846707 15460580
0.78900003 -0.057003386 0.18672301 15657958
0.79000002 -0.054185934 0.18374889 15789544
0.79093349 -0.04510539 0.18512286 15394530
0.79199988 -0.034971096 0.18537289 15066079
0.79212493 -0.024545183 0.18505405 14803164
0.79310006 -0.014596233 0.18470018 14342613
0.79286653 -0.0053118337 0.18464713 14144978
0.79249984 0.0048946524 0.18456036 13750732
0.7912401 0.015073069 0.18519375 13816525
0.78870356 0.026377765 0.18589947 13882062
0.79000002 0.021656143 0.18305536 13882319
0.78843331 0.035324227 0.18545929 14079697
0.78823334 0.044541221 0.18541285 14211283
0.7875278 0.054640654 0.18524678 13948111
0.78643334 0.06469018 0.18499106 13881805
0.78484851 0.074413069 0.18503557 13618633
0.77900004 0.089611329 0.18415378 13948112
0.78162962 0.084827669 0.18477561 13816526
0.7790001 0.093258634 0.18433616 13816526
0.78011763 0.096185967 0.18495503 14342870
0.78381491 0.10505546 0.18488476 15132386
0.78839999 0.11259522 0.18465339 13027266
0.79090905 0.11757717 0.18545462 11776941
0.78795242 -0.17410713 0.19478984 13618379
0.79071426 -0.17903407 0.19591418 9802644
0.78392595 -0.16471189 0.19490077 15131615
0.78262514 -0.15513356 0.19485636 15921388
0.7827059 -0.14514607 0.19532019 16052716
0.78422862 -0.13481291 0.19535223 15855338
0.78600007 -0.12486748 0.19500683 15658472
0.78686684 -0.11487373 0.19522338 15658215
0.78768003 -0.10485047 0.19542608 15526372
0.78796673 -0.094744131 0.19549651 15328994
0.78772008 -0.08457163 0.19543438 15262944
0.78803569 -0.075183623 0.19491981 15263201
0.7882778 -0.065255135 0.1946499 15460581
0.78873318 -0.055136971 0.19476269 15724009
0.78900003 -0.048383757 0.19606091 15855595
0.79066676 -0.043394212 0.19462366 15460580
0.79271996 -0.035001665 0.19482045 15000028
0.79266655 -0.02479572 0.19480804 14934235
0.79280001 -0.0145904 0.19484018 14211026
0.79231995 -0.0053089834 0.19472156 13947854
0.79140002 0.0050185816 0.19528878 13618888
0.78899997 0.017447468 0.19575307 13619145
0.79005879 0.01320257 0.1943835 13421766
0.78781259 0.02492037 0.19511139 13882317
0.78683996 0.035252437 0.19521551 14277075
0.7869001 0.045388166 0.19523112 14342868
0.78700006 0.055526372 0.19525686 14145490
0.78700006 0.064738266 0.19525686 14144977
0.78563327 0.074738964 0.19491783 13750220
0.78225017 0.085402966 0.19499356 14145491
0.78125006 0.095424056 0.19507118 14342613
0.78557694 0.10494595 0.19511691 14803679
0.78900003 0.11177202 0.19436777 13750990
0.79126316 0.11627495 0.19533972 11579818
0.78788894 -0.17343403 0.20531501 14210773
0.79062498 -0.17858449 0.20471705 9671572
0.78435725 -0.16520266 0.20502932 14999516
0.78259265 -0.15506472 0.20536077 15855082
0.78264302 -0.14507639 0.20497374 15921130
0.78387111 -0.1344732 0.20531532 15789544
0.78526652 -0.12475046 0.2049389 15723751
0.78658348 -0.1148316 0.20528156 15789544
0.78723353 -0.1047914 0.2054498 15592165
0.78719467 -0.094651639 0.20543975 15526372
0.78693348 -0.084487759 0.20537227 15460579
0.78643322 -0.075228892 0.20524059 15328993
0.78661126 -0.065116376 0.20528634 15526372
0.78785199 -0.055280074 0.20509908 15526374
0.78891653 -0.045838807 0.2055821 15723752
0.79000002 -0.04166393 0.20278232 15657960
0.78900003 -0.037609227 0.20868251 15394786
0.79117858 -0.034735341 0.20429453 15000030
0.79216665 -0.024778573 0.20488077 14671576
0.79226661 -0.014581835 0.204909 14277075
0.7918666 -0.0053050565 0.20480563 14211025
0.78900003 0.0094908876 0.20868251 13026238
0.7905336 0.0045723598 0.20507738 13553095
0.78895223 0.015646635 0.20541556 13092546
0.79000002 0.011814672 0.20293643 13027009
0.78753346 0.02514199 0.20460798 13224389
0.78603333 0.035215758 0.20513876 14079697
0.7855832 0.045313142 0.20501931 14474455
0.7863999 0.055484496 0.2052319 14211027
0.78620011 0.064671434 0.20517987 14276562
0.78475004 0.074654549 0.20480108 13816012
0.77900004 0.089003451 0.20542973 14145491
0.7814616 0.084684201 0.20499875 14211284
0.77900004 0.091738932 0.20634156 14145491
0.78095245 0.096019328 0.20463839 14211284
0.7860741 0.10508471 0.20497586 15000801
0.78900003 0.1116071 0.20578001 14211028
0.79089999 0.1164401 0.20464733 11514027
0.79326659 0.12468127 0.20516524 11645612
0.78823996 -0.17460579 0.21541937 13092805
0.79000002 -0.17913631 0.21357051 9408399
0.78547996 -0.1652413 0.21510732 15130846
0.78390348 -0.15466817 0.21485391 15591910
0.78396308 -0.14493515 0.21509914 15789544
0.7851333 -0.13483866 0.21501131 15723751
0.78568 -0.12481713 0.21516049 15657958
0.78599995 -0.11474759 0.21524854 15723751
0.78640002 -0.10468028 0.2153576 15591652
0.7868278 -0.09476544 0.21534806 15394529
0.78657711 -0.084662303 0.21554796 15394529
0.78600001 -0.075187042 0.21524915 15263200
0.78636646 -0.065096118 0.21535024 15592165
0.78785717 -0.054878112 0.21516503 15657958
0.78863877 -0.044975281 0.21504875 15855337
0.78899974 -0.034966018 0.21530651 15657958
0.79000002 -0.031183975 0.21079642 15460579
0.78899986 -0.02599217 0.21723732 15460323
0.79011768 -0.023245545 0.21311232 14868442
0.78900003 -0.018215058 0.2197649 14934235
0.79060018 -0.01454963 0.21465668 14342611
0.78900003 -0.0046699303 0.2197649 14474454
0.79052001 -0.0052960808 0.21463498 14277074
0.78891981 0.0060913288 0.21619636 14211025
0.79009092 0.0021053294 0.2130063 14276816
0.7883333 0.015018518 0.21496446 13684424
0.78800005 0.025158999 0.21487461 12697017
0.78696001 0.035256401 0.21551284 13025983
0.78519988 0.045289047 0.21503021 14276562
0.78547996 0.055419397 0.21510544 14342869
0.78467739 0.065256245 0.21577255 14276818
0.78378814 0.074980937 0.21530864 14013390
0.78226483 0.085191034 0.21541236 14408662
0.78203571 0.095650472 0.21540645 14408409
0.78603572 0.10521257 0.21506011 14737631
0.78899992 0.11255702 0.21459313 13027009
0.79049999 0.11730558 0.21509428 11579562
0.79227996 0.12452573 0.21511623 11514026
0.78776926 -0.17480308 0.22516619 12434876
0.78486687 -0.16511288 0.22504219 15394532
0.78314734 -0.15493536 0.22454949 15789031
0.78303468 -0.14456013 0.22499155 15986922
0.7840001 -0.13477422 0.2246625 15723495
0.78474194 -0.12484558 0.22515568 15460579
0.78494442 -0.11459335 0.22506565 15526115
0.78513324 -0.104512 0.22512029 15525859
0.78556651 -0.095374651 0.22524366 15394529
0.78555536 -0.085259408 0.22524057 15262944
0.78559983 -0.075148389 0.22525324 15262943
0.7863332 -0.065093249 0.22546339 15328994
0.7872858 -0.055232547 0.22540681 15329250
0.78786671 -0.044932529 0.22498186 15790059
0.7880401 -0.034796052 0.22503173 15855339
0.7887665 -0.024671428 0.22523893 15000286
0.7889998 -0.014520936 0.22530609 14605784
0.79000002 -0.013614636 0.22004344 14606040
0.78871989 -0.0052841161 0.22522524 14342868
0.79000002 -0.0062170187 0.22004344 14474454
0.78829998 0.0048679314 0.22510532 14079696
0.78800005 0.015013026 0.22502053 13882317
0.78790009 0.02515522 0.22499172 13815754
0.78666675 0.035448115 0.22504795 12697018
0.78511101 0.04528372 0.22511438 13289668
0.78423345 0.0553299 0.22486277 14079698
0.78287524 0.065084942 0.22504491 13882319
0.78239995 0.075349562 0.22525166 14342099
0.78216666 0.085397437 0.22518444 14342356
0.78195989 0.095444702 0.22512551 14408662
0.7855556 0.10501502 0.22506939 14606299
0.78900003 0.11107936 0.22530611 15198178
0.79185724 0.11607558 0.22497554 11514025
0.78753567 -0.17489351 0.23502688 12631997
0.78322226 -0.1645644 0.23506337 14868186
0.78176653 -0.15530846 0.23513557 15328995
0.78155553 -0.14520188 0.23507121 15723752
0.78275877 -0.13515668 0.23508701 15526373
0.78367883 -0.12508918 0.23459768 15460580
0.78307718 -0.11509721 0.23482388 15263200
0.78426677 -0.10531285 0.23496892 15328737
0.78499991 -0.095306091 0.23519 15328480
0.78499991 -0.085198715 0.23518997 15196895
0.78475988 -0.075068623 0.23511811 15262687
0.78496653 -0.06498047 0.23517938 15262687
0.78551841 -0.054707717 0.23493487 15329251
0.78652787 -0.044855151 0.23472646 14803421
0.78780007 -0.034784786 0.23510642 14935006
0.78802782 -0.024649208 0.23517463 14605528
0.7882334 -0.014507527 0.23523554 13948110
0.78800005 -0.0052789184 0.23516649 14079696
0.78797227 0.0048669144 0.23515804 13882317
0.78776675 0.015008422 0.23509707 13618888
0.78780562 0.025152367 0.23510903 13552839
0.78685725 0.035055775 0.23515452 13486790
0.78596658 0.045333151 0.23548007 12829374
0.78568006 0.055432763 0.23539576 13487558
0.78386682 0.06539499 0.23485236 13619145
0.78158617 0.075395815 0.23492453 13882062
0.77900016 0.085833766 0.23743054 14539992
0.78045464 0.084713005 0.23274745 14539991
0.77900016 0.094380885 0.23718001 15000544
0.78076476 0.095836252 0.23262997 15066592
0.78472412 0.10497448 0.2351037 15066593
0.78883338 0.11105589 0.23541422 15263971
0.79285723 0.11631246 0.2349778 11514024
0.78722721 -0.17398801 0.24507 14012878
0.79000002 -0.17913631 0.24593508 9539471
0.78307164 -0.16493125 0.24502181 14868186
0.78167987 -0.15529208 0.24517468 15329251
0.77900004 -0.14016895 0.24980529 15789544
0.78036684 -0.14498132 0.24476168 15460837
0.78213781 -0.13486013 0.24455899 15592166
0.78300041 -0.12517716 0.24480207 15394787
0.78220683 -0.11523735 0.24458063 15328994
0.78227782 -0.10504663 0.24444444 15394530
0.78310019 -0.095074616 0.24470094 15262944
0.78433341 -0.085124291 0.24508728 15131101
0.78483325 -0.075076073 0.24524599 15065565
0.78436118 -0.064930543 0.24509767 15065565
0.78506655 -0.054881051 0.24531811 15395301
0.78660005 -0.044858966 0.24487638 15263971
0.78748 -0.034770392 0.24514997 15197664
0.78796673 -0.024647262 0.24530192 14868956
0.78780007 -0.014499412 0.24524945 14342868
0.78719991 -0.005274496 0.24506158 14342868
0.78703338 0.0048619034 0.24501081 14277075
0.78800005 0.015013027 0.24531247 14276818
0.78800005 0.025158999 0.24531251 13618889
0.78716004 0.035266768 0.24505076 13487047
0.78700012 0.045393277 0.24500115 13224132
0.78692007 0.055520445 0.2449764 13750217
0.78491169 0.065697819 0.2449998 13552582
0.78173095 0.075140767 0.24497961 13816526
0.77785712 0.085054062 0.24496247 14013650
0.78000003 0.080596395 0.24282199 13290182
0.77673352 0.094806708 0.24453011 14935008
0.77900004 0.10055325 0.24524616 15132131
0.78413624 0.10581081 0.24502534 15000800
0.78853858 0.11243502 0.24547975 12961217
0.79123533 0.11727923 0.24457157 11448232
0.79314297 0.12466054 0.24504711 11513768
0.78712505 -0.17426568 0.25532737 13553357
0.79000002 -0.17913632 0.2533327 9276558
0.78352022 -0.1648289 0.25492358 15000029
0.78211105 -0.15517414 0.25487241 15526629
0.77900004 -0.14077683 0.25223684 15723751
0.78084385 -0.14558503 0.25531209 15855337
0.77900004 -0.13743347 0.2534526 15657958
0.78038466 -0.13451567 0.25495672 15592165
0.78130549 -0.12503652 0.25511512 15394786
0.7790001 -0.11244942 0.25618806 15460322
0.78059995 -0.11597004 0.25397104 15460323
0.77899998 -0.10838529 0.2557973 15394786
0.7808277 -0.10393738 0.25461429 15394786
0.78237039 -0.095188938 0.25495604 15395042
0.78353351 -0.085037209 0.25492701 15131614
0.78471994 -0.075064979 0.25531265 15131614
0.78336698 -0.064849578 0.2548722 15065820
0.78432006 -0.054827854 0.25518179 15395300
0.7857222 -0.044808786 0.25471827 15263970
0.78703582 -0.034948632 0.25481695 15132384
0.78714716 -0.024405655 0.25491139 14868955
0.78660005 -0.014477858 0.25500375 14474453
0.78603327 -0.0052658985 0.25482067 14474454
0.78622222 0.0048569189 0.25488126 14408661
0.78740013 0.015002607 0.25526202 14342867
0.78744447 0.025140809 0.2552768 14079696
0.78673339 0.035247274 0.25504714 13816012
0.785972 0.045333941 0.25480071 13289412
0.78599983 0.055455729 0.25480852 13750220
0.78433341 0.06534905 0.25501868 13289411
0.77900004 0.078669414 0.25709993 13355718
0.78114283 0.07496462 0.25486705 13947855
0.77739996 0.084873676 0.25475284 13881809
0.77672011 0.094805866 0.25453055 14934753
0.77900004 0.10055325 0.25436443 15066593
0.78395653 0.10558844 0.25530261 14935007
0.78861111 0.11348711 0.25442606 12631738
0.79000002 0.11808937 0.25597471 11381927
0.79076022 0.12428685 0.25542918 11382440
0.78682142 -0.17480329 0.26500744 12764355
0.78280032 -0.16467653 0.26476678 14869214
0.78263348 -0.15529647 0.2650156 15526629
0.7821427 -0.14498508 0.26552647 15855338
0.78183985 -0.13518897 0.26535904 15723752
0.78149992 -0.12507005 0.26524255 15328993
0.77900016 -0.11342205 0.26587081 15328993
0.78000009 -0.11762541 0.26432815 15328993
0.77900016 -0.10695927 0.26612219 15197407
0.78053337 -0.10231528 0.26418325 15395043
0.77900004 -0.094577625 0.26986548 15592165
0.78167862 -0.09470617 0.26471186 15395043
0.77900004 -0.085459366 0.26986548 15460579
0.78197241 -0.084869504 0.26448458 15394786
0.78266662 -0.074868105 0.26472059 15263200
0.77900004 -0.061751872 0.26986548 15394786
0.78211117 -0.064745873 0.26453257 14999772
0.77900004 -0.056280911 0.26986548 15000285
0.7820667 -0.054671403 0.26451641 15460580
0.78327787 -0.04466847 0.26492628 15526371
0.78599995 -0.034703337 0.26492655 15131613
0.78700012 -0.025348717 0.26469421 14671320
0.78599995 -0.015057917 0.26512668 14408404
0.78596002 -0.0052650641 0.2649166 14539989
0.78599989 0.004854701 0.26493025 14606039
0.78612 0.014977488 0.26497018 14408916
0.78609997 0.025098685 0.26496351 14211538
0.78600001 0.035215363 0.26493022 14277075
0.78559995 0.045311332 0.26479504 14079440
0.78499991 0.055385251 0.26480478 13750733
0.78314292 0.065203145 0.26501316 13289413
0.77900016 0.077547163 0.26537651 13750733
0.78071433 0.073228106 0.2648454 13618891
0.77808344 0.084949672 0.26499522 13881808
0.77800012 0.094557248 0.26466316 14868961
0.78000003 0.098856337 0.26747292 14934754
0.78447998 0.10494164 0.26515132 14803421
0.78866673 0.11164812 0.26398361 14277077
0.79116666 0.11632563 0.26543829 11908272
0.79331815 -0.18462257 0.27524385 9605261
0.7863462 -0.17456219 0.27481577 13026756
0.77900004 -0.16114096 0.27807191 14473942
0.78139997 -0.16467565 0.27450019 14737628
0.77811772 -0.15490568 0.27641582 15460580
0.78092301 -0.15471885 0.27207729 15460580
0.77791315 -0.14496104 0.27589986 15789545
0.78108341 -0.14511563 0.27150038 15986923
0.77863652 -0.1369538 0.27752745 15723752
0.78104752 -0.13435499 0.27379411 15789544
0.77900004 -0.12152717 0.27675483 15394786
0.78066671 -0.1259847 0.27423197 15460579
0.77823997 -0.11452586 0.27506703 15263200
0.77899998 -0.10497919 0.27526885 15328993
0.78000003 -0.10154651 0.27249441 15394786
0.77784622 -0.094648942 0.27506658 15328993
0.77713799 -0.085380614 0.27542856 15263200
0.78000003 -0.080091082 0.27021191 15460579
0.77848005 -0.075778395 0.27580783 15525859
0.78060007 -0.074121758 0.27151558 15460322
0.7784583 -0.065202214 0.27529514 15328736
0.78039998 -0.066978909 0.27071565 15131614
0.77800012 -0.055297691 0.27498028 15131614
0.78000003 -0.050875176 0.27021191 15592935
0.77855563 -0.046021409 0.27619076 15460579
0.78100002 -0.043755651 0.27212447 15395300
0.77900004 -0.03895621 0.27898374 15394786
0.78251535 -0.034937352 0.27474207 15065821
0.78406674 -0.025443854 0.27436858 14606040
0.78350013 -0.015338038 0.27417105 14342611
0.78370005 -0.0052493312 0.27424106 14474197
0.78499997 0.0048498893 0.27469715 14737369
0.78533328 0.014962066 0.27481511 14408404
0.78527761 0.025072409 0.27479663 14277075
0.78586656 0.035209935 0.27500349 14342868
0.78522217 0.04528974 0.27477795 14277077
0.78475863 0.055367336 0.27477476 14211283
0.78253341 0.065283917 0.27475345 13552840
0.77893353 0.076839022 0.27531257 13684170
0.7805385 0.072639637 0.27461499 13421254
0.77711779 0.085058659 0.27531144 13750479
0.77750009 0.093825527 0.27530095 14803425
0.78000003 0.098856337 0.27477688 14868962
0.78500009 0.10501035 0.27469832 14671838
0.78900003 0.11107936 0.27517679 15198181
0.79238099 0.11615322 0.27520564 12105907
0.78900003 -0.18075661 0.28902978 9671310
0.79266685 -0.1846945 0.28502449 9605261
0.78617853 -0.17485794 0.28470686 12960965
0.77893764 -0.16181198 0.28579992 14341845
0.78099996 -0.16710204 0.28481919 15131876
0.7767002 -0.15430275 0.28452346 15328994
0.77648294 -0.14516865 0.28459969 15657958
0.77748585 -0.1354737 0.28493959 15723751
0.78000003 -0.13121891 0.28116786 15789544
0.77890611 -0.12470944 0.28584456 15592165
0.78000003 -0.12847993 0.28116786 15657958
0.7783125 -0.11487807 0.2848886 15263200
0.77868742 -0.10513579 0.28513646 15263200
0.77700025 -0.094977409 0.28474069 15263201
0.77676934 -0.085074335 0.28524938 15263201
0.7774446 -0.075277217 0.28479612 15328994
0.77776664 -0.065296419 0.28491455 15131357
0.77702802 -0.05522906 0.28464386 15197664
0.77706695 -0.04522616 0.28465796 15263457
0.7785666 -0.035955943 0.2858755 14803419
0.7806251 -0.031955741 0.28184849 14737369
0.77900016 -0.025018288 0.28823227 14342869
0.78104764 -0.025519606 0.28267542 14474454
0.77861911 -0.014851259 0.28743953 14408662
0.78104752 -0.015680753 0.28206611 14342868
0.77880007 -0.0052168178 0.28802755 14211027
0.78114992 -0.0052327951 0.28249538 14342869
0.7790001 0.0040516099 0.28886184 14540250
0.78156674 0.005133016 0.28362051 14671834
0.7826668 0.014912507 0.28487414 14408663
0.78377801 0.025025295 0.28527945 14211284
0.78436673 0.035142265 0.285494 14342869
0.78461111 0.045255668 0.28558338 14277076
0.7845 0.055349965 0.28554234 14342870
0.78283346 0.065308318 0.28493679 14013905
0.77826923 0.075510241 0.28537869 13749964
0.78025001 0.071489327 0.28399697 13552841
0.77609396 0.084505938 0.28486893 13487051
0.77635723 0.094957449 0.28472036 14737632
0.77900004 0.10055325 0.28810203 14605789
0.78457153 0.10521611 0.28451881 14540253
0.78900003 0.11169505 0.2862592 15000547
0.79190004 0.11658907 0.28462127 11710895
0.7881667 -0.18195061 0.29564258 9342605
0.79177779 -0.1870593 0.29457423 9408396
0.78344446 -0.17507209 0.29537806 13553102
0.77870011 -0.16354063 0.29582903 14933724
0.78058338 -0.16816974 0.29340747 15592937
0.77603233 -0.15434645 0.29526559 15789544
0.77483338 -0.14486118 0.29472083 15723751
0.7749722 -0.13490765 0.29477334 15657958
0.7765162 -0.12500125 0.29521349 15657958
0.77760011 -0.11534174 0.29516703 15526372
0.77672434 -0.10508661 0.29528391 15131614
0.77594471 -0.095115609 0.29514477 15131615
0.77616686 -0.085148536 0.29522815 15263201
0.77569437 -0.075109944 0.2950477 15328994
0.7759335 -0.065140702 0.29513896 14934236
0.77666694 -0.055450171 0.29500619 15197407
0.77700019 -0.045222588 0.29463819 15197664
0.77720016 -0.035227392 0.29471388 14671834
0.77686673 -0.025210053 0.29549423 14277076
0.7765004 -0.01520011 0.29535562 14277077
0.77650034 -0.0052015656 0.29535562 14343127
0.7775808 0.0044227364 0.29532543 14474456
0.78000003 0.009382627 0.29212382 14671835
0.77866673 0.014350145 0.29697102 14277077
0.78066659 0.015362271 0.29249462 14342870
0.77900004 0.021224342 0.29904392 14211541
0.78155893 0.025169512 0.29517949 14211284
0.77900004 0.038549047 0.29904392 14014162
0.78175867 0.034898598 0.29536632 14145491
0.77900004 0.046248917 0.29823339 14013909
0.78181481 0.044654291 0.29429168 14079701
0.77870005 0.054941226 0.29801694 14079702
0.78149998 0.05513832 0.29359749 14079957
0.77900016 0.065342717 0.29792166 13750991
0.78095651 0.064955033 0.29327533 13948114
0.77800006 0.074923553 0.29501715 14145236
0.77580571 0.084701054 0.29509315 13750221
0.77555162 0.094538391 0.29483998 14605789
0.77900004 0.10055325 0.29448479 14803168
0.78476197 0.10567839 0.29512858 13158087
0.78900003 0.11138722 0.29487881 12697791
0.79140007 0.11614446 0.29537359 11184549
0.78794122 -0.18409622 0.30497125 9276554
0.79020005 -0.18843102 0.30519232 9342603
0.77870005 -0.17201698 0.30494401 14736604
0.78241175 -0.17709647 0.30498487 10592161
0.7772668 -0.16533381 0.30474526 15065566
0.7748065 -0.15498118 0.30451292 15592679
0.77360004 -0.14463106 0.30512112 15724523
0.77363652 -0.13492197 0.30472374 15592937
0.77503997 -0.12493985 0.30478138 15592680
0.77614307 -0.11499571 0.30443528 15658216
0.77561539 -0.10520163 0.30479658 15328995
0.77483314 -0.09497913 0.30469906 15132129
0.7749598 -0.08501634 0.30474973 15197665
0.77406675 -0.074951902 0.30439824 15328993
0.77432001 -0.06500525 0.3044979 15394787
0.77622604 -0.055140212 0.30448616 15000544
0.77745473 -0.045496762 0.30341604 15001057
0.78125006 -0.04272452 0.30905226 14869471
0.77795857 -0.035262514 0.30319902 14737885
0.78200006 -0.034529544 0.30934897 14540506
0.77666676 -0.024900969 0.30421028 14408920
0.78100002 -0.028086212 0.30895334 14211539
0.77637047 -0.015298431 0.30490279 14211799
0.77670002 -0.0052022827 0.30452719 14211800
0.77747381 0.0047554639 0.30286586 14408920
0.78133339 0.0057422561 0.3084763 14606301
0.7786364 0.014504545 0.30188739 14211541
0.78171438 0.015154461 0.3075389 14277078
0.77900004 0.022946684 0.3024886 14277334
0.78100002 0.025761718 0.30617025 14277077
0.77900004 0.038549047 0.30086759 14145495
0.78114283 0.034562431 0.30500683 14080212
0.77876937 0.045688894 0.30204079 14146263
0.78149998 0.044554237 0.30693173 13817299
0.77850008 0.054666806 0.30236736 14212055
0.78190005 0.055899035 0.30802959 13225675
0.77894461 0.065291643 0.30277115 13685197
0.78141671 0.064735092 0.30805227 12633025
0.77783346 0.075059384 0.3039076 13355975
0.78100002 0.071558051 0.30895334 10526882
0.77573323 0.084693268 0.30505541 14342357
0.77650011 0.094367579 0.30469495 14737374
0.78100002 0.098983079 0.30804038 14868962
0.78588003 0.10534894 0.30492255 11711152
0.78900003 0.11107937 0.30195922 10856096
0.79188013 0.11571476 0.30561936 10987681
0.78806257 -0.18342614 0.31486028 9605518
0.79042858 -0.18769293 0.31585625 10066324
0.7842778 -0.17549528 0.31474081 9868178
0.77814287 -0.16343661 0.31224766 12105653
0.78223079 -0.16554204 0.31662643 10526623
0.77653337 -0.15438955 0.31240001 15658730
0.78133339 -0.15583156 0.31792644 14211287
0.77689999 -0.14524776 0.31369811 15856366
0.78100008 -0.14509965 0.318095 13421517
0.77678579 -0.13496457 0.31300336 15790317
0.78150004 -0.13451965 0.31799436 13816275
0.77725005 -0.12598003 0.31179261 15724523
0.78213334 -0.12461998 0.3170943 14540253
0.77761549 -0.11443459 0.31251711 15658476
0.78175002 -0.11573134 0.3177149 13948116
0.77665216 -0.10472721 0.31419414 14211028
0.78050005 -0.10663689 0.31971854 9539983
0.77623075 -0.095289111 0.31377983 13619403
0.78050005 -0.093845569 0.31971854 9934486
0.77650005 -0.085412465 0.31285673 14342612
0.78120005 -0.083869562 0.31817651 9670796
0.7768333 -0.075219676 0.3127639 14539991
0.78240001 -0.074841276 0.31866527 9539468
0.77655554 -0.065595835 0.31163999 15592939
0.78233337 -0.064762317 0.31711391 10461086
0.778 -0.058939464 0.31140924 15132133
0.78418756 -0.054244883 0.31538284 13422544
0.78643477 -0.045049559 0.31559137 13620436
0.79000002 -0.040430997 0.31991127 9804701
0.78713328 -0.03475605 0.31506813 14211800
0.79000002 -0.034882784 0.31991127 9475735
0.78614289 -0.024809744 0.3156386 12698302
0.79000002 -0.029334571 0.31991127 9014413
0.78468436 -0.014731299 0.31525156 12368824
0.78530008 -0.0052588405 0.31525725 11185581
0.787 0.0048619504 0.31593731 10198943
0.78744441 0.015105058 0.31580707 10856101
0.79000002 0.014126427 0.31991127 9014664
0.78718179 0.024797469 0.31575814 10197141
0.79000002 0.02892166 0.31991127 9145480
0.78727782 0.035579026 0.31451237 10986658
0.79000002 0.032620467 0.31991127 9474445
0.78721052 0.044774868 0.31461442 10856100
0.79000002 0.045103949 0.31991127 9080457
0.78740907 0.055051479 0.31626841 9870492
0.78676194 0.064979658 0.3157106 10001821
0.78513044 0.074889839 0.31530803 10132377
0.77775002 0.086734399 0.31130916 13487049
0.78271431 0.084800899 0.31578574 11184551
0.778 0.092229441 0.31140924 12698050
0.78370589 0.095659837 0.31563863 11842742
0.78788894 0.10436731 0.31454912 10790305
0.79016668 0.10846912 0.31658778 10790304
0.79220843 0.1150891 0.31508824 10856096
0.78900003 -0.18075661 0.32135338 10000530
0.78823084 -0.17461981 0.3226026 10132373
0.79092312 -0.17564283 0.32826218 10395801
0.78779995 -0.16462131 0.32492441 10263959
0.79000002 -0.1680399 0.32854179 10592923
0.78657138 -0.15468404 0.32484159 10132118
0.78680956 -0.14499414 0.32520288 10263703
0.78680944 -0.13525708 0.3246755 10066582
0.79000002 -0.13197652 0.32915828 10461335
0.78766668 -0.12513289 0.32450053 9934997
0.79000002 -0.1255036 0.32915828 10263956
0.78694999 -0.11498006 0.32503563 10000788
0.79000002 -0.11903067 0.32915828 10198166
0.7848236 -0.10511886 0.32484469 10198165
0.78517652 -0.094785489 0.32520723 10198421
0.78600007 -0.085104711 0.32461682 10132372
0.78729409 -0.075635687 0.32478166 10066578
0.79049999 -0.072840475 0.32936662 10066834
0.78771436 -0.065340169 0.32333389 9934994
0.79100001 -0.06478633 0.32795554 10066834
0.78871435 -0.055926949 0.32176474 9539985
0.79238468 -0.054963622 0.32672983 10132371
0.79291672 -0.045219187 0.32573763 9803411
0.7927916 -0.024799699 0.32568613 9277322
0.78900003 -0.014520933 0.32135338 9145479
0.79293346 -0.014593323 0.32667124 9408650
0.78900003 -0.0071326806 0.32135338 9408650
0.79282355 -0.0049844538 0.32618988 9474443
0.79309529 0.044726543 0.32558867 9474700
0.79162502 0.054925438 0.32520533 9474700
0.79160011 0.065117002 0.32519537 9474443
0.78883338 0.075044803 0.32128549 9474445
0.79194117 0.075067058 0.32615316 9803151
0.7881667 0.085283808 0.32270655 10198167
0.79160005 0.084944144 0.32797247 10329752
0.78812504 0.095274277 0.32284343 10592670
0.79100001 0.094695933 0.32864997 10724510
0.78900003 0.10184405 0.32135338 10790305
0.79152006 -0.16465822 0.33535329 10461337
0.78900003 -0.15674481 0.3305887 10527128
0.79120833 -0.15525407 0.33537623 10526873
0.79129165 -0.14515845 0.33432993 10461336
0.79184997 -0.13506523 0.33456591 10395799
0.79208696 -0.12510993 0.33478627 10329750
0.78900003 -0.11056822 0.3305887 10329752
0.79155004 -0.11509421 0.33443937 10329752
0.78900003 -0.10502703 0.3305887 10395545
0.79200006 -0.10542638 0.33555537 10395545
0.78900003 -0.094868183 0.3305887 10132627
0.79127783 -0.095142521 0.33524996 10263959
0.78900003 -0.087479934 0.3305887 10198420
0.79147375 -0.084779628 0.33494341 10263958
0.79254168 -0.074882939 0.33485746 10264214
