# .PCD v0.7 - Point Cloud Data file format
VERSION 0.7
FIELDS x y z rgb
SIZE 4 4 4 4
TYPE F F F U
COUNT 1 1 1 1
WIDTH 769
HEIGHT 1
VIEWPOINT 0 0 0 1 0 0 0
POINTS 769
DATA ascii
0.46600002 0.039423864 -0.050203104 12369337
0.46582359 0.045114964 -0.050697327 12566459
0.46484625 0.055648103 -0.051417947 13882320
0.46454287 0.06537009 -0.052719511 15790833
0.46532351 0.075059719 -0.052470479 15527662
0.46650001 0.029090771 -0.040428206 12435651
0.46623248 0.036547806 -0.043223776 13619150
0.46453172 0.044732191 -0.044765554 14013906
0.45884621 0.0564177 -0.041335005 14606046
0.46289715 0.054792933 -0.045938887 14540252
0.45745641 0.065376833 -0.04272129 15987956
0.462125 0.064599261 -0.047842477 15593455
0.45748484 0.074147053 -0.04260385 16449021
0.46220511 0.075031742 -0.047551695 15988213
0.45900002 0.081812754 -0.040852759 12434620
0.46133336 0.080786578 -0.044664819 12434876
0.51850003 -0.061735585 -0.030368857 15133413
0.51900005 -0.055374213 -0.030398143 15593964
0.52000004 -0.052176729 -0.031065378 15857139
0.51900005 -0.04660894 -0.030398143 16316917
0.52015793 -0.044116426 -0.031940304 15197666
0.5175001 -0.032059994 -0.031278066 15263974
0.52054542 -0.037276182 -0.031929664 15658733
0.51692861 -0.025500989 -0.03235063 14145494
0.52066672 -0.020552477 -0.031715434 14606046
0.47000003 0.0086794011 -0.031654224 13159371
0.4682667 0.01677439 -0.032397185 13356493
0.47000006 0.011277279 -0.032540563 12895941
0.45900002 0.028623652 -0.030107487 14145497
0.46467167 0.02548931 -0.034333281 13948373
0.45849994 0.035702243 -0.031551193 14408669
0.4632242 0.034623552 -0.036112305 14606048
0.45691937 0.045674726 -0.034223273 14540254
0.46094739 0.04347847 -0.038470306 14408667
0.44900003 0.059007999 -0.03050267 14605789
0.45455167 0.054886658 -0.035196904 14935011
0.44826478 0.065945022 -0.031874124 15395304
0.45258927 0.064357623 -0.0365615 15922419
0.44752949 0.074436553 -0.031885255 15922420
0.45336965 0.075298466 -0.036942188 16317178
0.44785717 0.081174061 -0.031625636 15988214
0.45557144 0.081275217 -0.036594629 15198440
0.51461703 -0.075346783 -0.024735918 16119281
0.51701754 -0.065335438 -0.025443556 16119282
0.51889819 -0.054866843 -0.02602927 15856623
0.51715904 -0.045377731 -0.026195241 15987952
0.50660002 -0.035770766 -0.021965001 15132389
0.51474279 -0.034949537 -0.026647041 15527401
0.51659375 -0.02601476 -0.026785107 15066851
0.52100003 -0.020565635 -0.028685778 15395562
0.4682222 -0.014141202 -0.022229163 14013909
0.45900002 -0.0020003757 -0.020436741 13816787
0.46506664 -0.0056182491 -0.022967577 14474717
0.45673335 0.0065532825 -0.021049518 13356750
0.46529636 0.0047264975 -0.025344975 13685715
0.45453662 0.015251424 -0.022894498 13488080
0.46440628 0.014887724 -0.02802203 13488080
0.44900006 0.026423367 -0.021042615 14014425
0.45440629 0.025276488 -0.024963617 14211290
0.46162504 0.022435434 -0.028794294 13422545
0.44877779 0.03638953 -0.021616021 14935012
0.45340329 0.03496683 -0.026222354 14803424
0.44795915 0.045386761 -0.023287464 14935010
0.45210266 0.044514146 -0.028030338 15198181
0.43900001 0.059749201 -0.020573959 14211031
0.44626316 0.055465948 -0.024541231 14803422
0.45058337 0.052710194 -0.028852908 14935007
0.43839136 0.066178858 -0.021394102 15198181
0.44348541 0.064598277 -0.026121207 15000544
0.43780962 0.0749107 -0.022253921 16119285
0.44193339 0.074838683 -0.026992543 16185335
0.43831578 0.08298666 -0.021623319 16185594
0.44227269 0.083315872 -0.025910277 15922421
0.44866669 -0.12939568 -0.010873999 15658221
0.45550001 -0.12339544 -0.012020918 15329766
0.45537508 -0.11515713 -0.012082219 15395561
0.45628589 -0.1059417 -0.012347902 15395818
0.46000001 -0.10323035 -0.014020057 16250871
0.45528576 -0.0945457 -0.011902227 15396074
0.46100003 -0.090504251 -0.014050536 15329769
0.45668417 -0.08459077 -0.011502082 15396075
0.46106663 -0.0853348 -0.013621821 15790576
0.45707998 -0.074153617 -0.011922092 15330026
0.46100003 -0.077556551 -0.014050536 15527405
0.51250005 -0.077219851 -0.019219488 15329765
0.45548013 -0.064702824 -0.013161733 15724526
0.4575294 -0.055586614 -0.013066368 15987955
0.46083334 -0.052801624 -0.016114524 15922673
0.45707139 -0.044744201 -0.012712189 15856367
0.4605 -0.049440619 -0.01565294 15922416
0.45743483 -0.036492325 -0.012688921 15658988
0.46184209 -0.03284939 -0.015102801 15790576
0.45731819 -0.024623029 -0.01140981 14408924
0.46351177 -0.02444857 -0.015471157 14474716
0.44866669 -0.011583949 -0.010873999 14474972
0.45484853 -0.014472111 -0.012900677 14408922
0.46387506 -0.015735012 -0.017320719 14145495
0.44717661 -0.0046613989 -0.012124771 14605788
0.45456421 -0.0052548074 -0.016673924 14079958
0.46166667 -0.0083190901 -0.019114967 13948116
0.44557577 0.0052314685 -0.013448587 13685202
0.45295843 0.0038079761 -0.01818178 13751507
0.44497848 0.015262784 -0.014835011 14014167
0.45000002 0.010680345 -0.018982563 15000804
0.43900001 0.029431848 -0.010296891 14738404
0.44413045 0.024880258 -0.015285647 14343390
0.43888241 0.036041126 -0.010898666 14672611
0.44382951 0.034695197 -0.015999511 14869734
0.43704659 0.04534423 -0.011849279 14408666
0.44280714 0.044735145 -0.017067159 14869218
0.42900002 0.059392467 -0.010062338 14540253
0.43495342 0.055485852 -0.01414719 14342871
0.44172224 0.05236027 -0.018635329 14408663
0.42816663 0.065234862 -0.010934588 15263977
0.43330374 0.064721607 -0.015811719 15066340
0.4280476 0.074959598 -0.011377276 16119799
0.43245715 0.074982606 -0.01618325 15922164
0.42850003 0.081560187 -0.010385375 16251643
0.43311262 0.084828809 -0.014846859 16054009
0.43333337 -0.14018883 -0.0050948928 14012369
0.41850001 -0.13751397 -1.8895891e-05 14408669
0.42463642 -0.13489819 -0.0012589191 14934755
0.43491989 -0.13475841 -0.005548419 15856113
0.44066671 -0.13316107 -0.0087321252 15987443
0.42546156 -0.12539181 -0.0010968888 14737118
0.43382052 -0.12524872 -0.0047650114 15395305
0.44235712 -0.12537423 -0.0077140634 16119027
0.45266667 -0.12489807 -0.0095577454 15526121
0.41733336 -0.11368746 -1.8843211e-05 15263976
0.42366669 -0.11634636 -0.0013480471 15263719
0.43191668 -0.11849567 -0.0044063744 14737376
0.44775003 -0.11227709 -0.0060495087 15198953
0.45268425 -0.11347234 -0.0084450254 15329768
0.41775003 -0.10792724 -1.8862027e-05 15198183
0.42347825 -0.10398918 -0.00097018474 14869731
0.43558335 -0.10267993 -0.0035085643 15132904
0.44550008 -0.10452963 -0.0067020822 15527660
0.45190915 -0.10593024 -0.0092544435 15000802
0.42723811 -0.095112167 -0.00054490479 15001061
0.43500012 -0.094927765 -0.0034496223 15001317
0.44473526 -0.094718009 -0.0076211602 15724780
0.45050001 -0.094775334 -0.0095119979 15000802
0.42809093 -0.085861191 -0.00011062864 15000804
0.43461549 -0.08495304 -0.0025835182 15066853
0.44443753 -0.085258923 -0.0063330606 15592939
0.45231256 -0.084361456 -0.0090885023 15526890
0.43367511 -0.074986078 -0.0018057193 15329769
0.4465 -0.075580403 -0.0063489848 15527147
0.45284215 -0.074563824 -0.0087265698 15724781
0.43533331 -0.065415137 -0.0017249761 15263976
0.44471794 -0.064344928 -0.0060085841 15461610
0.45230007 -0.065078706 -0.0094444249 15658732
0.43647063 -0.055484369 -0.0012864732 15198696
0.44428951 -0.05456445 -0.0050087692 15461354
0.45247057 -0.053314846 -0.008683987 15790574
0.43716672 -0.046190135 -0.00053268182 15330539
0.44483989 -0.044552308 -0.0039465809 15658733
0.45234501 -0.045023259 -0.0085313972 15922159
0.43812504 -0.034156777 -0.00046925739 14803681
0.44452631 -0.035183158 -0.0044867732 15066854
0.45174998 -0.035229847 -0.0088529428 15264230
0.43620521 -0.024396535 -0.0015698696 14408924
0.44400007 -0.025355976 -0.0057078656 14606045
0.45243758 -0.025736032 -0.0090912888 14803423
0.43456849 -0.014640881 -0.0023646783 14146009
0.44432569 -0.014977148 -0.0073573012 14606046
0.4506667 -0.018845139 -0.0095155174 14737632
0.43400013 -0.0049847127 -0.0029550493 14212059
0.44232136 -0.0056290054 -0.0081587713 14080473
0.42900002 0.0026497031 -1.936998e-05 14145497
0.43451843 0.0049768887 -0.0040547261 14146009
0.44040003 0.0039210571 -0.008955393 13619410
0.43486455 0.015029683 -0.0044289171 14409182
0.44000003 0.011988075 -0.0092902975 14014167
0.42862499 0.026602587 -0.00014489015 14343131
0.4348152 0.024913402 -0.0050064065 14343132
0.42687103 0.035561722 -0.0010209274 14146267
0.43376055 0.034905616 -0.0060381754 14606819
0.42527795 0.045485701 -0.0023876622 13882579
0.43184441 0.044482619 -0.0072351391 14079959
0.41752383 0.056404069 -0.00071792438 14672096
0.42415273 0.055050515 -0.0048164832 14211545
0.43028569 0.052806091 -0.0084380629 13948116
0.41743582 0.065233581 -0.0014499305 15790321
0.42308706 0.06507571 -0.0066175177 15264234
0.4174211 0.074683756 -0.0014102746 15988214
0.42289859 0.075018346 -0.006714609 15922421
0.41785711 0.083611935 -0.00076487113 15856885
0.42287999 0.084122591 -0.0050791572 16054008
0.42340001 0.091421403 -0.0024090623 15460588
0.39899999 -0.13424285 0.0093226479 15066083
0.40423536 -0.1338201 0.0071823061 14934499
0.41476089 -0.13518301 0.0029088175 14868963
0.42040005 -0.13272455 0.00096518232 15329770
0.39899999 -0.12476875 0.0093226479 15592941
0.40445462 -0.12490745 0.0073318412 15132391
0.41477498 -0.12466105 0.00320304 14934755
0.42057148 -0.12687403 0.00096557586 14868961
0.39900002 -0.11709606 0.009322647 15329769
0.40518534 -0.11440939 0.0066979099 15198440
0.41199997 -0.11560973 0.0025603687 15132390
0.4048889 -0.10551449 0.0074680746 15198695
0.41453844 -0.10447889 0.0032577177 15198438
0.42066669 -0.10129615 0.00096579455 15133160
0.40625647 -0.095458411 0.0082444288 15264231
0.41427508 -0.095247239 0.0048716227 15067110
0.42260009 -0.094699547 0.0018581033 14803682
0.40684623 -0.085548475 0.0088078966 15396331
0.41460416 -0.084869862 0.005654397 15133160
0.42286217 -0.084996156 0.0019572107 14935267
0.40791669 -0.074628964 0.0088936416 15395819
0.41373163 -0.075526938 0.0059742685 15329769
0.42496303 -0.074289128 0.0019653884 15198441
0.43000001 -0.071331993 0.00098722253 14671839
0.40858331 -0.067220688 0.0091476114 15461355
0.41404086 -0.064744145 0.0070547159 15395562
0.42371875 -0.064275719 0.0031683838 15395819
0.43000001 -0.064788841 0.00098722253 15527148
0.41571799 -0.055532418 0.0083859041 15527148
0.42366013 -0.055006575 0.004494261 15593198
0.43058833 -0.054174341 0.0014030711 15593711
0.41703713 -0.045534365 0.0088012582 15198440
0.42363828 -0.045212377 0.0053321398 15330539
0.43220001 -0.04457473 0.0016475245 15264746
0.41715789 -0.035634529 0.0093351323 15330539
0.42355096 -0.034991544 0.0062652198 15264489
0.4329412 -0.034740794 0.0022414625 15001574
0.4178462 -0.024019457 0.0095369881 14606300
0.42356682 -0.025048796 0.0059673293 14606558
0.43115798 -0.025947537 0.0016791259 14343387
0.41737041 -0.015171682 0.0088089593 14738146
0.42402887 -0.015111363 0.004154379 14606304
0.43000001 -0.019490151 0.00098722253 14145495
0.41794127 -0.0045246235 0.0092464648 14935783
0.42433754 -0.005325607 0.0044364138 14804196
0.41830775 0.0043541919 0.0096228654 14343390
0.42378908 0.0048110378 0.0049150279 14474719
0.41821435 0.016149368 0.0094913347 13817300
0.42403504 0.014852774 0.0049174628 14145753
0.42999998 0.012218937 0.00098722253 14541025
0.41724238 0.025766535 0.0085035292 13882581
0.423657 0.024701903 0.0038096062 14014167
0.41544458 0.035281945 0.007336868 14080216
0.42247504 0.034797378 0.002448943 14013910
0.40849996 0.048083227 0.0087242546 14211803
0.4143286 0.044693749 0.005731768 14014168
0.42089474 0.04364403 0.0016396688 14013911
0.40762505 0.055215787 0.008066359 14935782
0.41328126 0.054822434 0.0034045659 14606817
0.40764156 0.064844534 0.0076668472 15922420
0.41250002 0.064923905 0.0028548399 15790321
0.40817657 0.074693576 0.0083552524 15922678
0.41254422 0.075151719 0.0036663059 15987957
0.40856248 0.083524078 0.0090674814 15922679
0.41356105 0.085261129 0.0045741466 15791093
0.41361114 0.09098655 0.0060456018 15988473
0.39587507 -0.14422186 0.018131161 13815760
0.40000001 -0.14735457 0.017305471 14210514
0.38785714 -0.1338025 0.018755944 15526379
0.39384335 -0.13492133 0.013930994 15197157
0.38684624 -0.12496937 0.018159412 15987184
0.39403901 -0.12507102 0.012934306 15592939
0.38694343 -0.11474316 0.018111546 15724780
0.3932566 -0.11487127 0.012835702 15658733
0.38714004 -0.1050568 0.018412653 15856366
0.39409518 -0.10510703 0.013457884 15527148
0.40016666 -0.10244871 0.010286703 15000804
0.38800004 -0.09478958 0.019055517 15724523
0.39399999 -0.095205359 0.014801982 15724524
0.40142316 -0.094417825 0.01100393 15724270
0.38860869 -0.085903585 0.019284043 15790573
0.39382604 -0.084888689 0.015750978 15856110
0.40228939 -0.084626369 0.011576347 15658988
0.39457971 -0.075195409 0.017014682 15790574
0.40311122 -0.074888602 0.012207936 15330025
0.39604989 -0.065248922 0.017422386 16053491
0.40380651 -0.064647891 0.012581127 15658990
0.3962 -0.055108298 0.017951034 15659247
0.40378943 -0.055074189 0.013684488 15658734
0.41153848 -0.0537409 0.010800883 15461355
0.39690003 -0.04561235 0.018656064 15724784
0.40410149 -0.044779535 0.014858648 15330282
0.41210008 -0.045159359 0.011123119 15132645
0.39818183 -0.035289135 0.019557187 15330025
0.40401417 -0.035182074 0.016141117 15396076
0.41253132 -0.034840528 0.011869065 15198954
0.39900002 -0.029293843 0.019597374 14935781
0.40411285 -0.025102975 0.017411275 14803938
0.41389596 -0.02528212 0.012610323 14803679
0.40498638 -0.01491973 0.017190885 14672354
0.41285366 -0.014765711 0.012234475 14803682
0.40620017 -0.0051436736 0.017295737 14738404
0.41314292 -0.0047398405 0.012567807 14738404
0.40642324 0.005143004 0.017961616 13948888
0.41389412 0.0049785213 0.013053232 14343645
0.40529317 0.015292884 0.017737921 13554129
0.41365388 0.01501296 0.01276639 13751508
0.3985 0.027647749 0.019572817 13817300
0.40471444 0.024897229 0.016671354 13817301
0.41277778 0.024155932 0.01197609 13816530
0.39732006 0.036028497 0.018843926 14211547
0.40423381 0.034922242 0.014911297 13948374
0.41122219 0.033768818 0.010998262 13948887
0.39692855 0.044950586 0.018054906 14869477
0.40408003 0.04503648 0.01323732 14277596
0.41000003 0.040445138 0.01053948 13488337
0.39718747 0.054601371 0.017897239 15396335
0.40257967 0.055132248 0.012881512 15264748
0.39810348 0.064757042 0.01865213 15922421
0.40229055 0.06500189 0.013759268 15856627
0.39861912 0.074562006 0.019133875 16054264
0.40271893 0.075089656 0.014198639 15922678
0.39900002 0.080925971 0.019597374 15133162
0.40383205 0.085101344 0.014992271 15922678
0.40546426 0.091859698 0.015655642 15592946
0.41000003 0.092275277 0.01053948 16251643
0.39450002 -0.15040787 0.022608127 13026759
0.38642505 -0.14316812 0.026254158 14408153
0.39280558 -0.1465452 0.022379501 14539740
0.37829423 -0.13240457 0.028581074 15657965
0.38285229 -0.13507958 0.024323182 15789551
0.37791234 -0.12514803 0.028275777 16052979
0.38202646 -0.12501141 0.023205347 15987186
0.37780321 -0.11514981 0.027893905 16184564
0.38194194 -0.11489376 0.022900751 16118769
0.37783933 -0.1052134 0.028332632 16053234
0.3819876 -0.10491966 0.023303848 16119024
0.37800002 -0.095004268 0.028740665 15921648
0.38278481 -0.095011391 0.023666695 15921902
0.37802708 -0.085622646 0.028850475 16053745
0.38376018 -0.08468771 0.023946695 15856366
0.37876922 -0.076201156 0.029039433 15922159
0.38432097 -0.075107217 0.024569547 15856366
0.39054549 -0.072847061 0.020345392 15724780
0.38473296 -0.065335207 0.026068015 15790831
0.39154291 -0.064349689 0.021219304 15856623
0.38553578 -0.055151958 0.026585063 15856626
0.39165956 -0.054651018 0.021672299 15725297
0.38657904 -0.045182344 0.027159506 15724783
0.39250886 -0.044750154 0.02212663 15790576
0.38674608 -0.035356276 0.027698241 15132904
0.39360869 -0.034754615 0.022754814 15395819
0.3870852 -0.025478326 0.028378123 14935783
0.39410964 -0.024837503 0.023574581 14803939
0.40000001 -0.021876002 0.020582898 14804195
0.38713646 -0.015282378 0.028526813 14475232
0.39421612 -0.01482401 0.023890285 14672610
0.40000007 -0.014852947 0.020582898 14606818
0.38759086 -0.0053166803 0.028560847 14146780
0.39427936 -0.0053427988 0.024254655 14278109
0.40033337 -0.0042425659 0.020912183 14409437
0.3875227 0.0046616737 0.028556334 13817303
0.393942 0.0047377814 0.024228964 13751509
0.40076923 0.0041003632 0.020838572 13883094
0.38706121 0.014917649 0.028326662 13685717
0.39410004 0.014796644 0.023589091 13685459
0.40010005 0.014646485 0.020588044 13553873
0.38700005 0.024859715 0.028079089 14343646
0.39363635 0.025006568 0.023008848 13948888
0.38698319 0.035164874 0.027923044 14606818
0.39297286 0.034934498 0.02286116 14474719
0.38763067 0.044968549 0.02764789 15395820
0.39222717 0.045119397 0.022473132 14804198
0.38838002 0.054515071 0.028202314 15790064
0.3922857 0.055276442 0.023160135 15658993
0.38877776 0.062420163 0.028954497 16185336
0.39329112 0.065308891 0.024281979 16119543
0.39423487 0.074972063 0.024910264 16053749
0.39583167 0.084731698 0.025205739 16053750
0.40000001 0.087964565 0.020770179 15987703
0.39703998 0.093001373 0.026652308 15659510
0.40021059 0.093080126 0.021776563 15790068
0.38453847 -0.15111025 0.037026003 13420999
0.3784 -0.14178963 0.038072526 14539482
0.38309091 -0.14599408 0.03512606 15197412
0.37471026 -0.13427605 0.035021905 15987186
0.37289134 -0.12492231 0.035299007 16250358
0.3730219 -0.11493726 0.035393756 16316150
0.37347117 -0.10500734 0.035366148 16053233
0.37354371 -0.094980128 0.03539779 15987695
0.37365469 -0.084912367 0.035265122 15856111
0.37456277 -0.075086497 0.035067111 15921905
0.37529221 -0.065215096 0.035217226 15987697
0.38010007 -0.062964514 0.030414667 16053490
0.37611318 -0.05522221 0.035814337 15790575
0.38060006 -0.054404173 0.031059923 15856113
0.37627861 -0.044899423 0.036971048 15658734
0.38147274 -0.044689175 0.031967118 15724781
0.37650728 -0.035022587 0.037118692 15000804
0.38178155 -0.034731798 0.032154065 15198694
0.37651816 -0.024939734 0.037027366 14935524
0.38212737 -0.024923507 0.032181878 14804196
0.37672728 -0.014870546 0.037016239 14606561
0.38221818 -0.015088128 0.032189798 14474975
0.37676004 -0.0052762236 0.03709076 14343389
0.38238597 -0.0051046573 0.032297373 14212060
0.37704182 0.0049771424 0.037490733 14014681
0.38249278 0.0048327353 0.03271741 14014425
0.37721232 0.01513538 0.03750845 14277597
0.3819699 0.015310195 0.032587852 13948888
0.37763491 0.024707582 0.037656754 14607331
0.38179711 0.025305014 0.032736823 14541026
0.37801793 0.034747437 0.038112938 14935782
0.38180783 0.035040677 0.033094008 14804198
0.37865394 0.043524683 0.038917266 15263977
0.3824231 0.045215115 0.034250032 15395820
0.38383311 0.054977361 0.034977276 15856884
0.38585359 0.065034069 0.035000321 16251386
0.38768372 0.074437246 0.03595417 16316922
0.3904483 0.076593161 0.031248283 16250872
0.38861233 0.083805397 0.037949275 16185078
0.39125681 0.085532166 0.033223569 16185336
0.38900003 0.09028095 0.039140645 16120827
0.39235792 0.094397232 0.035246477 15528180
0.38078263 -0.15149571 0.046955742 13289156
0.37741566 -0.14448537 0.04558083 15328483
0.38027278 -0.14822084 0.041984096 14999517
0.36838463 -0.13182738 0.047346577 15855343
0.37193918 -0.13589931 0.04428244 15526635
0.36787507 -0.12521845 0.046566691 16184308
0.3701621 -0.12438181 0.041765027 16250358
0.36783674 -0.11483029 0.046593502 16184564
0.37041029 -0.11552066 0.041827228 16053236
0.36773339 -0.10517716 0.046482503 16053234
0.37041664 -0.10446726 0.041750289 16250868
0.3674401 -0.094689891 0.04653129 15855856
0.37044442 -0.095852613 0.041801531 15790573
0.36738691 -0.085155785 0.046266548 15790318
0.37020001 -0.084723637 0.041408528 15790573
0.36749524 -0.075084478 0.046665367 15856111
0.37057504 -0.074898705 0.041796885 15987953
0.36779416 -0.065013871 0.046676796 15921905
0.37079999 -0.064461872 0.04164793 15921906
0.36803037 -0.055255406 0.047758557 15855855
0.37137648 -0.054844834 0.042650368 15921649
0.36810458 -0.044909339 0.047968328 15461611
0.37179771 -0.045084994 0.042729247 15592941
0.36813641 -0.03501875 0.048007827 15264490
0.37196434 -0.034638762 0.042913284 15329769
0.36840007 -0.02489117 0.048278097 14869734
0.371562 -0.025046136 0.042998888 14737890
0.36823434 -0.015019868 0.048094314 14541025
0.37170327 -0.015015027 0.042949181 14672611
0.36840388 -0.0049552298 0.048378192 14146524
0.37193421 -0.0051608598 0.043204483 14277853
0.36866683 0.0030232749 0.048627365 14014426
0.37190583 0.0052996003 0.043907613 14080475
0.37221977 0.01493597 0.044847328 14343905
0.3732937 0.024995841 0.045011837 14804711
0.37509772 0.035210058 0.045161698 15132649
0.377139 0.045118295 0.045047671 15461870
0.38000003 0.049495161 0.040014252 15461357
0.37843427 0.054258648 0.046725746 15593456
0.38061118 0.056324288 0.042304531 15988212
0.37899998 0.061046973 0.049077157 16185078
0.38143089 0.065230258 0.044913486 16250871
0.3836748 0.074873537 0.04498795 16251129
0.38571432 0.084961161 0.04505419 16119800
0.38765177 0.093805552 0.045697872 15988216
0.39053842 0.097249851 0.041966639 15593462
0.39112502 0.10187787 0.048739895 6050134
0.37900001 -0.15070902 0.0505559 14999517
0.37391886 -0.14491113 0.05485877 15000031
0.36681044 -0.13406223 0.055470239 15723756
0.37091669 -0.13859512 0.052515309 14802654
0.36497167 -0.12491808 0.055185407 15855344
0.36467624 -0.11486332 0.054873213 15921138
0.36468565 -0.10503715 0.055092484 15790065
0.36460564 -0.09498661 0.055092618 15790320
0.3643778 -0.085070275 0.054912217 15592940
0.36440966 -0.075164638 0.055002861 15593196
0.3648662 -0.065086216 0.055117317 15593197
0.36476898 -0.054926857 0.055085361 15592941
0.36512235 -0.0449128 0.055005532 15264489
0.36513257 -0.03507771 0.055208817 15132904
0.36561844 -0.025129925 0.055183534 14672611
0.36595181 -0.014872788 0.055234652 14540512
0.3663564 -0.0050259838 0.055294804 14014425
0.36754951 0.0048658485 0.054974131 13948890
0.36824426 0.014934478 0.055132773 14146526
0.37 0.017154658 0.050510261 14541284
0.36899999 0.021607438 0.057752345 14475234
0.37070811 0.025593616 0.05458368 14738663
0.37236232 0.034891561 0.055142712 14738661
0.37475589 0.044902109 0.054848544 15199211
0.37695426 0.054838605 0.055131625 15527920
0.37829453 0.064479701 0.055290777 15856371
0.38000005 0.067909606 0.05113408 16250615
0.37900004 0.071043275 0.057772163 15725298
0.38107988 0.075656675 0.054587997 16119543
0.38263091 0.08495111 0.05508719 15922165
0.38566658 0.09474083 0.054943219 15396080
0.38834617 0.10121347 0.05652003 6972264
0.39033338 0.1019373 0.051533744 5983831
0.37737495 -0.151333 0.065029033 12960709
0.37393877 -0.14522369 0.065005645 14736862
0.36622828 -0.13422397 0.064721063 15262949
0.37028575 -0.1391947 0.067969449 14013395
0.36399952 -0.1247192 0.06517157 15724014
0.36390117 -0.1148895 0.065152988 15789807
0.36345103 -0.10496233 0.065070018 15526892
0.36309081 -0.095083892 0.065006807 15395049
0.36251369 -0.085172772 0.064902321 15263976
0.36237475 -0.074959606 0.064877361 15263719
0.36230537 -0.064767443 0.064865254 15329771
0.36240119 -0.054667886 0.0648349 15264234
0.363455 -0.045050416 0.06512481 15001575
0.36418486 -0.035347093 0.064893633 14146010
0.36531842 -0.025109451 0.064984247 13882839
0.36507615 -0.014838828 0.064937569 13751509
0.36537215 -0.0050117294 0.064991452 13357008
0.36677879 0.0049416204 0.064945884 13489108
0.36747932 0.015177065 0.064935237 13883353
0.36872008 0.022252264 0.064912222 14343904
0.37045971 0.027100554 0.065108992 14541024
0.37152377 0.035017382 0.065007038 14672868
0.37387216 0.044664152 0.064917326 15133162
0.37578848 0.054755442 0.065144584 15658735
0.37774384 0.064781435 0.064947002 15921908
0.37840036 0.074584104 0.06571003 15790579
0.38006675 0.077293843 0.061137725 15396334
0.37900007 0.081982866 0.067460284 15593969
0.38076842 0.085623793 0.064376332 15659763
0.38349119 0.09472999 0.064909652 15593973
0.38641664 0.10083868 0.064512126 7698049
0.37800002 -0.1510193 0.073607013 13618894
0.37450004 -0.1453277 0.074861631 14210775
0.36583117 -0.13344534 0.075271815 14934499
0.37057135 -0.13917854 0.074590169 14342104
0.36396033 -0.12489057 0.074895956 15197928
0.36323798 -0.1148827 0.074881412 15395050
0.36311096 -0.10489096 0.074902378 15132135
0.36314955 -0.094998702 0.075038031 15132135
0.36250681 -0.085173324 0.075089492 15000548
0.36213866 -0.074910037 0.075013153 14803426
0.36214554 -0.064738102 0.07501471 14803170
0.362739 -0.054762211 0.074936435 14935014
0.36502445 -0.044900306 0.075201869 14343390
0.36750394 -0.034765054 0.074989438 8817549
0.36766136 -0.024966775 0.074783906 9080466
0.36658418 -0.014793098 0.074837975 12830153
0.36596987 -0.0050216583 0.074948974 13225422
0.36679196 0.0048437673 0.075116552 13423314
0.36790228 0.015158677 0.074952066 13949403
0.3690002 0.022126764 0.075610116 14672611
0.37026465 0.026852615 0.074686281 14541282
0.37118158 0.03487955 0.075145096 14672610
0.37296209 0.044728059 0.07490015 15264235
0.37438482 0.054934774 0.074881986 15593199
0.37630388 0.065145999 0.075175576 15856114
0.37767458 0.075189769 0.075068168 15790321
0.37848011 0.084111005 0.075364612 15790578
0.38003579 0.088740669 0.073825143 15527921
0.38238952 0.094579689 0.074854165 15462387
0.38790911 0.10158665 0.07526622 6051681
0.39140004 0.10385027 0.076954059 4274494
0.37840003 -0.15047042 0.082367554 13619151
0.38000003 -0.15066189 0.086272769 12368827
0.37590319 -0.14534356 0.083867036 13816273
0.38033333 -0.14916195 0.088723011 13816530
0.36727777 -0.13269109 0.084390946 14605792
0.37100005 -0.13764153 0.085834742 13553359
0.36495453 -0.12466062 0.08480332 14803170
0.36448142 -0.11495806 0.084971488 15197927
0.36402145 -0.10499706 0.084794685 15000548
0.36380929 -0.095373876 0.084950335 14934754
0.36287865 -0.085259184 0.084934711 15000291
0.36281055 -0.075047776 0.084918916 15000548
0.36296204 -0.064884663 0.084954344 15066599
0.36402142 -0.05473315 0.084981054 15198442
0.36673599 -0.044968944 0.085051112 14079962
0.36801466 -0.035017643 0.084729902 2896946
0.36764044 -0.025097655 0.084863484 3028020
0.36771953 -0.015056714 0.084946446 12500929
0.36640507 -0.0050301822 0.084903419 13159373
0.36681095 0.004843594 0.084996738 13225679
0.36774832 0.015220344 0.084814422 13949659
0.36869079 0.024609923 0.085649602 14475489
0.36999992 0.027955623 0.082033828 14869991
0.36899999 0.030857677 0.08802259 14672610
0.3705892 0.035141978 0.084777549 14672612
0.37192258 0.045026649 0.08493834 15066599
0.37341878 0.055122714 0.085103586 15527149
0.37450421 0.06512063 0.084839933 15658735
0.37599987 0.074911401 0.08488398 15658992
0.37767744 0.085003853 0.084860146 15527921
0.37894452 0.091002889 0.085983306 15725302
0.3815591 0.095705688 0.08474198 14672104
0.39500001 0.10554399 0.080431245 3813686
0.38200003 -0.15011343 0.091198176 13750737
0.37764522 -0.14215788 0.094468161 13158858
0.38110411 -0.14682733 0.09622445 13027529
0.36862499 -0.13137382 0.0917814 14737634
0.37319452 -0.13566704 0.09527652 13290702
0.36720774 -0.12457986 0.095017441 14342877
0.37 -0.12980665 0.098727427 13948118
0.36545691 -0.11476933 0.094849899 14869218
0.36445472 -0.10482657 0.095117182 14737632
0.36405519 -0.094909728 0.095011257 14737377
0.36344674 -0.08496853 0.09485276 14869220
0.36298615 -0.075051129 0.094807029 15000806
0.36309704 -0.064907506 0.094760261 15197671
0.36409819 -0.054870356 0.09496706 15264235
0.36637101 -0.044892218 0.09507525 13158861
0.36659318 -0.034996927 0.095126562 2765104
0.36668256 -0.025301181 0.095091946 2830640
0.36786118 -0.014951812 0.095141865 11579827
0.36687911 -0.0050350558 0.094887219 13028043
0.36697257 0.0048441817 0.094912417 13225679
0.36743081 0.015175182 0.095030613 13883609
0.36825573 0.025042251 0.095134184 14277853
0.36900017 0.031661201 0.094351552 14277853
0.37015244 0.03611045 0.095113657 14409440
0.37142757 0.044790715 0.094988026 14869478
0.37335503 0.055265494 0.095126517 14935013
0.37419713 0.064843915 0.094839625 15066598
0.37542617 0.074865602 0.09485808 15066855
0.37714368 0.084885366 0.094893537 15133162
0.37870002 0.091681361 0.095042348 15462128
0.38148338 0.096279837 0.094958767 14277857
0.38633335 0.10112212 0.094357572 4472646
0.39366665 0.10580523 0.0965885 4406331
0.37900001 -0.14041696 0.10148381 13619153
0.38162503 -0.14324792 0.10479193 12435135
0.37594643 -0.13422567 0.10431092 13027273
0.38086671 -0.13849393 0.10792824 12369599
0.36855561 -0.12313356 0.10198551 14079960
0.37146276 -0.12554781 0.10622004 13487824
0.36759275 -0.11468624 0.10454325 14145497
0.37022221 -0.1176554 0.10928334 13684946
0.36628339 -0.10496526 0.1050413 14211290
0.36570191 -0.095042884 0.10516023 14211546
0.36425611 -0.085143387 0.10487308 14013911
0.36361989 -0.075220183 0.1047226 14474205
0.3637315 -0.064911678 0.10494378 14803169
0.36431596 -0.054937277 0.105055 14935270
0.36606455 -0.044769812 0.10509448 11711413
0.36365935 -0.034774762 0.10523167 2502189
0.3640067 -0.025005842 0.10517795 2567467
0.36745054 -0.01482462 0.10490898 11251632
0.36641687 -0.0050308784 0.10506353 12568007
0.36690316 0.0048441272 0.10520228 13225422
0.36704347 0.015048154 0.10507219 13685974
0.3682231 0.025106546 0.10492175 13949146
0.37 0.02928113 0.109699 13948633
0.36899999 0.030353772 0.10407553 13949403
0.37053832 0.034976162 0.10505489 14343390
0.37189078 0.044900566 0.10476257 14474976
0.37391075 0.055184286 0.1050891 14672611
0.37518263 0.065158576 0.10474212 14671841
0.3769424 0.075088114 0.10503475 14408926
0.37794587 0.085023127 0.10487548 14343903
0.37878576 0.091394484 0.1042392 14607076
0.38124049 0.096256956 0.1050932 14869994
0.38500002 0.10170241 0.10686108 7564149
0.3915 0.1050688 0.10033825 4471865
0.38275 -0.14122435 0.11108977 11185582
0.3777 -0.13203855 0.11301152 11645877
0.3811765 -0.13724667 0.11189228 11580084
0.3743034 -0.12438826 0.11469738 12566978
0.36900005 -0.11131527 0.1105543 13684687
0.3726429 -0.11519234 0.11514398 12895687
0.36851859 -0.10379028 0.11127328 13488336
0.37145022 -0.10532759 0.11619537 12764871
0.36810911 -0.09437713 0.11278018 13619152
0.37076929 -0.09554141 0.11759538 12764615
0.36705154 -0.08464931 0.11423881 13224652
0.3702307 -0.087219119 0.11919044 13027531
0.36667851 -0.07511498 0.11464456 13553617
0.36608404 -0.065120503 0.11500377 13619667
0.36622971 -0.054835152 0.11491008 14014167
0.36663947 -0.044917293 0.11505102 10132638
0.36163431 -0.034624513 0.11521301 2238759
0.36156636 -0.025027663 0.11503633 2304553
0.36753798 -0.014913209 0.11485524 10462117
0.36738357 -0.0050774342 0.11519759 12041663
0.36769173 0.0048549236 0.11489989 12568007
0.36824039 0.014874741 0.11422502 13028302
0.36999995 0.017086724 0.11880234 12633802
0.36868182 0.022796119 0.11163652 13685717
0.37075263 0.025506748 0.11606497 13094096
0.37214917 0.034926865 0.11487451 13160144
0.37434587 0.044891674 0.11454578 13291217
0.37559298 0.054781269 0.11465292 14212061
0.37772313 0.064753816 0.11493254 14080989
0.37850818 0.073510326 0.11311337 14015196
0.3808234 0.076481126 0.11724498 13554645
0.37899998 0.083039917 0.11048532 13817817
0.3816421 0.085348219 0.11526012 13554131
0.38294047 0.094808236 0.11488751 13751514
0.38486671 0.10157517 0.11320643 6577255
0.37569231 -0.12212951 0.12108425 12106684
0.37611124 -0.11491169 0.12237224 11843769
0.37416667 -0.10493376 0.12223893 11383475
0.37222502 -0.094949163 0.12191274 11580856
0.37131166 -0.084727019 0.12287629 11909564
0.36900002 -0.070714995 0.1200565 12172995
0.371663 -0.074795097 0.12406898 11514548
0.3687619 -0.064585291 0.12108913 12698568
0.37104625 -0.064893633 0.12525475 11580599
0.36851728 -0.054499976 0.12153619 13290958
0.37116113 -0.05532939 0.12670527 11514804
0.36756068 -0.043784536 0.12348466 9014413
0.37080854 -0.046866961 0.12681605 10527909
0.35838085 -0.03301698 0.12653412 2173735
0.36117825 -0.035818916 0.12351076 2239271
0.35854819 -0.026349833 0.126551 2239273
0.36043045 -0.023612695 0.12386861 2173995
0.36736485 -0.015951937 0.12370074 10068129
0.37056258 -0.012909346 0.12676579 10462374
0.36867577 -0.005664919 0.12188777 11580856
0.37069035 -0.0048548197 0.12662175 10791596
0.36899999 0.0038406639 0.12018939 11844286
0.37091404 0.0049295789 0.12460303 11054771
0.37085518 0.014741818 0.12311559 11515321
0.3741765 0.024379289 0.12325954 11975615
0.38111767 0.026102552 0.12888075 10462119
0.37641379 0.03604598 0.12213707 12238530
0.38120002 0.035999112 0.12714922 10133414
0.37780008 0.044520017 0.12084232 12172482
0.38290247 0.044313662 0.1263995 10199206
0.37856257 0.054238621 0.12078629 13225681
0.38238165 0.054982498 0.12561874 11514806
0.37900001 0.060455479 0.12064831 12633030
0.38130879 0.06498602 0.12349969 12435909
0.38394609 0.074935779 0.12409986 12172993
0.38406894 0.083121315 0.12198474 12370372
0.37217653 -0.05307743 0.13128963 10066842
0.36609089 -0.041566432 0.13250872 6776678
0.37174997 -0.046876609 0.13182993 10001049
0.359 -0.03336066 0.13024974 2239785
0.3645834 -0.035390474 0.13500488 1449499
0.359 -0.025336597 0.13024974 2107944
0.36267123 -0.024318105 0.13493975 1843230
0.36080003 -0.019140813 0.13107184 10659497
0.37260008 -0.012700947 0.13191499 9673112
0.37246159 -0.0075951684 0.13131195 9475733
0.38416669 0.025453473 0.13158686 10198941
0.36359996 -0.04107805 0.14756604 4604733
0.36444262 -0.035487939 0.146181 857616
0.370561 -0.034238227 0.14176489 857361
0.36144632 -0.024438962 0.14560403 1381648
0.37060004 -0.028510842 0.14157295 725776
0.36000001 -0.018529598 0.14904808 5908011
0.36199999 -0.041081864 0.15473612 2239011
0.35900006 -0.03197746 0.15887673 725774
0.36133558 -0.035276465 0.15455647 1186326
0.36062235 -0.025034877 0.15487584 1186069
0.36027786 -0.018719913 0.15367508 2958114
0.34689999 -0.041060753 0.16824736 2305830
0.35673332 -0.040859755 0.16671759 462603
0.36227271 -0.041594695 0.1633506 1581598
0.34742853 -0.035236586 0.16854523 2107939
0.35582009 -0.034239303 0.16529886 1383961
0.36053851 -0.037995435 0.16236097 1383445
0.34752378 -0.025381066 0.16896981 2238758
0.3553234 -0.025798662 0.16718587 1252121
0.36057547 -0.024696397 0.16375259 1515036
0.34766665 -0.01887772 0.16900189 2368549
0.3567273 -0.019165711 0.16935188 1580317
0.36044449 -0.018915981 0.16724376 988180
0.33841667 -0.04115336 0.17929323 2764845
0.34316397 -0.041623443 0.17376812 2764584
0.338 -0.038541082 0.17929539 2436135
0.34295207 -0.035096671 0.17368759 2370341
0.34328869 -0.025365222 0.17330016 2238502
0.33517948 -0.041276664 0.18366629 2436135
0.33391872 -0.035574589 0.18554088 2172961
0.3334868 -0.026158774 0.18612808 2107171
