# .PCD v0.7 - Point Cloud Data file format
VERSION 0.7
FIELDS x y z rgb
SIZE 4 4 4 4
TYPE F F F U
COUNT 1 1 1 1
WIDTH 980
HEIGHT 1
VIEWPOINT 0 0 0 1 0 0 0
POINTS 980
DATA ascii
0.73100001 -0.13324337 0.088953763 11709606
0.72900003 -0.12178592 0.08871039 14672092
0.73025 -0.12712421 0.088862501 16382196
0.72900003 -0.11495952 0.08871039 15527400
0.72880006 -0.10554516 0.088686056 16119279
0.72500002 -0.091416016 0.089920878 16053997
0.79416668 0.065326706 0.084547468 11382439
0.79496789 0.074879713 0.084780931 11382439
0.72900003 -0.14345977 0.098608688 11637884
0.73058814 -0.14312771 0.094133638 12098691
0.72900003 -0.13913636 0.098381139 13742484
0.73080021 -0.13497452 0.094802253 11574670
0.72845459 -0.12340149 0.095309116 15525860
0.73014271 -0.12808171 0.093732826 16513010
0.72675616 -0.11470897 0.095109858 15657958
0.72576916 -0.10484493 0.094974227 15262944
0.72365808 -0.095259778 0.095230617 15921387
0.72507316 -0.085582405 0.094890572 15987950
0.73000002 -0.080083862 0.09054102 15988471
0.72860008 -0.078735664 0.096507184 15922159
0.73072726 -0.074331433 0.094906569 16054001
0.73120707 -0.065518305 0.095943145 15856622
0.73241687 -0.055913251 0.096696734 15987954
0.74275005 -0.055401899 0.094728537 15725038
0.75700003 -0.053805389 0.095661953 15593194
0.77650005 -0.051558718 0.095396541 11908784
0.73375005 -0.046029471 0.097982526 15725293
0.74339998 -0.045008264 0.096726328 15593964
0.75700003 -0.044058558 0.097434103 15659757
0.77566671 -0.044537883 0.097416095 13225160
0.78614289 -0.045219965 0.096979298 12303800
0.73559999 -0.035926234 0.099499851 15593450
0.74490005 -0.035509337 0.098490924 15396329
0.75300002 -0.031486247 0.098682046 15330539
0.78533334 -0.036500376 0.099242426 12501694
0.73500001 -0.029012939 0.099764407 15066850
0.74566674 -0.027683688 0.099466622 15001058
0.75849998 -0.026831692 0.099402837 15000804
0.76300001 -0.022373326 0.099392496 14869987
0.773 -0.025381029 0.098885596 14146519
0.78583336 -0.025499774 0.09838248 12238779
0.79460007 -0.024918703 0.095944144 11645612
0.75900006 -0.010415142 0.099468365 15198434
0.76312506 -0.014483373 0.099334739 14080468
0.77385718 -0.015792998 0.098307215 13620173
0.78612506 -0.014468314 0.09704037 11382697
0.75900006 -0.0046404358 0.099468365 14869469
0.76366669 -0.0045150449 0.098885238 15263969
0.77520001 -0.0030150863 0.097233362 13620428
0.78525007 -0.0059475848 0.096241251 11646897
0.79433334 -0.0053232191 0.092937045 11251367
0.74849999 0.008127002 0.099844567 14211539
0.75799996 0.0046786382 0.099337302 15395811
0.76316673 0.0047087944 0.098227821 15593189
0.77408338 0.0047786594 0.096912079 13949393
0.78611112 0.0057770973 0.095044427 10593182
0.74733335 0.015111442 0.099688947 14737882
0.75533336 0.01527049 0.09898784 15264224
0.76344454 0.015737809 0.097663499 15264224
0.77225006 0.014720565 0.096682541 14408916
0.78570002 0.014968036 0.094686799 12566458
0.74816674 0.025637709 0.09980011 15198175
0.75580007 0.025014663 0.099048994 15066588
0.76463646 0.024817938 0.0974361 15000796
0.77400011 0.024712011 0.095998295 14211538
0.78466672 0.025053354 0.094561987 13225416
0.79299998 0.024895018 0.09193895 10922149
0.74820006 0.035274286 0.09980455 15329247
0.75566673 0.034743581 0.09903153 15066075
0.7645455 0.03555616 0.097424835 15000795
0.77400005 0.034677725 0.095998295 14540504
0.78480005 0.03516183 0.094578207 13158854
0.79427266 0.035080135 0.091917403 10790048
0.75800008 0.043722332 0.09933731 15263713
0.76440006 0.044981413 0.097844392 15263970
0.77455568 0.045783434 0.095862485 14737883
0.78511119 0.044366375 0.094310179 13553608
0.79319996 0.044818681 0.091877922 11118753
0.76318187 0.054337919 0.099039979 15329763
0.77317649 0.055187531 0.095997654 15000799
0.78638464 0.055763144 0.092148915 11908784
0.79100007 0.052103523 0.090699799 10987424
0.76740003 0.064925753 0.09877269 15395299
0.77400005 0.065140948 0.095881246 15066593
0.78468752 0.064890996 0.091921933 12435132
0.77463633 0.07509774 0.097142503 15263458
0.78635293 0.075080529 0.091895029 12698303
0.77531266 0.085217796 0.097860076 15527143
0.78505886 0.084470086 0.093254521 13816526
0.79000002 0.087177895 0.090585135 12039601
0.77657139 0.09270905 0.098652229 15724782
0.78594732 0.095155016 0.095537938 14671579
0.79175001 0.095481753 0.091479614 12499895
0.78800011 0.10233066 0.098964512 15000546
0.79436374 0.10473864 0.094798662 11842478
0.72634625 -0.14377433 0.1046687 11440249
0.72674286 -0.13499555 0.10529625 10783613
0.73000002 -0.13477005 0.10079468 11176311
0.71900004 -0.12151799 0.10881394 15526628
0.72429419 -0.12548976 0.10468344 14933719
0.71876472 -0.11478113 0.10775504 16118764
0.7211054 -0.11562538 0.10311873 15723751
0.71866667 -0.10455754 0.10716031 16118252
0.72073346 -0.10572662 0.10255134 15855337
0.71879172 -0.094839722 0.10681852 16249838
0.72041678 -0.095054857 0.10200074 16381935
0.71899992 -0.085344128 0.10742604 16315888
0.72100002 -0.084158197 0.10273789 16250351
0.71900004 -0.077614725 0.10895421 16053230
0.72363168 -0.074835263 0.10449576 16119278
0.72524327 -0.06524384 0.10590856 16053228
0.73019999 -0.064720169 0.10082229 15790315
0.72607142 -0.055248532 0.10728749 16118764
0.7306428 -0.054863874 0.10210461 16119535
0.72837502 -0.046441033 0.10845603 15921387
0.73139298 -0.044707377 0.10422573 16119280
0.73265791 -0.034922369 0.1051276 15987437
0.73376322 -0.02475879 0.1052841 15526630
0.74233341 -0.022348026 0.1007598 15330022
0.75133342 -0.022620572 0.10022252 14869218
0.73562074 -0.015021523 0.10667054 15329507
0.7433846 -0.013148204 0.10237069 15198436
0.75300002 -0.014739774 0.10044483 15330022
0.73840004 -0.0063283099 0.10852294 15657959
0.74324 -0.0047003906 0.10442585 15066850
0.75319999 -0.0050462568 0.10047151 14935264
0.74336123 0.0045912457 0.1052428 14803421
0.75174999 0.0028800778 0.10027809 14474712
0.73880005 0.017188281 0.10858192 14803420
0.74303246 0.014661202 0.10455187 14671837
0.73766667 0.025276521 0.10789659 14606043
0.743375 0.025474431 0.10350645 14474457
0.73824996 0.034156971 0.10819808 14540252
0.7439546 0.035311345 0.10398262 14671835
0.7452333 0.044266503 0.10626447 14935010
0.75391668 0.04643406 0.1017421 15592678
0.74710006 0.053412609 0.10857569 14540512
0.7554118 0.055376768 0.10544087 15329766
0.7610001 0.056589242 0.10173319 15658728
0.75594747 0.065069981 0.10707114 15132386
0.76322222 0.06536264 0.10229977 15724264
0.75688893 0.073485225 0.10863926 15263716
0.76447374 0.074751273 0.10469868 15789545
0.77087498 0.07717292 0.10192619 15789544
0.76545453 0.083656929 0.10796724 15856109
0.77194738 0.085661471 0.10382576 15724009
0.76799995 0.091943324 0.10963733 15856113
0.77346432 0.094732933 0.10510889 15790317
0.78100002 0.098983079 0.10052317 15593194
0.77740002 0.10107525 0.10660998 15395563
0.78558332 0.1044723 0.10571007 12895170
0.7915715 0.10800076 0.10373523 11579820
0.72550005 -0.14271457 0.11092993 10191214
0.71888888 -0.13234498 0.1175855 12959159
0.72211117 -0.1353827 0.11284986 11114638
0.71728116 -0.12465781 0.11519573 15197150
0.72033334 -0.12905096 0.111826 14867671
0.71427488 -0.11502024 0.11529207 15658472
0.71360463 -0.10501192 0.1152262 15855852
0.71451169 -0.094874434 0.11541144 15592936
0.71663147 -0.084794693 0.1151463 15658730
0.71786112 -0.074550577 0.11508058 15658986
0.71780002 -0.064462222 0.11591028 15790317
0.72033334 -0.064688168 0.11126415 15987180
0.71808338 -0.054400321 0.11679842 15724781
0.72050005 -0.054584485 0.11213265 15987436
0.71863157 -0.044923734 0.11746436 15724781
0.72291309 -0.044133116 0.11246599 15921902
0.71900004 -0.036516793 0.11891311 15592940
0.72378784 -0.034322023 0.1148156 15790573
0.73000002 -0.032233458 0.11104834 15724523
0.72487885 -0.024600919 0.11658394 15527402
0.7307778 -0.023714243 0.11173657 15592937
0.72643763 -0.015280375 0.11751718 15461354
0.73136836 -0.014089635 0.11314742 15461351
0.72740006 -0.006405382 0.1184847 15658732
0.73314822 -0.0047194953 0.11361657 15460837
0.72866672 0.001942631 0.11937463 15461098
0.73428202 0.0047341636 0.11472789 15066079
0.73376191 0.014836769 0.11504346 14737371
0.72866672 0.024968885 0.11937463 14342874
0.73275012 0.02510917 0.11403309 14605785
0.72800004 0.0355605 0.11848968 14474460
0.73316151 0.035285696 0.1134053 14737115
0.72771436 0.04477359 0.1189748 14342617
0.73362964 0.045079924 0.11483458 14934241
0.74150002 0.047542796 0.11149496 14935012
0.72900003 0.0514342 0.11942924 14145495
0.73391318 0.054692153 0.11686447 15066340
0.74350005 0.05594055 0.1122271 15132134
0.73412508 0.064685732 0.1176841 15197926
0.74413645 0.065171413 0.11247966 15263719
0.73419046 0.074634366 0.11806319 15461098
0.74510527 0.074601077 0.11333915 15066341
0.75260001 0.077415444 0.11131374 14474203
0.73470008 0.083828948 0.11915555 15987185
0.74505562 0.084835716 0.1162412 15526892
0.75584608 0.084905773 0.11279753 15000548
0.76099998 0.086355388 0.11071608 15658731
0.73900002 0.090200014 0.11933748 16119028
0.74458337 0.094221741 0.11863649 15855857
0.75560004 0.094819836 0.11564509 15263978
0.76333338 0.095552444 0.1125404 15856113
0.77200001 0.099047273 0.11081 16316663
0.74800003 0.10005394 0.11903976 15921908
0.75550002 0.10282502 0.11875499 15724529
0.76444447 0.10483935 0.11728014 14737890
0.77450007 0.10495915 0.11433917 14079443
0.78440005 0.10823026 0.11307368 11711149
0.77466673 0.11147972 0.11905104 14342876
0.78644449 0.11317401 0.11676672 11777200
0.79423529 0.1160849 0.11403354 11777198
0.71828574 -0.13248834 0.12476071 13157310
0.71403122 -0.12498626 0.12486254 13947084
0.70847827 -0.11377899 0.12616181 15855853
0.71030778 -0.11757661 0.12378491 14737115
0.70893747 -0.10733531 0.12589282 15724523
0.71004999 -0.1035767 0.12496872 15658473
0.71091682 -0.095463954 0.12562007 15592937
0.71259093 -0.085184559 0.12496322 15461608
0.71331698 -0.075156912 0.12524259 15329766
0.71282929 -0.065296017 0.12499673 15395815
0.71557492 -0.054792263 0.12493487 15461354
0.71763885 -0.044286292 0.12512845 15461355
0.71838903 -0.03424269 0.12525736 15461355
0.71866673 -0.025353758 0.12621729 15198183
0.72028571 -0.023131717 0.12185558 15066597
0.71891302 -0.01593807 0.12714261 15000804
0.72112501 -0.014853397 0.1219352 14868961
0.71899992 -0.0061632316 0.12822677 15263977
0.72166657 -0.0053969938 0.12291595 14803425
0.71899992 0.0044408776 0.12873173 14672354
0.7227667 0.0044662883 0.12347604 14606046
0.71899992 0.014540028 0.12873173 14343388
0.7234 0.014628618 0.12358297 14343388
0.71899992 0.024999866 0.12837103 14013909
0.72246426 0.024575839 0.12318385 14145752
0.71899992 0.034738336 0.12789012 13948117
0.7219584 0.03488024 0.12249639 14145495
0.71895832 0.044834644 0.127041 14079702
0.72211117 0.045032408 0.12167808 14408667
0.71868432 0.054691039 0.12765603 14145495
0.72360879 0.055475187 0.12266334 14540253
0.71866667 0.065005638 0.12783004 14474460
0.7245217 0.065349601 0.12303878 14671839
0.71821058 0.075272381 0.12757164 14342874
0.72423816 0.074669383 0.12291947 14474460
0.73000002 0.07884784 0.121302 14933984
0.71749997 0.084750086 0.12701008 14606559
0.72406673 0.085207097 0.12302323 14605789
0.73133332 0.086414061 0.12095157 15263206
0.71788895 0.095186442 0.12769093 15133163
0.72460002 0.094885044 0.12401783 14803683
0.73246157 0.095600247 0.12131251 15658479
0.74400002 0.099518888 0.1201449 15790322
0.71833342 0.10533581 0.12777036 15659505
0.72461534 0.1047538 0.12405528 14868961
0.73409998 0.10335004 0.12163379 15527148
0.74560004 0.10462002 0.12075023 15592942
0.75633335 0.10824942 0.12095433 15329771
0.71866673 0.11127196 0.12783004 15198184
0.76100004 0.11070041 0.12110864 15592684
0.78633338 0.11745621 0.12084296 11974579
0.78900003 0.12031468 0.12187054 11777198
0.79200006 0.12582991 0.12452223 11711405
0.71891665 -0.13188247 0.13544928 13092032
0.72000003 -0.13460942 0.13565288 13091775
0.71465534 -0.12531149 0.13513568 13222849
0.70876181 -0.11402024 0.13381281 15855339
0.71020007 -0.11681696 0.13740924 14275537
0.70900005 -0.10876268 0.13164401 15592937
0.71075749 -0.10509722 0.13590436 15198180
0.71206057 -0.095845588 0.13544708 15329766
0.71223342 -0.085637756 0.13502544 15658731
0.71193755 -0.075394884 0.13528144 15592938
0.71129739 -0.06542927 0.1355202 15658731
0.71475548 -0.055201657 0.13505138 15658731
0.71722853 -0.044382196 0.13500839 15461354
0.71718192 -0.034872107 0.13504286 15592941
0.71732354 -0.025548929 0.13534467 15198440
0.71775013 -0.015729215 0.13522734 15067110
0.71827769 -0.0056521352 0.13532595 15001576
0.71872222 0.004439618 0.13541086 14869990
0.7187143 0.014413757 0.13552952 14541025
0.71797162 0.024723228 0.13538925 14343389
0.71772224 0.034676924 0.13522196 14277339
0.71738887 0.044735197 0.13515824 14277339
0.71552628 0.054845206 0.1351126 14342875
0.71485716 0.064661063 0.13551231 14540253
0.71471786 0.074878469 0.13510118 14671839
0.7137143 0.084606782 0.13529776 14935012
0.71413153 0.094512008 0.13485 15395821
0.71558326 0.10493452 0.13481846 15593971
0.71739995 0.11174794 0.13516092 13750994
0.79066676 0.1292064 0.13199927 11777198
0.78900003 0.13139705 0.13664706 11316647
0.71899998 -0.13147686 0.14472204 14078671
0.72100002 -0.13465728 0.1463903 13354948
0.71634495 -0.12566338 0.14517106 13552330
0.71154547 -0.11531309 0.14534317 14934240
0.71169448 -0.105565 0.1457517 14934754
0.71321607 -0.094936877 0.14491254 14803423
0.71436852 -0.084528983 0.14445134 14671836
0.71346426 -0.075110622 0.1447417 14671837
0.71148586 -0.065443315 0.14558987 14737632
0.71169239 -0.055388886 0.14529903 14935011
0.71355003 -0.045871001 0.14504033 15066594
0.71536118 -0.035773136 0.14482519 15000804
0.71599984 -0.025748175 0.14495529 14671582
0.71647191 -0.015701866 0.14505018 14606047
0.71636081 -0.0056373444 0.1450278 14540768
0.71661079 0.0044269031 0.14507793 14343646
0.71680534 0.014495749 0.145117 14211545
0.71644413 0.024550632 0.14504498 13750995
0.71563882 0.034575652 0.14488114 14014168
0.71491671 0.044580273 0.14473395 14211803
0.71257126 0.054371741 0.14466612 14277596
0.71199995 0.06440261 0.14581329 14277082
0.71138477 0.074144952 0.14523639 14474203
0.71035886 0.084657118 0.14566746 14737376
0.71186477 0.094906829 0.14494939 15329769
0.71543235 0.10480072 0.14499807 15659250
0.71700001 0.11185334 0.14515816 13027015
0.72300005 -0.14024796 0.15568252 12169648
0.71899998 -0.13153698 0.15722576 13486281
0.72118187 -0.13560034 0.15452221 13815756
0.71677148 -0.12490237 0.15530026 14078418
0.71380669 -0.11490798 0.15505317 14999776
0.71322227 -0.10532962 0.15506317 14999777
0.71302694 -0.095590465 0.1542567 14934754
0.71308333 -0.085461907 0.15438072 15066340
0.71302855 -0.075598955 0.15448883 14934498
0.71290326 -0.065827094 0.15501691 14934240
0.71215153 -0.055392478 0.15546884 15066084
0.7122972 -0.045556545 0.15545034 15000547
0.71402782 -0.035704188 0.15458518 15000288
0.7151112 -0.025716139 0.1548211 14474459
0.71594423 -0.015690139 0.1550014 14211288
0.71541667 -0.0056317323 0.15488684 14145497
0.7154721 0.0044200309 0.1548997 14145497
0.71594423 0.014478432 0.15500152 13553360
0.71533328 0.024512161 0.1548689 13290187
0.7149446 0.034542065 0.15478493 13750737
0.71355557 0.044496857 0.15448451 13684946
0.71305698 0.054363072 0.15449579 13948117
0.71254849 0.064585313 0.15526205 13882323
0.71122241 0.074320279 0.15564507 13947859
0.71009493 0.085009143 0.15539782 14013652
0.71012104 0.095440857 0.15562899 14474461
0.71267569 0.10484692 0.15485281 15263978
0.7153334 0.11173341 0.15528567 14276825
0.71899992 -0.13209188 0.16608563 14078673
0.72038895 -0.13636935 0.16439575 14671064
0.71688884 -0.12480123 0.16527504 14539224
0.71500009 -0.11442544 0.16483957 15131616
0.71474296 -0.10446575 0.16466066 15197410
0.71308815 -0.094923399 0.16503516 15197410
0.71235698 -0.085653119 0.16506249 15066082
0.7128157 -0.075870425 0.16464309 15131619
0.71299988 -0.065700322 0.16437866 15065827
0.71299994 -0.055913042 0.16475804 15197669
0.71293551 -0.045531966 0.16503693 15066084
0.71402776 -0.035703856 0.16461696 14802913
0.71569425 -0.025736695 0.16500087 14474205
0.71599978 -0.015691681 0.16507034 14145239
0.71566653 -0.0056328224 0.16499439 14145240
0.71580541 0.0044219596 0.16502625 14211032
0.71605533 0.014480289 0.16508338 13684944
0.71522224 0.024508614 0.16489117 13619152
0.71516675 0.034553908 0.16487877 13619151
0.71511114 0.044594057 0.16486667 13750737
0.71361107 0.054522611 0.1645193 14013910
0.71294272 0.064368345 0.16448489 14211543
0.71185714 0.074505925 0.16566284 14145492
0.71087205 0.084717736 0.16536061 14276823
0.71052933 0.094747864 0.16557205 14474461
0.71188253 0.1044415 0.16549285 14935012
0.71542108 0.11271026 0.16506922 14211287
0.7913999 0.13828136 0.16485408 11579819
0.79370362 0.14539729 0.16491887 11645612
0.71858329 -0.13378507 0.17610817 14539222
0.72016674 -0.13829373 0.17291467 14933980
0.71508574 -0.12475037 0.17501821 14934496
0.71297562 -0.11517879 0.17525917 15395303
0.71294987 -0.10554405 0.17542194 15460838
0.7121793 -0.095827781 0.17541017 15526374
0.71224231 -0.085865468 0.17549728 15263460
0.71294111 -0.075511545 0.17462549 15131876
0.71386129 -0.065778904 0.17460451 15066084
0.7139169 -0.055757258 0.17461738 15328999
0.71413916 -0.045742363 0.17467259 15066340
0.71536112 -0.035772026 0.17497112 15066341
0.71599978 -0.025748692 0.17512734 14605789
0.71599978 -0.015691681 0.17512734 14474203
0.7158609 -0.0056337342 0.17509252 14145495
0.71580535 0.0044205287 0.17507893 14145496
0.71566653 0.014472621 0.17504422 14079702
0.71516669 0.024507038 0.1749229 13553357
0.7152223 0.034556851 0.17493659 13882323
0.71530557 0.044605691 0.17495613 13947860
0.71336102 0.054504126 0.17448102 14145495
0.71294725 0.064663768 0.17468771 14013910
0.7116757 0.074255347 0.17557725 14277081
0.70900005 0.087723866 0.17851308 14606048
0.71044129 0.084316395 0.17484272 14605789
0.7086001 0.095225863 0.17779545 14935012
0.71030009 0.095426284 0.1733997 15066597
0.70900005 0.10272118 0.17880948 15264490
0.71143341 0.10526905 0.17456351 15066597
0.71345001 0.11213633 0.1746659 13948116
0.79200006 0.13931303 0.17054018 11711405
0.79347825 0.14546986 0.1743304 11579819
0.71812499 -0.14140336 0.18657158 13815244
0.71642107 -0.13522539 0.18493299 15000030
0.70825011 -0.12343252 0.18760042 15592683
0.71156007 -0.12603663 0.18393292 15724269
0.70809519 -0.11533321 0.18680879 15921903
0.71046674 -0.1148643 0.1825882 15724525
0.70833331 -0.1050676 0.18734618 15790319
0.71094441 -0.10545522 0.18304318 15724523
0.70840007 -0.095624447 0.18769564 15855856
0.71071434 -0.095081106 0.18345968 15790060
0.70900005 -0.087738775 0.18918312 15855856
0.71163893 -0.085148625 0.1848857 15855342
0.70900005 -0.073630631 0.18918312 15592171
0.71215773 -0.07580103 0.18449393 15526635
0.70900005 -0.06533172 0.18918312 15395305
0.71197218 -0.065605558 0.18413839 15526891
0.70900005 -0.056202926 0.18918312 15724270
0.71178931 -0.055503104 0.18439779 15658477
0.70900005 -0.049563792 0.18918312 15790063
0.71199995 -0.045505382 0.18485516 15527148
0.70900005 -0.039605107 0.18918312 15395305
0.71239024 -0.035522867 0.18495566 15395305
0.70900005 -0.02549696 0.18918312 15132391
0.71297503 -0.025639761 0.18497846 15132135
0.70900005 -0.016921422 0.18918312 14935011
0.71307713 -0.015521071 0.18487035 14737375
0.71273822 -0.0056084669 0.18516748 14737632
0.71319056 0.0044054966 0.18528575 14540253
0.70900005 0.018487258 0.18918312 14803425
0.71246332 0.014305379 0.1849753 14145495
0.70860004 0.024945762 0.18841247 14211288
0.71212506 0.024195602 0.18365654 14079445
0.70862508 0.033408493 0.18866807 14342874
0.71235299 0.034613408 0.1839906 14474203
0.70900005 0.042554095 0.18918312 14803425
0.71213144 0.044583905 0.18448524 14408667
0.71195233 0.054398816 0.18496612 14408924
0.71175003 0.064212851 0.18516485 14211289
0.70872736 0.078057997 0.18729986 14079445
0.71072412 0.073551625 0.18482243 14145495
0.708 0.085912801 0.18509747 14540253
0.71000004 0.08134158 0.18180418 14869218
0.7070834 0.095408067 0.18453053 15132390
0.70775867 0.10484258 0.18547928 14672352
0.71000004 0.10799094 0.18224742 13882837
0.71100003 0.11119455 0.18250252 12632771
0.78900003 0.13878532 0.18836482 11842991
0.79125005 0.13918109 0.1842691 11645612
0.79237926 0.14494644 0.18437193 11579819
0.79465526 0.15453589 0.18490408 11448233
0.70900005 -0.1408518 0.1991418 15460066
0.71369237 -0.14191075 0.19505292 14276306
0.70736843 -0.13303405 0.19719979 14144208
0.71200013 -0.13652852 0.19370982 15262946
0.70573175 -0.12461001 0.19479346 15592427
0.70509309 -0.11462423 0.19485284 15724270
0.70533335 -0.1046228 0.19480403 15789549
0.70554781 -0.094743714 0.19486284 15658219
0.70621425 -0.084913902 0.19504642 15724271
0.70609522 -0.074982397 0.19501421 15790321
0.70607144 -0.065061554 0.19500758 15526891
0.70642865 -0.055171698 0.19510654 15724527
0.70690465 -0.045279738 0.19523773 15592684
0.70669031 -0.035340518 0.19517951 15198183
0.70642853 -0.025404491 0.19510667 15066599
0.70661908 -0.015485642 0.19515955 15066342
0.70697576 -0.0056643104 0.195379 15132391
0.71000004 -0.0014321404 0.19111206 14868961
0.70722222 0.0043685874 0.19615498 14868961
0.71000004 0.0043852893 0.19111206 14606046
0.7072683 0.01440362 0.19546036 14408667
0.71000004 0.010202719 0.19111206 14737632
0.70663023 0.024717974 0.19538017 14277339
0.70662802 0.035197988 0.19512549 14409182
0.70695347 0.045375582 0.19517581 14475231
0.70734996 0.055495579 0.19561014 14541023
0.71000004 0.056742158 0.19111206 14475230
0.70730561 0.06563396 0.19617806 14540253
0.71000004 0.06505277 0.19111206 14474460
0.70682925 0.075617604 0.19533932 14408411
0.71000004 0.070870198 0.19111206 14539996
0.70559514 0.085295692 0.19487862 14474204
0.70473808 0.095091507 0.19464023 14935012
0.7059285 0.10517003 0.19497156 14606047
0.78822231 0.1380336 0.19535384 11645612
0.78872716 0.14394164 0.19635621 11579819
0.79042858 0.14723183 0.19319861 11579819
0.78900003 0.15171476 0.1994472 11514026
0.79203135 0.15525411 0.19522475 11448233
0.7938 0.16490197 0.19460057 11448233
0.70676196 -0.14214055 0.20559978 14539480
0.70502859 -0.135021 0.20499857 14539223
0.6974445 -0.12350079 0.2073234 15197926
0.70158339 -0.12596677 0.20328338 15657962
0.69646877 -0.11451699 0.20672518 15460842
0.70093757 -0.11586624 0.20159383 15394792
0.69638866 -0.10492638 0.20619094 15395306
0.70130783 -0.10522597 0.20102181 15855599
0.69613886 -0.095110968 0.20611762 15592942
0.70100003 -0.094953261 0.20099644 15987186
0.69611102 -0.085328504 0.20610963 15592942
0.70099992 -0.084727935 0.20105945 15526891
0.69634378 -0.075525686 0.20673896 15527148
0.70100009 -0.074440874 0.20181638 15658734
0.69625002 -0.065123476 0.20691566 15526891
0.70099998 -0.064594544 0.20181641 15461355
0.6966207 -0.055052251 0.20758253 15395306
0.70176196 -0.054454185 0.20250395 15395562
0.69764286 -0.044335794 0.20784974 15263719
0.70224994 -0.045158092 0.2035818 15395562
0.69788903 -0.034900267 0.20745607 15066597
0.70187515 -0.035099782 0.20288748 15198184
0.69820005 -0.025598077 0.20787568 14869219
0.70174068 -0.024961265 0.20330523 15066598
0.69875002 -0.016130647 0.20894 14737634
0.70194131 -0.015190021 0.20430696 15000806
0.69900006 -0.0095918104 0.209424 14869220
0.70234138 -0.0054259994 0.205365 14935013
0.70266658 0.0043391595 0.20557936 14737634
0.70256817 0.014508586 0.20555128 14408669
0.70402545 0.025330123 0.20496684 14211547
0.70405555 0.035665739 0.20516604 14343389
0.70477784 0.045600731 0.20537755 14606304
0.70472217 0.055495217 0.20536102 14672097
0.7040832 0.065333664 0.20517336 14737633
0.70330548 0.075140782 0.20494699 14803427
0.70269424 0.084944896 0.20477039 14803425
0.70194423 0.094715416 0.20455253 15131878
0.70380652 0.10418979 0.20496248 14935013
0.78780007 0.13648449 0.20529152 11645612
0.78855169 0.14500986 0.2047451 11448233
0.78900003 0.15319242 0.20406485 11382440
0.79006249 0.15665874 0.20607381 11382440
0.79165393 0.165272 0.20510846 11448233
0.70500004 -0.14335905 0.21534596 14276053
0.69721431 -0.13198231 0.21599801 14539738
0.70164001 -0.13656655 0.21448328 14013137
0.69516277 -0.12463149 0.21508311 14803168
0.69430566 -0.11436469 0.21533024 15197669
0.69402796 -0.10457054 0.21524538 15066340
0.69400018 -0.094818175 0.21523698 15197926
0.69388902 -0.085056432 0.21520185 15329512
0.69416684 -0.075340286 0.2152877 15395305
0.69416678 -0.065589942 0.2152877 15329513
0.69452375 -0.05505472 0.21539786 15263721
0.69533312 -0.044538092 0.21483485 15198184
0.69607127 -0.0348083 0.21506183 14671840
0.69619018 -0.025036082 0.2150979 14408925
0.69638103 -0.015261322 0.21515569 14540255
0.6966666 -0.0054812375 0.21524379 14803428
0.6973002 0.0043071415 0.21568537 14408669
0.70000005 0.0043235249 0.21136233 14935526
0.69772977 0.014353101 0.21548623 14145496
0.70025003 0.018259393 0.21143723 14474462
0.69810003 0.025229838 0.21699791 14211289
0.70054537 0.025945665 0.21212195 14474462
0.69822216 0.035368875 0.21736266 14474461
0.7007916 0.035499413 0.21241963 14540255
0.69831246 0.045590885 0.21759546 14540253
0.7013846 0.045128819 0.21291378 14540254
0.69766682 0.055302076 0.21746178 14474460
0.70108008 0.055043805 0.21267079 14474462
0.69791681 0.06476257 0.21644984 14671839
0.70088893 0.065037861 0.21162941 14540255
0.6985001 0.073902391 0.21726787 15000804
0.70075005 0.07541541 0.21254407 15066597
0.69877779 0.086198941 0.21808159 15065570
0.70069706 0.084232271 0.2138073 15131876
0.69841671 0.093149818 0.2176962 15263719
0.70050013 0.094958402 0.21337053 15329512
0.7032665 0.10395057 0.21481791 14868963
0.78880006 0.13727319 0.21324679 11580076
0.79000002 0.13803652 0.21819402 11383210
0.78900003 0.14206898 0.21258186 11514027
0.79068756 0.14590883 0.21560891 11382698
0.7920357 0.15475027 0.21485342 11382442
0.79473919 0.16495343 0.21521817 11382442
0.70223337 -0.14394905 0.22518483 14079186
0.69628572 -0.13460346 0.22525871 13881553
0.70025003 -0.13870382 0.22250263 13749710
0.6939252 -0.12510523 0.22479756 14605788
0.69389492 -0.11459539 0.22512135 14671838
0.69400018 -0.10456619 0.22498496 14606046
0.69377798 -0.09478879 0.22491352 14474460
0.69350016 -0.085008182 0.22482429 14474458
0.69391686 -0.075312659 0.22495824 14671836
0.69400018 -0.065574199 0.22498491 14737631
0.694143 -0.055024296 0.22503173 14737633
0.69491649 -0.044511892 0.22528209 14474204
0.69499987 -0.034755539 0.22530916 14079959
0.69499987 -0.024993498 0.22530916 13488078
0.69499987 -0.015231447 0.22530924 13751249
0.69499987 -0.0054694023 0.22530921 14014679
0.69517481 0.0048636734 0.22552776 14014423
0.69581801 0.015404711 0.22464567 13750737
0.69602388 0.025481084 0.22482297 13750737
0.69611907 0.035262775 0.22485425 14079702
0.69614285 0.04504082 0.22486188 14211287
0.69578028 0.054731637 0.22486398 14211288
0.69628561 0.064612463 0.22490922 14408667
0.69687527 0.074291848 0.22485511 14671840
0.69726855 0.084986411 0.2245104 15000548
0.69741392 0.094526872 0.22454253 15066342
0.70000005 0.0985495 0.22201395 15659249
0.70262492 0.10370322 0.22484934 14737634
0.79066676 0.13846201 0.22084637 11383210
0.79318184 0.1455171 0.22422448 11317162
0.69900006 -0.14050154 0.23560596 15000033
0.70130771 -0.14494628 0.23480469 13553101
0.69612902 -0.1350919 0.23495309 13684686
0.69433337 -0.12493505 0.23484714 14474202
0.69438893 -0.11437766 0.23486601 14211031
0.69488883 -0.10469992 0.23503572 14013652
0.69472206 -0.094917379 0.23497953 13750737
0.69450003 -0.085131481 0.23490381 13816530
0.6946665 -0.075394541 0.23496 13816273
0.69455552 -0.065626942 0.23492254 13882323
0.69471425 -0.055069536 0.23497565 14014165
0.69547045 -0.044738106 0.23547164 14013909
0.69617122 -0.034697469 0.2355866 13487566
0.69622225 -0.025037382 0.23548706 12961221
0.69558316 -0.015245567 0.23527074 12764612
0.69499987 -0.0054694023 0.23507118 13290700
0.69538444 0.0047339895 0.23501526 13553358
0.69546127 0.01525287 0.2354169 13158600
0.69544423 0.025460267 0.23522326 13027528
0.69563866 0.035238698 0.23528846 13224907
0.69561088 0.045006715 0.23527943 13290700
0.69538862 0.054760762 0.23520435 13488337
0.69583303 0.064569972 0.23535363 13685459
0.69607872 0.074541174 0.23513548 14211290
0.69630611 0.08498852 0.23469633 14605791
0.69702959 0.0947733 0.23479725 14935269
0.69900006 0.10004509 0.23806052 15330798
0.70179999 0.10462702 0.23504685 14738148
0.70400006 0.11064918 0.23893933 11053226
0.78875005 0.13412544 0.23492914 11382440
0.79009998 0.1380541 0.23486865 11382440
0.79388469 0.14522542 0.23506239 11382440
0.7021144 -0.14521815 0.24501455 13552846
0.69718188 -0.13430262 0.2453306 13618895
0.70000005 -0.13906384 0.24823335 13157574
0.69629729 -0.12462679 0.24518296 14474460
0.69655567 -0.11473482 0.2453835 14803168
0.69683361 -0.1049931 0.24548 14408410
0.69711119 -0.095242776 0.24557917 14211031
0.69666678 -0.085397795 0.24542332 13947859
0.69602776 -0.075542122 0.24519832 13750737
0.69636589 -0.065101683 0.2454164 13684943
0.69656771 -0.054555073 0.24527849 13553356
0.69738716 -0.045011632 0.24507034 13684944
0.70000005 -0.040741075 0.24905272 14080472
0.69806254 -0.035520941 0.24335974 13224394
0.70035714 -0.03431971 0.24789187 13027528
0.69840002 -0.025770312 0.24259813 12435647
0.70070004 -0.024871202 0.24733464 12435647
0.69764298 -0.014766233 0.24483278 12369854
0.70033336 -0.018900827 0.24862505 12238268
0.69677782 -0.0054834578 0.24546248 12698822
0.69737506 0.0041037891 0.24516143 12830150
0.69733351 0.014917551 0.24565718 12764100
0.69729424 0.02533604 0.24540316 12633027
0.69748586 0.035448413 0.24559395 12764613
0.69744468 0.045126118 0.24569596 13093064
0.69705558 0.054891482 0.24555951 13093065
0.69683361 0.064661458 0.24548057 13553358
0.69683367 0.074449837 0.24548009 13816531
0.69654763 0.085017703 0.24537985 14145495
0.69727039 0.095784381 0.2454783 14540254
0.69845456 0.10264237 0.24686627 13882325
0.7008571 0.10562567 0.24396464 13816790
0.70300001 0.110492 0.24024566 10987435
0.78900003 0.13324413 0.24008258 11579819
0.7915715 0.13751832 0.24430953 11382440
0.79429412 0.16459668 0.24475473 11250854
0.7025525 -0.14541742 0.2551541 13486795
0.69762081 -0.13358095 0.25541487 13881809
0.70000005 -0.13906384 0.25478822 12828608
0.69700032 -0.12459847 0.25532791 14474460
0.69738907 -0.11487202 0.25547183 14737376
0.69750017 -0.10509302 0.25551268 14606046
0.69834483 -0.095833585 0.25506026 14671839
0.70000005 -0.093726106 0.25833878 15000804
0.69825 -0.085386604 0.25313023 14737375
0.69999993 -0.085641809 0.25779253 14737375
0.69843328 -0.074549936 0.25454625 14606046
0.70000005 -0.077202424 0.25847533 14671582
0.69841379 -0.064497106 0.25491697 14474203
0.70000005 -0.060405623 0.258885 14671582
0.69866663 -0.056064639 0.25321296 14277081
0.70011103 -0.053676851 0.2569232 14605789
0.69900006 -0.046137441 0.25087872 13487565
0.70077425 -0.044542555 0.25568002 14408410
0.70202845 -0.035222702 0.2554113 13685201
0.70245701 -0.025144815 0.25556684 13027270
0.69900006 -0.012864554 0.25115147 12040889
0.70132262 -0.015820807 0.2558282 12633283
0.69900006 -0.005500881 0.25196967 12238527
0.70095831 -0.0055165365 0.25677952 12370369
0.699 0.0049718972 0.25131512 12369856
0.70058328 0.0043267375 0.25664163 12435648
0.699 0.014953764 0.25196967 12171707
0.70049995 0.014985854 0.2566112 12566464
0.699 0.026174596 0.25150213 12566722
0.70048004 0.025742684 0.25644001 12698050
0.699 0.034823991 0.2517359 12829893
0.69999999 0.035459068 0.2564269 12632257
0.69845837 0.045803621 0.25443184 13092551
0.70000005 0.042833269 0.25806564 12632000
0.69803333 0.054968935 0.25488958 13290186
0.69803125 0.064977132 0.25519547 13553615
0.69752795 0.07452257 0.25552168 13750995
0.69700038 0.085073628 0.25532794 14079702
0.69725019 0.095714882 0.25541955 14408668
0.69784617 0.10264487 0.25482088 12829635
0.70580006 -0.1504599 0.26598784 12894658
0.70382148 -0.14500609 0.26512438 13684174
0.69800001 -0.13317822 0.26494297 14342362
0.70030004 -0.13846794 0.26539046 12565694
0.69716692 -0.12462827 0.26518238 14737889
0.6979444 -0.114963 0.26547766 15132133
0.69868749 -0.10506769 0.26545429 15197926
0.70000005 -0.10710894 0.26871726 15197926
0.699 -0.098774061 0.26506066 14803425
0.70000005 -0.094377391 0.26506165 15066340
0.70073837 -0.085075416 0.26490009 15000547
0.69900006 -0.07013756 0.26015154 14671582
0.70031452 -0.074486539 0.2648567 15000547
0.69900006 -0.067683004 0.26015154 14539996
0.70026481 -0.064333074 0.26496178 15132133
0.70091683 -0.054741431 0.26496741 15198183
0.70097238 -0.044899706 0.26498747 15461098
0.70277125 -0.035212163 0.26526874 14605532
0.70396793 -0.025449391 0.26513818 13816272
0.70336664 -0.015415474 0.26507178 13553614
0.70280528 -0.0055315122 0.26568267 13817043
0.70233315 0.0043373513 0.26550472 13487565
0.70197606 0.015018101 0.26536813 13027014
0.70202762 0.025700929 0.26538834 12961221
0.70188892 0.035553899 0.26533785 13093062
0.70108342 0.045360688 0.26503322 12895682
0.69900006 0.059135798 0.26015154 13290188
0.70048583 0.055044115 0.26492313 12961479
0.69892591 0.065795198 0.26418436 13290188
0.70000005 0.062133662 0.26689646 13289931
0.6979444 0.074568301 0.26547766 13684946
0.69712228 0.084968887 0.26506567 13947861
0.69753861 0.094874658 0.26425645 14013910
0.70025003 0.097355664 0.26840356 13355982
0.69875008 0.101236 0.26414883 11710899
0.70066673 0.10137767 0.26842692 11776948
0.78833342 0.13805313 0.26879212 11382440
0.79275 0.1385179 0.26302499 11316647
0.78900003 0.14155591 0.26963562 11382183
0.79351854 0.14577228 0.26456705 11250854
0.70727271 -0.15119623 0.27527285 13027017
0.70537943 -0.14520322 0.27505377 13421260
0.69866669 -0.13189346 0.27329451 14079446
0.70091659 -0.13651337 0.275565 13421516
0.69803029 -0.12446113 0.27499339 14868705
0.70000005 -0.12923156 0.27854952 14539996
0.69777781 -0.11493587 0.27521491 15197670
0.69808328 -0.10518119 0.27533486 15263720
0.69800007 -0.095481411 0.27541748 15066597
0.70000005 -0.093507618 0.27068371 14935011
0.69810009 -0.086143747 0.27738354 15263975
0.7002964 -0.084353536 0.27295914 15395562
0.69850004 -0.073561452 0.2779516 15395563
0.70017862 -0.075115345 0.27376127 15263720
0.69837505 -0.064352907 0.27708408 15395564
0.69999993 -0.064502396 0.27199471 15395562
0.69805568 -0.055517163 0.2774111 15461357
0.70029163 -0.053941205 0.27320001 15527149
0.70116681 -0.04491115 0.27491042 15592941
0.70307887 -0.034983508 0.27535626 15000290
0.70436853 -0.025330894 0.27481845 14013652
0.70285714 -0.01540526 0.27474609 14145495
0.70199984 -0.005524491 0.27523378 14277081
0.70169431 0.0043335678 0.27511495 14277080
0.7021426 0.015023064 0.27529258 13882066
0.70299971 0.025736613 0.27562892 13750737
0.70299971 0.035611033 0.27562895 13553873
0.70291638 0.045479625 0.27559668 13290958
0.70155555 0.055244423 0.27506271 13290957
0.69885719 0.0677711 0.2756404 13553617
0.7002272 0.063113481 0.2743932 13422031
0.69816661 0.074593209 0.27536863 14013654
0.69838101 0.083685622 0.27362409 13882068
0.70022225 0.086378105 0.27772754 14145240
0.69900006 0.090226866 0.27160612 13882066
0.70196557 0.094862722 0.27502707 14079702
0.70420003 0.1016141 0.27527872 11974583
0.78635299 0.13626496 0.27500859 11185061
0.78853339 0.14239596 0.27501386 11185062
0.79036367 0.14743581 0.27514756 11053476
0.79229993 0.1548247 0.27478275 10987939
0.79437035 0.1656289 0.27484354 10988195
0.70850003 -0.15132624 0.28400609 12500673
0.71066666 -0.15282868 0.28778592 12566464
0.70641387 -0.14496018 0.2850934 12632257
0.70221204 -0.1350731 0.28486073 13289931
0.69847065 -0.12240936 0.28477037 14605791
0.7004118 -0.12766857 0.28498334 14079447
0.69750011 -0.11489207 0.28490222 14474461
0.69702733 -0.10491288 0.28486264 14868962
0.69607145 -0.095102228 0.28513083 14671584
0.69573808 -0.085282885 0.28499371 14539996
0.69688374 -0.075463198 0.28516009 14934755
0.69707352 -0.064770408 0.28502598 15000549
0.69708365 -0.054441914 0.28473195 15198185
0.69827783 -0.046451893 0.28667256 15461357
0.70062512 -0.043578282 0.28364938 15592942
0.70197195 -0.035102218 0.28508377 15066341
0.70257503 -0.02526693 0.28475139 14079445
0.699 -0.01333209 0.2873854 14079702
0.70055556 -0.016235461 0.2837503 13948116
0.69826669 -0.0054954235 0.28603187 14408668
0.69999999 -0.0055087511 0.28100765 14408669
0.69866663 0.0015899544 0.28687835 14343388
0.70037043 0.0052675954 0.28367531 14343132
0.70221931 0.014905818 0.28520608 14145497
0.70305383 0.025581712 0.28550261 14211546
0.70233309 0.03557726 0.28523123 14211290
0.70274961 0.045468777 0.28540084 13553103
0.70166659 0.055253427 0.28496236 13619409
0.69900006 0.068954028 0.28224254 13751252
0.70034391 0.064525403 0.28478375 13619409
0.69855571 0.074634887 0.28288123 14013911
0.69999999 0.074788176 0.28756246 13947861
0.69900006 0.080408633 0.28224254 14211290
0.7003237 0.084902093 0.28451228 14079704
0.70341015 0.094980195 0.28497046 13883096
0.70560008 0.10098972 0.28408018 10395806
0.78166676 0.12834589 0.28725913 11119268
0.78560007 0.13473621 0.28531903 11053732
0.78880006 0.14133556 0.28452545 11053733
0.79150003 0.14640717 0.28554609 10922404
0.79366672 0.15481423 0.28465122 10988197
0.79345709 0.16477765 0.28522387 10988197
0.70900005 -0.15081048 0.2904298 11842742
0.7105 -0.15196177 0.2918753 11447983
0.70618182 -0.14352648 0.29318157 11184813
0.70341665 -0.13459918 0.29431841 12566466
0.69849998 -0.12143318 0.29446808 13158601
0.70099992 -0.12664109 0.29491711 13290188
0.69805551 -0.11498254 0.29493564 13553360
0.6974287 -0.10520016 0.29478782 13816531
0.69640011 -0.09514726 0.2950514 13816531
0.69556653 -0.085261807 0.2946988 14013909
0.69638699 -0.075448893 0.29488832 14276825
0.6968295 -0.065065846 0.2945163 14539996
0.69700032 -0.054435831 0.29448846 14737633
0.69747233 -0.044674799 0.29468673 15264234
0.69830436 -0.035808481 0.2964246 14738147
0.70021051 -0.033937518 0.2923502 14803427
0.69872224 -0.024855077 0.29748738 14079447
0.70037502 -0.025392257 0.29277089 14145496
0.69800001 -0.015181613 0.29502621 14079702
0.70000005 -0.019437809 0.29083991 13684944
0.6979444 -0.00549225 0.29488719 14211289
0.69841373 0.0034408513 0.29533905 13948887
0.69999999 0.0076009496 0.29329798 14014681
0.69900006 0.011026472 0.2984426 13882325
0.70090908 0.015443497 0.29486939 13948375
0.70121437 0.025670327 0.29544464 13882582
0.7006669 0.035492606 0.29521459 14080217
0.70095235 0.04535329 0.29533437 13685716
0.70140547 0.055123691 0.29486123 13290443
0.70072997 0.065133095 0.29457906 13356237
0.70000029 0.074788153 0.29493663 13750740
0.70050007 0.084682427 0.29432872 14079704
0.70238698 0.094167136 0.29466999 13290444
0.78471428 0.12805972 0.29441747 10922403
0.78770828 0.13502638 0.2951664 10987939
0.78900003 0.14063238 0.29364744 10987682
0.79117393 0.14512937 0.29509988 10987940
0.79334462 0.15459996 0.29475018 10922404
0.79444826 0.1650133 0.29561096 10987941
0.70533335 -0.13260219 0.30378881 11448502
0.70221746 -0.12542941 0.30394807 12303808
0.69875002 -0.11591391 0.30218044 12435393
0.69999999 -0.11497476 0.30493283 11777465
0.69862503 -0.10403709 0.30192173 13093066
0.69999993 -0.10510607 0.3053152 12040635
0.69768965 -0.095182352 0.30365121 12829637
0.70000005 -0.099734724 0.30804637 10922410
0.69760007 -0.085394025 0.30442593 12829893
0.69779491 -0.075294241 0.30481571 13092807
0.69758987 -0.064719938 0.30434957 13421773
0.69712228 -0.054386262 0.30502877 13882582
0.69697654 -0.044644028 0.30508396 14672611
0.697658 -0.035058826 0.30486631 14409182
0.69800001 -0.025101375 0.30471516 13816531
0.69755018 -0.015125157 0.30508941 13619409
0.69779491 -0.0056794006 0.30506426 13882324
0.69839281 0.0040214309 0.30389521 13817045
0.70000005 0.0053477199 0.30907056 13487824
0.69883341 0.013132919 0.30353412 13488338
0.70004535 0.016093753 0.30650216 13290959
0.69900006 0.029272016 0.30269718 13619923
0.70003849 0.02506073 0.30503801 13422545
0.69893336 0.034696329 0.30245015 13685716
0.70006657 0.036172945 0.3066555 13290958
0.69900006 0.041953899 0.30106083 13685716
0.70039302 0.045551654 0.30517548 13422287
0.70151424 0.055360947 0.30472675 13224907
0.70137143 0.064965032 0.30466381 13092807
0.70119995 0.074916922 0.30529341 13027273
0.70251423 0.084810063 0.30492648 13422803
0.70537502 0.094216265 0.30559739 12830921
0.78850007 0.1294679 0.30176842 10988196
0.79000002 0.12971419 0.30696541 10790305
0.78900003 0.1328747 0.30177447 10922403
0.79131585 0.13548745 0.30621183 10921890
0.79386961 0.14546186 0.30507872 10922146
0.7937932 0.15526189 0.30459723 10790818
0.79263324 0.16534011 0.30514327 10856867
0.79382753 0.17488128 0.30511752 10856868
0.70000005 -0.081708886 0.31132379 12238270
0.69879997 -0.074044071 0.311281 11974327
0.70000005 -0.075154036 0.3129625 12303038
0.69835007 -0.063451476 0.31279698 12303291
0.69713056 -0.054269828 0.31380805 12435650
0.6971336 -0.044653531 0.31494522 13225423
0.69799995 -0.034712769 0.31476042 13421773
0.69789743 -0.024909567 0.31491241 13158602
0.6973058 -0.015283439 0.31529418 12895944
0.69760716 -0.0053708213 0.31405026 12895944
0.69900006 0.00022641933 0.31087905 13225165
0.70089668 0.0044725095 0.31511849 12567749
0.7012223 0.015366567 0.31478715 12239041
0.70202851 0.025584972 0.3145768 12304321
0.70287108 0.035472002 0.31440923 12501187
0.70356673 0.045523241 0.31456003 12699078
0.70406681 0.055443611 0.31478277 12830407
0.70358837 0.065094285 0.31514987 12567235
0.70380014 0.075195424 0.31466335 12172734
0.70493114 0.085133769 0.31476954 12239042
0.7060625 0.093308166 0.31329685 13028302
0.79426926 0.16452588 0.31477594 10791074
0.79445451 0.17533563 0.31478456 10856868
0.69900006 -0.040682871 0.32069728 11843514
0.69869232 -0.033870433 0.32181454 12567749
0.70000005 -0.037463646 0.3227948 12501442
0.69811112 -0.02592304 0.32137907 12633028
0.6978333 -0.017472444 0.32125095 12238270
0.7021001 0.017650217 0.32162651 10527912
0.70360005 0.025104269 0.32165381 11120048
0.70536363 0.035806205 0.32136562 10987951
0.70514286 0.046214364 0.32045016 11252149
0.70499998 0.055620506 0.32169652 11580857
0.70500004 0.065254822 0.32113945 11185583
0.70500004 0.073671952 0.32014921 11580340
0.79346162 0.15499866 0.32530546 10659487
0.79344743 0.16513257 0.32472235 10791073
0.79388231 0.17484659 0.32503152 10791074
0.79331231 0.14476378 0.33482972 10659487
0.79073346 0.15482348 0.33501771 10659488
0.79131997 0.16512991 0.33526692 10725280
0.79252177 0.17457543 0.33504987 10791073
0.79386961 0.14545882 0.34531775 10593696
0.79265511 0.1550398 0.3449848 10593697
0.79369247 0.16541041 0.34570691 10659489
0.79439288 0.15553732 0.35516435 10397089
0.79280627 0.16525854 0.35522991 10528417
0.79338235 0.17500903 0.35519719 10594466
0.79391432 0.15552223 0.3647196 10593695
0.79128015 0.16511922 0.36488774 10659488
