# .PCD v0.7 - Point Cloud Data file format
VERSION 0.7
FIELDS x y z rgb
SIZE 4 4 4 4
TYPE F F F U
COUNT 1 1 1 1
WIDTH 947
HEIGHT 1
VIEWPOINT 0 0 0 1 0 0 0
POINTS 947
DATA ascii
0.73100001 -0.13324337 0.088953763 11315876
0.72900003 -0.12178592 0.08871039 14803678
0.73049998 -0.12716801 0.088892922 16119283
0.72816676 -0.11482907 0.088608988 15396329
0.72750008 -0.10791118 0.088527866 15659757
0.72500002 -0.096507728 0.089920878 15790571
0.79406893 0.12480171 0.085020125 11777198
0.72900003 -0.14354509 0.097883388 11637887
0.7304166 -0.14311057 0.093726344 11967366
0.72900003 -0.13913636 0.098381139 13348244
0.73070967 -0.13512139 0.094766542 11443599
0.72855008 -0.1229911 0.095050961 15395303
0.73018742 -0.12807436 0.094303027 16315891
0.72664851 -0.11452135 0.094536163 15592422
0.72452784 -0.10506885 0.095085047 15197663
0.72256756 -0.095223166 0.095374152 15855851
0.72602642 -0.085992955 0.095095776 15856365
0.73025 -0.080538526 0.093563266 16119281
0.72900003 -0.07997416 0.098096706 16053488
0.73173356 -0.074275956 0.095893763 16053488
0.73323071 -0.064790659 0.095956638 15856365
0.73304009 -0.055500697 0.096749745 16053744
0.74425 -0.055501491 0.094050743 15593193
0.73263639 -0.045446482 0.097103208 15856366
0.73305553 -0.034941155 0.097783752 15527658
0.7341001 -0.026568973 0.098439425 14935264
0.74425006 -0.023275035 0.0988428 15001058
0.75633335 -0.022768775 0.099118888 15067620
0.77000004 -0.021381589 0.099107347 14541023
0.74800003 -0.019019606 0.09977787 15592941
0.75800002 -0.019273877 0.09933731 14409690
0.76214296 -0.013513631 0.099366888 14212055
0.77350003 -0.015590239 0.098423027 13751505
0.7853334 -0.01445059 0.096991673 11514540
0.75900006 -0.0050846436 0.099468373 14606299
0.76383334 -0.0045192828 0.098906696 14935263
0.77511108 -0.004789399 0.097141705 13685966
0.78666669 -0.0050624162 0.095315188 10988453
0.75840008 0.0055696033 0.099389732 15462374
0.76371431 0.0040766182 0.098552473 15331045
0.77416664 0.0047802469 0.096922994 14015444
0.78649998 0.0048572039 0.094783902 10461852
0.74850005 0.015134838 0.099844567 14935263
0.75600004 0.015285145 0.099075198 15198688
0.76344454 0.01573677 0.097663768 15133408
0.77225006 0.014718809 0.096683122 14343894
0.7855556 0.014761226 0.09456715 12369848
0.74880004 0.024782974 0.099884585 15264481
0.75500005 0.024990523 0.098944157 14935516
0.76418191 0.024803322 0.097378232 14935516
0.77400011 0.024712011 0.095998295 14080467
0.78433341 0.025043881 0.094521999 13159365
0.7925455 0.024881463 0.091886193 10921889
0.74716669 0.034349095 0.099666715 15329504
0.7554 0.035437915 0.098285846 15066588
0.76487505 0.034273282 0.097101919 15066590
0.77400005 0.034677725 0.095998295 14474711
0.7851001 0.03517551 0.094614491 13158854
0.74800003 0.040517166 0.09977787 15724005
0.75650001 0.043933511 0.098844588 15395040
0.76483339 0.045004103 0.097543389 15395042
0.77312505 0.045494996 0.096340418 15198177
0.78490919 0.044852767 0.094674915 13422023
0.79450005 0.04489284 0.092028402 10922144
0.76522231 0.053999722 0.099086493 15395556
0.77391666 0.05536079 0.096739806 15263970
0.78561538 0.055146489 0.093896978 13224901
0.79233336 0.054047525 0.091469422 10922146
0.76900005 0.06235747 0.098978639 15657958
0.77457899 0.065527357 0.096636005 15132385
0.78550005 0.064767443 0.093130209 12962247
0.79080003 0.065048508 0.090676866 10659236
0.77368188 0.075003035 0.097023137 15198178
0.78576469 0.075021818 0.091825664 12567489
0.77457148 0.084784061 0.096927315 15263974
0.78543758 0.085178949 0.092124127 13158598
0.77600002 0.093446821 0.098423973 15724270
0.78615004 0.095310286 0.094554976 14408665
0.79120004 0.096202433 0.091092609 11645355
0.7881667 0.10296748 0.098369502 13882066
0.79265219 0.10570455 0.094675384 11645613
0.79303342 0.11498377 0.094827533 11777198
0.78899986 0.12653637 0.096108869 11843245
0.79023528 0.12333169 0.094093487 11842990
0.78900003 0.13139705 0.096011661 11909038
0.79057699 0.13529196 0.094709799 11909038
0.72677767 -0.14400589 0.10488335 11374715
0.72635901 -0.13488324 0.10499194 10652285
0.71900004 -0.12179852 0.10937501 15394787
0.72464877 -0.12516285 0.10472022 14933977
0.71899992 -0.11468322 0.10860992 16184302
0.72218519 -0.11541964 0.10359264 15724264
0.71899992 -0.10471907 0.10779082 16184046
0.72073686 -0.10544329 0.10306662 15921384
0.71899992 -0.094867446 0.10707974 16250095
0.72000015 -0.094999388 0.10230342 16381937
0.71899992 -0.085762911 0.1084569 16315888
0.72151864 -0.084404752 0.10374814 16381680
0.71900004 -0.078035526 0.10937501 16250095
0.72452956 -0.075441539 0.10561591 16119023
0.73066664 -0.07359942 0.10145677 15987693
0.72544008 -0.065317161 0.10763083 16053486
0.73094124 -0.065390915 0.10253388 15921901
0.72578573 -0.054742038 0.10724412 15987693
0.73099995 -0.05586889 0.10215443 16053486
0.72661906 -0.045690615 0.10777463 15987693
0.73100013 -0.04452619 0.10291313 16053487
0.72880006 -0.036957085 0.10881834 15987693
0.73135489 -0.034502223 0.10462423 15921643
0.73270279 -0.024514819 0.10528816 15461349
0.73527592 -0.015013563 0.10662115 15263714
0.74323082 -0.013142314 0.10235086 15263975
0.75240004 -0.013844529 0.10036479 15198183
0.73825008 -0.0071052257 0.10841432 15526629
0.74392319 -0.0046484256 0.10471857 15197925
0.75400001 -0.0050492748 0.10057823 15001060
0.74438894 0.004597431 0.10538745 14737887
0.7523334 0.0046393466 0.1003559 14146518
0.74361116 0.015036755 0.10527699 14737630
0.73857147 0.025926223 0.10864707 14474203
0.74337924 0.025323991 0.10425501 14540250
0.73900002 0.034839623 0.10895739 14671582
0.74352002 0.035053834 0.10439589 14606042
0.74483865 0.044229828 0.10604304 15000801
0.7536 0.047177065 0.10175811 15592677
0.74666673 0.053993583 0.10877486 14737376
0.75599998 0.05534371 0.10532136 15330022
0.76300007 0.05705031 0.10177501 15658728
0.75606668 0.065615334 0.10781047 15000801
0.76404762 0.064894706 0.1029333 15658471
0.75690913 0.074346907 0.10869611 15395558
0.76500005 0.074717328 0.10390218 15724008
0.77000004 0.077760525 0.10090993 15592165
0.75800002 0.080097653 0.10998426 15527144
0.76531827 0.084291622 0.1063961 15790059
0.77033335 0.08600986 0.10195505 15592166
0.76785713 0.092439011 0.10833205 16053488
0.77300006 0.095141724 0.10428951 15724268
0.77740002 0.10107525 0.10660996 15395048
0.78579998 0.10539235 0.10491049 12368825
0.79000002 0.10937075 0.10260627 11777198
0.79242849 0.11507608 0.10511012 11711405
0.79200017 0.12469399 0.10550947 11842991
0.79411113 0.13472876 0.10517497 11842990
0.72499996 -0.14261797 0.1108527 9928813
0.71854544 -0.13250275 0.11710358 12564401
0.72143751 -0.13561925 0.11269855 11048328
0.71645713 -0.12474954 0.11511403 15262431
0.72000003 -0.12955281 0.11121266 14538448
0.71387815 -0.11507976 0.11526803 15526632
0.71432555 -0.10511637 0.11534248 15790061
0.71553659 -0.095121704 0.11533482 15658731
0.71659452 -0.084641807 0.11498735 15592938
0.71737146 -0.074619278 0.11512028 15658731
0.72000003 -0.070559166 0.11121266 16053486
0.7177586 -0.064603612 0.11601956 15790318
0.72042859 -0.064094804 0.11151964 15855851
0.71796554 -0.054246794 0.11605376 15790319
0.7208572 -0.055213511 0.11158584 16118509
0.71860868 -0.044529531 0.11699443 15724527
0.72133338 -0.043780763 0.11209141 15856109
0.71899998 -0.035835501 0.11899327 15724527
0.7230857 -0.034150455 0.11414614 15724525
0.7247144 -0.024679836 0.11624269 15658733
0.73042858 -0.022968575 0.11160214 15461608
0.72523808 -0.01479999 0.11783563 15330024
0.73111117 -0.014309615 0.11292773 15461607
0.72740006 -0.0064023384 0.11848518 15527148
0.73337048 -0.0047204639 0.11365099 15461094
0.72900003 0.0010894379 0.11942924 15198183
0.73405725 0.0046072518 0.11553349 14935008
0.74000001 0.0054367594 0.1108372 14803419
0.73405129 0.015042431 0.11548596 14737629
0.74000001 0.012366173 0.11083719 14606042
0.72900003 0.025835168 0.11942925 14408667
0.73367578 0.025025804 0.11433707 14539995
0.72814286 0.035786562 0.11904501 14408667
0.73342872 0.035313379 0.11401332 14605788
0.7276364 0.044988513 0.11843011 14408410
0.73404014 0.045120228 0.11399055 14935010
0.74150002 0.047977053 0.11106187 15132133
0.72900003 0.053140804 0.11942924 14539996
0.73404169 0.054435458 0.11602173 15000802
0.74307692 0.056442961 0.11223141 15197926
0.73373926 0.064837143 0.11751029 15197924
0.74459112 0.06521114 0.11254828 15197926
0.73340005 0.074579515 0.118084 15527144
0.74505258 0.074779965 0.11369891 15132133
0.75183344 0.076515853 0.11114217 14474205
0.73384613 0.08441513 0.11902978 15921902
0.74529415 0.084913284 0.11614171 15592941
0.75566661 0.085158654 0.11247036 15132133
0.76066667 0.087503158 0.11037118 15987695
0.73866671 0.091889344 0.11928365 16053745
0.74492854 0.095529921 0.11829714 15527661
0.75550002 0.094616182 0.1151759 15066597
0.76300007 0.095081575 0.11216841 15987695
0.77166671 0.099005021 0.11076242 16513785
0.74400008 0.10126061 0.11927053 15856884
0.755 0.10326172 0.11838229 15265004
0.76285714 0.10433211 0.11680676 14475229
0.77420008 0.10428374 0.11377995 14408663
0.78480005 0.10755102 0.1116639 11710893
0.77649999 0.11204566 0.11903028 13882836
0.7869091 0.1134646 0.1165195 11711406
0.79287499 0.11661582 0.11422943 11777198
0.79339987 0.12469989 0.11511838 11777198
0.79393113 0.13478285 0.11519349 11842991
0.71753335 -0.13224562 0.12494285 13025210
0.71316123 -0.1249902 0.12517926 13881035
0.70859253 -0.11435317 0.12591493 15790059
0.71000004 -0.11741138 0.12333439 14342100
0.70899999 -0.10765617 0.12658562 15658730
0.71027285 -0.10376742 0.12467437 15724523
0.71157902 -0.095377415 0.12542862 15592937
0.7121163 -0.085487269 0.12488006 15461098
0.7127856 -0.075452618 0.12511232 15329512
0.71329278 -0.065501817 0.12487587 15395305
0.71512496 -0.054759402 0.12485585 15395562
0.71722198 -0.04426061 0.12505516 15461355
0.71834302 -0.03436074 0.12512922 15527148
0.71824133 -0.025336351 0.12566513 15132391
0.72000003 -0.022521473 0.12132587 15000804
0.71853578 -0.015986495 0.12636438 15000804
0.72025001 -0.014940882 0.12178937 14935011
0.71899992 -0.0067242961 0.12800233 15198184
0.72192609 -0.0050853807 0.12308494 14803425
0.71899998 0.0043206499 0.12933287 14803425
0.72297126 0.004490355 0.12423333 14540510
0.71899998 0.014419802 0.12933287 14671839
0.72302842 0.014644841 0.12424281 14277595
0.71900004 0.024639182 0.12957333 14211288
0.72252774 0.024759911 0.12427898 14080216
0.71899992 0.03586046 0.12845118 14013909
0.7222001 0.034441281 0.12349293 14080217
0.71868002 0.04491787 0.12682281 14013911
0.72170591 0.044858396 0.12151114 14408668
0.71829176 0.054882273 0.12692146 14211290
0.72338891 0.05527477 0.1218925 14606046
0.71775007 0.064922437 0.12682541 14540255
0.72370595 0.065210208 0.12204535 14737632
0.71737498 0.074964099 0.12675917 14343133
0.72350001 0.075038075 0.12191018 14606044
0.71708328 0.085007854 0.12670663 14737634
0.72433335 0.084675454 0.12227629 14539996
0.73000002 0.088247031 0.121302 15263202
0.71772224 0.095165059 0.12766127 15198441
0.72417653 0.095171541 0.12371874 14803940
0.73218191 0.094978385 0.12088392 15461867
0.71827781 0.10532759 0.12776047 15790835
0.72390914 0.10406757 0.12429133 15067111
0.73246163 0.10469942 0.12197179 14672352
0.7446 0.10587402 0.12093707 15527919
0.75550002 0.1090131 0.12111473 15198955
0.71850008 0.11166695 0.1273798 14013910
0.74800003 0.11056042 0.12254193 14211288
0.75800002 0.11381299 0.12418019 14211288
0.76300001 0.11278456 0.12232353 14474718
0.77600002 0.11742166 0.12349112 11776945
0.78400004 0.11680036 0.12109824 12632253
0.78860009 0.12339298 0.12457842 11842735
0.79027772 0.12749866 0.12371131 11842734
0.79043353 0.13533702 0.12486605 11777198
0.79153335 0.14479131 0.12504117 11777198
0.71866667 -0.13245392 0.13489822 13092033
0.72000003 -0.13460942 0.13902396 12302774
0.71432155 -0.12525463 0.13524012 13223105
0.70864701 -0.11375064 0.13317317 16184561
0.71026325 -0.11651256 0.13727555 14210002
0.70900005 -0.108025 0.13293494 15790316
0.70999992 -0.10436063 0.13620046 15000800
0.71052772 -0.095412254 0.13553047 15198180
0.71061122 -0.085441776 0.13554642 15395560
0.71144462 -0.075548559 0.13570589 15395816
0.71237135 -0.06566456 0.13519178 15527146
0.71458542 -0.055090275 0.1345298 15527147
0.71645683 -0.044620894 0.13491155 15527147
0.71681225 -0.035321433 0.13526113 15592941
0.71694416 -0.025782654 0.13507691 15198696
0.71755558 -0.015724402 0.13519138 15001575
0.71833348 -0.0056524421 0.13533753 15067112
0.71883327 0.0044405637 0.13543236 14869734
0.71899992 0.01454003 0.1354645 14541024
0.71891665 0.024636032 0.13544829 14343131
0.71836114 0.034706261 0.13534176 14342874
0.71738887 0.044735976 0.13515951 14342874
0.71644425 0.054739222 0.13498211 14408667
0.71407896 0.064764738 0.13484009 14540253
0.7132144 0.074529536 0.13520205 14671582
0.71307164 0.084530979 0.13517509 15000546
0.71364987 0.094458297 0.13503489 15461099
0.7161386 0.10501619 0.13492483 15659508
0.71772724 0.11189053 0.13514799 13487823
0.79000002 0.12909772 0.13188849 11645099
0.79040915 0.13575427 0.13462064 11711148
0.71899998 -0.13147686 0.14472204 14012624
0.72061551 -0.13472572 0.14569584 13617864
0.71627599 -0.12565097 0.14515775 13486536
0.71176678 -0.11557625 0.14493456 14869214
0.71153349 -0.10554249 0.14488672 15000543
0.71132356 -0.095324308 0.1454317 14935008
0.7110557 -0.085496247 0.14562219 14868959
0.71172225 -0.075578384 0.14575717 14671580
0.71288884 -0.065269716 0.14502282 14803422
0.71473545 -0.055573396 0.14450456 15066595
0.71519446 -0.045810241 0.14479248 15132133
0.7157498 -0.035792906 0.1449044 15000804
0.7161386 -0.025753397 0.14498365 14671838
0.71699971 -0.015713595 0.14515875 14474462
0.71716648 -0.0056431312 0.14519174 14606048
0.71777797 0.0044344356 0.14531516 14409182
0.71797216 0.014519279 0.1453535 14146010
0.71747196 0.024585627 0.1452526 13882325
0.71622205 0.034602366 0.1449993 14079704
0.71597207 0.04464883 0.14494765 14277082
0.71491671 0.054622274 0.14473344 14342874
0.71195006 0.064228669 0.145218 14408667
0.71047235 0.074242517 0.14550115 14474204
0.70900005 0.088198096 0.14602879 15131878
0.71013147 0.084663644 0.14534362 14802912
0.71137512 0.095313713 0.14531869 15395564
0.71574289 0.10483998 0.14487952 15658994
0.71772724 0.11204334 0.14507666 12829636
0.71899998 -0.13161713 0.15650438 13683917
0.72090483 -0.13598585 0.15426551 13881295
0.71677774 -0.12478292 0.15518232 14013137
0.71479994 -0.11451259 0.15487674 15000544
0.71437138 -0.10469737 0.1547361 14934494
0.71332151 -0.095431045 0.15479268 15131617
0.71248382 -0.085534051 0.15524861 15000546
0.71265626 -0.075886048 0.15543681 15000290
0.71369237 -0.06505435 0.15444866 14934496
0.71490628 -0.055310912 0.15498345 15066339
0.71391684 -0.045730282 0.15455948 14935009
0.71416676 -0.035712134 0.15461451 14935009
0.71594429 -0.025744224 0.15500198 14540252
0.71699971 -0.015713595 0.15522975 14145495
0.71669412 -0.005639968 0.15516233 14145752
0.71699971 0.0044285245 0.15522981 14145496
0.71699971 0.014499581 0.15522981 13553359
0.71663857 0.024556868 0.1551511 13290187
0.71544439 0.034564331 0.15489331 13684945
0.71322209 0.044476196 0.15441135 13750481
0.71255547 0.054444104 0.15426674 14013909
0.71203327 0.064404808 0.15498899 13882322
0.7116251 0.074416339 0.15521289 13947859
0.71157146 0.084614508 0.15536514 14013652
0.71100026 0.094391324 0.15571453 14474462
0.71400005 0.10451241 0.15502654 15133162
0.71684617 0.11228123 0.15629326 14080217
0.71899992 -0.13182116 0.16583845 13881296
0.72038096 -0.1365287 0.16443403 14605016
0.71727777 -0.12486763 0.16536437 14473432
0.71633309 -0.11463834 0.16514666 15131616
0.71613872 -0.10455075 0.16510175 15197408
0.71461302 -0.094964594 0.164886 15263202
0.71282339 -0.08570981 0.16433781 14934753
0.71214998 -0.075457782 0.16526532 15066341
0.71292096 -0.065867461 0.164667 14934754
0.71422243 -0.05578037 0.16466147 15131877
0.71377784 -0.045721155 0.164561 15066341
0.71438897 -0.035722598 0.16470125 14737376
0.71605533 -0.025749521 0.16508284 14540251
0.7165553 -0.01570431 0.16519774 14079701
0.71644413 -0.0056373179 0.16517401 14145495
0.71699971 0.0044285245 0.16530085 14145240
0.71663857 0.014491013 0.16521673 13684944
0.71594423 0.024534468 0.16505754 13619151
0.71588868 0.034587562 0.16504517 13553102
0.71508336 0.04459158 0.16486086 13816530
0.71341658 0.05450825 0.16447572 13948373
0.71299988 0.064493075 0.1643787 14211543
0.712861 0.074631833 0.16490214 14211029
0.71202564 0.084469475 0.16562623 14211030
0.71070284 0.094659157 0.16557872 14474203
0.71224332 0.10487404 0.16521506 15000804
0.71555555 0.11255968 0.16524462 14342875
0.71848148 -0.13407789 0.17607534 14736602
0.72018188 -0.13816877 0.17239453 14868186
0.71538895 -0.12467921 0.17511231 15065569
0.7132684 -0.11498217 0.17528737 15526377
0.71367437 -0.10502236 0.17538761 15395048
0.71441036 -0.094710551 0.17505823 15460840
0.71400017 -0.084701963 0.17484972 15197925
0.7126072 -0.075375937 0.17495449 15066340
0.71327019 -0.065068364 0.17461745 15000547
0.71521056 -0.054754283 0.1748895 15197926
0.71599978 -0.045024194 0.17533678 15131878
0.71608549 -0.035690363 0.17507684 15066083
0.71599978 -0.025748694 0.17512728 14605789
0.71633315 -0.015697682 0.17520815 14342873
0.71688855 -0.0056414008 0.17534412 14145751
0.71697193 0.0044282558 0.17536496 14145496
0.71616638 0.014481883 0.17516758 14079703
0.71588868 0.024532303 0.17509951 13619151
0.71588868 0.034588214 0.17509952 13947859
0.71541667 0.044612493 0.17498401 13947859
0.71344441 0.054510202 0.17450142 14277081
0.71284986 0.064645953 0.17493998 13947859
0.70900005 0.079345919 0.17867117 14671582
0.71184629 0.074107051 0.17506953 14342617
0.70820832 0.086372025 0.17625983 14671581
0.71050006 0.083289608 0.17294984 14539994
0.70802933 0.095731527 0.17507641 15001059
0.71000004 0.092477798 0.17116658 14803421
0.70860004 0.10363152 0.17691089 15263976
0.71064717 0.10660592 0.17415893 15066599
0.71241188 0.11197238 0.17409797 14013653
0.71733338 -0.14138779 0.18636544 13420486
0.7154212 -0.13503553 0.18498136 14933981
0.70806253 -0.12377992 0.18717077 15461099
0.71161914 -0.12614243 0.18337417 15724012
0.70760024 -0.11489785 0.18549329 15921393
0.71000004 -0.11528756 0.18113934 15855086
0.70800006 -0.10531899 0.18665452 15855341
0.7104286 -0.10490266 0.18243606 15855085
0.70850009 -0.095969446 0.18774588 15986925
0.71167856 -0.094792493 0.18305148 15724011
0.70900005 -0.088568673 0.18918312 15856109
0.71280956 -0.085029639 0.18482874 15790061
0.71230751 -0.075321786 0.18531424 15526891
0.71173793 -0.065584548 0.18491037 15461353
0.71221435 -0.05562276 0.18503235 15658477
0.70900005 -0.042924669 0.18918312 15461355
0.71282911 -0.045720145 0.18506858 15527148
0.71316653 -0.0356641 0.18527648 15329256
0.70900005 -0.023007289 0.18918312 15132392
0.71312195 -0.025706228 0.18514332 15066598
0.71299988 -0.015625933 0.18523364 14803169
0.71309507 -0.0056113037 0.1852586 14737376
0.71436578 0.0043121334 0.18546835 14540254
0.71421957 0.014544277 0.18543281 14211288
0.71328592 0.024442747 0.18531065 14145495
0.71302378 0.034449678 0.18524034 14408667
0.71266657 0.044441469 0.18514875 14474460
0.71199989 0.054401789 0.18497938 14474460
0.70900005 0.069387235 0.18862985 14408664
0.71137846 0.064052336 0.1852241 14276824
0.7081725 0.076374389 0.18547407 14211030
0.71036363 0.07188867 0.18304573 14145495
0.70677787 0.085438088 0.1844518 14540253
0.70638871 0.095315307 0.18435074 15132392
0.70797157 0.10535589 0.18488228 14606046
0.71000004 0.10993008 0.18113932 13684946
0.708 -0.14065313 0.19886091 15460581
0.71254551 -0.14200988 0.19512573 14342102
0.7076 -0.13348582 0.19655907 14144722
0.71156257 -0.13730197 0.19298831 15723496
0.70567489 -0.1247054 0.19469294 15724013
0.70460439 -0.1147747 0.1946785 15790063
0.70486027 -0.1046856 0.19478793 15789549
0.70549977 -0.09473671 0.19484967 15723754
0.70638108 -0.084933974 0.1950919 15855598
0.70649993 -0.07502456 0.19512479 15724270
0.70695221 -0.065143317 0.19525078 15461355
0.70630968 -0.055162981 0.19507261 15658734
0.70626205 -0.045239087 0.19505973 15461612
0.70647597 -0.035329215 0.19511873 15198183
0.70652378 -0.025407689 0.19513342 15066599
0.70673817 -0.015488275 0.19519216 15000806
0.70720005 -0.0057307458 0.19556877 15066598
0.71000004 -0.0022632019 0.19111206 14935011
0.70743752 0.0041626478 0.19673254 14803426
0.71072727 0.0053749247 0.1917605 14671840
0.70739996 0.014305136 0.19703287 14408669
0.71115386 0.014058931 0.19206175 14342876
0.70723695 0.02454038 0.19633308 14211547
0.71016669 0.024335498 0.19115692 14277083
0.70706654 0.034987994 0.1952837 14474462
0.7070232 0.045379527 0.19519465 14671583
0.70736122 0.055473369 0.1961477 14672096
0.71000004 0.05563407 0.19138908 14606046
0.7074104 0.065833881 0.19576125 14540252
0.71000004 0.06255959 0.19111206 14869218
0.70611918 0.075440109 0.19502227 14474201
0.70454752 0.085168943 0.19458696 14474203
0.7047618 0.095096312 0.19464652 15000804
0.70625001 0.10501057 0.19526675 14737633
0.70672733 -0.14220546 0.2053421 14473686
0.70494294 -0.13500428 0.20497362 14408149
0.6978572 -0.12346916 0.20756379 15197669
0.70177776 -0.1259713 0.20374224 15592171
0.69641179 -0.11452032 0.20643851 15526378
0.70057148 -0.11586548 0.20122524 15461098
0.69633323 -0.10491684 0.20617491 15329256
0.7006923 -0.10513163 0.20084538 15724270
0.69693118 -0.09535826 0.20705602 15658477
0.70105267 -0.094960056 0.20183153 15789806
0.69689977 -0.085426189 0.2071591 15658477
0.70126319 -0.084621191 0.20197788 15526891
0.69653136 -0.075239368 0.20689718 15592684
0.70122224 -0.074463569 0.20188001 15724270
0.69708008 -0.065438911 0.2074098 15461355
0.70168173 -0.064358532 0.20260839 15592684
0.69794452 -0.054509524 0.20747246 15263719
0.70154172 -0.054790776 0.20279193 15526891
0.69805557 -0.044712976 0.20750546 15263719
0.70149994 -0.044933934 0.20278007 15461355
0.69835711 -0.035389874 0.20806289 15066597
0.70128572 -0.034835778 0.20330381 15263719
0.69841665 -0.025116069 0.20843126 14737633
0.70179999 -0.025237018 0.20368674 15066598
0.69837499 -0.016122868 0.20882764 14737890
0.70202953 -0.015191712 0.20433164 14935269
0.69900006 -0.0087736249 0.209424 14869990
0.70244992 -0.0053630481 0.20526981 14869990
0.70292866 0.0043413616 0.20565479 14606562
0.70295358 0.01438868 0.20566268 14409181
0.70412499 0.025200829 0.20502052 14146009
0.70402777 0.035663523 0.20515731 14474974
0.70441651 0.045577727 0.20527138 14606047
0.70461106 0.055486467 0.20532791 14606048
0.70358324 0.065286294 0.20502666 14671840
0.70224994 0.075027354 0.20463949 14868962
0.70140535 0.084900483 0.20455092 15000288
0.701325 0.094509572 0.20494589 15066597
0.70370966 0.10417571 0.20493306 14869475
0.70452392 -0.143419 0.21531755 14342100
0.69762498 -0.13195813 0.21605237 14736347
0.70179993 -0.13686015 0.21446601 14078929
0.69534874 -0.12443754 0.21495114 14868447
0.69441676 -0.11438305 0.2153645 15263205
0.69419461 -0.10459532 0.21529618 15131877
0.69437844 -0.094759785 0.21519865 15197926
0.69433343 -0.085111044 0.21533877 15198183
0.69458324 -0.075385086 0.21541627 15263976
0.69512177 -0.065223202 0.21492924 15329769
0.6956808 -0.054938164 0.21511427 15329512
0.6959762 -0.04457964 0.21503158 15198183
0.69638091 -0.034824207 0.21515687 14606046
0.6964761 -0.025046799 0.21518581 14408668
0.69630963 -0.015260287 0.21513349 14474976
0.69635695 -0.0054791076 0.21514763 14606818
0.69700015 0.0043053469 0.21559234 14343389
0.70000005 0.0043235249 0.21136233 14541025
0.69735724 0.014452701 0.21557549 14145753
0.70033336 0.017988546 0.21091597 14212059
0.69796157 0.025300814 0.21614954 14211802
0.700625 0.026060516 0.21134503 14277082
0.6977728 0.035048876 0.21662809 14343645
0.70069993 0.035822503 0.21190038 14540253
0.69783348 0.045150958 0.21724147 14409181
0.70100003 0.045356631 0.2124828 14540253
0.69827777 0.054988578 0.21737999 14409180
0.70116669 0.055215094 0.21253334 14474461
0.69844455 0.064812206 0.21743229 14606046
0.70045835 0.064997792 0.21231942 14606047
0.69899994 0.074681334 0.21842407 14935009
0.70040023 0.074831054 0.21312143 15066341
0.69859999 0.085485861 0.21737194 14868961
0.70030773 0.083900675 0.21309352 15066340
0.69847828 0.09321709 0.21609178 15263977
0.70020002 0.096392393 0.21306112 15263977
0.70189989 0.10336494 0.21456356 15001062
0.7020666 -0.14391483 0.22513184 14144721
0.69671994 -0.13437051 0.22517973 13947087
0.70033336 -0.13885693 0.22403151 13815499
0.69430959 -0.12493194 0.22508521 14671326
0.69400018 -0.1143142 0.22498496 14606044
0.69400018 -0.10456619 0.22498494 14605788
0.69394463 -0.094810911 0.22496708 14539996
0.69361126 -0.085021406 0.22485979 14474460
0.69400018 -0.075322188 0.22498491 14671582
0.69472212 -0.06564153 0.22521973 14671839
0.69516647 -0.055105787 0.22536409 14737632
0.69505543 -0.044521403 0.22532752 14474204
0.69499987 -0.034755539 0.22530921 14079703
0.69499987 -0.024993496 0.22530924 13553358
0.69499987 -0.01523145 0.22530916 13816530
0.69499987 -0.0054694023 0.22530916 14080217
0.69512802 0.0047321054 0.22553796 14014423
0.69604737 0.015473966 0.22506484 13750737
0.69680023 0.02534635 0.22483131 13684944
0.69623774 0.035267998 0.22489436 13948630
0.69564265 0.045009281 0.22470029 14014680
0.69607139 0.054815106 0.22483817 14014680
0.69666666 0.064647086 0.22503026 14343388
0.69721442 0.074490786 0.22520751 14671583
0.69718206 0.084909923 0.22464253 14935012
0.69779176 0.09415587 0.22457969 15066600
0.70000005 0.098549493 0.22529139 15329773
0.70199996 0.10376398 0.22494832 14671842
0.70133334 -0.14425802 0.23491429 13816272
0.6964516 -0.13510199 0.23474617 13684686
0.69466656 -0.12499534 0.23495965 14474201
0.69433343 -0.11436909 0.23484723 14211287
0.69458324 -0.10465379 0.23493189 14013652
0.69474995 -0.094920486 0.23498869 13750737
0.6946944 -0.085155338 0.23496993 13685457
0.69486105 -0.075415164 0.2350253 13684944
0.69580483 -0.065047055 0.23544495 13816530
0.69690925 -0.054798327 0.23510051 14145495
0.69670594 -0.044435717 0.23540993 14013909
0.69628578 -0.034936547 0.23539251 13487565
0.69616669 -0.025036115 0.23465355 13027014
0.69591427 -0.015135404 0.23526724 12895429
0.69538873 -0.0054733078 0.23520428 13356236
0.69528937 0.0045944196 0.23499914 13553358
0.69559973 0.015125724 0.23543787 13158600
0.69605237 0.025654027 0.23512667 13158857
0.69599974 0.035256434 0.23540947 13093577
0.69544429 0.044995673 0.23522279 13225164
0.69516647 0.054743066 0.23512848 13422543
0.69522208 0.064512543 0.2351473 13619921
0.69594413 0.074355155 0.23539083 14211289
0.69591475 0.085114487 0.23477197 14605792
0.69711107 0.095062591 0.23496795 14935014
0.70127779 0.10466079 0.23500411 14737892
0.70249999 0.11041342 0.23925191 10987431
0.70279992 -0.145266 0.24525332 13289672
0.69725811 -0.13404596 0.24512851 13684944
0.70000005 -0.13906384 0.24659464 12566206
0.69605416 -0.12458351 0.24509744 14605788
0.69599998 -0.11464361 0.24518864 14671837
0.69602776 -0.10487156 0.24519828 14343128
0.69685733 -0.095324188 0.24537346 14211287
0.69682354 -0.085225232 0.2452383 13882323
0.69622201 -0.075562939 0.24526599 13684944
0.69678599 -0.065020658 0.24546294 13684944
0.69782054 -0.05443614 0.24513558 13553358
0.69806445 -0.045003559 0.24467455 13684945
0.70000005 -0.042379785 0.24905272 13816530
0.69825 -0.035632953 0.24322057 13158601
0.70039999 -0.033986013 0.24766523 13290188
0.69849998 -0.025119362 0.24116123 12632256
0.70108336 -0.025212167 0.24697821 12632257
0.698125 -0.01448321 0.2432788 12632515
0.70039999 -0.016498609 0.24755602 12434878
0.69726682 -0.0052158386 0.24487203 12830149
0.70000005 -0.0096055325 0.24905272 12304061
0.69711435 0.0044224514 0.24546376 12895685
0.696881 0.014908095 0.24549852 12698563
0.69713902 0.025522597 0.24558862 12567233
0.69722247 0.035317961 0.24561745 12830405
0.69700027 0.045097165 0.2455384 12961478
0.69683367 0.054874253 0.24548 12961992
0.69658333 0.064638942 0.24539246 13487565
0.69666678 0.074431509 0.24542172 13750480
0.69590443 0.084939636 0.2451524 14145496
0.69705278 0.09586069 0.2452555 14540255
0.69841665 0.10282291 0.24671781 14342876
0.7004118 0.10574578 0.24370073 13948117
0.70251334 -0.14534585 0.25501245 13486793
0.69752949 -0.13420524 0.25542521 13618893
0.70000005 -0.13906384 0.25233015 12828863
0.69691688 -0.12458315 0.25529692 14474460
0.69705588 -0.11481731 0.25534862 14671583
0.69725025 -0.10505493 0.25542009 14671839
0.6985417 -0.096187018 0.25432554 14606302
0.70000005 -0.093384713 0.25786081 15000804
0.69864285 -0.084822878 0.2528922 14737375
0.7000525 -0.086459167 0.25692073 14737375
0.69811106 -0.075132973 0.25437453 14606046
0.70000005 -0.075154036 0.258885 14737375
0.6977098 -0.064791627 0.25450948 14408667
0.70000005 -0.060405623 0.258885 14671582
0.69841665 -0.056044426 0.25298589 14277081
0.7003684 -0.053533141 0.25677815 14605789
0.69900006 -0.048046544 0.25033328 13750737
0.70129406 -0.044726584 0.25550368 14277080
0.70249999 -0.035334416 0.25518677 13684944
0.70316124 -0.025155287 0.25527599 13027269
0.70222205 -0.015391093 0.25559926 12566718
0.69900006 -0.003046324 0.25033328 12633026
0.70144129 -0.0057140864 0.25555739 12500926
0.699 0.0051355348 0.25217423 12171961
0.70065218 0.0038634718 0.2567026 12698049
0.69839996 0.015431138 0.25224429 12105912
0.70023996 0.014783833 0.25681067 12632256
0.69863635 0.025205815 0.25258234 12566463
0.70026308 0.025852224 0.25717112 12500668
0.69852954 0.036297772 0.25362834 12632256
0.69999993 0.034261551 0.25749838 12763839
0.69796669 0.045159202 0.25486609 13027014
0.69773346 0.054944567 0.25478092 13290442
0.69734299 0.064825669 0.2553384 13487566
0.69683343 0.074449055 0.2552675 13882323
0.6962617 0.08498428 0.25505739 14145239
0.69716686 0.095704049 0.25538859 14474462
0.69830769 0.10283896 0.25436023 13027014
0.70000005 0.10346564 0.258885 11250603
0.70580006 -0.15112099 0.26731005 12697532
0.70328122 -0.14522593 0.26488364 13553099
0.69766665 -0.13346054 0.26473701 14276569
0.70014286 -0.13862401 0.266197 12565694
0.69694465 -0.12458801 0.26509783 14868961
0.69769454 -0.11492136 0.26538265 15197669
0.69800001 -0.10516887 0.26549843 15263462
0.69890904 -0.098389216 0.26383653 15000547
0.70032275 -0.093538761 0.26519203 15000547
0.70077801 -0.084261328 0.26491478 15066339
0.69900006 -0.07341031 0.26996976 15329512
0.70000023 -0.074334674 0.26462051 15066339
0.69900006 -0.062773891 0.26015154 14276824
0.70011777 -0.064608946 0.26490617 15263718
0.70130563 -0.054770377 0.26511443 15329512
0.70269412 -0.04500911 0.26563895 15461098
0.70397168 -0.035133056 0.26487395 14605788
0.70397252 -0.025316311 0.26474848 13816527
0.70299971 -0.015406772 0.26575452 13685198
0.70280528 -0.0055317078 0.26568174 13816529
0.70161104 0.0043322402 0.26523036 13553358
0.70104778 0.014997905 0.26501667 12961221
0.70147216 0.02568124 0.26517844 12961221
0.70152771 0.035536289 0.26520076 13092807
0.70119452 0.045367878 0.26507559 13027015
0.69900006 0.056681242 0.26015154 13224393
0.70071888 0.054974392 0.26540679 12961222
0.69854552 0.066380791 0.26473972 13355722
0.70009083 0.062058806 0.26621962 13224393
0.69733357 0.074502021 0.26524538 13750480
0.69588059 0.084936731 0.26469246 13882068
0.69721872 0.095253408 0.26484492 13948119
0.69900006 0.10127237 0.26424247 12040118
0.70000005 0.10182693 0.26707855 11447982
0.70625001 -0.15105249 0.27525076 12961219
0.70485723 -0.14515917 0.27500272 13355976
0.69855553 -0.13187242 0.27325112 14145239
0.70083332 -0.1364968 0.27553251 13421516
0.69785303 -0.12455945 0.27500638 14868703
0.69794446 -0.11496358 0.27528101 15263459
0.69813883 -0.10518906 0.27535695 15394535
0.69825011 -0.095398851 0.27703378 15000291
0.70011109 -0.095106103 0.27203763 15329512
0.69784009 -0.08537814 0.27670792 15395306
0.70011109 -0.085182272 0.27194655 15461098
0.69784218 -0.075180113 0.27515185 15329513
0.70000005 -0.078431465 0.270356 15263719
0.69766688 -0.065202631 0.27603483 15395562
0.69999999 -0.063409925 0.2714484 15395305
0.69811773 -0.055531684 0.27760729 15330028
0.70032007 -0.054006025 0.2732985 15592685
0.70169437 -0.044943955 0.27511594 15592941
0.70331693 -0.035069987 0.27504867 14868961
0.70312178 -0.02538749 0.27497211 13948116
0.70233315 -0.015392163 0.27536604 14080215
0.70266634 -0.0055302568 0.27549699 14277336
0.70155549 0.0043316367 0.27506205 14211288
0.70128578 0.015004112 0.27495754 13816530
0.70222211 0.025708403 0.27532494 13750737
0.70263863 0.035593677 0.27548781 13553868
0.70288861 0.04547799 0.27558601 13224647
0.70180541 0.055264719 0.27516091 13487564
0.69883341 0.068119399 0.27317733 13619151
0.7003929 0.064054146 0.2750755 13421772
0.6979143 0.074680679 0.27515328 13947860
0.69715405 0.084715858 0.27478224 14079446
0.69816667 0.092299171 0.27427939 14211033
0.70082349 0.09663935 0.27608028 14145240
0.70172733 0.10148144 0.27401254 11711667
0.78900003 0.14137121 0.27739325 11185061
0.79084021 0.14525703 0.27426183 11119268
0.7075001 -0.15131991 0.28484815 12435135
0.70573336 -0.14516149 0.28496227 12698308
0.70202774 -0.13536116 0.28511009 13027015
0.69862503 -0.12223193 0.28495345 14539996
0.70022219 -0.12754282 0.28483102 14145238
0.69744462 -0.11488279 0.28487909 14474460
0.69675696 -0.10487266 0.28475168 14803426
0.69559515 -0.095036887 0.2849358 14671582
0.69523787 -0.085222803 0.28478983 14474203
0.694857 -0.075415224 0.2846337 14868962
0.69490904 -0.065400355 0.28446972 14934756
0.6960637 -0.054966435 0.28530043 15132392
0.69817656 -0.046787266 0.28647563 15461613
0.70054173 -0.043573141 0.28361529 15461614
0.70161104 -0.03508563 0.28493708 15066341
0.70144445 -0.025225511 0.28486985 14013653
0.70105571 -0.01536442 0.28471303 13948118
0.70099998 -0.0055172052 0.28468874 14474719
0.70080572 0.0043289219 0.28461108 14343389
0.70171422 0.015013224 0.2849808 14145497
0.70205534 0.025702043 0.28511873 14211546
0.70222199 0.035571892 0.28518635 14145752
0.70258307 0.045458451 0.28533328 13619151
0.70199984 0.055281103 0.28509724 13685201
0.70097232 0.065044194 0.28468114 13619153
0.69881815 0.076520562 0.28283873 13882325
0.70004994 0.073564179 0.28586239 13948118
0.69865388 0.084583715 0.28424257 14013912
0.70000005 0.084128834 0.28772634 14145498
0.70165718 0.094797939 0.28507417 13684946
0.70400006 0.10076072 0.2834374 10395290
0.78646672 0.13466258 0.28478417 11119269
0.78900003 0.14109415 0.28441209 11053476
0.79088891 0.1459078 0.28540266 10987939
0.79284614 0.15438312 0.28522813 10987939
0.708 -0.15115024 0.29057261 11317168
0.70562506 -0.14369312 0.29338241 11054252
0.70306665 -0.13495667 0.29480365 12303550
0.69883341 -0.12110899 0.29498979 13159372
0.70083344 -0.12605186 0.2948513 13224652
0.69806457 -0.11543257 0.29438606 13553873
0.70000005 -0.11284443 0.29903346 13027273
0.69746172 -0.10483635 0.29368031 13751251
0.70000005 -0.10628959 0.29854184 13356495
0.69629991 -0.095135652 0.2950103 13816788
0.69514275 -0.085094236 0.29521605 14013653
0.6945833 -0.075385801 0.29509515 14211031
0.69427794 -0.06560044 0.294965 14342875
0.69495225 -0.055088133 0.29525059 14474462
0.69694602 -0.044750139 0.29461855 15263978
0.70000005 -0.040741075 0.29002053 15263721
0.69856256 -0.036670219 0.29688606 14935013
0.70000005 -0.03393412 0.29336101 14803427
0.70007169 -0.025175611 0.29496622 14079703
0.6986112 -0.01431221 0.29707676 13816788
0.70008332 -0.016094318 0.29292277 14079702
0.69817859 -0.0053194677 0.29603609 14080217
0.69999993 -0.005859904 0.29119107 14212059
0.69819236 0.0037468688 0.29618537 13883095
0.69999993 0.0052453009 0.29165924 14212060
0.69869232 0.01280875 0.29765642 13751509
0.70047241 0.01575968 0.29394978 13882838
0.70061934 0.025649454 0.29519564 13817047
0.70090497 0.035505287 0.29531476 14145754
0.70119506 0.045269232 0.29531687 13750995
0.7016111 0.055250481 0.29479262 13356494
0.70116681 0.065063365 0.29460686 13356238
0.70019466 0.074808769 0.29419905 13816789
0.70048589 0.084655903 0.29444054 13948375
0.70158064 0.094058447 0.29443881 13158860
0.78647995 0.13466412 0.29491985 10856867
0.78900003 0.14063238 0.2954945 10922660
0.79122734 0.14549392 0.29498127 10922661
0.79396158 0.15467307 0.29527989 10856868
0.70489997 -0.13277684 0.30409756 11382708
0.70244992 -0.12598844 0.30345199 12369602
0.70081824 -0.11513709 0.30378351 12369601
0.70186216 -0.10526863 0.30450547 12501186
0.69816667 -0.09334591 0.30260941 13356238
0.70058823 -0.096925311 0.30579734 12303807
0.69740015 -0.085488133 0.3049989 12632514
0.69657153 -0.075485244 0.30560771 12829637
0.69628954 -0.065361597 0.30555847 13158601
0.69605249 -0.054661375 0.3053256 13816534
0.69705021 -0.044647723 0.30511627 14737635
0.69848275 -0.035745829 0.30540517 14474462
0.70000011 -0.031611104 0.30359843 14540255
0.69884616 -0.024691967 0.30804175 13750996
0.69999993 -0.025422672 0.30391398 13750739
0.6976586 -0.015191845 0.30526114 13619667
0.69692886 -0.0054848306 0.30506212 13685716
0.69723707 0.0041356571 0.30468297 13685716
0.69839138 0.01288024 0.3039979 13422546
0.70012492 0.017334212 0.30615544 13225167
0.69900006 0.028862923 0.30351537 13817304
0.70017862 0.025399106 0.30490607 13290960
0.69900006 0.035026591 0.30433357 13554131
0.69999993 0.035841431 0.30476892 13422544
0.70016146 0.045434579 0.30468082 13422801
0.70113903 0.055214498 0.30444533 13290445
0.70163876 0.065108389 0.30466384 13092809
0.70208335 0.075011365 0.30485797 13027530
0.7032333 0.085014232 0.30453363 13423316
0.70574999 0.094266601 0.30576 12765129
0.78700006 0.1292216 0.30211499 10725282
0.79000002 0.12971419 0.30881482 10791075
0.78811115 0.13452958 0.30213234 10791074
0.79069996 0.13612272 0.30760893 10791075
0.79285723 0.14547752 0.30489618 10856867
0.70300001 -0.10345362 0.31101227 10592677
0.69800001 -0.081475429 0.31043428 12303034
0.6972 -0.076160178 0.31138381 11579313
0.69800007 -0.063499369 0.3133595 12105913
0.69730443 -0.054283723 0.31417081 12434882
0.69722605 -0.044527318 0.31482863 13290703
0.69856244 -0.035290405 0.31431311 13422031
0.70000005 -0.032137834 0.31910765 12698566
0.69840622 -0.024759091 0.31424272 13290444
0.70000005 -0.02804105 0.31910768 12763846
0.69697154 -0.015393373 0.31529123 12896202
0.69624001 -0.0056405044 0.313889 12830408
0.69816667 0.0031335638 0.31350505 12698822
0.70036358 0.0066367821 0.31625545 12172991
0.7018857 0.015158768 0.31479397 12370114
0.7027812 0.02536842 0.31446677 12369858
0.70251602 0.03571875 0.31424996 12369857
0.70261079 0.045460805 0.31495586 12501443
0.70351505 0.055177312 0.31498557 12633541
0.70463341 0.065386273 0.31503546 12501956
0.70519996 0.075344823 0.3152889 12172477
0.70594108 0.085145243 0.3145507 12304835
0.79033333 0.12915245 0.31942901 10725282
0.79215378 0.13541816 0.31521934 10725282
0.69833332 -0.042278096 0.32039142 11910076
0.69900006 -0.037410129 0.32069728 12831178
0.69999999 -0.033503424 0.32293138 12239042
0.69857138 -0.023370178 0.32120198 12238273
0.70000005 -0.027631372 0.32213932 12699337
0.69760001 -0.017412666 0.32136124 11843769
0.70300001 0.0084563931 0.32253245 12238268
0.70412499 0.016095791 0.32222542 10593959
0.70499998 0.02364425 0.32190278 11317427
0.70514286 0.034421988 0.32068595 11646135
0.70500004 0.049740896 0.32179961 11712696
0.70499998 0.055292297 0.32179964 11844026
0.70555556 0.064646862 0.32095212 11777976
0.70600003 0.072950073 0.32060331 11448755
0.79000002 0.12925184 0.32407242 10659488
0.7905336 0.13535444 0.32475367 10659488
0.79168963 0.144692 0.32506844 10659488
0.79382753 0.15463218 0.3244057 10659488
0.79241675 0.1268646 0.33650449 10593696
0.79279166 0.13489108 0.33527252 10593696
0.79385722 0.14539236 0.33519268 10725280
0.79407996 0.15455155 0.33457851 10659487
0.79334283 0.13498761 0.34461051 10528159
0.79220665 0.13487354 0.35425186 10396830
0.79356003 0.14516196 0.35479346 10527903
0.79411542 0.15477134 0.35489923 10593695
0.7937932 0.16487573 0.35502416 10659488
0.79191166 0.094913997 0.42466074 10133145
0.79164135 0.1047501 0.42477944 10198938
0.79187876 0.11536252 0.42481723 10264731
0.79389995 0.12478082 0.42463508 10330524
0.79254049 0.16462579 0.4246304 10396317
0.79109097 0.17484562 0.42523813 10462110
0.78837496 0.095534362 0.43517849 10133403
0.79000002 0.09365081 0.43087548 10133402
0.78823334 0.10543609 0.43452299 10068123
0.78872716 0.11397905 0.43588778 10133659
0.79012501 0.1170183 0.4325619 10264987
0.78900003 0.12031468 0.43956542 10264731
0.79106694 0.12433505 0.43423271 10264987
0.79186112 0.13465273 0.43466893 10330523
0.78804547 0.14658177 0.43659908 10264731
0.79089475 0.14399076 0.43243298 10396317
0.7786001 0.15518264 0.43923956 10396317
0.78513163 0.1550799 0.43585038 10330524
0.79028571 0.15407491 0.43076649 10396317
0.78699994 0.1649964 0.4353731 10396317
0.79000002 0.16207877 0.43087548 10462110
0.78884596 0.17455629 0.43550164 10396317
0.79000002 0.17779872 0.4319323 10396317
0.78670841 0.095102936 0.44289228 10133145
0.78689992 0.10525762 0.44300079 10199195
0.78764999 0.11457862 0.44342262 10199195
0.78900003 0.12179233 0.44455248 10264731
0.79040009 0.12632687 0.44355306 10264731
0.79131043 0.13471779 0.4444935 10330523
0.78663635 0.14447173 0.44310141 10330524
0.79000002 0.14081062 0.44012251 10659489
0.77840006 0.15514325 0.44094896 10330524
0.78100002 0.15017645 0.44150764 10264731
0.78400004 0.16609816 0.44228372 10330524
0.78820002 0.17554982 0.44373196 10330268
