# .PCD v0.7 - Point Cloud Data file format
VERSION 0.7
FIELDS x y z rgb
SIZE 4 4 4 4
TYPE F F F U
COUNT 1 1 1 1
WIDTH 711
HEIGHT 1
VIEWPOINT 0 0 0 1 0 0 0
POINTS 711
DATA ascii
0.79422724 -0.68447393 -0.41491529 14012379
0.79325014 -0.67523062 -0.41480184 14012635
0.79299998 -0.66549331 -0.41499364 14012636
0.79273903 -0.65508759 -0.41477257 14078171
0.79295832 -0.64442939 -0.41461813 14144220
0.7948668 -0.63513947 -0.41518354 14078683
0.79521745 -0.6247589 -0.41485691 14275806
0.79430437 -0.61514914 -0.41478488 14275805
0.79335004 -0.60474074 -0.41513333 14144219
0.79395843 -0.59490067 -0.41560745 14407391
0.7945652 -0.58485949 -0.41435504 14472927
0.79495448 -0.57487452 -0.41394269 14472927
0.79577291 -0.56505096 -0.41470775 14407647
0.79519999 -0.53476053 -0.41517094 14276061
0.79428017 -0.52484298 -0.41469109 14276319
0.79458338 -0.51476592 -0.41539228 14539748
0.79491663 -0.50482482 -0.41556659 14802920
0.79430002 -0.49529105 -0.41544533 14671334
0.79315001 -0.48529044 -0.41502905 14671333
0.79213625 -0.47497737 -0.41432908 14737126
0.79161906 -0.4646304 -0.41435987 14933990
0.79147631 -0.45484015 -0.41419697 14867941
0.79147613 -0.44513494 -0.41410863 14999784
0.79154551 -0.4352026 -0.41418916 14934247
0.79256004 -0.42484838 -0.41475654 15065574
0.79533345 -0.69477922 -0.40482563 11116725
0.79352391 -0.68451107 -0.4048278 14143708
0.79217231 -0.67465073 -0.40508178 14209502
0.79193324 -0.66530478 -0.4051193 14143709
0.79186106 -0.65504754 -0.40508208 14078429
0.79242837 -0.6445182 -0.40523925 14143964
0.79300004 -0.63464129 -0.40473694 14209757
0.79300004 -0.62535918 -0.40473694 14275549
0.79230762 -0.61539775 -0.40459791 14275804
0.79205543 -0.60514474 -0.40518171 14210011
0.79228115 -0.59476805 -0.40506425 14604770
0.79340535 -0.58521503 -0.40438694 14538976
0.79387522 -0.57494009 -0.40425122 14538975
0.79374999 -0.56516069 -0.40511891 14538717
0.7931999 -0.55495477 -0.40483993 14407389
0.79296142 -0.54529262 -0.40486199 14012376
0.79199994 -0.53500402 -0.40430027 14275549
0.79128581 -0.52457243 -0.40366468 14473442
0.79139292 -0.5147844 -0.40484455 14802920
0.79215145 -0.50516087 -0.40480995 15000042
0.79255158 -0.49500147 -0.40527421 14868198
0.79176658 -0.48537204 -0.40503219 14539491
0.79057163 -0.47558406 -0.40475345 14736870
0.78900003 -0.46243376 -0.40084833 14802148
0.79000014 -0.46557206 -0.40557301 14802662
0.7889998 -0.45490342 -0.40404525 14868197
0.79000002 -0.45284814 -0.40875399 14867941
0.78900003 -0.44714418 -0.40310585 14933989
0.79000002 -0.44417903 -0.4058643 14933989
0.79000026 -0.43527883 -0.40505534 14999525
0.79097164 -0.42462298 -0.40475941 15130853
0.79552782 -0.41503635 -0.40509552 14605019
0.79382604 -0.69485235 -0.39473611 11182515
0.79275995 -0.68455839 -0.39533618 14012638
0.79199988 -0.67463088 -0.39495617 14341600
0.79203838 -0.66517854 -0.39483249 14209758
0.79241377 -0.65534425 -0.39528939 14143966
0.79299992 -0.64485168 -0.39545482 14275550
0.79300004 -0.63464129 -0.39545479 14209501
0.79300004 -0.62535918 -0.3954547 14275036
0.7934593 -0.61502647 -0.39467791 14275806
0.79444122 -0.60477692 -0.3951847 14407647
0.79552954 -0.59508848 -0.39583501 14736355
0.79475868 -0.56522012 -0.39523995 14472927
0.79340732 -0.55530781 -0.39524454 14275547
0.792 -0.54484683 -0.3949562 14012120
0.79040015 -0.53449351 -0.39415881 14472672
0.78900003 -0.52431041 -0.39161301 14605028
0.79000002 -0.52497494 -0.39580816 14539491
0.78900003 -0.5153389 -0.39214072 15000042
0.79000002 -0.51426774 -0.39571083 14933993
0.79075032 -0.50451332 -0.39453262 15394285
0.79244435 -0.49547258 -0.39497304 15328492
0.79276001 -0.4859809 -0.39533463 14933734
0.79107159 -0.47529027 -0.39475608 14867941
0.78900003 -0.46224904 -0.39752364 14802148
0.7900002 -0.46579403 -0.39417207 14802148
0.78899986 -0.45513791 -0.39678481 14868195
0.79000002 -0.45482963 -0.39197722 14933733
0.78900003 -0.44796512 -0.39684638 14933988
0.79000014 -0.44467989 -0.39426699 14999781
0.79000038 -0.43527886 -0.39488339 15065574
0.79080659 -0.42470327 -0.3945401 15131622
0.79451442 -0.41450819 -0.39514607 14539997
0.79495001 -0.70487344 -0.38526255 10789034
0.79288 -0.69490832 -0.38470444 10919597
0.7918787 -0.68458295 -0.38484049 14078432
0.79206657 -0.67468745 -0.38479075 14341860
0.79316199 -0.66523087 -0.38519555 14275554
0.79400003 -0.65495843 -0.3857286 14209759
0.79345185 -0.64447063 -0.38561246 14275806
0.79283321 -0.63450873 -0.38516334 14078427
0.79305696 -0.62460726 -0.3851395 14341599
0.79546881 -0.61525702 -0.38551196 14538978
0.79555577 -0.58495265 -0.38535008 14736355
0.79492003 -0.5747683 -0.38524774 14538976
0.79383987 -0.56469572 -0.38472542 14276061
0.79261529 -0.55454659 -0.38505915 14078681
0.79128575 -0.54506034 -0.38551566 13946840
0.78900003 -0.53285307 -0.38260859 14737127
0.79000002 -0.53711164 -0.38528967 14407648
0.78890884 -0.52531362 -0.38518834 14736358
0.78868735 -0.51521647 -0.38476622 15131370
0.78899992 -0.50734049 -0.38364753 15394285
0.79007149 -0.50282735 -0.38540736 15394286
0.79202932 -0.49550825 -0.38504526 15394286
0.79308558 -0.48538414 -0.38515311 15065319
0.79199994 -0.47456983 -0.38490739 14933988
0.79132009 -0.46471927 -0.38535351 14933734
0.79125935 -0.45501029 -0.38504809 14933990
0.79127294 -0.44510123 -0.38443118 15197160
0.79089302 -0.43524203 -0.3848803 15197160
0.79115635 -0.42456979 -0.38492635 15197158
0.7945751 -0.41458592 -0.38521683 14540255
0.79367995 -0.69516355 -0.37475812 11380406
0.79189992 -0.68443269 -0.37506953 14078944
0.79255986 -0.67510653 -0.37482584 14342372
0.79448652 -0.66533542 -0.37543514 14276066
0.7949667 -0.65482575 -0.37503356 14210015
0.79425931 -0.64515346 -0.37521556 14144222
0.79320002 -0.63480204 -0.37512809 14144223
0.79303843 -0.62517494 -0.37519535 14604772
0.79421878 -0.61533642 -0.37549609 14473185
0.79475003 -0.60441262 -0.37539759 14604514
0.79492003 -0.59523726 -0.37594253 14801892
0.79500002 -0.58492839 -0.37518233 14736355
0.79472423 -0.57475525 -0.37507918 14538977
0.79290015 -0.56495512 -0.37498677 14275805
0.79120833 -0.55549234 -0.37472761 14144218
0.78900003 -0.54216534 -0.37252674 14538976
0.79015791 -0.54620665 -0.37631908 14013145
0.78887486 -0.53515452 -0.37477663 14802661
0.79000002 -0.53977013 -0.37916353 14210781
0.78816009 -0.52559787 -0.37459075 14868198
0.7881667 -0.51545262 -0.37459335 15131370
0.78899992 -0.50745589 -0.37522033 15394284
0.79044449 -0.50244695 -0.37433782 15394541
0.79273534 -0.49534836 -0.3752892 15328490
0.79326928 -0.48465019 -0.3753047 15065829
0.79156005 -0.4741275 -0.37435377 15000036
0.79100019 -0.46453178 -0.37501413 14868452
0.79100019 -0.45527306 -0.37501413 14868452
0.79163343 -0.44544333 -0.37438819 15328746
0.79164279 -0.43505934 -0.37498665 15460077
0.79135311 -0.42512596 -0.37490824 15065574
0.79500002 -0.41471165 -0.37517306 14475230
0.79578954 -0.6950199 -0.36546785 12432329
0.79236001 -0.68473291 -0.36523366 14144736
0.79218513 -0.67519927 -0.36517099 14408163
0.79334289 -0.66537315 -0.36506221 14276577
0.79403448 -0.6548261 -0.36424375 14013406
0.79403579 -0.6445654 -0.36496836 14079198
0.79349995 -0.63504285 -0.36505339 14276577
0.79299992 -0.62535924 -0.36482376 14473699
0.7929998 -0.61514878 -0.36482376 14407392
0.79342407 -0.60475445 -0.36527357 14407392
0.79330277 -0.59453297 -0.36471146 14867943
0.79340738 -0.58474863 -0.36442807 14736869
0.79369247 -0.57516611 -0.36442959 14605282
0.79276919 -0.56571835 -0.36478895 14210268
0.79077792 -0.55490792 -0.36513782 14210011
0.7889998 -0.54370457 -0.36483061 14538976
0.79000002 -0.54901713 -0.365293 14210011
0.78823084 -0.53501356 -0.36518499 15065320
0.78807414 -0.52519792 -0.36491448 15065577
0.78865695 -0.51564121 -0.36480317 15328748
0.78900009 -0.50869429 -0.36474666 15460334
0.79071438 -0.50363094 -0.36516005 15525871
0.79307401 -0.49524826 -0.36537474 15065832
0.79264277 -0.48590896 -0.36525652 14934758
0.79193097 -0.47511575 -0.36519468 14868966
0.79155999 -0.46486163 -0.36508709 14802917
0.79115397 -0.45514748 -0.36475739 14999782
0.79161292 -0.44504294 -0.36487177 15328747
0.79245454 -0.4351972 -0.36431816 15526125
0.79236358 -0.42502952 -0.36478233 15329260
0.79542112 -0.6951887 -0.3550109 12367044
0.79204553 -0.68470073 -0.35469234 14341600
0.79152781 -0.67515355 -0.35488212 14539235
0.79261267 -0.66509569 -0.35461947 14276319
0.79326648 -0.65435231 -0.35473242 14079196
0.79400003 -0.6447354 -0.35506058 14144990
0.79360002 -0.6351229 -0.35488167 14473700
0.79300004 -0.62535918 -0.35461333 14539237
0.79299992 -0.61514878 -0.35461336 14341599
0.7932961 -0.60475069 -0.35453892 14275807
0.79303563 -0.59442347 -0.35482809 14867943
0.79300004 -0.58451766 -0.35461333 14867943
0.79300004 -0.57523555 -0.35461342 14736355
0.79274064 -0.5655632 -0.35490969 14407389
0.79156673 -0.55566651 -0.35489815 14144218
0.78900003 -0.54237056 -0.35631359 14538978
0.79017651 -0.54685521 -0.35400313 14341343
0.78875846 -0.53510201 -0.35532615 15065577
0.78882337 -0.52533311 -0.35524336 15066090
0.78899986 -0.51546395 -0.3556439 15395054
0.79000002 -0.51305652 -0.35244995 15526895
0.78900003 -0.50861037 -0.35744235 15395055
0.79028016 -0.50414312 -0.35495162 15526640
0.79169703 -0.49560454 -0.3545368 15197418
0.79228115 -0.48481622 -0.35469675 15197160
0.79275739 -0.4750112 -0.35551465 15197673
0.7925666 -0.46514294 -0.35534519 15065831
0.79219985 -0.45490333 -0.35531411 15065574
0.79282129 -0.4453837 -0.35512927 15262953
0.79262954 -0.43538782 -0.35465521 15394282
0.79306656 -0.4250845 -0.3542715 15263210
0.79478264 -0.69455844 -0.34497321 12367045
0.7920869 -0.68429989 -0.34469151 14407394
0.79188883 -0.67494768 -0.34505299 14539236
0.79296654 -0.66524416 -0.34531668 14407649
0.79321426 -0.65464103 -0.34562412 14013404
0.79351836 -0.64475709 -0.34535205 14210783
0.79307997 -0.63470548 -0.34536648 14408163
0.79300004 -0.62535918 -0.34533128 14473698
0.79299992 -0.61514878 -0.34533128 14275806
0.79332262 -0.60410482 -0.34529236 14210012
0.79300004 -0.59379989 -0.34533122 14802150
0.79300004 -0.58451766 -0.34533128 14868200
0.79300004 -0.57523561 -0.34533134 14671334
0.79251999 -0.56561232 -0.34512252 14276575
0.79164004 -0.55571783 -0.34473953 14144733
0.79010373 -0.54526269 -0.3448354 14605027
0.78900003 -0.53446925 -0.34913057 15262701
0.79003257 -0.53531748 -0.34421769 15131114
0.78900003 -0.52985156 -0.34913057 15262701
0.79030031 -0.52517414 -0.34507912 15262700
0.79000038 -0.51480317 -0.34494954 15591664
0.79003471 -0.50478083 -0.3448053 15526639
0.79160011 -0.49545902 -0.34472141 15131881
0.79377139 -0.48553538 -0.34486875 15065831
0.79516673 -0.47535488 -0.34534267 15263210
0.79389286 -0.46457341 -0.3451221 15263466
0.79271996 -0.4544082 -0.34521005 15000294
0.7922799 -0.44488212 -0.34501788 15000037
0.79207683 -0.43528157 -0.34500054 15131366
0.79341656 -0.42467073 -0.34515083 15132135
0.79269999 -0.68450719 -0.334993 14407650
0.79209989 -0.67471576 -0.33474109 14473443
0.79286093 -0.66515535 -0.33506259 14407649
0.79299992 -0.65506184 -0.33512089 14144477
0.79302758 -0.64487404 -0.33513251 14276319
0.79316658 -0.63477457 -0.33519033 14539235
0.79337507 -0.62530631 -0.33504552 14539234
0.79302925 -0.61489862 -0.33535147 14144220
0.79293323 -0.60488772 -0.33509299 14144219
0.79275745 -0.59468693 -0.33510402 14736356
0.79259348 -0.58456606 -0.33471912 14868199
0.79207683 -0.57470924 -0.33544466 14737127
0.79159999 -0.56495494 -0.33545727 14342112
0.79056007 -0.55495954 -0.33501622 14275806
0.79000014 -0.54531831 -0.3347778 14868198
0.79016691 -0.53525871 -0.33484879 15196906
0.79036009 -0.52521431 -0.33493173 15131113
0.78900003 -0.51138097 -0.33065993 15723250
0.7900002 -0.51524836 -0.33512026 15591664
0.78900003 -0.50676328 -0.33158344 15460592
0.79000002 -0.50404739 -0.33565384 15526382
0.79160613 -0.49503997 -0.33512178 15394796
0.79448384 -0.48589382 -0.33499771 15131881
0.79500008 -0.4754293 -0.33517441 15263466
0.79334491 -0.46424422 -0.33452991 15394795
0.79276651 -0.45443493 -0.33502162 15197929
0.79219991 -0.44483691 -0.33478186 15131879
0.79199988 -0.43558154 -0.33485827 15197159
0.79297483 -0.4250792 -0.33487824 15197413
0.79320002 -0.68493849 -0.32499254 14473957
0.79267997 -0.67521012 -0.32477829 14408164
0.7930333 -0.66530007 -0.32492408 14210784
0.79381245 -0.65468633 -0.32460254 14210526
0.7945807 -0.6453864 -0.32477629 14276319
0.79482853 -0.63530689 -0.32459551 14473954
0.79493552 -0.6252048 -0.32492197 14342111
0.79403573 -0.61522394 -0.32473573 14012888
0.7924583 -0.60468119 -0.32484338 14144218
0.79122728 -0.59499842 -0.32460639 14538978
0.79057151 -0.58484292 -0.32471022 14867943
0.79045844 -0.57477993 -0.32556674 15065320
0.78900003 -0.56425315 -0.3221173 14473184
0.79010528 -0.56495863 -0.32693741 14538977
0.78899986 -0.55427384 -0.3233743 14276063
0.79000002 -0.55497634 -0.32840765 14341597
0.7889998 -0.5445441 -0.32461497 15000298
0.79000002 -0.54593486 -0.32922962 14868200
0.78900003 -0.53631628 -0.32311782 15263213
0.79000002 -0.53433752 -0.32726461 15197420
0.78899992 -0.52496231 -0.32327172 14802919
0.79000002 -0.52497488 -0.32830492 15065063
0.7889998 -0.51492119 -0.3250418 15394283
0.79000002 -0.5194267 -0.32738021 15854577
0.78899974 -0.5050754 -0.32499135 15460846
0.79000002 -0.50093263 -0.32922962 15395055
0.78900003 -0.49771267 -0.32290226 15592432
0.79052186 -0.49426165 -0.32590684 15658226
0.79258609 -0.48510364 -0.32487094 15395309
0.79323095 -0.47534114 -0.32486343 15197674
0.79370576 -0.46497166 -0.32454166 15329258
0.79378569 -0.45521873 -0.32463261 15329001
0.79215986 -0.44481477 -0.32456642 15197415
0.7918148 -0.43500859 -0.32449263 15262694
0.79407495 -0.42487663 -0.32460323 15263463
0.79459077 -0.69493371 -0.31415001 13749208
0.79303324 -0.68479377 -0.31471366 14473698
0.79312116 -0.67507869 -0.31449464 14407905
0.79405731 -0.66538829 -0.31514531 14407904
0.79480654 -0.65559286 -0.31520635 14341854
0.79500002 -0.64554739 -0.3145633 14276319
0.79520005 -0.63547009 -0.31464204 14473697
0.79544008 -0.62542254 -0.31473762 14342111
0.79425925 -0.61499172 -0.31468332 13881559
0.79214287 -0.60534567 -0.31502241 14078682
0.78900003 -0.59126639 -0.31172752 14539489
0.79030442 -0.59580439 -0.31544033 14407647
0.7889998 -0.58510953 -0.31465209 14802148
0.79000002 -0.58674496 -0.31961268 14736356
0.78884596 -0.57485044 -0.31553838 14868454
0.79000002 -0.57768291 -0.31998259 15131113
0.78892565 -0.56496072 -0.31551206 14539490
0.78899974 -0.55478692 -0.31495994 14342368
0.78899974 -0.54462814 -0.31495991 14934762
0.78899974 -0.53552014 -0.31511912 15329263
0.79000002 -0.53113955 -0.31135201 14868713
0.78899986 -0.52547693 -0.31753606 14802919
0.79000002 -0.52497488 -0.31258494 14803175
0.7889998 -0.5145579 -0.31566179 14934504
0.79000002 -0.51831704 -0.31184521 14934761
0.78899974 -0.50528008 -0.31532371 15131883
0.79000002 -0.50154907 -0.31135201 15197676
0.78900003 -0.49783579 -0.31896186 15526125
0.79034406 -0.49444222 -0.31497538 15526384
0.79164284 -0.48509455 -0.31495425 15724274
0.79318422 -0.47509611 -0.31477138 15263466
0.79513639 -0.45469427 -0.31512305 15131622
0.79253322 -0.44502416 -0.31451368 15065829
0.79384619 -0.43503428 -0.31481737 15065829
0.79554552 -0.70499617 -0.30496043 10723757
0.79318184 -0.69471312 -0.30481336 13485781
0.79249984 -0.684928 -0.30409905 14474211
0.79376674 -0.6752041 -0.30478394 14473954
0.7949667 -0.66506112 -0.30524486 14407647
0.79510719 -0.65440881 -0.30476657 14341854
0.79544455 -0.62563288 -0.30501473 14341597
0.79387993 -0.61490476 -0.30482823 13881559
0.79195654 -0.60495013 -0.30481443 13947353
0.78900003 -0.59111243 -0.30541673 14342368
0.79033345 -0.5967378 -0.30461094 14079196
0.78855544 -0.58473003 -0.30503896 14605283
0.78800005 -0.57529807 -0.30533707 14867941
0.78800005 -0.56528378 -0.30520535 14802148
0.78844827 -0.55455714 -0.30471632 14604770
0.78896135 -0.54481441 -0.30464429 15263470
0.78900003 -0.53770161 -0.30526277 15526641
0.79000002 -0.53298885 -0.30487913 15263212
0.79023367 -0.52457422 -0.3044748 15066091
0.79029447 -0.51472247 -0.30453777 14934504
0.78900003 -0.50768679 -0.30849519 15066090
0.7905519 -0.50485575 -0.30431387 15131626
0.79125005 -0.49524015 -0.30474335 15329518
0.79274273 -0.48517227 -0.30518484 15658481
0.79483336 -0.47515562 -0.30519316 15526895
0.79504174 -0.45519543 -0.30488625 15066342
0.79437935 -0.44496936 -0.30514613 15000292
0.79525 -0.70447308 -0.29503584 10526124
0.79295653 -0.69465506 -0.29470667 14012124
0.79279304 -0.68496877 -0.2952584 14736100
0.7939688 -0.67497075 -0.29510397 14539234
0.79475009 -0.6648792 -0.29492989 14408160
0.795353 -0.65443021 -0.29487899 14342367
0.79496002 -0.62519377 -0.29511932 14210781
0.7931667 -0.61489195 -0.29534793 13816023
0.79168183 -0.60528189 -0.29446495 14012888
0.79039305 -0.59535134 -0.29483145 14144475
0.7889998 -0.58442384 -0.29564968 14407904
0.79000002 -0.58831698 -0.29224154 14341597
0.78858048 -0.575544 -0.29433534 14737125
0.78803235 -0.56514543 -0.29502442 14671589
0.78810722 -0.55455387 -0.29470354 14868713
0.78882337 -0.54515702 -0.29479337 15263471
0.78900003 -0.53871745 -0.29704338 15592692
0.79028153 -0.53446865 -0.29459944 15329263
0.79200011 -0.52486998 -0.29467243 15131883
0.79293525 -0.5150094 -0.29440284 15131885
0.79207683 -0.50467479 -0.29522035 14802662
0.79150003 -0.4946847 -0.29450741 15526894
0.79339391 -0.48518401 -0.2948474 15526894
0.79445165 -0.47531825 -0.29550967 15658480
0.79361528 -0.46442541 -0.29529583 15395308
0.79347998 -0.45484298 -0.2953881 15394537
0.79481816 -0.4451201 -0.29537767 15328744
0.7931034 -0.69400996 -0.28487465 14407393
0.79256654 -0.68439031 -0.28484267 14670564
0.79303324 -0.67532474 -0.28482404 14538978
0.79421216 -0.66501933 -0.28433448 14473184
0.79503846 -0.65466964 -0.28494278 14407647
0.79544449 -0.64514846 -0.28501537 14342110
0.79495841 -0.63527882 -0.28477246 14473440
0.79317391 -0.62517458 -0.28429502 14276061
0.79172003 -0.61508399 -0.28546578 13816022
0.79060012 -0.60495901 -0.28506181 14079195
0.78900003 -0.5908047 -0.28078923 13881816
0.79008347 -0.59546947 -0.28502849 14210267
0.78899992 -0.58399355 -0.28355983 14407646
0.79000002 -0.58826566 -0.28648785 14275804
0.78855985 -0.57570761 -0.28432581 14473951
0.78800005 -0.56504369 -0.2847738 14671332
0.78844112 -0.55460942 -0.28493291 15066091
0.78899986 -0.54533172 -0.28465927 15263471
0.79000002 -0.54161954 -0.28391922 15460593
0.7906391 -0.53449643 -0.28491986 15263213
0.79296672 -0.52490228 -0.28480056 15394542
0.79315376 -0.51500231 -0.28433946 15395055
0.79162496 -0.5054388 -0.28473577 15066346
0.79142439 -0.49509683 -0.28485167 14737380
0.79296952 -0.48543328 -0.28456452 15000808
0.79299992 -0.47478962 -0.28466585 15395564
0.79293329 -0.46566758 -0.28497311 15526893
0.79247206 -0.45519197 -0.28480822 15460843
0.79293323 -0.44506115 -0.28478992 15394537
0.7939285 -0.4352513 -0.28420517 15263207
0.79520011 -0.42511037 -0.28485835 14935526
0.79280961 -0.69458824 -0.27489758 14342113
0.79146159 -0.68471974 -0.2743254 14539491
0.79221427 -0.67540747 -0.27431634 14604770
0.79454303 -0.66563326 -0.27532104 14539233
0.79500002 -0.65485299 -0.27548009 14342111
0.79471999 -0.64532125 -0.27538377 14342368
0.79275006 -0.63459712 -0.27485606 14473439
0.79104179 -0.62435573 -0.27441865 14341852
0.78900003 -0.61250764 -0.27201566 13881046
0.79019058 -0.61530387 -0.27601638 13947095
0.78899986 -0.60447288 -0.27404746 14078938
0.79000002 -0.6052919 -0.27876729 14144988
0.78865367 -0.59445107 -0.27498657 14144988
0.78832 -0.58475971 -0.27501187 14342367
0.78744012 -0.57488996 -0.27470523 14342622
0.78703696 -0.56497252 -0.27477023 14605794
0.78780007 -0.55504775 -0.27483082 15132138
0.78874987 -0.54576248 -0.27477682 15526640
0.79000002 -0.54161954 -0.27652159 15591664
0.79061568 -0.53477776 -0.27500474 15328492
0.79188454 -0.52458698 -0.27425918 15263468
0.79219985 -0.51531011 -0.27451056 15329003
0.79178113 -0.50490081 -0.27476916 15723504
0.79237926 -0.49559531 -0.27527353 15263210
0.793037 -0.48573729 -0.27500594 14934501
0.79246426 -0.47526327 -0.27440384 14934757
0.79299992 -0.46477821 -0.27478704 15395307
0.79271996 -0.45440808 -0.27468976 15526380
0.79199988 -0.44472411 -0.27444053 15394537
0.79259986 -0.43485445 -0.27464896 15262951
0.79422581 -0.42443866 -0.2750321 15263718
0.79454166 -0.69469923 -0.26493168 14473698
0.79246873 -0.68442053 -0.26474297 14670562
0.79299992 -0.67466843 -0.26463258 14538977
0.7949211 -0.66536427 -0.26541251 14473440
0.79312003 -0.6351108 -0.26487505 14342367
0.79040915 -0.62466288 -0.26488963 14210781
0.78886181 -0.61458224 -0.26488394 13881816
0.78806669 -0.60486501 -0.26477599 14012889
0.78800005 -0.59466767 -0.26475322 14210268
0.78800005 -0.58452171 -0.26475319 14407904
0.78707695 -0.57476687 -0.26515099 14473953
0.78608 -0.5646956 -0.26502794 14737125
0.78643334 -0.55482161 -0.26514807 15066088
0.78808832 -0.54470241 -0.26505476 15395052
0.78899992 -0.53687036 -0.2633037 15460846
0.79006249 -0.53322351 -0.26567754 15065832
0.79051864 -0.52490801 -0.26488116 14934504
0.79078585 -0.5149833 -0.26456675 15066344
0.79176652 -0.50483173 -0.26509321 15592688
0.79314804 -0.49508834 -0.26576129 15460845
0.79308718 -0.48585775 -0.26529217 15197672
0.7920332 -0.4753364 -0.26518112 15131879
0.79267734 -0.46443799 -0.26521701 15263464
0.79300004 -0.45456779 -0.26550496 15263208
0.79279989 -0.44517338 -0.26543701 15197157
0.79286659 -0.43500173 -0.26545969 15196900
0.79417652 -0.42456129 -0.26496714 15263459
0.79475003 -0.67488104 -0.25539109 14604769
0.7948333 -0.66494852 -0.25495383 14407903
0.79459095 -0.63481688 -0.25538239 14473183
0.79188889 -0.62489665 -0.25462577 14341853
0.78888893 -0.61308855 -0.25715148 13946839
0.79022223 -0.61587167 -0.25337166 14012632
0.78859991 -0.60460919 -0.2548736 13946839
0.79000002 -0.60819811 -0.25155464 14210011
0.78821433 -0.59450012 -0.25487331 14144732
0.78800005 -0.58452165 -0.25460723 14408160
0.78703457 -0.57446653 -0.25505805 14539746
0.78633326 -0.56487763 -0.25498864 14737125
0.78661132 -0.55494797 -0.25507766 14934504
0.78778136 -0.54493845 -0.25488156 15263469
0.78891981 -0.53533816 -0.25490424 15329261
0.78899997 -0.5272941 -0.25350952 15000296
0.79000002 -0.52432215 -0.25634131 15197674
0.79000026 -0.51480317 -0.25525343 15000295
0.79070991 -0.50418657 -0.25494522 15263723
0.7920624 -0.49517053 -0.2550514 15592688
0.79223323 -0.48565736 -0.25504902 15132136
0.79292297 -0.47536775 -0.2550543 15263721
0.79443747 -0.46532857 -0.25587115 15460585
0.79446894 -0.45506117 -0.25553197 15526120
0.79344815 -0.44508952 -0.25553328 15262950
0.79305691 -0.43497372 -0.2554456 15065827
0.79521054 -0.69460851 -0.24518317 14539234
0.79466665 -0.68522692 -0.2443628 14407903
0.79444009 -0.67492372 -0.24523413 14407903
0.79464287 -0.66512197 -0.24579261 14539488
0.79482156 -0.65490419 -0.24558316 14539231
0.79445833 -0.64495265 -0.24538285 14473438
0.79387993 -0.63534647 -0.24535826 14538976
0.79267997 -0.62510824 -0.24498577 14275804
0.79140747 -0.61463553 -0.245003 13946839
0.79036695 -0.60478073 -0.24519448 13815253
0.78899986 -0.59313774 -0.24559784 14276060
0.79000002 -0.59760606 -0.24365267 14144218
0.78819239 -0.58480716 -0.24523014 14604769
0.78688002 -0.57448053 -0.24503437 14670819
0.78687996 -0.56526965 -0.24503423 14802661
0.78763336 -0.55566847 -0.24526881 14802918
0.78836358 -0.5448584 -0.24499278 15066347
0.78899974 -0.53539276 -0.24477145 15263469
0.79000002 -0.53052306 -0.2423076 14933736
0.78900003 -0.52738881 -0.24815777 14868710
0.79000014 -0.52451259 -0.24415703 15460590
0.79058355 -0.5151822 -0.24526066 15395309
0.79181808 -0.50511664 -0.24522212 15132137
0.7937187 -0.49521807 -0.24425799 15461102
0.79362482 -0.48529136 -0.244752 15263466
0.79423332 -0.47479546 -0.24546552 15131879
0.79512906 -0.46407259 -0.24526203 15394792
0.79312003 -0.4342134 -0.24512121 15262947
0.79496968 -0.42439064 -0.24512903 15395303
0.79194117 -0.69486719 -0.2353791 14341597
0.79033363 -0.68486619 -0.23501059 14407901
0.79106909 -0.67460215 -0.23510267 14342364
0.79214811 -0.6650719 -0.23575728 14408414
0.79232132 -0.65509683 -0.23540322 14539488
0.7929998 -0.64485157 -0.23487385 14539745
0.79296654 -0.63461483 -0.23486382 14474208
0.79180002 -0.62441367 -0.23544544 14276060
0.79068017 -0.61427569 -0.23511253 14078425
0.78900003 -0.60077876 -0.23239617 13421266
0.79010004 -0.6053158 -0.23549505 13683667
0.78890896 -0.59401083 -0.23416623 13947096
0.79000002 -0.59833461 -0.23799233 13815253
0.78803456 -0.5844205 -0.23508927 14670817
0.78703344 -0.57459265 -0.23494922 14802403
0.78700012 -0.56535614 -0.2349391 14802403
0.78772229 -0.5557313 -0.23515511 14605538
0.78860593 -0.54552937 -0.23499833 15000553
0.7889998 -0.53539276 -0.23461264 15263467
0.79000002 -0.53052306 -0.2376841 14868196
0.78900003 -0.52823538 -0.23253471 15132136
0.79013056 -0.5236938 -0.23567274 15526893
0.79118532 -0.51505917 -0.23505795 15658479
0.79219991 -0.505108 -0.23556489 15526636
0.79423338 -0.49524766 -0.2346202 15526380
0.79496157 -0.48532578 -0.23473908 15328745
0.79357159 -0.4755311 -0.23537588 15262951
0.79312891 -0.46476275 -0.23536219 15262949
0.79287487 -0.43531728 -0.23522413 14868704
0.79402494 -0.42470822 -0.2347559 15263716
0.79114294 -0.6948936 -0.22449005 14341596
0.78900003 -0.68254209 -0.22291458 14341851
0.79000002 -0.68604916 -0.22663173 14341851
0.78899997 -0.67524183 -0.22300255 14276571
0.79000002 -0.67464453 -0.22764447 14407644
0.78900003 -0.66468722 -0.22260675 14211036
0.79006255 -0.66523504 -0.22764611 14342109
0.78900003 -0.65914601 -0.2216832 14276574
0.79089212 -0.65476894 -0.22531858 14473953
0.79274178 -0.6448499 -0.22447132 14802405
0.79300004 -0.63464129 -0.22466354 14671074
0.79246658 -0.62493956 -0.22543842 14408157
0.7912001 -0.61467993 -0.22507794 14078937
0.78900003 -0.60114825 -0.22593145 13618644
0.79010528 -0.60613763 -0.22423235 13816023
0.78859991 -0.59419882 -0.22526304 13618646
0.78744012 -0.58410776 -0.22493191 14474208
0.78640008 -0.5741303 -0.22463444 14868708
0.78665382 -0.56489366 -0.22456452 14671331
0.78793949 -0.5549612 -0.22507359 14473952
0.78896135 -0.54481435 -0.22550829 14934758
0.78899986 -0.53603917 -0.22593148 15263721
0.79000002 -0.53255737 -0.22233406 14671071
0.78900003 -0.52745038 -0.22685497 15263208
0.79000008 -0.52433169 -0.22405483 15197673
0.79005915 -0.51484126 -0.22502735 15526894
0.79065651 -0.50470251 -0.22515845 15526637
0.79190618 -0.4951857 -0.22458771 15592429
0.79263991 -0.48516423 -0.22456434 15262951
0.79128569 -0.47462299 -0.22457783 15328743
0.79122579 -0.46514124 -0.22470112 15328742
0.79224139 -0.45521843 -0.22457889 15262947
0.79219222 -0.44504595 -0.22429468 14868447
0.79182136 -0.43515649 -0.2249265 14934754
0.79479992 -0.42563152 -0.22521725 14737631
0.79476482 -0.70478719 -0.21465626 10723499
0.78900003 -0.6905461 -0.21798909 13882068
0.79125005 -0.69520319 -0.2145344 13289674
0.78899992 -0.68477398 -0.21775819 14078933
0.79033333 -0.68542194 -0.2126828 13289931
0.7889998 -0.67484599 -0.21706556 14013398
0.79009998 -0.6748625 -0.21181914 13421518
0.7889998 -0.66468722 -0.21614203 13947864
0.79000002 -0.66552961 -0.21086773 13289933
0.78899992 -0.65717584 -0.21589574 14276829
0.79000002 -0.65345407 -0.213805 14276829
0.79093564 -0.64481318 -0.21494216 14737121
0.79224122 -0.63480014 -0.21504888 14736609
0.79300004 -0.62535918 -0.2153814 14605024
0.79215997 -0.61542642 -0.21515331 14276571
0.78900003 -0.60003996 -0.21983616 14079195
0.79044014 -0.6048373 -0.2146859 14013398
0.78879291 -0.59421629 -0.21532063 13749971
0.79000002 -0.5989511 -0.21086775 14342617
0.78773344 -0.58432478 -0.21487211 14210008
0.78710014 -0.57464129 -0.21469972 14999780
0.78751451 -0.56493473 -0.21494448 14671328
0.78827024 -0.55444658 -0.21489516 14605792
0.78899974 -0.5447554 -0.21525031 14736866
0.79000002 -0.54161954 -0.21456656 14869990
0.7889998 -0.53606445 -0.21454683 14803940
0.79000002 -0.53319442 -0.21641594 14869477
0.78899992 -0.52463633 -0.2124479 15132136
0.79000002 -0.52552968 -0.21715574 15329772
0.7889998 -0.51507509 -0.21444888 15461100
0.79000002 -0.51313865 -0.21715574 15461101
0.78900003 -0.50614756 -0.21198611 15460587
0.79000002 -0.50405347 -0.21595357 15460845
0.78900003 -0.49475738 -0.21090867 15000549
0.79015005 -0.49520034 -0.21581009 15263722
0.78900003 -0.48449591 -0.21162698 14803168
0.79017645 -0.48591962 -0.21613832 15065829
0.7889998 -0.47486588 -0.21379766 15131875
0.79000002 -0.47781506 -0.21826535 15328744
0.78889978 -0.46551475 -0.21343705 15592424
0.79000002 -0.46315193 -0.21773696 15525863
0.78862488 -0.45540631 -0.21246308 15197153
0.79000002 -0.45469752 -0.21734066 15262947
0.78845006 -0.44512969 -0.21276221 14933982
0.79012501 -0.4448266 -0.21783751 14933984
0.78900003 -0.43729317 -0.21203743 15065566
0.79055005 -0.43419218 -0.21554911 14671068
0.79532355 -0.68511963 -0.20554174 10658216
0.7944839 -0.67518085 -0.20527218 10724263
0.79271442 -0.6649639 -0.20495687 10724520
0.79110008 -0.65484983 -0.20498396 11250609
0.79058075 -0.64488405 -0.20451294 11513779
0.79123092 -0.63464761 -0.20492646 11974586
0.79280633 -0.62502581 -0.20497121 12435396
0.79371423 -0.61546201 -0.20506009 12369345
0.79340005 -0.60524064 -0.20526649 12434881
0.78900003 -0.59172821 -0.20875375 13552333
0.79244447 -0.59544212 -0.20464201 12171965
0.78872734 -0.58472604 -0.20750619 14013142
0.7911765 -0.58524317 -0.20289871 11644851
0.78857142 -0.57501185 -0.20565033 14013396
0.79033333 -0.57669371 -0.20108855 11250348
0.78832144 -0.56505293 -0.20507972 14079189
0.78862065 -0.55467856 -0.2050873 14013654
0.79000002 -0.55086654 -0.20162071 11316398
0.78899997 -0.54533851 -0.20704879 14737119
0.79025 -0.54421854 -0.2023775 12829380
0.78899997 -0.53512889 -0.20703861 14408925
0.7902633 -0.53508127 -0.20217393 12237499
0.78900003 -0.52560329 -0.20783022 14934757
0.79022729 -0.52478939 -0.2031073 12631744
0.78900003 -0.5139668 -0.20746081 15592171
0.79027277 -0.51548505 -0.20278263 13027016
0.7889998 -0.50423354 -0.205943 15000292
0.79016668 -0.50720459 -0.2019711 12763847
0.7889998 -0.49475729 -0.20505962 15198181
0.7889998 -0.48577392 -0.20556335 14671839
0.79000002 -0.48336327 -0.20162071 15000801
0.78874063 -0.47489998 -0.205402 15526889
0.79000002 -0.47781506 -0.20162071 15527144
0.78839993 -0.46485057 -0.20490231 15131616
0.78776002 -0.45525378 -0.20473672 14934235
0.78706664 -0.44471678 -0.20455708 15000029
0.78855002 -0.43632475 -0.2049429 15262944
0.79000002 -0.43157998 -0.20531952 13420998
0.79466677 -0.42670453 -0.20483975 14934753
0.79446417 -0.64484531 -0.19451664 10724520
0.79368746 -0.6348995 -0.19425291 10658728
0.79487187 -0.62477821 -0.19436553 10461863
0.79406673 -0.574705 -0.19484091 10198688
0.7934882 -0.56493473 -0.1950224 10395813
0.79423696 -0.55498743 -0.1952029 10593192
0.79419351 -0.54544944 -0.19494505 10921898
0.79397058 -0.53510046 -0.19442719 10987946
0.7944572 -0.52484953 -0.19435181 10724517
0.79462069 -0.51521325 -0.19451585 10987948
0.79171437 -0.50499934 -0.19529973 10921897
0.78900003 -0.49598876 -0.19890277 11711152
0.79121453 -0.49462119 -0.19405393 11382442
0.79323256 -0.48539671 -0.19487531 11119528
0.79378963 -0.475113 -0.19523942 11316911
0.79337162 -0.46512446 -0.19503988 11316912
0.78887504 -0.45451212 -0.1987942 13224137
0.79195458 -0.45548522 -0.194024 11053739
0.78844452 -0.44457325 -0.19722357 12566206
0.79084611 -0.44564217 -0.19229363 11316395
0.78890002 -0.43670386 -0.19820023 13421514
0.79114836 -0.43450317 -0.19409066 13750481
