# .PCD v0.7 - Point Cloud Data file format
VERSION 0.7
FIELDS x y z rgb
SIZE 4 4 4 4
TYPE F F F U
COUNT 1 1 1 1
WIDTH 1115
HEIGHT 1
VIEWPOINT 0 0 0 1 0 0 0
POINTS 1115
DATA ascii
0.76300007 -0.014935717 0.10772925 15198175
0.77435309 -0.014890601 0.10499454 14474711
0.78500003 -0.01494723 0.10203764 14212822
0.76420009 -0.0051176064 0.10819732 14803417
0.77446675 -0.005187945 0.10511717 14803419
0.78437507 -0.0054843468 0.10210291 13750216
0.76500005 0.0038269544 0.10860924 14606042
0.77469999 0.0049648141 0.10578184 14474712
0.78530777 0.0052040089 0.10220562 12170927
0.76516676 0.015478905 0.10923285 14342868
0.77446675 0.014757684 0.1069302 14211796
0.78557146 0.014706068 0.10307718 12960958
0.79166669 0.018171467 0.10065924 10986909
0.76639998 0.025366437 0.10940893 13948110
0.77446163 0.024375774 0.10762846 14343125
0.78512496 0.025066037 0.10472393 13027523
0.79375005 0.02534424 0.10154152 10527132
0.76466674 0.035150707 0.10916147 13882317
0.77407151 0.035456639 0.10726361 13948367
0.78600007 0.035051707 0.10450736 12435129
0.76500005 0.045019768 0.10920908 14145746
0.77423537 0.044922233 0.10679119 14146002
0.78630006 0.044981949 0.10396399 11974063
0.79369998 0.044848572 0.10122607 10921887
0.76700002 0.054117143 0.10949458 14277334
0.77441669 0.05478701 0.10782996 14277332
0.78619999 0.05534678 0.10462283 11185059
0.79358333 0.055062238 0.10121221 11053217
0.77566677 0.063605443 0.10871097 14211282
0.78530777 0.06558679 0.10644592 12302513
0.79260004 0.065198913 0.10201263 11184801
0.77700001 0.073920012 0.10910317 13684940
0.78639996 0.074627779 0.1068596 11776940
0.79282349 0.075043254 0.10247849 11119265
0.77766663 0.085213684 0.10919678 14342870
0.78580004 0.084876254 0.10757665 11711149
0.77900004 0.091434985 0.10938401 13355975
0.78644443 0.093740433 0.10858487 11250856
0.78706664 -0.15390716 0.11456993 9998723
0.7915715 -0.15858033 0.11564867 9868427
0.77400005 -0.14492379 0.11475576 9075820
0.78099996 -0.1496705 0.11515141 9669759
0.75684613 -0.13264164 0.11458567 14011846
0.76271433 -0.13737036 0.11398601 10589322
0.74573082 -0.12371015 0.11491291 14340812
0.75099999 -0.12868284 0.11453083 16314859
0.73866671 -0.11244953 0.11870698 16381681
0.7424137 -0.11560827 0.11478931 15855336
0.73866671 -0.10437887 0.1181303 16316659
0.74169564 -0.10499583 0.11357988 16185073
0.73828572 -0.094820067 0.11786318 15921902
0.74138886 -0.095218495 0.113068 15921902
0.73729175 -0.085199945 0.11646912 15987438
0.74118179 -0.085252613 0.11195979 15658730
0.73675007 -0.074788243 0.11638232 15856109
0.7420001 -0.075320691 0.1120041 15856109
0.73685187 -0.064223066 0.11592012 15658730
0.74233335 -0.065600157 0.11176413 15658729
0.73850006 -0.055838995 0.11698698 15592937
0.74347985 -0.053716075 0.11274243 15592935
0.7433784 -0.045004189 0.11481128 15461350
0.74360967 -0.035338264 0.11497605 15461350
0.74436837 -0.02520957 0.11551699 15066593
0.75100005 -0.023488222 0.11072668 14342355
0.73900002 -0.012735716 0.11933748 14672092
0.74462062 -0.015086984 0.1157288 14672091
0.7542727 -0.013397426 0.1113652 14737369
0.73800004 -0.0049458342 0.11917599 14671837
0.74465024 -0.0049885111 0.11588492 14474712
0.75607145 -0.0053185239 0.11159614 14671833
0.76000005 -0.0015329953 0.11027446 14869212
0.73822224 0.003695247 0.11863521 14540509
0.74504769 0.0049733124 0.11557373 14474199
0.75500011 0.0046632304 0.11219784 14540247
0.76000005 0.004694113 0.11027446 15066592
0.73880005 0.014422603 0.11930518 14408923
0.74469566 0.014869734 0.11630906 14014162
0.75514287 0.015775753 0.11259563 14802906
0.76050013 0.01538102 0.110347 14474454
0.73900002 0.022729537 0.11933748 14212311
0.74465013 0.025691116 0.11736832 13817040
0.75559998 0.02501007 0.11316799 14145231
0.76100004 0.02518771 0.11041955 14079696
0.74504769 0.03487391 0.11756583 13553355
0.7562778 0.034768745 0.1132706 13882317
0.7610001 0.034986038 0.11041955 13948110
0.7373333 0.045690481 0.11877999 13816526
0.74505001 0.04463125 0.11655901 13553100
0.75531244 0.044889625 0.11290509 13750732
0.76080006 0.044771664 0.11039053 14013903
0.73376477 0.054596674 0.11838781 13750479
0.74416661 0.055115543 0.11494093 13553100
0.75318182 0.055380691 0.11200669 13882319
0.7601667 0.054523911 0.11029863 14474456
0.73238891 0.064532906 0.1182673 14079443
0.74331266 0.065057851 0.11502616 13618893
0.75499994 0.065157369 0.11211621 14342613
0.76200008 0.064468436 0.11056465 14606042
0.77250004 0.066259921 0.11027974 14868957
0.73333341 0.074917451 0.11841825 13947857
0.74443758 0.074851871 0.11487378 13487561
0.75390911 0.074849896 0.11211328 15132129
0.7651667 0.074587658 0.11102413 14803421
0.77300006 0.075349078 0.11035112 14935007
0.73423529 0.085067786 0.11866349 14342615
0.74523532 0.084600396 0.11520956 13881806
0.7552222 0.084512956 0.11271998 15395559
0.76442856 0.085372381 0.11168053 15198436
0.77283335 0.085885562 0.11062776 14606299
0.73422223 0.094395667 0.11932729 14934239
0.74464291 0.094376385 0.11713182 14473686
0.75600004 0.095421046 0.11500088 15460584
0.76483345 0.095142864 0.11365935 15395562
0.7743637 0.095011622 0.11202638 15066597
0.78466672 0.098835222 0.11078992 12171449
0.73900002 0.10058009 0.11933748 15724270
0.74372727 0.10501807 0.1189891 15526891
0.75499994 0.10364109 0.11749945 14803165
0.76366669 0.10482493 0.11646393 13947600
0.77555561 0.10434406 0.11474744 14474199
0.78645462 0.10570037 0.11260299 11579563
0.79150003 0.10865254 0.11113921 11579816
0.74625003 0.11204933 0.1191961 14999777
0.76800001 0.1126188 0.11862684 11316390
0.7750001 0.11273636 0.11789145 11250596
0.78685719 0.11366985 0.116799 11579560
0.79435003 0.11592361 0.11339054 11711402
0.78700006 0.12369446 0.11971924 11776941
0.78812504 -0.15195917 0.12404305 9737101
0.79259998 -0.15659662 0.12490168 9671564
0.76900005 -0.14016984 0.12058154 8484979
0.77399999 -0.14256756 0.1248241 9407366
0.78400004 -0.14788666 0.12555955 9671564
0.74900001 -0.13126406 0.12971945 15131101
0.75590003 -0.13318405 0.12400658 13222588
0.76400006 -0.13746993 0.12516409 10722198
0.73745459 -0.12217913 0.1272468 13486277
0.74390477 -0.12623031 0.12402364 14012619
0.73570973 -0.11471353 0.1247447 15657704
0.74000001 -0.11929268 0.12123132 16184302
0.7344119 -0.10524369 0.12480946 16052973
0.73405576 -0.095135555 0.12454806 15987181
0.73303038 -0.084578492 0.12403738 15987694
0.73233348 -0.074576527 0.1243046 15724523
0.73271877 -0.064942591 0.12432214 15592937
0.73457146 -0.055524308 0.12475757 15658730
0.73627806 -0.04543763 0.12492328 15592937
0.73641658 -0.035102312 0.12494715 15658730
0.73624998 -0.024538266 0.12545851 15329765
0.74000001 -0.026611775 0.12123132 15264229
0.73480541 -0.014385868 0.12467529 14737628
0.73353332 -0.0049148193 0.12446018 14606299
0.73366666 0.004532767 0.1244818 14540508
0.7348057 0.014860209 0.1246724 14474713
0.73491651 0.025184916 0.12469079 14079955
0.7341668 0.035469029 0.1245639 14013905
0.73210543 0.0457424 0.12480363 14079699
0.72853851 0.056779318 0.12827416 14145238
0.73095232 0.054259986 0.12398419 13816273
0.72688001 0.065712228 0.12649696 14145238
0.73063636 0.063367538 0.12234011 14145238
0.72621423 0.07485503 0.12570666 14145495
0.73000002 0.074575484 0.121302 14079445
0.72585303 0.084994622 0.12530382 14606045
0.73000002 0.082835376 0.121302 14342617
0.72643346 0.094675802 0.12529509 15263978
0.73100001 0.097496331 0.12089618 15461357
0.72825003 0.10444749 0.12783001 15527150
0.73128015 0.10576002 0.12294905 15592685
0.73212504 0.11142671 0.12443098 12171446
0.74500006 0.11360512 0.12030639 13618124
0.77700001 0.1184848 0.12001699 11447976
0.78900003 0.11846761 0.12002348 11316390
0.76600003 0.12398028 0.12907724 11777195
0.77583337 0.12617777 0.12528436 11645611
0.78350002 0.12712134 0.12315444 11645611
0.79079998 0.12540369 0.12029729 11579561
0.77900004 0.13155536 0.1294442 11580073
0.78614289 0.1342092 0.12575927 11645612
0.79170007 0.13629629 0.12154455 11645867
0.78900003 0.14063238 0.12833527 11579819
0.79443753 -0.154691 0.134103 9802381
0.77610004 -0.14255725 0.1345962 9538695
0.78771436 -0.14779651 0.13379242 9867918
0.79033333 -0.14960892 0.13687876 9736332
0.73600006 -0.13070878 0.1395289 15064540
0.74433339 -0.13180195 0.13587704 14604502
0.75200003 -0.13531072 0.13728079 12432820
0.76800001 -0.13998756 0.13840376 12695477
0.73396301 -0.1245596 0.13512987 14144465
0.74200004 -0.12830028 0.1311115 13749450
0.72900003 -0.11268403 0.13933958 15592167
0.73163652 -0.11545429 0.13428679 15526374
0.72900003 -0.10532939 0.13966465 15328995
0.73088568 -0.10486887 0.13415703 15591910
0.72890007 -0.093785264 0.13920662 15526374
0.73093772 -0.094945148 0.1337543 15394787
0.72763163 -0.084756687 0.13722301 15395044
0.73066658 -0.084908612 0.13177007 15526374
0.72667748 -0.075549409 0.13589065 15197665
0.73049998 -0.074153319 0.13079013 15263459
0.72689289 -0.065521486 0.13633926 15131873
0.73057145 -0.065120228 0.13116935 15132129
0.72782362 -0.055790037 0.13797677 15197666
0.73108 -0.054940429 0.13284402 15132386
0.72816676 -0.044936996 0.13889523 15394789
0.73146671 -0.045140497 0.13352926 15395301
0.72816676 -0.034708705 0.13889521 15591912
0.73153347 -0.034869336 0.13354157 15461094
0.72900003 -0.0270695 0.13990846 14736602
0.73188901 -0.024606006 0.13446257 15000544
0.72900003 -0.010856777 0.13990846 14013652
0.7315557 -0.014321174 0.13440214 14474457
0.72900003 -0.0048836693 0.13990846 14474203
0.73103344 -0.0048976811 0.13430662 14474714
0.72900003 0.0052421703 0.13842939 14211289
0.73062968 0.004100732 0.13306159 14474457
0.72900003 0.013626401 0.13859567 14211287
0.73068964 0.015278206 0.13338868 14145748
0.72900003 0.025990315 0.13897757 13882319
0.73090327 0.024688462 0.13364805 13948369
0.72804552 0.035483893 0.13739924 13948113
0.73054993 0.034953818 0.13199596 14211286
0.72694105 0.0455321 0.13550404 14211285
0.7306 0.042653557 0.13063702 14408667
0.72491676 0.055385429 0.13487735 14145494
0.72266662 0.065366156 0.13446119 14276824
0.72297204 0.075550206 0.13451932 14408154
0.72192109 0.085755676 0.13463399 14803168
0.72154289 0.094972178 0.1349504 15527147
0.7256766 0.10496637 0.13482119 14934754
0.72766668 0.11096195 0.13539113 11447721
0.77724999 0.12853135 0.13188362 11711403
0.78233337 0.12845536 0.13732703 11514024
0.77900004 0.13155536 0.13126785 11645609
0.78552383 0.13493936 0.13543269 11579816
0.78900003 0.14063238 0.13387646 11580073
0.79330444 0.14600693 0.13521008 11579817
0.77400005 -0.14289318 0.141297 9603719
0.78900003 -0.14750949 0.14218825 9802123
0.79200006 -0.14992444 0.1408748 9802122
0.73325002 -0.13365433 0.14509505 14473173
0.74400002 -0.13735467 0.14278723 12894141
0.72707146 -0.12255891 0.14731601 15592167
0.73111999 -0.12641993 0.14373666 13881292
0.72581816 -0.11484502 0.14500521 15131614
0.73000002 -0.11853509 0.14010037 15592167
0.72426838 -0.10488538 0.14564501 15131614
0.71900004 -0.093184255 0.14977163 15461094
0.72374278 -0.095322914 0.14537482 15328994
0.71899998 -0.0839267 0.14921059 15329252
0.72278798 -0.085446857 0.144246 15197667
0.71899992 -0.075051688 0.14900656 15395045
0.72180641 -0.074825205 0.14375629 15263460
0.71899998 -0.063728392 0.14935082 15658216
0.72161764 -0.065002859 0.14415085 15329252
0.71899992 -0.054470841 0.14893004 15461352
0.72240001 -0.05472764 0.14370911 15394788
0.71899998 -0.04497283 0.14953117 15132133
0.72240013 -0.044460658 0.14443193 15460838
0.71900004 -0.034272537 0.14977163 15066083
0.72233331 -0.034430262 0.14454015 15460325
0.72404993 -0.024508798 0.14547265 14934239
0.73000002 -0.021979801 0.14010037 15263202
0.726129 -0.014897964 0.14516169 14276824
0.73000002 -0.015998498 0.14010037 14408150
0.72600001 -0.0055915625 0.14539675 14474203
0.72686112 0.0044908938 0.14544857 14211545
0.72724992 0.014706961 0.14552562 13882579
0.72677785 0.024904737 0.14543241 13684942
0.72577786 0.035064891 0.14523481 13750478
0.72477794 0.045196615 0.14503695 13816527
0.72319436 0.055255789 0.14472072 14079698
0.72252774 0.065353632 0.14458758 13882320
0.72186118 0.075432658 0.14445151 13882065
0.71900004 0.089442074 0.14808844 14605789
0.7205714 0.085057244 0.14474785 14211031
0.71899998 0.092247397 0.14752738 14474204
0.72044837 0.096602678 0.14448908 15132134
0.72463334 0.10541477 0.14500637 15000804
0.72750014 0.11093654 0.14558081 13092548
0.73100001 0.11318153 0.14884871 11908529
0.78725004 0.12926266 0.14602232 11711148
0.78833324 0.13459399 0.14491372 11645355
0.79000002 0.13896121 0.14699197 11579562
0.79350001 0.14501378 0.14507216 11579562
0.73199999 -0.14028016 0.15556036 13420484
0.7279231 -0.13242158 0.15687044 14144465
0.7311579 -0.13606659 0.15365358 14407380
0.71900004 -0.12137773 0.15860838 14802394
0.72376662 -0.12554812 0.15437028 14341588
0.71823078 -0.11449085 0.15678766 15000031
0.72093761 -0.11611566 0.15175629 15000030
0.71762848 -0.10464696 0.15548156 15066080
0.72049999 -0.10940234 0.15092686 15197408
0.71713883 -0.094621986 0.15525462 15395302
0.71699989 -0.084531985 0.1552248 15395046
0.71755546 -0.074518487 0.15534669 15395302
0.71783322 -0.064465739 0.15540722 15329252
0.71763867 -0.054367825 0.15536527 15329253
0.71774983 -0.044294126 0.15538943 15263458
0.71830559 -0.034238622 0.15551007 15066338
0.71864283 -0.025182899 0.15588437 14671581
0.72049999 -0.021693176 0.15092686 14539996
0.71883339 -0.016314154 0.15716876 14211031
0.72076476 -0.014753177 0.15212305 14342617
0.71900004 -0.0086038606 0.15944998 14079445
0.72117138 -0.005553931 0.15432079 14342618
0.72183347 0.0044590924 0.15458108 14276823
0.72188902 0.014598386 0.15459271 13948115
0.72238898 0.024756353 0.1547011 14079701
0.72377795 0.034970928 0.15500084 13947858
0.72494471 0.045207862 0.15525258 13882064
0.7238335 0.055304378 0.15501313 14013907
0.7225278 0.06535285 0.15473251 14211027
0.71900004 0.078080527 0.15944998 14144721
0.72094297 0.075215794 0.15427323 14013392
0.71888459 0.086191088 0.15660821 14211031
0.72016674 0.082702853 0.15282385 13882322
0.71878779 0.094973899 0.15594728 14935010
0.72025001 0.099292889 0.15171754 15527147
0.71900004 0.10189769 0.15852423 15526893
0.72182143 0.10548681 0.15433882 15197927
0.72427273 0.11136975 0.15471731 13684687
0.73000002 0.1130267 0.15035403 12040115
0.78550005 0.12897532 0.15350546 11776941
0.78874987 0.13412604 0.1550685 11645355
0.79000002 0.13896121 0.15531428 11645355
0.79289663 0.14517272 0.15511227 11513769
0.72700006 -0.14102387 0.16845727 13158853
0.73233336 -0.14148802 0.16512342 12105654
0.7252813 -0.13528331 0.16513397 14671065
0.73000002 -0.13904241 0.16146216 12697532
0.71796429 -0.12408637 0.16618094 14736604
0.72072732 -0.12799706 0.16286144 13946572
0.71465796 -0.11459294 0.16519392 15065826
0.71327507 -0.10509066 0.16531116 15197669
0.71236581 -0.095313452 0.16514124 15395048
0.71297783 -0.085111842 0.16509201 15460842
0.71507889 -0.074568085 0.16503163 15526634
0.71597201 -0.064297915 0.16506383 15395048
0.7160275 -0.054245636 0.16507655 15329254
0.71603107 -0.044711806 0.16486645 15197924
0.71647024 -0.035582125 0.16537446 15000547
0.71649975 -0.025766673 0.16518383 14605789
0.71730542 -0.015719086 0.16536956 14539996
0.71852785 -0.0056539397 0.16565135 14342617
0.72000003 -0.0031378444 0.16009313 14342617
0.71897215 0.0044408697 0.16575536 13882319
0.72000003 0.0044470541 0.16009313 14277079
0.71899992 0.01454003 0.16660357 13816527
0.72000009 0.014560251 0.16093589 14079185
0.71899992 0.023881745 0.16769762 13619150
0.72027284 0.025373502 0.16268247 13750735
0.72233349 0.034903284 0.16483706 14013904
0.72344464 0.045112371 0.16508974 13948368
0.71900004 0.057798065 0.16929665 14211284
0.72129428 0.054912027 0.16435115 14145491
0.71899992 0.065877385 0.16769764 13948112
0.72040915 0.064396083 0.16271292 14079185
0.71865714 0.075218 0.16580182 14079441
0.72000003 0.072289757 0.1605145 14276307
0.71708333 0.085004635 0.16531651 14408664
0.71713895 0.0950884 0.16533095 15132388
0.71870589 0.10276718 0.16594133 15197928
0.7206316 0.10775909 0.16431862 14737377
0.72311121 0.11215023 0.16492486 11908275
0.78854156 0.13593654 0.16518019 11579562
0.78900003 0.14132503 0.16643095 11579819
0.79068422 0.1456103 0.16441081 11513769
0.79287875 0.15510514 0.16459529 11447976
0.7933749 0.16520898 0.16410041 11513768
0.71900004 -0.14115523 0.17838588 13420998
0.72333336 -0.14087485 0.17352416 13618891
0.7183637 -0.13399936 0.17685053 14144722
0.72120005 -0.1360731 0.17262657 14803165
0.71411437 -0.12491594 0.1752068 14671067
0.70859998 -0.11367879 0.17735349 15263719
0.71090913 -0.11649554 0.17365311 15000803
0.70793551 -0.10466159 0.17542492 15329255
0.71000004 -0.10747556 0.17149901 15329512
0.70820689 -0.095472224 0.17576367 15526634
0.71000004 -0.093798675 0.17164147 15132133
0.70876926 -0.086943798 0.17750651 15526635
0.71065223 -0.084470198 0.17407115 15461097
0.71213639 -0.075355209 0.17482038 15395048
0.71314287 -0.065233722 0.17525628 15066082
0.71405131 -0.055530436 0.17530939 15132388
0.71385729 -0.04560617 0.17472003 15066594
0.71469462 -0.035739012 0.17480661 14803168
0.71552771 -0.025730766 0.17501062 14539996
0.71658313 -0.015703067 0.17526916 14342617
0.71752769 -0.0056452891 0.17550129 14342617
0.71851617 0.0043036961 0.17506464 13948114
0.71899992 0.014540031 0.17501947 13422026
0.71899992 0.024639182 0.17501952 13684941
0.71899992 0.033976886 0.1760615 13684941
0.72046679 0.035878185 0.17189012 13816527
0.71848148 0.04508473 0.17694739 13882319
0.7208668 0.044446908 0.17176026 14013905
0.71791649 0.054853175 0.17559229 14013905
0.72000003 0.05248474 0.17020632 14145491
0.71727777 0.064879283 0.17543505 14079185
0.71613884 0.074833773 0.1751567 14013650
0.713925 0.084797084 0.17519954 14672094
0.71515787 0.094652973 0.1752253 15132390
0.71847618 0.10339449 0.17601234 15066342
0.72050005 0.10830279 0.17405796 14408411
0.72337508 0.11221632 0.17375106 11776944
0.73000002 0.11473565 0.17257029 11777198
0.78871435 0.13557068 0.17247033 11579819
0.79000002 0.13618711 0.17658243 11514026
0.78900003 0.14063238 0.17174126 11711405
0.79209101 0.14531608 0.1747757 11514026
0.7182501 -0.14277384 0.18509106 13749964
0.71588576 -0.13528167 0.18479025 14473174
0.70850003 -0.12281939 0.18583502 14736861
0.71121061 -0.12744701 0.18460128 15197409
0.70711422 -0.11470183 0.18446796 15000034
0.70622212 -0.10475504 0.18430778 15329255
0.70680559 -0.09491159 0.18445948 15394792
0.70802784 -0.085131131 0.18477876 15395305
0.70836371 -0.075448856 0.18524297 15394792
0.71000004 -0.072903425 0.18113931 15526891
0.70837045 -0.06554994 0.18606581 15328996
0.71011114 -0.064602397 0.18172173 15197411
0.70900005 -0.058415964 0.18807657 15395045
0.71112514 -0.054808598 0.18464985 15066593
0.71313512 -0.045790691 0.18460175 15000801
0.71425027 -0.035718415 0.18473239 14540253
0.7146945 -0.025701579 0.18484491 14211287
0.7157777 -0.015684925 0.18512514 14342873
0.71750003 -0.0056447121 0.18557158 14671839
0.71846348 0.0045408839 0.18510181 14210773
0.7185477 0.014531021 0.18500021 13618892
0.71821439 0.024611672 0.18491404 13816269
0.71761894 0.034670718 0.18475939 13750477
0.71580559 0.044635378 0.18513036 13685197
0.71304768 0.054479618 0.18524903 13882320
0.7086429 0.066586703 0.18778385 14013908
0.71158069 0.063800149 0.18352617 13947599
0.70864284 0.074882761 0.18778387 14408153
0.71138471 0.074595109 0.18264239 14342103
0.70890009 0.086359896 0.18849254 14934238
0.7110334 0.084011532 0.18411879 14802911
0.70900005 0.091517664 0.18918312 15394788
0.71222866 0.09493959 0.18475254 15198179
0.71733332 0.1053857 0.18507394 14474459
0.72000003 0.1114784 0.18031952 11316649
0.78659999 0.13247503 0.18778904 11448488
0.79088241 0.13672185 0.18456516 11514026
0.71642858 -0.14304793 0.19515605 14078415
0.70849997 -0.13190691 0.19789523 14210518
0.7124483 -0.13561657 0.19458497 14275796
0.70718938 -0.124297 0.19540945 15000289
0.71000004 -0.12886155 0.19166611 15526378
0.70599979 -0.11463805 0.19499366 15131362
0.70576179 -0.10468618 0.19492647 15000291
0.7059046 -0.094791926 0.19496602 15197926
0.70599985 -0.084742345 0.19581769 15263719
0.70664263 -0.075039849 0.19516824 15461097
0.70707518 -0.065318689 0.19503978 15526889
0.70835716 -0.056209911 0.19546695 15461352
0.71025002 -0.052352712 0.19304954 15132643
0.71212184 -0.04551002 0.19513433 15001058
0.71338111 -0.035674728 0.19535725 14671838
0.71351349 -0.025771642 0.19471931 14342872
0.7143333 -0.015653266 0.19478446 14211541
0.71597219 -0.0056329188 0.19523083 14408921
0.71672207 0.0044273948 0.19543585 14211284
0.71630532 0.014484922 0.19532107 13947855
0.71499997 0.024501434 0.19579762 13618890
0.71395242 0.034492902 0.19551121 13619147
0.70900005 0.048363332 0.1991418 14277334
0.71209764 0.04430335 0.19488311 13816528
0.70840734 0.056183957 0.19614933 14079701
0.71046668 0.05289742 0.19301122 13882322
0.70755577 0.06565614 0.19459352 14145238
0.70695257 0.075530998 0.19525371 14474203
0.70688081 0.085452333 0.19523364 14934497
0.70810527 0.093322657 0.19531217 15066083
0.7109167 0.097590677 0.19412999 15263719
0.71487176 0.10463995 0.19537875 14277337
0.78829163 0.13551021 0.19457781 11514024
0.79000002 0.13896121 0.19045296 11580073
0.78900003 0.14137119 0.19796954 11382440
0.79083997 0.14525704 0.19465263 11448489
0.79339278 0.15461805 0.19438484 11382440
0.71316671 -0.14376871 0.2055252 14144977
0.70759267 -0.13321202 0.20537055 14210517
0.71108323 -0.13876936 0.20416319 15263202
0.70599991 -0.12472973 0.20543076 14868702
0.70536107 -0.1145346 0.20554894 14934753
0.70499998 -0.10457317 0.2054452 14868961
0.70427805 -0.094574124 0.20523386 14868448
0.70433354 -0.08468768 0.20524943 15000547
0.70536095 -0.074902393 0.20554921 15131877
0.70621616 -0.065007068 0.20537451 15329512
0.70780575 -0.055278137 0.20460518 15526891
0.7088964 -0.046122607 0.20552157 15395302
0.71014291 -0.042518634 0.20278738 15197922
0.71072221 -0.035540085 0.20544736 14803166
0.71253651 -0.025521195 0.20526011 14539994
0.71266651 -0.015619126 0.2051751 14211285
0.71285707 -0.0056085391 0.20522836 14211540
0.71307135 0.0044028945 0.20528767 14014161
0.70854551 0.01591114 0.20775975 13619147
0.71158063 0.01382539 0.20351651 13684939
0.70748281 0.024671417 0.20687933 13684940
0.7105 0.024347899 0.20205748 13816525
0.70737159 0.034862019 0.20658255 13750990
0.71022224 0.034036174 0.2017018 13750733
0.70731813 0.045462213 0.20528856 13948112
0.71000004 0.04095199 0.20108481 13816526
0.70659512 0.055642322 0.20507999 14013907
0.70607144 0.065519013 0.20492895 14211031
0.70580542 0.0754086 0.20567888 14605789
0.7059443 0.08533904 0.20572013 14803168
0.70710248 0.095137514 0.20510033 15000804
0.71000004 0.099957354 0.20108481 15593711
0.70830768 0.10341827 0.20685475 13948887
0.71158826 0.10586673 0.2026096 13159112
0.77900004 0.12790804 0.20968492 11514026
0.78773063 0.13516083 0.20571843 11514023
0.78900003 0.14124806 0.20190994 11448232
0.79109526 0.14497642 0.2057986 11448231
0.79407996 0.15455383 0.20445265 11382440
0.70900005 -0.14140506 0.21850592 15526886
0.71108705 -0.14430849 0.21492618 14144976
0.70680553 -0.13439777 0.21530008 14013137
0.71000004 -0.13938832 0.2118886 15724525
0.70502782 -0.12438473 0.21535502 14737375
0.70497215 -0.114471 0.21533924 15132390
0.70499998 -0.10457317 0.21534763 14671582
0.70430583 -0.094578795 0.21513571 14671582
0.70400029 -0.084647909 0.21504219 14539995
0.70466679 -0.074828669 0.21524584 14802911
0.70602685 -0.064945944 0.21550475 14934496
0.7070002 -0.055380803 0.21488078 15460841
0.70827782 -0.045367103 0.21468988 15395306
0.70900005 -0.038096216 0.21664499 15329512
0.71032012 -0.034356676 0.21454455 14868961
0.71124995 -0.025577316 0.21558921 14408410
0.71102786 -0.015583456 0.21552183 13882063
0.70877784 -0.0043801386 0.21825284 13750990
0.71085191 -0.0059945085 0.21432883 13882576
0.70804 0.0052004522 0.21657246 13750990
0.71046162 0.0032999266 0.21247363 13882319
0.70688087 0.01429331 0.21509153 13553355
0.70588619 0.024827959 0.21535414 13553098
0.70566648 0.035745602 0.21554983 13816526
0.70483327 0.045602899 0.2152946 13948113
0.70408332 0.055444743 0.21506491 13948115
0.70394444 0.065322243 0.21502259 14211287
0.70447242 0.075266391 0.21518487 14408666
0.70425016 0.085133992 0.21511641 14671839
0.70557886 0.095381938 0.21521796 14935268
0.70683336 0.10323551 0.21487093 14211546
0.78000003 0.12989822 0.21178009 11448487
0.77900004 0.13155536 0.21697955 11579562
0.78408706 0.1350541 0.21464153 11382695
0.78850007 0.14054327 0.21500914 11448231
0.79204768 0.14594761 0.21478528 11382694
0.70836848 -0.14273456 0.22540966 14737114
0.71071434 -0.14725427 0.22446014 13289924
0.70599991 -0.13454111 0.22514367 14144722
0.7044723 -0.1242853 0.22508104 14868961
0.70499998 -0.11447567 0.22525014 15066339
0.70499998 -0.10457317 0.22525017 15000803
0.70441687 -0.094593905 0.22506422 14737630
0.70402807 -0.08465109 0.22493969 14408920
0.70477784 -0.074840993 0.22517954 14277335
0.70572209 -0.065028511 0.22548133 14342872
0.7062856 -0.055183247 0.22497545 14803421
0.70766681 -0.045327503 0.22444494 15197668
0.70852774 -0.035430633 0.22471778 14803425
0.70892298 -0.025749544 0.22618419 14342874
0.71000004 -0.024868073 0.22169511 14342872
0.70830297 -0.015297474 0.22502276 13619147
0.71000004 -0.018053368 0.22103028 13750733
0.70697623 -0.0055649602 0.22505027 13750733
0.70564997 0.0041916235 0.22487614 13750477
0.70483327 0.014253154 0.22519411 13619148
0.70452398 0.024967417 0.22509636 13422026
0.70408344 0.035664517 0.22495574 13619404
0.70308316 0.045489635 0.22463615 13882320
0.70164281 0.055252228 0.22499618 13882320
0.70221031 0.064990044 0.22465988 13948113
0.70333326 0.075145021 0.22471637 14145492
0.70336103 0.085025549 0.22472599 14737117
0.70405555 0.095002741 0.22494674 14934755
0.70581824 0.10327459 0.22581138 14409182
0.78528583 0.13524917 0.2221432 11513767
0.79100001 0.13913712 0.22865599 11316647
0.78900003 0.14063238 0.22253549 11382438
0.79257137 0.14569069 0.2246493 11382438
0.70803845 -0.14327651 0.23444399 14737371
0.71063638 -0.14858833 0.23604956 13487302
0.70548475 -0.13500044 0.23493829 14144723
0.70395029 -0.12477 0.23496673 14934497
0.70472229 -0.11442986 0.23505884 15197669
0.70499998 -0.10457316 0.23515272 15000547
0.70499998 -0.094670653 0.23515272 15000546
0.70499998 -0.084768146 0.23515272 14737631
0.70538884 -0.074905902 0.23528337 14737631
0.70599985 -0.065055281 0.23548621 14605789
0.70661557 -0.054994334 0.23524554 14145239
0.70723838 -0.045300409 0.23507048 14540253
0.70805568 -0.035408091 0.23451416 14408667
0.70822227 -0.025469834 0.2345687 14277080
0.70680952 -0.015492382 0.23492706 13421511
0.70494443 -0.005550588 0.23513222 13553355
0.70253634 0.0044378 0.23503105 13553611
0.70258111 0.014572849 0.23489952 13487562
0.70386869 0.025465403 0.23460142 13421770
0.70377797 0.035649393 0.23474449 13618893
0.70212173 0.045526698 0.23489359 13684686
0.70097238 0.055200145 0.23545009 13882323
0.701675 0.06527745 0.23510981 14079701
0.70276153 0.075083584 0.23522741 14211031
0.70302749 0.084986374 0.23449472 14605533
0.70347214 0.094923161 0.23464288 14869219
0.70452392 0.10295731 0.2346383 14013911
0.7938 0.1364724 0.23596883 11382440
0.71300012 -0.15242064 0.24654341 11710380
0.70768183 -0.14270036 0.24530791 15065565
0.71073335 -0.14818501 0.24499477 13617862
0.70513332 -0.13513401 0.24510114 14078931
0.70316255 -0.12510663 0.2446641 15000544
0.70373702 -0.11457328 0.24478795 15197667
0.70430577 -0.10446967 0.24481246 14934497
0.7048611 -0.094651386 0.24500632 14869214
0.70516664 -0.084787741 0.24511355 15000800
0.7058332 -0.074953362 0.24534506 14934753
0.70599985 -0.065055281 0.24540281 15066597
0.70641673 -0.055169605 0.24554732 14869216
0.70770979 -0.045463655 0.24532938 14342874
0.70819449 -0.035415005 0.24450868 13882322
0.708139 -0.025466548 0.24448912 13618122
0.70667648 -0.015295418 0.24539462 12895167
0.70480561 -0.0055489419 0.24498984 13092805
0.70361304 0.0042116465 0.24523968 13224647
0.703026 0.015169643 0.24467242 13224389
0.70391923 0.025614772 0.24470125 13355976
0.70318413 0.035791844 0.24472611 13487306
0.7017296 0.045290317 0.24540477 13684686
0.70069456 0.055177428 0.24519801 13750480
0.70027798 0.064981729 0.24505199 14079445
0.70149994 0.074950323 0.24547996 14408410
0.7030831 0.084993668 0.24438924 14539996
0.70394468 0.094985217 0.24468875 14869220
0.70414293 0.10195869 0.24464087 13092807
0.79330772 0.13597253 0.24489199 11316648
0.70790005 -0.15123971 0.25600445 13420488
0.71000004 -0.15102319 0.25094849 13683657
0.70694894 -0.14464796 0.2552149 14210259
0.71000004 -0.14936107 0.25094849 13355205
0.70434374 -0.13482869 0.25507885 14407383
0.70184594 -0.1255288 0.25501543 15065824
0.70256215 -0.11500407 0.25479388 15395557
0.70297629 -0.10440665 0.25516251 15395302
0.70371443 -0.0944966 0.25531515 15197923
0.70466679 -0.084727481 0.25483581 15131874
0.70516658 -0.074882954 0.25501624 15197924
0.70547217 -0.065005906 0.25512671 15000803
0.70630556 -0.055161122 0.25542963 15132645
0.70825011 -0.045364574 0.25475085 15132390
0.70900005 -0.038609236 0.25258678 13882322
0.7099998 -0.034996293 0.25545228 14408666
0.70855552 -0.024345716 0.25443092 13289412
0.71000004 -0.028949507 0.25556549 13947600
0.7071389 -0.015500115 0.25517881 13026497
0.70586091 -0.0055556241 0.25526875 13093061
0.70420009 0.0045122253 0.25524354 13355978
0.70279551 0.015034826 0.25498173 13224393
0.70299965 0.025736669 0.25505638 13224393
0.70267475 0.035428625 0.25518569 13421772
0.70174998 0.045403492 0.25542581 13355722
0.70055568 0.055165745 0.25499091 13684430
0.70000023 0.064955898 0.25478828 13684687
0.70100009 0.074896447 0.25515091 14079445
0.70190459 0.084851414 0.25465581 14342618
0.7026903 0.094816677 0.25494057 14342875
0.70450008 0.10124489 0.25188982 12434619
0.79153848 0.13652381 0.25510606 11316647
0.79123342 0.14473446 0.25465262 11185061
0.70825011 -0.15230912 0.2644242 13420487
0.71000004 -0.15434743 0.26923183 13947089
0.70661771 -0.1443225 0.26522458 13946830
0.70303226 -0.13473311 0.26494125 14407892
0.6985833 -0.12338319 0.26844555 14737632
0.7002759 -0.1256648 0.26390401 14671581
0.69900006 -0.11857416 0.26866063 14869218
0.70087892 -0.1151233 0.26462704 15197924
0.70146149 -0.10524772 0.26498124 15460838
0.70148712 -0.094639994 0.26536858 15132386
0.70202386 -0.084410168 0.26455912 15329767
0.7026903 -0.074619927 0.26481175 15263719
0.70357132 -0.064829551 0.26514411 15461098
0.7054323 -0.055203639 0.26517701 15592684
0.70707321 -0.045188081 0.26492947 15592684
0.70797551 -0.035424661 0.26526752 14868961
0.71000004 -0.034674596 0.26092124 14803168
0.70728582 -0.025436644 0.26488745 13882321
0.70615786 -0.015651559 0.26498872 13421767
0.7044102 -0.0053562364 0.26507905 13750476
0.70236826 0.0041637477 0.26521114 13816528
0.70188075 0.015015787 0.26533097 13618894
0.70202756 0.025701059 0.26538691 13553356
0.70263869 0.035593681 0.26561844 13750735
0.70266646 0.045462832 0.26562914 13553357
0.70113891 0.055210605 0.26505154 13619151
0.69882149 0.065780655 0.26581037 13816273
0.69999999 0.063317187 0.26270869 13750480
0.69791174 0.074468002 0.26570287 14013909
0.70000005 0.075197846 0.26093337 13948116
0.69755888 0.084133409 0.26556855 14342875
0.70000005 0.085439801 0.26093337 14342875
0.69833338 0.092866316 0.26675344 14408669
0.70044446 0.095424004 0.26278344 14474461
0.78862506 0.13502786 0.2688148 11250854
0.7905556 0.1361804 0.26399705 11316647
0.79155564 0.14458936 0.26536062 11185061
0.70900005 -0.15136375 0.27106571 12960196
0.71060002 -0.15303704 0.27600247 12763587
0.70697206 -0.14459151 0.27497876 13223366
0.7023226 -0.13465139 0.27485749 13816272
0.6983 -0.1240147 0.27542105 14342617
0.70000005 -0.12923156 0.27445278 14013909
0.69823521 -0.11520392 0.27563477 14605533
0.70000005 -0.11311755 0.27090225 14934241
0.69830775 -0.10534067 0.27674338 14737376
0.69999993 -0.10526539 0.27178988 15131363
0.69866663 -0.09545555 0.27638274 14868961
0.69999999 -0.095637947 0.27117532 15066338
0.69892865 -0.087660931 0.27753863 14474203
0.70018762 -0.084086277 0.27370611 14803167
0.7011112 -0.074451953 0.27488625 15132132
0.70158327 -0.064647548 0.27507126 15132132
0.70260966 -0.054771829 0.27476889 15395305
0.70481575 -0.04531756 0.27499124 15658477
0.70594442 -0.035302199 0.27512935 14868960
0.70563871 -0.025376966 0.27501053 13684687
0.70380479 -0.015326321 0.27499625 13290185
0.70233315 -0.0057186866 0.27492213 13750994
0.70144445 0.0043319911 0.2750175 13816530
0.70128584 0.015003332 0.2749559 13619151
0.70149994 0.025682228 0.27503923 13750736
0.70180541 0.035551082 0.27515903 13750736
0.70141667 0.045382053 0.27500644 13487565
0.7005558 0.0551662 0.27466929 13684687
0.69858831 0.06737344 0.27567938 13816273
0.69999993 0.062588856 0.27463484 13750480
0.69752789 0.074523233 0.27511784 14145238
0.69760013 0.084214605 0.2750304 14342618
0.69829416 0.092251346 0.27412146 14474459
0.70000005 0.094725847 0.27800331 13487308
0.78358334 0.12774391 0.27420139 11316390
0.78664291 0.13449398 0.27494323 11185061
0.78880006 0.14188966 0.27621454 11119268
0.79083335 0.14630848 0.27427179 11119268
0.79289663 0.15419513 0.27544406 11053475
0.71000004 -0.15102319 0.28169775 12105914
0.70712501 -0.14493422 0.2822119 12237499
0.70216668 -0.13456587 0.28494489 13092551
0.69847059 -0.12356361 0.28332773 13619152
0.70035714 -0.12707302 0.28630447 13619409
0.69780785 -0.11475191 0.28370962 13882581
0.70000005 -0.11653154 0.28838181 13488337
0.69825929 -0.10523766 0.28403306 14145240
0.70000005 -0.1051971 0.28838181 13553616
0.69880003 -0.095375672 0.28415811 14342618
0.70000005 -0.095364816 0.28783557 13487566
0.69883323 -0.085663378 0.28544644 14211031
0.70000005 -0.081708886 0.28018826 14671582
0.69828576 -0.07524997 0.28599298 14539996
0.69999993 -0.074019551 0.28119671 14934753
0.69885719 -0.067785881 0.28744343 14671582
0.70048398 -0.063990094 0.28403172 15000804
0.70174998 -0.054805666 0.28499717 15132390
0.70342499 -0.044890884 0.28509805 15526634
0.70407158 -0.035208602 0.28511202 14934241
0.70409763 -0.025261452 0.28500175 13750223
0.69900006 -0.011228182 0.28960621 13026757
0.70172966 -0.015492823 0.28482985 13355722
0.69899994 -0.0048190597 0.28865167 14079702
0.70056683 -0.0057868361 0.28374824 13882323
0.69868428 0.0045307097 0.28766674 13816274
0.70039129 0.0041471589 0.28269646 13816530
0.69888246 0.01447065 0.28801739 13553360
0.7002905 0.015245904 0.28321204 13421773
0.69852179 0.025750281 0.28706071 13356238
0.70021051 0.025419366 0.28208375 13487309
0.69872236 0.034668166 0.28767321 13684944
0.70024991 0.036017966 0.28288293 13750737
0.69900006 0.045226641 0.28469709 13355979
0.70002961 0.045293078 0.28424862 13553358
0.69900006 0.05095394 0.28796983 14211288
0.70000023 0.055240665 0.28416795 13553359
0.69900006 0.066990383 0.28273344 13816530
0.70000011 0.064312115 0.2849288 13553358
0.699 0.074517682 0.28207892 14013909
0.69999993 0.074870102 0.28641537 13948118
0.699 0.083272278 0.2826516 14540253
0.69999993 0.085226052 0.28560308 14342875
0.69999993 0.092253409 0.28389695 13882325
0.78600001 0.12752599 0.28456363 11185061
0.78795439 0.13466159 0.28470841 11250597
0.79000002 0.13803652 0.28847137 11119011
0.78885716 0.14219011 0.28198647 11053218
0.79044449 0.14541373 0.28585929 11053475
0.79156256 0.1552209 0.28498828 10987682
0.70211118 -0.13309146 0.29217365 12236730
0.70268965 -0.12484749 0.29431522 12894660
0.7031613 -0.11499812 0.29462796 12764101
0.70306677 -0.10494352 0.29458985 13224395
0.70165533 -0.094986439 0.29427922 13553103
0.69883341 -0.084299989 0.29144588 14342874
0.7010417 -0.085043997 0.29613063 13421516
0.6985001 -0.07448177 0.29215908 14079445
0.70100009 -0.074852303 0.29720566 13684687
0.69900006 -0.067955732 0.29178807 14211031
0.70012915 -0.063958868 0.29462078 14342875
0.70113891 -0.054757811 0.29459384 14606048
0.70197213 -0.044962913 0.29494354 15198183
0.70222199 -0.035117164 0.29504943 14671582
0.70174986 -0.025114795 0.29513595 13618894
0.69852948 -0.013241197 0.29633626 13487565
0.70045835 -0.016991783 0.29389858 13158343
0.69811106 -0.0054943413 0.29495734 13816273
0.69794446 0.0043106992 0.29488733 13618894
0.69807136 0.014934177 0.29494023 13290187
0.70000005 0.014975157 0.29002053 13553360
0.69800001 0.025553567 0.29491094 13290443
0.69814289 0.035248704 0.29485506 13421772
0.70000005 0.039555848 0.29985279 13421515
0.69900006 0.043445881 0.29393777 13224393
0.69999999 0.046503987 0.29532993 13355980
0.70000029 0.05512362 0.29493672 13289929
0.70000029 0.064955898 0.29493675 13290187
0.70000029 0.074788153 0.29493672 13553360
0.69900006 0.086954117 0.2912426 14671841
0.70000029 0.084560484 0.29501665 14014168
0.70019996 0.091475017 0.29502109 13750997
0.78900003 0.12677939 0.29180035 11184804
0.79000002 0.12800707 0.29643807 11184804
0.79148012 0.13551825 0.29531258 11119011
0.79404545 0.14499746 0.2950215 10987682
0.79404163 0.15523933 0.29483077 10921889
0.70625007 -0.12170491 0.30129051 11974073
0.71000004 -0.12110499 0.30579853 10659240
0.70699996 -0.11479887 0.30202457 11646135
0.71166664 -0.11555389 0.30651638 10921899
0.70783335 -0.10499343 0.30238071 12171708
0.71350002 -0.1058326 0.30730599 11842744
0.70656246 -0.094468087 0.30276898 12303292
0.71216661 -0.096746765 0.30784371 11908535
0.70609528 -0.084546126 0.30459148 12500670
0.71066666 -0.087946594 0.30941305 11382191
0.70565522 -0.074793234 0.30546996 12894915
0.70486671 -0.06495209 0.30524498 13026759
0.70316678 -0.05491998 0.30450732 13553875
0.70161104 -0.044941574 0.30465084 14672097
0.70152777 -0.035083186 0.30461305 14342617
0.69900006 -0.021864599 0.30269718 12500414
0.70048165 -0.026194084 0.30479595 13947859
0.6985715 -0.01496024 0.30297926 13290187
0.69999993 -0.015575129 0.30828044 13159114
0.6985333 -0.0065322509 0.30238664 13421772
0.70023525 -0.0049793292 0.30699289 12895684
0.6983636 0.0046837241 0.30152991 13290188
0.70073688 0.0041129487 0.3065587 12961737
0.69831258 0.014633114 0.30188915 13027016
0.70105261 0.015256543 0.30704269 12303552
0.69885719 0.025001368 0.30123302 12961223
0.70091295 0.025838893 0.30609584 12500674
0.69900006 0.032135665 0.30106083 13487310
0.70092869 0.035740532 0.30541006 12829894
0.70116675 0.04536726 0.30528006 12962250
0.70160007 0.05525 0.30546963 12764871
0.70150012 0.065094575 0.30542547 12829894
0.70113343 0.074907847 0.3052651 12632771
0.7009334 0.084734678 0.30517805 13159630
0.70271438 0.092352867 0.3051317 13554645
0.78900009 0.12434463 0.30556938 10987939
0.79000002 0.12853731 0.30477974 11053475
0.79160708 0.13573958 0.30513909 10987683
0.71700001 -0.12229897 0.31049195 10264482
0.71800011 -0.11490455 0.31092501 10593447
0.72455561 -0.11397396 0.31621724 11514034
0.73100001 -0.1195531 0.3199771 12698819
0.71816677 -0.10484669 0.31099716 11579829
0.72363645 -0.10525975 0.31583321 10395298
0.71757144 -0.094322287 0.31289983 11513777
0.72242862 -0.095200598 0.31695089 10724259
0.71576923 -0.083807632 0.31499073 10724259
0.72133332 -0.087575592 0.31856123 10724259
0.70900005 -0.079439864 0.31034717 11447982
0.71466666 -0.074774191 0.31617996 10592418
0.71522218 -0.064785682 0.31642598 11579570
0.70718187 -0.053954218 0.31226137 12895945
0.71342862 -0.055603527 0.31729677 11843256
0.70568192 -0.044902947 0.3144553 13290960
0.71000004 -0.047971576 0.31909552 12698569
0.70537513 -0.03527442 0.31454524 13553359
0.70429623 -0.025055207 0.31452271 13026760
0.70304 -0.015571616 0.3149851 12435650
0.70389283 -0.0053027347 0.31494525 12041149
0.70433331 0.0043517523 0.31407943 11909564
0.70529169 0.014263835 0.31450716 11186354
0.70548159 0.024816576 0.31450045 11777721
0.70475006 0.035202622 0.31377032 11646650
0.71025002 0.035979167 0.31920788 9738653
0.7051667 0.045627393 0.31362379 12041405
0.71133333 0.044360947 0.31969473 10133667
0.70627779 0.055618305 0.31411803 12107454
0.71200001 0.050234776 0.31999436 12173247
0.70583338 0.065495953 0.3139196 11712442
0.71125001 0.065997772 0.3196573 10725805
0.70472234 0.075291723 0.31342599 11777207
0.71000004 0.074194454 0.31909552 11316658
0.70537502 0.084859215 0.31351078 11974843
0.71133333 0.083491839 0.31913993 11185583
0.70674998 0.092882909 0.31184375 13356754
0.71366674 0.092120804 0.31795996 11580342
0.72000003 0.097994134 0.31853321 12830155
0.78550005 0.11886211 0.31900781 11118762
0.78858346 0.12363625 0.31502894 11053475
0.79000002 0.12889224 0.31395206 10987938
0.79074085 0.13518532 0.31506807 10922146
0.79255551 0.14518483 0.31496689 10922146
0.73600006 -0.12123235 0.32302725 13027780
0.745 -0.12402577 0.32784817 12500923
0.7350834 -0.11391052 0.32506791 13224647
0.74100006 -0.11598451 0.32955849 13619147
0.73394126 -0.10517734 0.3246052 12961477
0.72833329 -0.095816046 0.32108298 11842740
0.73338455 -0.094984427 0.32604206 12764098
0.7255556 -0.084694512 0.32344648 12172216
0.73225003 -0.087187544 0.32823908 12764095
0.72383332 -0.075168557 0.3244687 12566716
0.72537506 -0.064930499 0.32494706 11119016
0.73000002 -0.066412315 0.32808411 12500923
0.71799999 -0.053275291 0.32269135 10658726
0.72333336 -0.055647884 0.32621887 11316911
0.71609098 -0.044722188 0.3241227 11711928
0.72000003 -0.048647232 0.32696089 12369854
0.71587503 -0.034535743 0.3238326 12369856
0.72000003 -0.034320205 0.32696089 12238272
0.71499997 -0.025330825 0.3246946 11711671
0.72100002 -0.026772438 0.32910284 10725033
0.70860004 -0.014699611 0.32178402 10198689
0.71542865 -0.0162721 0.32632232 10527397
0.71499997 -0.0060040187 0.32545474 10790567
0.72000003 -0.0014523113 0.32864639 11580340
0.70900005 0.00022965853 0.32030585 11317170
0.71490908 0.0047974093 0.32389206 10724519
0.72125006 0.0036134715 0.32921699 11448754
0.7166667 0.014494208 0.32461104 10527910
0.71616668 0.024543062 0.32354352 9870239
0.72016668 0.024680138 0.32703659 10857388
0.71766663 0.034675475 0.32422122 9541785
0.71799999 0.044775125 0.32437181 9410455
0.72220004 0.045542937 0.32795995 11910586
0.71627277 0.055107605 0.32283279 10791594
0.72233343 0.055192888 0.32802048 10922922
0.71675003 0.063995354 0.32338983 10331046
0.72133332 0.065244503 0.32756636 9870493
0.71716666 0.074944325 0.32399532 10067361
0.72116667 0.075362325 0.32749069 10002079
0.71750003 0.08449579 0.32330784 10724774
0.72100008 0.08716023 0.32572711 10856096
0.71800005 0.092679381 0.32101011 11580340
0.72450006 0.094382234 0.32475895 12172222
0.73000002 0.095937274 0.32808411 11251375
0.73100001 0.10120255 0.32339969 14672359
0.78599995 0.11906862 0.3246015 11315882
0.78826928 0.1255286 0.32474655 10987940
0.79088908 0.13548563 0.32507148 10856867
0.78850007 -0.14418657 0.33914691 8553864
0.79050004 -0.14871579 0.33861947 8488068
0.77450007 -0.13482976 0.33810675 9473421
0.7840001 -0.13862382 0.33828306 9605525
0.74710011 -0.12166184 0.33559591 13421515
0.75455552 -0.12655085 0.33617043 12829633
0.76100004 -0.12980407 0.33845344 12960964
0.74490923 -0.11524878 0.33526295 13619150
0.74400002 -0.10513369 0.33524975 13487565
0.73800004 -0.091327526 0.33167955 13158600
0.74355555 -0.095400266 0.33591977 13290186
0.73500007 -0.084079407 0.33243483 12632254
0.74187505 -0.086164907 0.33776367 12829635
0.73431253 -0.074971437 0.33325082 12632255
0.74050003 -0.071700796 0.3380037 12698049
0.7345385 -0.064310424 0.33330256 12763842
0.74100006 -0.065678358 0.33866563 12829635
0.72800004 -0.052596282 0.33144593 12764099
0.73307145 -0.055782106 0.3348619 12961477
0.7245 -0.044711307 0.33070046 12171962
0.73291665 -0.045229647 0.33711815 13225163
0.72549999 -0.032885719 0.33115688 11053998
0.73311114 -0.035233375 0.33692157 12961734
0.72619998 -0.024920881 0.3331793 12040891
0.7318334 -0.026035801 0.33718905 12633027
0.72550011 -0.015682163 0.33392167 12567234
0.73200005 -0.015192541 0.33869508 12829891
0.72420007 -0.006542197 0.33225888 12369854
0.73180008 -0.0049014906 0.33745891 12304061
0.72666669 0.0041940422 0.33282641 12172476
0.73199993 0.0053756428 0.33698145 11975098
0.72475004 0.012960534 0.33081457 11251373
0.73283339 0.014820554 0.33707973 11448753
0.72680002 0.024056688 0.3317503 12106684
0.73300004 0.024258912 0.33672705 11909304
0.73385715 0.036069665 0.33644503 12369853
0.72900003 0.0497276 0.33275449 12568256
0.73179996 0.044778425 0.33489126 12173244
0.72900003 0.0514342 0.33275449 12699072
0.73180002 0.054885067 0.33506215 12699073
0.72860008 0.065049432 0.33257192 13159370
0.73262501 0.064556196 0.33612597 13225163
0.72800004 0.074375853 0.33229804 13752277
0.73337501 0.074059509 0.33689934 13422799
0.72900003 0.087272845 0.33104789 13881549
0.73400009 0.085465558 0.33555505 14146263
0.73500001 0.092723511 0.33420449 14343639
0.74225008 0.096680425 0.33793339 14540765
0.74650007 0.10335039 0.33695543 14277338
0.75319999 0.10745136 0.33674389 14672355
0.75900006 0.11040948 0.33934078 15067369
0.76449996 0.11210576 0.33791408 14869992
0.77428579 0.11600311 0.33840433 13027787
0.78500009 0.11786702 0.33533061 12829892
0.78842849 0.12398656 0.3343696 10921634
0.7902 0.12937714 0.3362717 10921890
0.7924782 0.13561039 0.33503157 10921889
0.78731251 -0.14339525 0.34496862 8619138
0.79058331 -0.14873157 0.34513238 8684929
0.76685721 -0.13259837 0.34464413 9013386
0.77510011 -0.13656598 0.34562874 8486784
0.78200006 -0.13887808 0.34229803 8420991
0.7477001 -0.12140997 0.34479138 13289930
0.75536364 -0.12627287 0.34510729 12434622
0.76033336 -0.12969036 0.34438679 11513777
0.74623352 -0.11505771 0.34498826 13487565
0.74588907 -0.10540006 0.34482947 13487566
0.74551463 -0.095001042 0.3447814 13553359
0.74476016 -0.085190937 0.3451792 13553615
0.74436665 -0.075560585 0.34499794 13159370
0.74444848 -0.06526345 0.34515646 13224907
0.7385 -0.05421989 0.34054852 13619921
0.74395001 -0.054968186 0.34619918 13290958
0.7438668 -0.045035116 0.34650946 13225165
0.73800009 -0.034314375 0.34031793 13093065
0.74466676 -0.03549521 0.34688079 13027272
0.73550004 -0.023010409 0.34088692 12566463
0.74428564 -0.025521815 0.34720221 12632256
0.73425001 -0.012652978 0.34030756 12764098
0.7445001 -0.014572416 0.34767485 12829635
0.73800004 -0.0049406844 0.34204561 12304062
0.74590003 -0.0049964166 0.34832758 12566977
0.73900002 0.0011043821 0.34250906 12238270
0.74449998 0.005031466 0.34702379 12041147
0.74494445 0.015065538 0.34701198 11778489
0.73800009 0.026154121 0.34031793 11843512
0.745 0.025865201 0.34596342 11909562
0.74580002 0.035161607 0.34566495 12435648
0.74536359 0.04505235 0.34609783 12698821
0.73900002 0.055599771 0.34077907 12172475
0.74547374 0.05498581 0.34707424 12633026
0.73839998 0.064196266 0.34050241 13093577
0.74550021 0.065141089 0.34716034 12698564
0.7383334 0.076291807 0.34047166 13422542
0.74556261 0.074635386 0.34697235 13093579
0.74617654 0.085219413 0.34563431 13685459
0.75000006 0.08978688 0.34936309 13488337
0.74609095 0.095036298 0.3426213 13948374
0.75044447 0.094916724 0.34820378 13817301
0.74750006 0.10086143 0.34207439 14211288
0.75366664 0.10503188 0.34587559 14211545
0.75818181 0.11109769 0.34558964 14342874
0.76359999 0.11564104 0.34460738 11514030
0.77316672 0.11910705 0.34356019 10461854
0.7761429 0.12224888 0.34700182 10659230
0.78571427 0.12415288 0.34444967 10790560
0.79028571 0.12870428 0.34434208 10856097
0.79377776 -0.15584022 0.3548882 8618881
0.7858125 -0.14300933 0.35431314 8618626
0.79072726 -0.14850618 0.35571477 8618626
0.76675004 -0.13213268 0.35491812 9605781
0.77420008 -0.13640848 0.35483271 8552834
0.74820006 -0.12061457 0.35413179 13092808
0.75475001 -0.12476941 0.3546606 12500671
0.76100004 -0.12909193 0.35519874 11908535
0.74748129 -0.11485974 0.35538551 13422030
0.7474643 -0.1053092 0.35499591 13356237
0.74723339 -0.095094912 0.35507429 13224909
0.74631053 -0.084645018 0.35475552 13027272
0.74580771 -0.07503511 0.35426199 12961479
0.74606687 -0.065253846 0.35451868 13093065
0.74656665 -0.054810721 0.35475618 13159115
0.74699998 -0.045022961 0.35509583 13093580
0.74751705 -0.035479859 0.35508731 13093323
0.74835694 -0.025409967 0.35535687 12435135
0.75000006 -0.021704104 0.35989767 12304063
0.74869555 -0.014846158 0.35477656 12566464
0.75000006 -0.014053993 0.35964683 12435392
0.7486667 -0.0050154189 0.35400063 12566463
0.75000006 -0.0050243516 0.35901979 12566464
0.74839127 0.0048125945 0.35463247 12106428
0.75000006 0.0040052896 0.35964683 11974841
0.74849999 0.014357752 0.35411665 11515060
0.75028574 0.016553573 0.35802752 11317938
0.74859995 0.024777601 0.35221666 11975869
0.75089997 0.02485295 0.35769382 11646905
