# .PCD v0.7 - Point Cloud Data file format
VERSION 0.7
FIELDS x y z rgb
SIZE 4 4 4 4
TYPE F F F U
COUNT 1 1 1 1
WIDTH 1111
HEIGHT 1
VIEWPOINT 0 0 0 1 0 0 0
POINTS 1111
DATA ascii
0.77600002 -0.13508756 0.099879615 11837583
0.78538454 -0.13516457 0.09584561 11906208
0.79085714 -0.13410355 0.091211811 11974061
0.77662498 -0.12451504 0.099276766 15393760
0.78566676 -0.12511823 0.095803335 15329250
0.79100001 -0.12547728 0.09143956 12237492
0.77521431 -0.11472867 0.098219872 14407889
0.78605258 -0.11538366 0.094096974 14473683
0.79100001 -0.11455198 0.090699799 11908269
0.77350003 -0.10511325 0.097856209 16447983
0.78543746 -0.10489563 0.093848586 15000023
0.79120004 -0.1053194 0.090722732 12171179
0.77499998 -0.094996266 0.097932316 16579313
0.78637499 -0.095125817 0.093846783 15000538
0.79171425 -0.094532713 0.091045909 12236974
0.77530009 -0.085051112 0.098880269 16579569
0.7854706 -0.084974326 0.095685326 14868183
0.79290009 -0.085124776 0.091843531 12368560
0.77680004 -0.075944766 0.099253118 16382191
0.78550005 -0.074682333 0.096960515 14211280
0.79317647 -0.075217627 0.092691898 12171951
0.77600002 -0.066963948 0.099879615 15922154
0.78570837 -0.065042034 0.096522719 13356483
0.79270005 -0.064695708 0.091821067 12106159
0.78662503 -0.055218693 0.097329758 13291204
0.79273337 -0.054795064 0.092504025 12040624
0.78781831 -0.045347631 0.098717086 12896449
0.78860009 -0.034819562 0.099655241 12039853
0.78900003 -0.026526846 0.099705793 11184803
0.78733343 -0.15383606 0.10502358 10655365
0.79187506 -0.15870713 0.10423963 10460049
0.76900005 -0.14016984 0.10617961 10914673
0.77481824 -0.14428507 0.10508142 11309946
0.78220004 -0.14843452 0.10287162 10586996
0.7650556 -0.13477558 0.10682382 10587779
0.77261543 -0.13540056 0.10250242 10981245
0.75646156 -0.12467258 0.10825936 15328735
0.76378578 -0.12529454 0.10494296 15328220
0.77230006 -0.12540421 0.10211404 15196379
0.74737513 -0.1134837 0.10909748 16053231
0.75520003 -0.11502118 0.10662549 14868443
0.76366681 -0.11476232 0.10281581 15987431
0.77099997 -0.11707193 0.10104098 14408145
0.74627286 -0.10505748 0.10923481 16185072
0.75494748 -0.1049576 0.1055341 15395555
0.76307148 -0.10489196 0.10140102 16250861
0.74623078 -0.094899051 0.10894664 15856107
0.75472212 -0.095555186 0.10537779 15724520
0.76271433 -0.094384916 0.10148146 16251119
0.74624997 -0.084485762 0.10915178 15922156
0.75464708 -0.08517462 0.10606278 15855848
0.76342863 -0.085539989 0.10208609 16514291
0.77033335 -0.082704447 0.10095362 16711414
0.74700004 -0.075342737 0.1093584 15658985
0.75573331 -0.075241014 0.10682009 15527141
0.76319999 -0.074909605 0.10346835 16514291
0.77283335 -0.074829631 0.10128125 16316912
0.75535715 -0.065557331 0.10833328 14935262
0.76423538 -0.064896509 0.10509443 16448498
0.77341676 -0.064473748 0.10180678 15922411
0.75700003 -0.055172011 0.10903172 14606040
0.76300007 -0.05512495 0.10624192 16448498
0.77414286 -0.055412404 0.10274088 15725032
0.78100008 -0.052767176 0.10052317 14409942
0.75725001 -0.044960748 0.10898722 15198431
0.76275009 -0.04528651 0.1062074 16185326
0.7748 -0.045093767 0.10334734 15330018
0.78316671 -0.044660699 0.10080204 15067359
0.7561819 -0.034836914 0.10859079 15790568
0.76190007 -0.035244912 0.10591094 15921897
0.7747646 -0.035385117 0.10344876 15132384
0.78466672 -0.034036674 0.10129944 15066845
0.75709093 -0.025854778 0.10904513 15987946
0.76300001 -0.024904357 0.10653824 15461603
0.77370006 -0.025104713 0.1041097 14606040
0.78454554 -0.024955017 0.101811 14672604
0.75800002 -0.019273877 0.10998426 15790566
0.76480007 -0.014965607 0.10810341 15264225
0.77394456 -0.015148003 0.10504635 14671833
0.78518182 -0.014949941 0.10206103 14080724
0.76528567 -0.005896613 0.10873549 15066334
0.77424997 -0.0051894393 0.10599194 14606296
0.78520006 -0.0048947288 0.1027137 13882571
0.76550007 0.004729839 0.10928044 14737626
0.77411109 0.0047826995 0.10688154 14474455
0.78561115 0.0048528844 0.10295007 12829370
0.76550007 0.015482134 0.10928044 14211282
0.77520007 0.014770408 0.10703114 14277076
0.78646666 0.014984906 0.10306356 12764091
0.79200006 0.016943321 0.1000849 11185058
0.76540005 0.025333339 0.10926618 13882317
0.77555549 0.024761153 0.10707983 14211538
0.7865454 0.024695428 0.10391336 12369335
0.79263633 0.024886386 0.10117494 10592923
0.76416665 0.035128307 0.1090901 13882317
0.7741251 0.035019994 0.10699534 14014160
0.78570002 0.035201214 0.10388444 11974578
0.79309088 0.035023358 0.10106403 10658460
0.76380002 0.044946339 0.10903776 14145489
0.77382362 0.044897448 0.10673447 14277589
0.78515381 0.044931762 0.10345701 11974575
0.79162508 0.044501372 0.10073103 10987679
0.76550007 0.054909561 0.10928044 14540247
0.7746923 0.05423985 0.10724037 14080723
0.78630769 0.055476435 0.10431755 10724511
0.79233342 0.054978143 0.10105289 11119267
0.76900005 0.061457351 0.1097801 14606040
0.77540004 0.063783586 0.10851214 14079954
0.78576922 0.065483935 0.10636776 11842733
0.77600002 0.07473319 0.10896276 14014162
0.78625005 0.074490897 0.10702372 11974063
0.77600002 0.080183074 0.10896276 14672092
0.78655559 0.084548332 0.10778319 11908528
0.78633338 0.094753541 0.10918365 11382442
0.78900003 0.10276759 0.10894111 11711407
0.78683335 -0.15309311 0.11493635 9998210
0.79190004 -0.15824962 0.11490449 9933962
0.76900005 -0.14016984 0.11878131 7694945
0.77426666 -0.14488123 0.11427586 9271914
0.78133339 -0.14912492 0.11580843 9406074
0.7571429 -0.13244048 0.11416133 13749188
0.76315391 -0.13745888 0.11444187 10721164
0.74616665 -0.12378222 0.11495876 14341072
0.75150007 -0.12789063 0.11372901 16052201
0.74322224 -0.11531978 0.11551785 15855851
0.73900002 -0.10096634 0.11933748 16448244
0.74252933 -0.10512905 0.11530022 16119023
0.73900002 -0.097506315 0.11933748 16250865
0.74262482 -0.094561972 0.11508318 15921901
0.74231249 -0.085235603 0.11574093 15921901
0.73871428 -0.072887771 0.11854991 15921900
0.74217224 -0.075846881 0.11463327 15856107
0.73850006 -0.064592347 0.11839172 15790314
0.74366665 -0.065042689 0.11311908 15724521
0.7385 -0.055083729 0.11839174 15527142
0.74411994 -0.054806687 0.11388668 15592935
0.75080007 -0.054241657 0.11069719 15790314
0.73849994 -0.045575093 0.11839173 15592937
0.74415004 -0.045052387 0.11406622 15592936
0.75100011 -0.044590354 0.11072668 15000798
0.73900002 -0.038685899 0.11933748 15592937
0.7439189 -0.03505918 0.1150374 15461350
0.75000006 -0.037505977 0.11057924 14869212
0.74420595 -0.024916481 0.11607179 15132386
0.75133342 -0.02525539 0.11077583 14277331
0.74475002 -0.014796292 0.11644501 14803420
0.75409091 -0.013875267 0.1116602 14408916
0.76000005 -0.010428865 0.11027446 15790568
0.74508011 -0.0049924217 0.11682276 14540249
0.75590003 -0.0050634081 0.11233146 14540504
0.76000005 -0.0050913421 0.11027446 15066590
0.73866671 0.0068674702 0.11870698 14803420
0.74445838 0.0040182793 0.11599972 14408662
0.75516671 0.0046626991 0.11222201 14606039
0.76000005 0.004694113 0.11027446 14803419
0.73833334 0.014067034 0.11865315 14474454
0.74495244 0.015439082 0.1155598 14014160
0.75499994 0.015271358 0.11219725 14935002
0.76050001 0.01538102 0.110347 14540247
0.73900002 0.02186453 0.11933748 14079696
0.74468189 0.025438767 0.11731651 13882574
0.75521433 0.025250211 0.1129844 14342866
0.76100004 0.025187707 0.11041955 14078926
0.74538088 0.034889624 0.11761843 13619145
0.7562778 0.034768749 0.1132706 13816523
0.7610001 0.034986038 0.11041955 14013903
0.73800004 0.046019416 0.11917599 13948112
0.74495471 0.044712875 0.11680496 13553354
0.75577784 0.04536169 0.11260512 13816524
0.76050007 0.043863602 0.110347 13684938
0.73500007 0.054949392 0.11834367 13816526
0.74477768 0.05516101 0.11503625 13487561
0.75514281 0.054792341 0.11145755 14145489
0.76000005 0.05895891 0.11027446 14606040
0.73394448 0.064670742 0.11851759 14079698
0.7444374 0.065048561 0.11509208 13619148
0.75458336 0.064722486 0.11213484 14342868
0.76166672 0.065333262 0.11051628 14606040
0.77200001 0.067120463 0.11020836 14869214
0.73578566 0.074678354 0.11832247 13882323
0.74494117 0.074613936 0.11495908 13421772
0.75381815 0.074839644 0.1121003 15066591
0.76380002 0.075348668 0.11082582 15066591
0.77250004 0.075300924 0.11027974 14737628
0.73408335 0.085300237 0.11911336 14277081
0.74465007 0.084787309 0.11588608 13750480
0.75411111 0.084977418 0.1129466 15461352
0.76375008 0.085172512 0.11170933 15198436
0.77316672 0.085923903 0.11067573 14672090
0.73525006 0.094480529 0.11937451 14869472
0.74492854 0.094786659 0.11730253 14343128
0.75555563 0.095362648 0.11493251 15329769
0.76433343 0.095079102 0.11358445 15461355
0.77436376 0.095010348 0.11202595 15132901
0.78366667 0.098708481 0.11064795 12237751
0.73900002 0.10058009 0.11933748 15987699
0.74511111 0.10451446 0.11896446 15593197
0.75583339 0.10464565 0.11704018 13553357
0.76428574 0.1045339 0.11575057 14013652
0.7748 0.10454333 0.11423246 13684686
0.78430772 0.10575724 0.1118186 11316648
0.75100005 0.11100385 0.11951719 15921906
0.76325005 0.11370993 0.11833911 11842994
0.77400005 0.11530916 0.11737601 11382440
0.78658819 0.11463954 0.11380282 11579819
0.79033333 0.11681841 0.11097538 11645612
0.77600002 0.12105725 0.11895422 11777198
0.78721046 0.12460111 0.11683708 11711405
0.79125005 0.12559791 0.11264623 11645612
0.78866673 0.13195723 0.11874139 11645612
0.79332149 0.13536724 0.11397418 11711405
0.78866673 -0.15175541 0.12181906 9868685
0.77509093 -0.14260338 0.12401108 9209985
0.7855556 -0.14768644 0.12624165 9736586
0.75600004 -0.13249086 0.12473316 13091258
0.76388901 -0.13665894 0.12475088 10985626
0.73800009 -0.12185011 0.12838908 13814726
0.74396002 -0.1255099 0.12438505 13749446
0.75000006 -0.12968357 0.12111381 15920101
0.7366786 -0.11438488 0.12536237 15460581
0.74100006 -0.11806661 0.12208857 15789287
0.7349999 -0.10519037 0.12494078 16052974
0.7357499 -0.09535332 0.12483386 15921643
0.73618758 -0.085071221 0.12544596 15987437
0.74000001 -0.085511781 0.12123132 15921900
0.73533332 -0.074646428 0.12476289 15856107
0.73396766 -0.064888999 0.12439429 15658728
0.73365742 -0.05545786 0.12460294 15592935
0.73427778 -0.045313161 0.12458605 15527142
0.73620588 -0.035292741 0.12516627 15724522
0.74000001 -0.031808835 0.12123132 15395558
0.73756009 -0.024970112 0.12669902 15395556
0.74054545 -0.024504047 0.12210812 15198179
0.73728007 -0.014328868 0.12665017 14737628
0.74054545 -0.014732212 0.12210812 14935007
0.7373479 -0.0047147525 0.12627125 14671835
0.74071443 -0.0057045822 0.12184332 14737628
0.73622227 0.0045446493 0.12491592 14671835
0.73472238 0.014858101 0.12466177 14474456
0.73569459 0.025211634 0.12482376 14145492
0.73497224 0.035507195 0.12470073 13948114
0.73265719 0.045563973 0.12443357 13948370
0.72900003 0.057919286 0.12932752 14145495
0.73106676 0.054487787 0.12472747 13948114
0.72857147 0.065291218 0.12800808 14211031
0.7306999 0.064041242 0.12347022 14211285
0.72765005 0.074675277 0.12738234 14276824
0.73119992 0.074699126 0.12235504 14144981
0.72623336 0.085181579 0.12611064 14671583
0.7307778 0.08311265 0.12181024 14277081
0.72631031 0.094749838 0.12543254 15263978
0.731125 0.096514121 0.12084546 15395563
0.72833341 0.10239737 0.12713335 15658737
0.73182154 0.10645463 0.12416732 15461357
0.74400002 0.10822747 0.1201449 16185078
0.7315715 0.11131226 0.12522849 12040116
0.74520004 0.11224131 0.12103397 14540252
0.75650001 0.11447501 0.12039249 15000547
0.76800001 0.11891028 0.12042474 13158596
0.77600002 0.123179 0.12107128 11514027
0.78500003 0.12815954 0.12345654 11711405
0.78807145 0.13493429 0.1248222 11645612
0.79000002 0.13896121 0.1201756 11777198
0.78900003 0.14063238 0.12741174 11711405
0.77420008 -0.14111768 0.13408336 9472903
0.78487504 -0.14559294 0.13454939 9736075
0.73600006 -0.13070878 0.1395289 14933471
0.74585724 -0.13146107 0.13540426 14670550
0.75533342 -0.13473843 0.13613512 13420482
0.76900005 -0.1383696 0.13138302 13354174
0.7338078 -0.12411018 0.13507764 14341843
0.74180001 -0.12826568 0.13263762 14078155
0.72900003 -0.11346622 0.13926847 15591909
0.73187107 -0.11538484 0.13426574 15591909
0.72900003 -0.10557318 0.1394818 15328993
0.73108834 -0.10481863 0.1340649 15526116
0.72900003 -0.094480276 0.13990845 15394788
0.73127776 -0.094774969 0.13435093 15394788
0.72845459 -0.084255852 0.1385626 15394788
0.73132163 -0.08493714 0.13332008 15526373
0.72750002 -0.075552732 0.13791528 15197409
0.73109519 -0.074824922 0.13248466 15197409
0.72733331 -0.065318376 0.13788356 15328995
0.7309131 -0.065453842 0.13268581 15197409
0.72783339 -0.055138677 0.13797888 15460581
0.73079163 -0.055363923 0.1325527 15197667
0.72813344 -0.045333151 0.13837698 15526631
0.73111117 -0.044896789 0.13308509 15395559
0.72833341 -0.035568651 0.13921164 15592170
0.73178798 -0.034648106 0.13405401 15395558
0.72900003 -0.024509594 0.13990845 15000031
0.73202866 -0.024734324 0.13451131 15000542
0.72900003 -0.014269981 0.13990845 14407896
0.7319119 -0.014125272 0.13451539 14540249
0.72900003 -0.0048836693 0.13990846 14868961
0.73213351 -0.0049048159 0.1345069 14539994
0.72900003 0.0079158461 0.13990846 13816273
0.73169458 0.0045185369 0.13442668 14408664
0.72900003 0.014742254 0.13990845 14342871
0.73113912 0.014785413 0.13432571 14277077
0.72880006 0.025656721 0.13918743 13816526
0.73115653 0.024841812 0.13379431 14013906
0.72825009 0.035611313 0.13827138 13882066
0.73092306 0.035051025 0.13290487 14145750
0.72816008 0.045851164 0.13694958 14079445
0.7305882 0.044906169 0.13166085 14277081
0.7273612 0.055574015 0.13533321 14145493
0.72583348 0.065651737 0.13504988 14276823
0.72388566 0.075522371 0.13480832 14408153
0.72197372 0.085539147 0.13437629 14868704
0.72203135 0.094734117 0.13471133 15395562
0.72641665 0.10482413 0.1351575 15000804
0.72816676 0.1110382 0.13548358 11447467
0.7853334 0.12894793 0.13509436 11579562
0.78753853 0.13470258 0.13476305 11645612
0.78900003 0.14063238 0.13479999 11645612
0.79227281 0.14602555 0.1348504 11579819
0.73300004 -0.14047179 0.14925596 12697275
0.73227781 -0.13319016 0.14539072 14407380
0.74533337 -0.13527231 0.14187573 14078928
0.72700006 -0.12328967 0.14659734 15197153
0.73089468 -0.126651 0.14333268 13749451
0.72389477 -0.11464526 0.14538369 15066079
0.73000002 -0.11938956 0.14010037 16184304
0.72378588 -0.10493483 0.14567201 15197409
0.72397482 -0.095056102 0.14583616 15263459
0.71900004 -0.084768295 0.14977163 15329512
0.72305709 -0.085126452 0.14480446 15132130
0.71900004 -0.074669145 0.14977163 15395304
0.72219443 -0.075000852 0.14451271 15395301
0.71900004 -0.067094781 0.14977163 15658730
0.72223079 -0.064665139 0.14497486 15329252
0.71900004 -0.051946051 0.14977163 15658477
0.72250009 -0.054862291 0.14516418 15329766
0.71900004 -0.044371691 0.14977163 15197926
0.7225278 -0.044590153 0.14457859 15395302
0.71900004 -0.036797326 0.14977163 14803168
0.72274357 -0.034254249 0.14507604 15395048
0.72459471 -0.024474612 0.14515135 15000034
0.72554833 -0.014885769 0.14504527 14342102
0.72625726 -0.0055934181 0.14544703 14474203
0.73000002 -0.0048903688 0.14010037 14605789
0.72647232 0.0044868663 0.14536898 14342617
0.73000002 0.0027998756 0.14010037 14408410
0.72630554 0.014687798 0.14533649 13948113
0.72588897 0.024873823 0.14525507 13750734
0.72519439 0.035036743 0.145117 13750479
0.72533345 0.045231778 0.14514504 13816528
0.72463912 0.055366281 0.14500636 13882836
0.72313887 0.065407336 0.1447064 13882063
0.72172225 0.075418375 0.14442368 13947344
0.72081083 0.085515186 0.1446749 14342360
0.72057897 0.095500156 0.14530452 15066340
0.72509688 0.10531757 0.14496215 15000804
0.72683334 0.11083487 0.14544702 13027013
0.78720009 0.12925446 0.14555189 11579562
0.78834605 0.13469653 0.14469729 11579819
0.79000002 0.13896121 0.14791667 11579562
0.78900003 0.14063238 0.14034118 11514026
0.79150009 0.14471585 0.14506203 11579562
0.73140007 -0.14016517 0.15543492 13157828
0.727579 -0.13298069 0.1563956 14276308
0.73084611 -0.13624297 0.15316015 14210771
0.71900004 -0.12207905 0.15874864 14867932
0.72282141 -0.12541114 0.1541862 14407381
0.71843326 -0.11452704 0.15626688 15000030
0.72050011 -0.11783674 0.15176991 15065823
0.71797222 -0.10481658 0.15543716 15131872
0.71772218 -0.094698913 0.15538198 15461095
0.71758312 -0.084601559 0.15535207 15395048
0.71777785 -0.074541837 0.15539517 15329512
0.71799999 -0.064479984 0.15544301 15263462
0.71816659 -0.054408096 0.15547948 15394791
0.71799988 -0.044309977 0.15544322 15328997
0.71822846 -0.034355089 0.15537286 15131616
0.71858329 -0.025420012 0.15683283 14671835
0.72046161 -0.02363817 0.15137281 14671837
0.71899992 -0.016857974 0.158576 14408920
0.72077775 -0.014952276 0.15370196 14145238
0.71899998 -0.0050571337 0.15963031 14079445
0.7211715 -0.0057959254 0.15432021 14276824
0.71899992 0.0044408781 0.15902917 14079445
0.72119999 0.0044544656 0.15360299 14342618
0.71899998 0.012977065 0.15938985 14079443
0.72123533 0.014784152 0.15420589 13882066
0.72188896 0.024738764 0.15459427 14145238
0.72280538 0.034922883 0.15479295 13947859
0.72313881 0.045095492 0.15486519 13882064
0.72341663 0.05527452 0.15492453 14079445
0.72252774 0.065352187 0.15473364 14211029
0.71900004 0.078080527 0.15944998 14079445
0.72094291 0.075216055 0.15427355 14013649
0.71899992 0.08626271 0.15781355 14342872
0.72040915 0.084250577 0.15313049 14013652
0.71885717 0.095074184 0.15671305 15000801
0.72011113 0.096698545 0.15187588 15329255
0.71900004 0.10189769 0.15852423 15395563
0.72211117 0.10535931 0.15423536 15263719
0.72430778 0.11149402 0.15543683 13552845
0.73000002 0.1130267 0.15035403 11974069
0.72733337 -0.14108853 0.16853218 12631229
0.73000002 -0.14160581 0.16573451 12960196
0.72516131 -0.13552512 0.16523139 14605019
0.73000002 -0.13989687 0.16146216 12762815
0.71779317 -0.12417541 0.16608959 14736347
0.72060007 -0.12848066 0.16258723 13617867
0.71458983 -0.11468209 0.16531514 15131359
0.71454757 -0.10499123 0.16548498 15263459
0.71460009 -0.094692931 0.16467297 15395302
0.71452636 -0.084546901 0.16490321 15395559
0.71544439 -0.074299626 0.16494054 15527144
0.71544439 -0.064250618 0.16494061 15395301
0.71585274 -0.054478399 0.16483678 15329508
0.71556234 -0.045310885 0.16517714 15197667
0.71588874 -0.035800021 0.16504298 15066594
0.71647209 -0.025764599 0.16517675 14671580
0.71761101 -0.015725426 0.16543859 14474456
0.71850008 -0.0056540128 0.16564476 14474200
0.71891665 0.0044407863 0.16574234 13816528
0.71899992 0.01454003 0.16576195 13816783
0.72000003 0.018774085 0.16009313 13158600
0.71899992 0.024022011 0.16637914 13684943
0.72000009 0.02621852 0.16149776 13882322
0.71900004 0.031091416 0.16940886 13947859
0.7212286 0.034968842 0.16446488 13947859
0.72219431 0.045036398 0.16480507 14013907
0.71900004 0.057124786 0.16963328 14145491
0.72134298 0.054994211 0.16448978 14145493
0.71899992 0.065783873 0.16809975 14013649
0.72066671 0.064623229 0.16291118 13947859
0.71847069 0.075276531 0.16588555 14079443
0.72000003 0.072374031 0.16076735 14211031
0.71708322 0.085005023 0.1653164 14474201
0.71702766 0.095073462 0.16530453 15132388
0.71875 0.10266202 0.16612452 15329513
0.72073334 0.10686824 0.16396827 14868963
0.72312498 0.11175273 0.16544442 12697792
0.71900004 -0.14115523 0.1775443 13420996
0.72266674 -0.14074512 0.17308642 13552328
0.71829158 -0.13436142 0.17708755 14276051
0.72106254 -0.13628598 0.17267121 14933981
0.70900005 -0.12093441 0.17839453 15132388
0.71415627 -0.12526743 0.17508666 14670553
0.7081483 -0.11458828 0.17599909 15132131
0.71069998 -0.116901 0.1718335 15197666
0.70821744 -0.10551855 0.17657475 15263719
0.71071428 -0.10434974 0.17228825 15263719
0.70846152 -0.095454223 0.17806707 15592171
0.71165514 -0.095419861 0.17311352 15395305
0.70900005 -0.088568673 0.17922443 15197156
0.71187806 -0.085289419 0.17458197 15460842
0.71254754 -0.075427219 0.1751125 15329255
0.71285343 -0.06558466 0.17530937 15066339
0.71290481 -0.055677935 0.17520145 15198181
0.71361125 -0.045708396 0.174541 15197666
0.71475017 -0.035742838 0.17482048 14737628
0.71513897 -0.025716912 0.17491664 14540249
0.71608317 -0.015692497 0.17514724 14408665
0.71727765 -0.0056431592 0.17543969 14408409
0.71811134 0.0044358447 0.1756431 13882322
0.71844459 0.014528926 0.17572355 13487308
0.71838897 0.024618499 0.17571002 13685197
0.71855891 0.034519099 0.17599882 13750735
0.72016668 0.037043054 0.17080756 13750480
0.71838713 0.044934519 0.17638706 13948112
0.72027278 0.044532821 0.17103694 13882319
0.71800005 0.054859646 0.17561339 14013648
0.72000003 0.051641978 0.17020632 14013905
0.71741652 0.064891882 0.17547104 14079440
0.71589458 0.074983977 0.17540468 14013650
0.71380949 0.084616564 0.17542166 14737631
0.71500003 0.094694734 0.17503826 15263717
0.71842855 0.10346805 0.17576039 15132134
0.72046155 0.10843612 0.17394687 14342619
0.72266674 0.11189245 0.17252614 11974069
0.71785718 -0.14269206 0.18522203 13815756
0.71521217 -0.13508855 0.18520257 14276308
0.70820004 -0.12303714 0.18573597 14933983
0.71117651 -0.12786822 0.18417917 15000032
0.70666671 -0.11474768 0.18442306 15131364
0.70641679 -0.10478339 0.18435787 15328999
0.70661128 -0.094886549 0.1844078 15394791
0.70757145 -0.085194342 0.18477644 15460840
0.71000004 -0.081214033 0.18113932 15328742
0.70827997 -0.075379089 0.1863369 15395048
0.71036363 -0.07505662 0.18198761 15460841
0.70854992 -0.065621808 0.18707164 15197669
0.71037513 -0.065042891 0.18268932 15263206
0.70900005 -0.058969229 0.18862985 15263719
0.71093941 -0.055194799 0.18521063 15131876
0.71287167 -0.04585376 0.18482348 15000546
0.71405572 -0.035707239 0.18468086 14671581
0.71508342 -0.025715239 0.18494701 14211287
0.71597201 -0.015690647 0.18517691 14408665
0.71708322 -0.0056421179 0.18546432 14671837
0.71791691 0.0044346112 0.1856797 14342616
0.71797252 0.014519085 0.18569428 13618893
0.71747208 0.024586536 0.1855634 13750733
0.71674991 0.034628224 0.18537638 13750221
0.71439993 0.044714905 0.18534955 13684942
0.71373808 0.05453518 0.18542799 13948114
0.71288097 0.064480051 0.18520513 13882576
0.70900005 0.07729096 0.18870889 14342874
0.7112 0.073818997 0.18439046 14277078
0.70866674 0.085668124 0.18826427 14803168
0.71063995 0.084475368 0.18389608 14737373
0.71240544 0.094800599 0.18481365 15132646
0.71727496 0.10535077 0.18492275 14474460
0.71800005 0.11116873 0.1848612 11579311
0.72000003 0.1114784 0.18031952 11447978
0.71649998 -0.14295331 0.19552894 14078671
0.70880008 -0.13118812 0.19709387 14802397
0.71240741 -0.1354797 0.19472136 14144466
0.70715398 -0.12448509 0.19518259 15000290
0.71000004 -0.12941559 0.19111206 15526374
0.70595217 -0.11463048 0.19498011 15066083
0.70571417 -0.104679 0.19491312 15000547
0.70597601 -0.094801597 0.19498686 15132133
0.70599979 -0.084888384 0.19499367 15263462
0.70623785 -0.074996896 0.19505799 15592427
0.70712817 -0.065348372 0.19492063 15592428
0.70844001 -0.056754466 0.19526924 15461098
0.71018183 -0.052215572 0.19433436 15263719
0.71174365 -0.045395538 0.19529592 15066340
0.71271414 -0.035640668 0.19517742 14671583
0.71359456 -0.025773892 0.19474126 14408410
0.71519446 -0.015671911 0.19502084 14276824
0.7163887 -0.0056372699 0.19534588 14474203
0.71663868 0.004426457 0.19541399 14145493
0.71649975 0.014489148 0.19537528 14013905
0.71484601 0.024687145 0.19537067 13355975
0.71280962 0.034436569 0.19519792 13684940
0.70880008 0.045527823 0.19858769 13816783
0.71113795 0.043857314 0.19405636 13750734
0.70850003 0.055566374 0.19696489 14014162
0.71047062 0.054039948 0.19280337 13948112
0.70833331 0.066171475 0.1955262 14079956
0.71025002 0.062788792 0.19180264 14014162
0.70775008 0.075615235 0.194647 14342874
0.70731592 0.085330844 0.19483213 14803425
0.70833337 0.093274765 0.19554497 14935267
0.71084619 0.097389169 0.19402568 15067367
0.71453846 0.10459056 0.19528793 14211801
0.71384013 -0.14375347 0.20550905 14211028
0.70786363 -0.13286927 0.20560007 14210258
0.71150005 -0.13812253 0.20431842 14868444
0.7060262 -0.12473484 0.20543808 14868702
0.70508331 -0.11448964 0.20546901 14803167
0.70499998 -0.10457317 0.20544516 14934494
0.70541656 -0.09472499 0.20556618 14802911
0.7059443 -0.084881835 0.20572007 15066084
0.70599985 -0.07497184 0.20573661 15197413
0.70650011 -0.065099582 0.20505479 15460841
0.70830303 -0.055693947 0.20497522 15526890
0.71000004 -0.051295828 0.20274693 15592683
0.70900005 -0.047489066 0.20868555 15461351
0.7105 -0.045249764 0.20491591 15263717
0.71111131 -0.035560898 0.20555876 14803166
0.71221954 -0.025509477 0.2051678 14539995
0.71381587 -0.015817322 0.20497724 14276824
0.71437854 -0.0055098515 0.20498903 14276567
0.70900005 0.0085285669 0.20910048 13948112
0.71285367 0.0042995396 0.20510231 14079442
0.70858335 0.015019686 0.20800959 13487306
0.71193349 0.014118934 0.20334992 13750733
0.70835006 0.024605883 0.20691797 13684944
0.71105272 0.023620546 0.20234449 13816529
0.70815623 0.034990575 0.20558588 13750737
0.71000004 0.032087337 0.20163886 13684944
0.70723915 0.045254201 0.20505008 13948114
0.70678568 0.055657607 0.20513482 13948370
0.70642841 0.065551959 0.20503217 14211541
0.70621419 0.075451955 0.2049711 14540252
0.70619988 0.085535727 0.20521507 14802911
0.70725006 0.095225893 0.20527001 15066854
0.71000004 0.099957354 0.20108481 15791092
0.70833343 0.1034539 0.20710635 14013908
0.71172225 0.10575557 0.20277278 13422028
0.70900005 -0.14140506 0.21850592 15592167
0.71116668 -0.14447518 0.215149 14210258
0.70691663 -0.13423476 0.21524142 14144723
0.71033335 -0.13945377 0.21281874 15723753
0.70499998 -0.12437993 0.21534649 14803167
0.70475012 -0.11443439 0.21527122 15263461
0.70499998 -0.10457317 0.21534768 14803167
0.70499998 -0.094670653 0.21534771 14671325
0.70502776 -0.084771343 0.21535601 14539996
0.7054444 -0.074911863 0.21548206 14737375
0.70617932 -0.064880364 0.21526185 14868961
0.70685726 -0.055204943 0.21508443 15461096
0.7077778 -0.045335528 0.21453692 15460838
0.70837504 -0.035786591 0.21518517 15131873
0.71000004 -0.032596946 0.21147308 14736603
0.70900005 -0.029231466 0.21781434 14671322
0.7105 -0.025081964 0.21499936 14539738
0.71147507 -0.015425215 0.2150732 13947599
0.70900005 -0.0026749596 0.21864425 13487818
0.71154058 -0.0060278187 0.21448246 14013650
0.70811546 0.0053291894 0.21559659 13750734
0.71030003 0.0018924365 0.21280909 13947600
0.7068097 0.014292841 0.21506968 13487820
0.70623922 0.024704518 0.21511182 13421772
0.70615542 0.035384018 0.21465084 13750992
0.70549989 0.045646679 0.21549869 13816530
0.70530564 0.055541251 0.21543951 13948116
0.70519441 0.065437883 0.21540599 14211288
0.70508331 0.075331688 0.21537265 14342618
0.70533329 0.085265025 0.21544801 14802912
0.70567566 0.095331229 0.21539626 15000806
0.70633346 0.1034833 0.21498734 13882581
0.70833331 -0.14341484 0.22527832 14605016
0.71012503 -0.14751719 0.22418568 13420998
0.70597291 -0.13453579 0.2251351 14079187
0.7041114 -0.12422195 0.22496568 14803170
0.70505548 -0.11448406 0.22526805 15131877
0.70541656 -0.10463539 0.22538489 15131619
0.70502776 -0.09467455 0.22525923 14803168
0.70477784 -0.084742539 0.2251789 14408408
0.70483333 -0.07484702 0.22519678 14342616
0.70574981 -0.065030985 0.22548969 14408410
0.70599985 -0.055138726 0.2255697 14671582
0.7070002 -0.045285895 0.224234 15132133
0.70788902 -0.035399497 0.22451636 14868960
0.70849991 -0.02584154 0.22517484 14539738
0.71000004 -0.022624208 0.22144581 14013649
0.70815635 -0.015054534 0.22537556 13684427
0.71000004 -0.017720941 0.22136271 13882062
0.70700002 -0.0055650645 0.22505747 13619148
0.70564997 0.0041916827 0.22487608 13750733
0.70452636 0.014549755 0.22526889 13553613
0.70317072 0.025279121 0.22464101 13487564
0.70243907 0.035482809 0.22512835 13619148
0.70347208 0.045517787 0.22475857 13882320
0.70455563 0.055482998 0.22510614 13882321
0.70469445 0.065391354 0.22515106 14013652
0.70425004 0.075241618 0.2250073 14145495
0.7042501 0.085134111 0.22500849 14802655
0.70436126 0.09504237 0.22504503 14868962
0.70592588 0.1039746 0.22582155 13816531
0.70814818 -0.1434475 0.23432909 14802396
0.71090001 -0.14871886 0.23662257 13683656
0.70543742 -0.13514018 0.234988 14079185
0.70347357 -0.12519304 0.23455624 14803424
0.70453846 -0.11484206 0.23518768 15132133
0.70580554 -0.1046923 0.23542041 15131876
0.7054444 -0.094731703 0.23530033 15000546
0.70494443 -0.084761806 0.23513444 14869215
0.70525002 -0.074890859 0.23523694 14868959
0.70599985 -0.065055281 0.23548624 14605788
0.70622212 -0.055154976 0.23556069 14079701
0.70720023 -0.04546348 0.23481007 14540253
0.70800012 -0.035405636 0.23449594 14605789
0.70800012 -0.025460996 0.23449598 14276568
0.70663422 -0.015589193 0.23499058 13355463
0.7046389 -0.0055477605 0.23503001 13553100
0.70256382 0.0045277234 0.23478124 13619149
0.70230591 0.015025017 0.2350748 13422024
0.70217127 0.025588363 0.23432721 13355977
0.7016874 0.035699051 0.23487023 13619150
0.70222205 0.045436416 0.23422654 13750734
0.701976 0.055278309 0.23496389 13882321
0.70133346 0.065078676 0.23474637 14079445
0.7008574 0.074880458 0.23458867 14276824
0.70282489 0.084800035 0.23500101 14539996
0.7041114 0.09500809 0.23485599 14934754
0.70544446 0.10390455 0.2350249 13421515
0.71318191 -0.15245953 0.24660534 11710122
0.70761907 -0.14255139 0.24537216 14999773
0.71075004 -0.14806406 0.24497315 13683912
0.70520008 -0.13514656 0.24512471 14144977
0.70362502 -0.12520671 0.24474272 14803678
0.70407915 -0.1146283 0.24456148 15132386
0.70466679 -0.10452373 0.24493773 14868960
0.70458347 -0.094614983 0.24490871 14869216
0.70472223 -0.084734291 0.24495734 14934752
0.70538884 -0.07490544 0.24518929 15000289
0.70599985 -0.065055281 0.24540281 15132387
0.70658332 -0.055182617 0.2456052 14935009
0.70754552 -0.045244299 0.24496146 14342874
0.70822227 -0.035416164 0.24451834 13882066
0.70838237 -0.025377767 0.24432996 13552586
0.71000004 -0.027195044 0.24928637 13289159
0.70690918 -0.015269552 0.24534321 12895169
0.70519435 -0.0055516772 0.24512489 13092808
0.70357561 0.0041196663 0.24493709 13289930
0.70228916 0.015283497 0.24532476 13092806
0.7028715 0.02554254 0.24475753 13355976
0.70299971 0.035587519 0.24447754 13553355
0.70289159 0.045589015 0.2444776 13684940
0.70163894 0.055250816 0.24552888 13750736
0.70041692 0.064992897 0.24510199 13948116
0.7004447 0.074837141 0.24511205 14277081
0.70131582 0.084953643 0.24511176 14606046
0.70307887 0.094696805 0.24468851 14935011
0.70394135 0.10230342 0.24444498 12960707
0.70800006 -0.15115026 0.25631756 13355464
0.71033335 -0.15220295 0.25272921 13552841
0.70702565 -0.14466415 0.25524238 14079442
0.71000004 -0.14936107 0.25094849 13420998
0.70449996 -0.13485819 0.25513491 14342357
0.70247602 -0.12557815 0.25486395 15131873
0.70310402 -0.11509231 0.25498942 15461350
0.70334876 -0.10446221 0.25529659 15461350
0.70322478 -0.094555289 0.25489119 15263973
0.70352501 -0.084426478 0.25499949 15066594
0.7035951 -0.074715436 0.25526994 15197924
0.70516223 -0.065087683 0.25517008 15132133
0.70622212 -0.055154655 0.25539923 15197926
0.708 -0.04541564 0.25481004 15263461
0.70900005 -0.038221959 0.25405288 14605275
0.71016663 -0.034128107 0.25551018 14539482
0.7089231 -0.022366593 0.25439814 12763580
0.710087 -0.027307078 0.25531581 13947086
0.70745957 -0.015528738 0.2551524 12895424
0.70616651 -0.0055581257 0.25537956 13093063
0.70497221 0.0043522515 0.2549473 13224649
0.7024563 0.01481137 0.25518113 13159111
0.7020511 0.025892295 0.25509113 13224393
0.70271397 0.035597395 0.25495237 13422026
0.70270699 0.045364894 0.25507101 13487306
0.7015 0.05524011 0.2553345 13618894
0.70100015 0.065048672 0.2551522 13684944
0.70038903 0.074828349 0.25492918 14013909
0.70027798 0.084655389 0.25488961 14342617
0.70247483 0.094954163 0.25511241 14277339
0.70454544 0.10158897 0.25441855 11645358
0.7078824 -0.15232795 0.26453018 13421257
0.70605707 -0.14428432 0.26513901 13816528
0.70250005 -0.13468203 0.26489455 14342871
0.699 -0.12413782 0.26866066 14671325
0.70032269 -0.12532513 0.26423866 14671581
0.70116675 -0.11549265 0.26505983 15197669
0.70192486 -0.10518441 0.26518175 15395047
0.70242506 -0.094487406 0.26540965 15132131
0.7023946 -0.084629096 0.26521948 15395305
0.70161116 -0.074506022 0.26522771 15263719
0.70307308 -0.064682811 0.26507601 15395305
0.70545942 -0.055205662 0.26518735 15592940
0.70720005 -0.045131423 0.26510465 15527146
0.70817649 -0.036047231 0.26541799 15065825
0.71000004 -0.032680053 0.2615861 14868447
0.708 -0.02508118 0.26569328 13881808
0.71000004 -0.028358528 0.26191851 14539226
0.70644742 -0.015658425 0.2650966 13421769
0.70494729 -0.0053761746 0.26514131 13684942
0.70319051 0.0043411679 0.26499963 13750736
0.70164281 0.015009521 0.26524004 13619150
0.7018888 0.025696658 0.26533389 13553357
0.70286083 0.035604551 0.26570228 13684944
0.70280528 0.045472763 0.26568019 13553358
0.70197201 0.055277526 0.26536542 13619151
0.69885719 0.067303561 0.26897949 13882066
0.70051539 0.064679392 0.2644915 13816530
0.69830436 0.074500181 0.26735467 14211030
0.69999993 0.074917533 0.26233488 13947859
0.69858831 0.082863264 0.26711673 14539995
0.7001304 0.085527465 0.26342225 14342874
0.70118755 0.094101965 0.26486149 14408669
0.70400006 0.10076072 0.26036432 11513518
0.70838463 -0.15170063 0.27410501 12697279
0.70633328 -0.14446004 0.27500623 13223620
0.7017743 -0.1345984 0.27496192 13750735
0.69819999 -0.12399669 0.27538148 14342874
0.70000005 -0.12923156 0.27445278 14079445
0.69848001 -0.11547659 0.27676654 14540253
0.70005876 -0.11468528 0.27221015 14737120
0.6987896 -0.1050719 0.27789533 14868961
0.70030439 -0.10569476 0.27282503 14934754
0.69825929 -0.095128156 0.27658507 14868961
0.70012492 -0.095756561 0.27163327 14934752
0.69808 -0.085994408 0.27673805 14605789
0.7003333 -0.083777569 0.27259174 14934754
0.69827271 -0.075562991 0.27890202 14934754
0.70057583 -0.074271493 0.27430415 15132133
0.69900006 -0.066046633 0.27978799 14935011
0.70108342 -0.064600632 0.27487528 15066340
0.70302421 -0.054803047 0.27493104 15329512
0.70531565 -0.04535066 0.2751869 15592941
0.70623076 -0.035125837 0.27479416 14934751
0.70535135 -0.025256036 0.27505234 13684429
0.7035476 -0.01542081 0.27501464 13290187
0.70225 -0.0056923768 0.27475533 13816530
0.70119452 0.0043299589 0.27491978 13816530
0.70050025 0.014985405 0.27464724 13684944
0.7008335 0.025658406 0.27477744 13750737
0.70116669 0.035518162 0.27490771 13750737
0.70091677 0.045350358 0.27480927 13487819
0.69900006 0.059135798 0.27978799 13750737
0.70052803 0.055164497 0.27465791 13619151
0.69842857 0.065801494 0.27588052 13619152
0.69999999 0.061514594 0.27379727 13619152
0.69800001 0.074574493 0.27530259 14145496
0.69833332 0.08124052 0.27370888 14211288
0.7001304 0.086168706 0.27525264 14408411
0.69900006 0.090226866 0.2732425 14539996
0.70069563 0.093013741 0.27476418 14277080
0.70900005 -0.15081048 0.28047112 12697792
0.70618176 -0.14405267 0.28160983 12368570
0.70171434 -0.13424404 0.28474596 13092552
0.69845456 -0.12300111 0.28269148 13750739
0.70034993 -0.12642667 0.28598589 13487566
0.69805551 -0.11498189 0.28267837 14145496
0.70050001 -0.11538487 0.28776845 13619410
0.69862503 -0.10608036 0.28290942 14408667
0.70028573 -0.10457653 0.28709492 13816531
0.69863629 -0.094486184 0.2821703 14671839
0.70031577 -0.096241698 0.28661442 14079703
0.69815624 -0.085222393 0.28471187 14211287
0.70000005 -0.089902453 0.28838181 13421772
0.69755274 -0.075407468 0.28475112 14606302
0.6975385 -0.064965166 0.28518862 14869219
0.70000005 -0.060951859 0.28073451 14737632
0.69849998 -0.057332356 0.28727269 14803170
0.70044833 -0.053996824 0.28381643 15132392
0.70314991 -0.044871598 0.28498495 15526892
0.70359504 -0.035185728 0.28491753 14868961
0.70299965 -0.025382224 0.28479856 13815760
0.69900006 -0.011228182 0.28960621 12961221
0.70113891 -0.015368749 0.28474626 13356234
0.69855005 -0.0049253711 0.28721109 13948116
0.70018172 -0.006032336 0.28271925 13882579
0.69872224 0.0037712811 0.28767318 13816530
0.69999999 0.004733203 0.28278294 13882323
0.69852006 0.016381534 0.28672487 13355981
0.69999999 0.013473004 0.28278288 13553358
0.6983667 0.025131291 0.2859638 13421774
0.69999999 0.026719265 0.28128076 13553615
0.69863629 0.033829488 0.28826568 13553358
0.70000011 0.035896059 0.28357491 13750737
0.69900006 0.043181174 0.28796983 13553358
0.70000023 0.045314755 0.2843084 13619150
0.699 0.057850081 0.28481397 13487565
0.69999987 0.053335927 0.28413609 13553358
0.69847226 0.064812809 0.28529933 13553359
0.69868755 0.072603419 0.28436655 13882068
0.70005876 0.076288924 0.28618893 14013911
0.70152777 0.084807493 0.28490734 14473950
0.70342875 0.09307453 0.28508997 14210777
0.70150006 -0.13299775 0.29166883 12040123
0.70346659 -0.12481887 0.29464421 12698308
0.70403206 -0.11482212 0.29493904 12764357
0.70393544 -0.10460088 0.2948465 13290444
0.70271432 -0.094659522 0.29461542 13553103
0.69900006 -0.081592157 0.2912426 14212060
0.70118761 -0.085079074 0.29508242 13553360
0.69788891 -0.074292183 0.29268676 14013909
0.70072734 -0.075382158 0.29762983 13684688
0.69769251 -0.064728871 0.29302382 14342618
0.70033336 -0.064534679 0.29835609 14211033
0.69840002 -0.057160549 0.29295483 14605790
0.69999993 -0.053209543 0.29486543 14671584
0.70128208 -0.045107432 0.2950955 15263720
0.70166665 -0.035088927 0.29481608 14737375
0.70135891 -0.02507592 0.29512766 13552846
0.69838101 -0.013632272 0.29604438 13421772
0.70045 -0.017319392 0.29348546 13092807
0.69769454 -0.0054905103 0.29478097 13750737
0.69791669 0.0043109506 0.29487479 13487566
0.69761914 0.014924444 0.29474932 13224395
0.69791669 0.025551133 0.29487583 13421773
0.69827771 0.035373114 0.29502839 13487565
0.70000005 0.039555848 0.29002053 13421772
0.69900012 0.043202706 0.29503205 13290443
0.69999993 0.047585536 0.2951825 13224906
0.699 0.058668263 0.29474908 13224650
0.70000023 0.054256059 0.29503307 13093320
0.69848478 0.065037206 0.29474497 13159114
0.70000005 0.062497824 0.29985279 13356492
0.69900006 0.073674329 0.29577404 13487824
0.70007694 0.07738097 0.29358193 13948375
0.70097506 0.084576093 0.29509851 13883096
0.70247364 0.09249422 0.29450297 13554130
0.70671427 -0.12314238 0.30154806 11711671
0.71400005 -0.12178726 0.30752134 11119021
0.70762503 -0.11572991 0.30187714 11580340
0.71336365 -0.1146946 0.30664286 11119533
0.708 -0.10501816 0.30162224 11909049
0.71309096 -0.1053934 0.30622208 11974841
0.70700008 -0.094467841 0.30237991 12500672
0.71171433 -0.095455565 0.30725121 12171707
0.70660001 -0.084630445 0.30466759 12698051
0.71100003 -0.086323373 0.30955815 11974071
0.70535994 -0.07480564 0.30479527 12960966
0.70483351 -0.064948171 0.30440396 13092552
0.70334482 -0.054792311 0.30447105 13816275
0.70096976 -0.044677004 0.30474511 14737634
0.70091683 -0.035050936 0.30434769 14342618
0.69900006 -0.021046413 0.30515176 12961222
0.70039415 -0.025710395 0.30498952 13553359
0.6979444 -0.015297145 0.3046912 13290187
0.69813794 -0.0060854065 0.30401567 13158601
0.70000005 -0.0033784248 0.30837411 13027016
0.69820005 0.0038214955 0.30202442 13224651
0.70046669 0.00481966 0.30694062 12830408
0.69811767 0.01435817 0.30193129 12960966
0.70105553 0.015544366 0.30714467 12303294
0.69875002 0.024968557 0.30136222 13289929
0.70081806 0.025880629 0.30617097 12500672
0.69900006 0.032135665 0.30106083 13224393
0.70096439 0.035742555 0.3054257 12764357
0.70123351 0.045372114 0.30530813 13093578
0.70153332 0.055244207 0.30543932 12896199
0.70146668 0.065091684 0.30541074 12764358
0.69900006 0.077544987 0.30146992 13225167
0.70100009 0.074451916 0.30564833 12435394
0.69900006 0.081390455 0.30236989 13225424
0.70085192 0.085544892 0.30514067 13225424
0.702353 0.092208847 0.30473265 13685716
0.71900004 -0.11338256 0.31135803 10527654
0.72485721 -0.11515331 0.31559402 11382706
0.73049998 -0.11476998 0.31975827 12040119
0.71883339 -0.10494325 0.31128585 11382963
0.72490007 -0.10446863 0.31629148 10330018
0.73000002 -0.10828142 0.3195394 11579570
0.71744448 -0.094196722 0.31236526 11579313
0.72250009 -0.095327497 0.31654012 10592675
0.71636367 -0.084231034 0.31479308 10526624
0.72033334 -0.086330496 0.31811884 10658468
0.70900005 -0.074875467 0.31034717 11579313
0.7156111 -0.075429641 0.3163186 10724260
0.71499997 -0.065323152 0.31465358 12105915
0.70737511 -0.053593505 0.31191251 12895945
0.71400005 -0.056268256 0.31654948 12106429
0.70572734 -0.044906225 0.31447646 13356238
0.71100003 -0.048039142 0.31954494 12106684
0.70485717 -0.035366863 0.31396091 13421774
0.71000004 -0.034674596 0.31909552 13750739
0.70417398 -0.025218362 0.31497708 13027016
0.69900006 -0.014500925 0.31087905 13093323
0.70226318 -0.015606183 0.3154498 12238014
0.70307696 -0.0052776146 0.31485093 12171964
0.70415998 0.0041852538 0.31416768 11974843
0.70528013 0.014493492 0.31440336 11382961
0.70525008 0.024921698 0.31428254 11777206
0.71000004 0.025992885 0.31909552 11448756
0.70447367 0.03538055 0.31349048 11843515
0.7112 0.035196282 0.31963482 10001312
0.70517653 0.04548195 0.31353131 12238014
0.70616663 0.055609033 0.31406859 12369343
0.70550007 0.065464638 0.31377137 11777720
0.71079999 0.065123722 0.31945506 10922154
0.70444453 0.075261571 0.31330287 11646135
0.71000004 0.074194454 0.31909552 11250863
0.70437509 0.084739357 0.31306663 12040381
0.71075004 0.08342357 0.31901705 11382705
0.70700002 0.092501998 0.31278193 13027274
0.71366668 0.093235135 0.31740126 12106171
0.72100002 0.098130234 0.31897563 12698051
0.73800004 -0.1215606 0.32390621 13092805
0.74520004 -0.12466785 0.3272402 12500927
0.75000006 -0.1279278 0.32829392 12434879
0.73481822 -0.1147032 0.3239969 13027012
0.74133331 -0.11430354 0.3291277 13289929
0.73430771 -0.10462102 0.32433847 12961474
0.74066669 -0.10726354 0.32941023 13158597
0.72850001 -0.096121497 0.32058826 11250605
0.73359996 -0.095135905 0.32581273 12632769
0.72530007 -0.084325448 0.32308787 12303548
0.73166662 -0.086832486 0.32769272 12698819
0.72466677 -0.075257055 0.32455978 12500670
0.73000002 -0.071539149 0.32808411 12698049
0.72508341 -0.065116793 0.32333186 10790054
0.73166674 -0.065707527 0.32883316 12237500
0.71825004 -0.052732296 0.3223837 11382707
0.72366667 -0.055107772 0.32580477 10856105
0.73000002 -0.059576549 0.32808411 11316398
0.71650004 -0.045894157 0.32341516 12106171
0.72060001 -0.045316242 0.32723337 11447984
0.71700001 -0.035013724 0.32420054 12763844
0.72075003 -0.034356833 0.32730147 11448754
0.71500003 -0.024876751 0.32486191 11514290
0.72100002 -0.026772438 0.32910284 10790824
0.70816666 -0.01551903 0.3215872 10133407
0.71633339 -0.015698982 0.32697275 10462116
0.71518183 -0.0052414266 0.32553774 11053224
0.70900005 0.0018894402 0.32030585 10790054
0.7148 0.0050832969 0.32393351 10658469
0.72100002 0.0049619339 0.32910287 11579570
0.71675009 0.014496382 0.32464868 10461602
0.72200006 0.01037516 0.32955933 12040121
0.71683335 0.024565907 0.3238447 10067872
0.72049999 0.02469234 0.32718796 11120302
0.71800005 0.033431724 0.32437181 9607067
0.7141667 0.044539392 0.32096815 10461606
0.72150004 0.045827374 0.32637787 10199458
0.71590918 0.055082593 0.32251635 11185071
0.72450006 0.058748424 0.32900441 10395296
0.71714288 0.064269505 0.32374614 10658983
0.72183341 0.065289535 0.32779342 10001051
0.71700001 0.074925937 0.32392001 10132639
0.72100002 0.075343937 0.32741499 10132636
0.71742857 0.085165523 0.32339564 10658723
0.72433335 0.083325155 0.32892871 12566203
0.71800005 0.091837779 0.32185167 12171451
0.72700006 0.097244941 0.3250339 11974069
0.78333336 0.1182309 0.32485226 12171448
0.75800002 -0.13106684 0.33002123 11381934
0.76700002 -0.13262305 0.33752921 11645106
0.77566671 -0.13593745 0.3377122 9078922
0.78200006 -0.13887808 0.33772445 8947851
0.74730003 -0.12186988 0.33498511 13355724
0.75450003 -0.12671341 0.33621746 12632515
0.76000005 -0.1296335 0.3388983 12369088
0.7449584 -0.11529662 0.3349556 13618894
0.74395847 -0.10512903 0.33523026 13487564
0.73800004 -0.091327526 0.33167955 13421772
0.74300015 -0.095077276 0.33601654 13158600
0.73561543 -0.084280215 0.33325988 12830148
0.74175 -0.087017089 0.33814061 12501440
0.7346471 -0.074826233 0.33351618 12763842
0.74000001 -0.070786789 0.33777547 12763842
0.73590922 -0.064756155 0.33356187 12632258
0.74080008 -0.065661564 0.33814064 13027014
0.72900003 -0.05266853 0.33104789 12829637
0.73366678 -0.055754662 0.33443013 12698308
0.74100006 -0.058739588 0.33996665 13619923
0.72783345 -0.044917796 0.33222196 12237243
0.73216677 -0.045185219 0.33591399 12895944
0.72733337 -0.034673274 0.33199373 11316398
0.73312503 -0.034085944 0.33678436 13027014
0.72633338 -0.024415648 0.33352402 12172733
0.73228568 -0.025231404 0.33792901 12501184
0.72455561 -0.015404084 0.33336887 12567747
0.73233336 -0.014337181 0.33913442 12633028
0.72440004 -0.0065430687 0.33235064 12435647
0.73140007 -0.0048983423 0.33727443 12435648
0.72875005 0.0062079928 0.33434638 12172221
0.73233342 0.0045247911 0.33770481 12040891
0.72520006 0.014154131 0.33136129 11447983
0.73245454 0.015202746 0.33698305 11448240
0.72733337 0.024928264 0.33199373 12106425
0.73344445 0.02427385 0.33707476 11974326
0.72900003 0.030954976 0.33275449 12239038
0.73566669 0.035544362 0.33723411 12501440
0.72766668 0.04622969 0.33044243 12173247
0.73400003 0.044049907 0.33532509 12435648
0.74060011 0.045319002 0.33978313 12304061
0.73463637 0.054801129 0.33611211 12633027
0.74000001 0.050477948 0.33950782 12238268
0.72866672 0.065624565 0.33260235 13225419
0.73275006 0.063705862 0.33575374 13224906
0.72850001 0.074425176 0.33252627 13883091
0.73266667 0.074849464 0.33614337 13685457
0.72900003 0.080446437 0.33275449 14672092
0.73377776 0.084982537 0.33570084 14079956
0.74000001 0.08858972 0.33950782 13750737
0.73533338 0.093773566 0.33421147 14409178
0.74233335 0.097558916 0.33768249 14672095
0.74642855 0.10359038 0.33696586 14408668
0.75300002 0.10777389 0.33577684 15000804
0.75900006 0.11040948 0.33934078 15066597
0.76380002 0.11182313 0.33790314 15066341
0.77400005 0.11476816 0.33807126 14803170
0.78300005 0.1175675 0.33846179 13355980
0.7884444 0.12238422 0.33445752 10987685
0.78772736 -0.14257886 0.34530905 8618883
0.76383334 -0.1320755 0.34417984 8421764
0.77533334 -0.13668801 0.34523052 8356226
0.78133339 -0.13875969 0.34200776 8750212
0.74842864 -0.1211524 0.34387511 13354955
0.75463152 -0.12612236 0.34537637 12302781
0.76000005 -0.1296335 0.34156704 12040123
0.74663335 -0.1151197 0.34517381 13487823
0.74533373 -0.10532209 0.3445732 13487823
0.7450304 -0.095052153 0.34482929 13422286
0.74408019 -0.085113518 0.34486556 13554128
0.74396688 -0.075518966 0.34481382 13159114
0.7449668 -0.065158315 0.34527716 13224907
0.73900002 -0.051660988 0.34077907 13225165
0.74463654 -0.05498682 0.34623358 13225165
0.73799998 -0.045544237 0.34031793 13422544
0.74446666 -0.04507238 0.34678683 13093322
0.7385 -0.036930885 0.34054852 13290186
0.74394441 -0.03546254 0.34654415 13092808
0.73675007 -0.024337361 0.34189877 12500671
0.74333334 -0.025716232 0.34698531 12500415
0.73400003 -0.010072087 0.34019169 12830407
0.74316669 -0.014544754 0.34705245 12566978
0.73720008 -0.0049343887 0.34167483 12435649
0.7457 -0.0049943747 0.34823418 12369856
0.7383334 0.0045598992 0.34220007 11843512
0.74575013 0.0046052206 0.34825769 12435392
0.73900002 0.010619449 0.34250906 11646133
0.74452931 0.015312228 0.34692174 11909305
0.73866671 0.027907759 0.34062538 11974326
0.74561113 0.025552474 0.34732085 12106684
0.74610537 0.034992613 0.34654069 12435134
0.74733347 0.044854857 0.34637296 12632769
0.74611109 0.055259496 0.34580746 12566978
0.73874998 0.066821352 0.34066379 13027784
0.745 0.064772204 0.34569547 12764614
0.7385 0.071986735 0.34054852 12896198
0.74499995 0.074963905 0.34556347 13224907
0.75000006 0.079252295 0.34936309 12961991
0.74491668 0.084822662 0.34438145 13619152
0.75000006 0.085397474 0.34936309 13816532
0.74660003 0.094857678 0.34358728 13948373
0.75014293 0.095825419 0.34892797 14013909
0.74800009 0.10122132 0.34259525 14014681
0.75282621 0.10560994 0.34600404 14277339
0.7574445 0.11136541 0.34396306 14408410
0.76262504 0.11428475 0.34407854 12500669
0.77255559 0.11740571 0.3435826 10855843
0.78100002 0.11909475 0.34003505 10461087
0.77733332 0.12035538 0.34389558 10461339
0.78616667 0.12371957 0.3441197 10856098
0.79033333 0.12761049 0.34409747 10790561
0.78633332 -0.1424116 0.35523716 8421758
0.76550007 -0.13191655 0.35434291 9408145
0.77350003 -0.13628533 0.35415012 8750213
0.74900001 -0.12074354 0.3550342 13158602
