# .PCD v0.7 - Point Cloud Data file format
VERSION 0.7
FIELDS x y z rgb
SIZE 4 4 4 4
TYPE F F F U
COUNT 1 1 1 1
WIDTH 677
HEIGHT 1
VIEWPOINT 0 0 0 1 0 0 0
POINTS 677
DATA ascii
0.016822975 -0.34412903 0.61714298 1778468
0.025381306 -0.34359294 0.61307514 1778210
0.0081335623 -0.34327877 0.62849998 5528157
0.014378312 -0.34156832 0.62475675 1778212
0.024342179 -0.34185609 0.6236251 1843747
0.031774867 -0.3422859 0.62345457 1909025
0.0052712308 -0.34482563 0.63250005 9278359
0.017812146 -0.34050068 0.63080007 1448990
0.025873493 -0.34122288 0.63369238 1515038
0.03226291 -0.34214228 0.63330007 2501422
0.0086449794 -0.33918509 0.63000005 2106920
0.014956692 -0.33831915 0.63543242 1909798
0.024893541 -0.33745354 0.63838238 1317915
0.031207139 -0.33505511 0.63900006 2699055
0.015793709 -0.33274361 0.64085191 2173998
0.025171414 -0.33201796 0.64051855 1712673
0.031268183 -0.33196256 0.64025009 1448988
0.016430892 -0.32933962 0.64622235 1383712
0.024949897 -0.32885882 0.64588004 725521
0.030888185 -0.32839566 0.648 1186590
0.01547572 -0.32560837 0.6549809 2633521
0.025066281 -0.32398465 0.65443772 593679
0.031071303 -0.32449478 0.65414292 1383198
0.018451298 -0.31505334 0.65833342 2566443
0.024807462 -0.31456488 0.6582371 2303781
0.01984204 -0.30851641 0.65900004 2631465
0.022927502 -0.30851641 0.65900004 2172194
0.0087514585 -0.32477504 0.66624999 8555403
0.012042712 -0.32258663 0.66149998 7107958
0.032330398 -0.32231739 0.662 2631721
0.014790505 -0.31538036 0.66200006 3158580
0.029142581 -0.31284726 0.66000003 2370341
0.031661678 -0.31557655 0.66414297 1975074
0.018327812 -0.30566514 0.66305268 2829101
0.025112204 -0.30394244 0.66317642 2040866
0.030935632 -0.3075774 0.66533333 2304808
0.023887955 -0.29923621 0.66860008 1974818
0.0045286152 -0.33071789 0.67600006 8423561
0.0080585908 -0.32463366 0.67325002 8686733
0.010762348 -0.32150856 0.67000002 8620940
0.035786472 -0.32161599 0.676 9803928
0.012413651 -0.31182474 0.67449999 9539988
0.034777083 -0.31536931 0.67330003 8094598
0.015224415 -0.30451113 0.67334998 4737356
0.029584134 -0.30190253 0.67000002 2436139
0.03310148 -0.30444938 0.67411113 2633005
0.017965637 -0.29616639 0.67550004 2632750
0.025063811 -0.29466417 0.67250019 2435370
0.031935655 -0.29663402 0.67660004 2500906
0.024791276 -0.28842115 0.67663157 2698285
-0.072014667 -0.16236848 0.67899996 14146268
-0.068173259 -0.16250095 0.67900002 14014681
-0.072986074 -0.15662844 0.67899996 14277342
-0.067775868 -0.15733491 0.67899996 14211291
-0.079077616 -0.33132631 0.68050003 13752794
-0.062487312 -0.3304601 0.68200004 12370626
-0.035100129 -0.33071104 0.68500006 11646135
-0.023129456 -0.33193567 0.68800008 11910075
-0.015578828 -0.33186072 0.68841177 11449526
-0.0040533221 -0.33223882 0.68837506 9804957
0.0020217472 -0.33223256 0.68500006 8752526
0.078811921 -0.33062598 0.68900001 12370628
0.085469216 -0.33248323 0.68777776 12830409
0.095821865 -0.33289737 0.68835998 13094093
0.10488798 -0.33361992 0.68829989 13028812
0.11533094 -0.334589 0.68730313 13160142
0.12422517 -0.33504459 0.68697077 13160142
0.1345277 -0.33457458 0.68688583 13159887
0.14242721 -0.33153114 0.68620002 12962508
-0.084763773 -0.32373497 0.68092859 14081247
-0.075124592 -0.32509366 0.68079597 13029584
-0.065181091 -0.32513103 0.68236095 12568776
-0.055612225 -0.32432055 0.68299997 12239811
-0.044774864 -0.32428774 0.6834873 12174019
-0.034797918 -0.32478514 0.68486488 12502214
-0.025279777 -0.32505789 0.68688899 12633544
-0.015516647 -0.32439205 0.68774998 12041920
-0.0064936779 -0.32583696 0.68885183 10988974
0.0050145909 -0.3246325 0.6859706 9474965
0.038803834 -0.32376176 0.68387508 9343891
0.040071756 -0.32796896 0.68850005 9738135
0.077019759 -0.32327807 0.68900007 12238787
0.084862389 -0.32493296 0.68876904 12370629
0.095185481 -0.32448402 0.68807673 12699337
0.1052221 -0.32435316 0.68766665 12765386
0.11475066 -0.32477805 0.68737513 12765386
0.12447086 -0.32497516 0.68728584 12765130
0.1345562 -0.32502824 0.68648916 12961995
0.14453001 -0.32486844 0.6862905 12961995
-0.085261077 -0.31464079 0.6822443 14278369
-0.074754246 -0.31545985 0.6819998 13094351
-0.064861275 -0.31556666 0.68291909 12634570
-0.055383801 -0.31495538 0.68300015 12634571
-0.04523595 -0.31476447 0.6835112 12634057
-0.034683067 -0.31494907 0.68472219 12699593
-0.025117515 -0.31534034 0.68608844 12633800
-0.015513889 -0.31469244 0.68766665 12041406
-0.0089576598 -0.31589785 0.68883342 11449526
0.0071385424 -0.31533289 0.68658328 9408402
0.010932619 -0.31384736 0.68060005 8882058
0.038959287 -0.31412998 0.68415385 8883088
0.065505683 -0.31392235 0.68869239 12567753
0.074655749 -0.31478417 0.68786108 12567753
0.085095227 -0.31468371 0.68764293 12501960
0.095298871 -0.31490412 0.68670988 12633545
0.10499736 -0.31482562 0.68620008 12568007
0.11493001 -0.31454337 0.68682373 12633029
0.1246022 -0.3146503 0.68727791 12566979
0.13517439 -0.31533563 0.68589216 12830150
0.14507425 -0.31507331 0.68634307 13356240
-0.084653482 -0.30478889 0.6828838 13818076
-0.074461617 -0.30491498 0.68199968 13357266
-0.064979538 -0.30479819 0.68199974 12962765
-0.055358477 -0.30442756 0.68269444 12896972
-0.044995122 -0.30459481 0.68307155 12831179
-0.034647141 -0.30500984 0.68400007 12830922
-0.025085917 -0.30556852 0.6852501 12501700
-0.015274427 -0.30501032 0.68678796 12304321
-0.0063713174 -0.30424884 0.68851846 11843512
0.0070945411 -0.30458972 0.68739998 9802904
0.011759697 -0.30403447 0.68241674 9013901
0.037930489 -0.30435121 0.68325001 8619143
0.041683543 -0.30540386 0.68849999 9408403
0.065509245 -0.30571923 0.6885311 12896461
0.074524194 -0.30459017 0.68666679 12830668
0.084922321 -0.30440113 0.68623847 12699339
0.095361099 -0.30551884 0.68540007 12765386
0.10484421 -0.30554193 0.68519431 12830666
0.11431275 -0.30516344 0.68546879 12829894
0.1251678 -0.30517533 0.68531585 13027016
0.1351168 -0.3050836 0.68416667 13355981
0.14517534 -0.30521271 0.68626326 13093836
0.15134026 -0.30390209 0.68875003 13422546
-0.093546502 -0.29459897 0.68573338 13752283
-0.084969938 -0.29497948 0.68302381 13949918
-0.074461617 -0.29453722 0.6819998 13620439
-0.06487377 -0.29450133 0.68191648 13423059
-0.055302706 -0.29453722 0.6819998 13225681
-0.04497109 -0.29484642 0.6827144 13159373
-0.034608196 -0.29506579 0.68322235 13159373
-0.025033362 -0.29531795 0.68380558 13159630
-0.01547437 -0.29488945 0.68497294 12699078
-0.0050461758 -0.29512993 0.68709534 12370113
0.0054969531 -0.29518697 0.68792105 11579572
0.01368074 -0.29443905 0.68276662 6053474
0.035930261 -0.29462636 0.68319994 5329493
0.040545072 -0.29501811 0.68871433 9473939
0.066556193 -0.29555053 0.68865383 13094351
0.075059116 -0.29468167 0.68642515 13094351
0.08528132 -0.29442087 0.68505257 13291730
0.095083803 -0.29511687 0.68492669 13225424
0.10474496 -0.29564178 0.68455553 13291217
0.11498814 -0.29539925 0.68421954 13356239
0.12533033 -0.29552102 0.68402702 13487567
0.13542832 -0.29511014 0.6842286 13882325
0.14526972 -0.29523063 0.6870001 13553619
0.15139519 -0.2951408 0.68900007 13224655
-0.093593851 -0.28488645 0.68355 13422806
-0.084921487 -0.28522697 0.68264288 14014943
-0.074461617 -0.28495774 0.6819998 13686234
-0.064882189 -0.28495777 0.6819998 13686231
-0.055304796 -0.28496954 0.68202758 13554389
-0.044947669 -0.28509736 0.68233311 13685974
-0.034596346 -0.28536412 0.68297225 13291215
-0.02501047 -0.2854569 0.68319446 13159886
-0.015616775 -0.28480414 0.68476313 12765385
-0.0048364787 -0.28508338 0.68732613 13159886
0.0052755154 -0.28505498 0.6886152 12961995
0.015163375 -0.28497523 0.685826 6316390
0.024407433 -0.28357261 0.68241674 2500909
0.033584844 -0.28524137 0.68509996 3553595
0.06724333 -0.28442159 0.68852383 13554388
0.074684933 -0.28544551 0.68675685 13554387
0.084920794 -0.28463092 0.68529266 13488595
0.095254056 -0.28462496 0.68467563 13686230
0.1044878 -0.28548783 0.68397373 13620180
0.11495584 -0.28551605 0.68333352 13422802
0.12531406 -0.28542253 0.68311113 13554388
0.13502495 -0.28540009 0.68369442 13751767
0.1452027 -0.28491771 0.68638891 13685974
0.15204038 -0.28417268 0.68900007 13554134
-0.093278103 -0.27466279 0.68299991 13752026
-0.084996052 -0.27538919 0.68234867 14212320
-0.074461617 -0.27537829 0.6819998 13685977
-0.064882189 -0.27537823 0.6819998 13752026
-0.055302706 -0.27537826 0.6819998 13818074
-0.044924982 -0.2753782 0.68199968 13818074
-0.034459446 -0.2753917 0.68240541 13752281
-0.024905894 -0.27508983 0.68297571 13423315
-0.015440004 -0.27475274 0.68441665 13028557
-0.0052969647 -0.27525005 0.68671066 13225681
0.005601414 -0.27461857 0.6875 13686232
0.013803813 -0.27600747 0.68875003 10791600
0.024897249 -0.27769202 0.68747836 3291460
0.031319551 -0.27808821 0.68842858 3093050
0.047725759 -0.27241275 0.68900007 13094097
0.055899896 -0.27303994 0.68854547 13225938
0.064966425 -0.27441868 0.6875937 13423316
0.074480258 -0.27548882 0.68625015 13620439
0.084816679 -0.27514866 0.68540484 13554647
0.095094308 -0.27470753 0.68430549 13620441
0.10468967 -0.27480304 0.68315017 13686234
0.11484776 -0.27565834 0.68269062 13488855
0.12518638 -0.27554813 0.68241662 13488855
0.13484395 -0.27542678 0.68277782 13554646
0.14494421 -0.27478606 0.68516678 13554902
0.15255308 -0.27447134 0.68840009 13094352
-0.092966475 -0.26437691 0.68305874 13554906
-0.084777407 -0.26501349 0.68229145 14146785
-0.074461617 -0.26500049 0.68199968 14080733
-0.064870328 -0.26495442 0.68188065 14015196
-0.055302709 -0.2650004 0.68199968 13949403
-0.04492864 -0.26502401 0.68206096 13883610
-0.034666397 -0.26505232 0.68243909 14015452
-0.025112145 -0.26474065 0.68300003 13620950
-0.015435752 -0.26503116 0.68413895 13291729
-0.0050345669 -0.26555914 0.68550003 13489108
0.0053384644 -0.26471496 0.68640554 13686488
0.014496106 -0.26445407 0.68833321 13291474
0.02477772 -0.2620751 0.68900007 13159117
0.034705784 -0.26443893 0.68899989 13422547
0.045033716 -0.2650719 0.68865824 13620183
0.055281885 -0.26462963 0.68724996 13751512
0.064895682 -0.26512003 0.68606079 13422804
0.075161472 -0.26542163 0.68514293 13554903
0.085489683 -0.26511824 0.68436116 13883612
0.095001608 -0.2648378 0.68363893 13949405
0.10535211 -0.2645576 0.68258137 13883869
0.11531524 -0.26529947 0.68182033 13949149
0.12493678 -0.26543224 0.68105555 13883355
0.13475277 -0.26512331 0.68199986 13817560
0.14477345 -0.26484978 0.68436122 13751511
0.15341988 -0.26462552 0.68769568 13357011
-0.092992656 -0.25519767 0.68570834 13882844
-0.084904097 -0.25489858 0.68339545 14344164
-0.074498005 -0.25474566 0.68233311 14081248
-0.06490346 -0.25470456 0.68222225 14344162
-0.055305123 -0.25463307 0.68202758 14212319
-0.044936806 -0.25469416 0.6821903 14080477
-0.034578606 -0.25485241 0.68261111 14212319
-0.025003247 -0.25498584 0.68297225 13883097
-0.015430404 -0.25532851 0.68388885 13488339
-0.0048148753 -0.25526959 0.68473327 13817560
0.0052903285 -0.25465196 0.68597323 13817816
0.015056529 -0.25486225 0.68694466 13883609
0.0247379 -0.25521335 0.68788886 13356496
0.034550987 -0.25509524 0.68786484 13948633
0.044951674 -0.25513467 0.68741459 14146269
0.055029519 -0.25445643 0.68554294 14146269
0.064802952 -0.25549123 0.68462855 13685719
0.075023144 -0.25532633 0.68388093 13489111
0.085361868 -0.25512204 0.6833334 13686490
0.09491767 -0.25500697 0.68302786 13949662
0.1051595 -0.25464126 0.68204737 13949404
0.11559237 -0.2547847 0.68128192 13949660
0.12495327 -0.25509858 0.68114269 14015453
0.13454899 -0.25496575 0.68213147 13949147
0.14463617 -0.25499886 0.68372232 13817047
0.15382622 -0.25462642 0.68703717 13225167
-0.091329217 -0.24571279 0.68880004 14869225
-0.084335886 -0.24525097 0.68584615 14409186
-0.074703515 -0.24532877 0.68321627 14212062
-0.064977303 -0.24540268 0.68300009 14278369
-0.055381723 -0.24539246 0.68297231 14409441
-0.044940047 -0.24511991 0.68221408 14146782
-0.034564082 -0.24516232 0.68233323 14344161
-0.025004424 -0.24540265 0.68300009 14080990
-0.015252592 -0.24529681 0.68352646 13817562
-0.0052354499 -0.24480332 0.68443477 13817817
0.0053981002 -0.24482505 0.68586129 13817817
0.015034403 -0.24487495 0.68600023 14212318
0.024676859 -0.24494502 0.6861946 13882839
0.035123672 -0.24497721 0.68628597 14146267
0.045586701 -0.24509293 0.68661135 14277855
0.055201806 -0.24463992 0.68491894 14343648
0.064629331 -0.24496129 0.68400002 14409699
0.074779153 -0.24526224 0.68331826 13949406
0.085320741 -0.24540263 0.68300009 14146784
0.094809115 -0.24513412 0.68224996 14343906
0.10504164 -0.24478757 0.68128556 14278112
0.11541447 -0.24479342 0.68130547 14212574
0.12511016 -0.24504335 0.6819998 14277856
0.13462159 -0.24505638 0.68222845 14277855
0.14470959 -0.24473198 0.68358982 13948889
0.15380061 -0.24484313 0.68582773 13357266
-0.091425695 -0.23514749 0.68650001 15197932
-0.084455602 -0.23448449 0.68410814 14540772
-0.074473299 -0.23489271 0.68300015 14146012
-0.064977296 -0.23500976 0.68300015 14146269
-0.055383809 -0.23500971 0.68300015 14212062
-0.045069072 -0.23498732 0.6826458 14277597
-0.034475245 -0.23556523 0.68272978 14277598
-0.025004424 -0.23500979 0.68300015 14277854
-0.01574905 -0.23503721 0.68307906 14080475
-0.0050227265 -0.23451373 0.68388093 14146011
0.0053946394 -0.23500153 0.68530554 13817304
0.015031513 -0.23520154 0.68588912 14146525
0.024660556 -0.23515455 0.68575007 14146268
0.035108056 -0.23523176 0.68597651 14146525
0.045535315 -0.2351826 0.68583345 14343905
0.055061027 -0.23472603 0.68449992 14409698
0.064629331 -0.23455316 0.68400002 14541028
0.075115517 -0.23486429 0.68317032 14080992
0.085275143 -0.23488656 0.68264288 14212576
0.094646141 -0.23498142 0.68222481 14541027
0.10509003 -0.23532312 0.68159509 14475747
0.11552158 -0.23544441 0.68194425 14278112
0.12484075 -0.2350955 0.68222213 14409441
0.13547117 -0.2354176 0.6830278 14409440
0.14460762 -0.23474093 0.68410814 14146524
0.15382935 -0.23505464 0.68546671 13620180
-0.092226528 -0.22478275 0.68349999 13093326
-0.08495032 -0.22457872 0.68288088 14541030
-0.074545823 -0.2245446 0.68277776 14080477
-0.064977303 -0.22461677 0.68300009 14146013
-0.055383809 -0.2246168 0.68300009 14014427
-0.044870991 -0.22470029 0.68286061 14081246
-0.034665193 -0.22510454 0.68241435 14146526
-0.025001278 -0.22458965 0.68291676 14080732
-0.015410932 -0.22461677 0.68300009 14080731
-0.0050183381 -0.22469547 0.68323821 14277340
0.0053865742 -0.22504595 0.68430549 14079962
0.015002335 -0.22514786 0.6846112 14211548
0.024597589 -0.22494681 0.68400002 14146012
0.03503938 -0.2251499 0.68461907 14212062
0.045470335 -0.225229 0.68486106 14277855
0.055030067 -0.2249824 0.68411112 14343905
0.064560108 -0.22470887 0.68327785 14606820
0.074927785 -0.22461674 0.68300015 14606820
0.085320733 -0.22461674 0.68300009 14343648
0.095055982 -0.22484995 0.68281597 14672099
0.10515301 -0.22508621 0.68199968 14540514
0.11563273 -0.22528167 0.68259543 14343648
0.12518077 -0.22475892 0.68297303 14409183
0.13492067 -0.22467224 0.68316674 14212061
0.14469893 -0.2249559 0.68402779 14080732
0.15397337 -0.22528543 0.68541956 13752025
-0.092159778 -0.2155571 0.68354553 12633548
-0.084942214 -0.21496251 0.68280959 14344422
-0.074502446 -0.21483088 0.68238884 14015198
-0.064977296 -0.21502328 0.68300009 13883869
-0.055383805 -0.21502325 0.68300009 13818075
-0.045000043 -0.21504945 0.68314648 13949917
-0.03459667 -0.21501432 0.68297231 14278111
-0.024998063 -0.21496998 0.68283325 14212318
-0.015411858 -0.21504073 0.68305564 14212062
-0.0050234436 -0.21529289 0.6838572 14211805
0.0055552311 -0.21514159 0.68431586 14212062
0.014929555 -0.2152631 0.6842432 14343648
0.024592243 -0.21528475 0.68383342 14146525
0.035111975 -0.21506202 0.68467385 14277854
0.045345206 -0.21537519 0.68459463 14343648
0.055021781 -0.21533817 0.68400002 14474979
0.064555183 -0.21509235 0.68322229 14343906
0.074927792 -0.21502329 0.68300015 14607078
0.085320741 -0.21502322 0.68300009 14475234
0.094910197 -0.21501452 0.68297231 14409441
0.10497116 -0.21498521 0.68237507 14540769
0.11539248 -0.21482964 0.68292117 14343389
0.12529361 -0.21502325 0.68300009 14343646
0.13483153 -0.21493688 0.68272233 14343904
0.14448689 -0.2150324 0.68302786 14278369
0.15368044 -0.21507217 0.68346882 13752283
-0.091927506 -0.2078082 0.68425 12830668
-0.084936626 -0.20535898 0.68276185 14607335
-0.074478969 -0.20517963 0.68216658 13752535
-0.064968958 -0.2054051 0.6829167 13949659
-0.055383809 -0.20542978 0.68300009 14146268
-0.044990864 -0.20542978 0.68300015 14212063
-0.034597918 -0.20542975 0.68300009 14212060
-0.025004424 -0.20542976 0.68300009 14343389
-0.015324289 -0.20490681 0.68353671 14409439
-0.0050253435 -0.20494196 0.68404078 14277853
0.0052290307 -0.20490536 0.68472493 14212060
0.015058963 -0.20495717 0.68448776 14475233
0.024598632 -0.20493691 0.6840238 14475233
0.03494443 -0.20455687 0.68417776 14475234
0.045511879 -0.20481275 0.68400002 14409441
0.055021785 -0.20492992 0.68400002 14541027
0.064629331 -0.20492987 0.68400002 14671841
0.07502839 -0.20490491 0.68391842 14869220
0.085412584 -0.2048499 0.68373817 14738406
0.094963335 -0.20473559 0.68335724 14804198
0.10445883 -0.2048016 0.68331707 14869990
0.11490951 -0.20480378 0.68325019 14606817
0.12517425 -0.20493639 0.6832251 14606819
0.13485911 -0.20538735 0.68286109 14474979
0.14446893 -0.20541278 0.68294454 14343649
0.15404385 -0.20465355 0.68374997 13948890
-0.091279157 -0.19486549 0.68240005 13619158
-0.085094899 -0.19585142 0.68202609 14672358
-0.074847639 -0.19525589 0.68161517 13948891
-0.064902611 -0.19561422 0.68222207 13883096
-0.055197626 -0.19548218 0.6827895 14146268
-0.04499086 -0.19503678 0.68300015 14343391
-0.034597915 -0.19503684 0.68300015 14343648
-0.025006006 -0.19505054 0.68304777 14212062
-0.015540154 -0.19465782 0.68394601 14146268
-0.0050257179 -0.19456971 0.68416661 14343133
0.0053917291 -0.19482234 0.68505549 14408925
0.015018435 -0.19489343 0.6853056 14474976
0.024625812 -0.19475083 0.68480551 14672355
0.03500608 -0.19452178 0.68400002 14672098
0.045420066 -0.19454503 0.6840834 14475232
0.055026051 -0.19453734 0.68405557 14475746
0.064629316 -0.19452181 0.68400002 14409439
0.075070873 -0.19460914 0.68430954 14540512
0.085445657 -0.19452181 0.68400002 14540256
0.095053189 -0.1945218 0.68400002 14671841
0.10466072 -0.19452181 0.68400002 14671841
0.11510217 -0.1946453 0.68397677 14606305
0.12562077 -0.19477873 0.68386847 14540770
0.13489167 -0.19504347 0.68302393 14540770
0.14448059 -0.19503681 0.68300015 14277855
0.15386806 -0.19450966 0.68369693 14146268
-0.091359407 -0.18512355 0.68300003 12566984
-0.08507821 -0.18490601 0.68219966 14738665
-0.074803568 -0.18531126 0.68173313 14212064
-0.064882182 -0.18517178 0.68199968 13817561
-0.055464249 -0.18493924 0.68202478 14146011
-0.044945318 -0.18445867 0.68230927 14343389
-0.034567945 -0.18448776 0.68241668 14277854
-0.025004424 -0.18464385 0.68300009 14211805
-0.015420124 -0.18477218 0.68347228 14080474
-0.0050253295 -0.18491414 0.68400002 14212059
0.0053882673 -0.18504962 0.68449998 14343389
0.015009333 -0.18515509 0.68488878 14343647
0.024603387 -0.18496008 0.68416667 14475234
0.035046112 -0.18511432 0.68400002 14540513
0.045473576 -0.1851545 0.68488884 14474462
0.055060249 -0.18504936 0.68450004 14409182
0.06463211 -0.18492183 0.68402779 14343646
0.075083196 -0.18503013 0.68442851 14212061
0.085445657 -0.18491417 0.68400002 14212061
0.095154807 -0.18510944 0.68472219 14343389
0.1047492 -0.18507099 0.68458325 14277597
0.11506889 -0.1849142 0.68400002 14277597
0.12547705 -0.18491417 0.68400002 14277598
0.13495137 -0.18473403 0.6833334 14212062
0.14462002 -0.18452159 0.68294603 14146268
0.15381008 -0.1849771 0.6829375 14080219
-0.091359407 -0.17744875 0.68300003 10988207
-0.084362328 -0.17493224 0.68221039 14803686
-0.074380085 -0.17460266 0.68124986 14080732
-0.064835995 -0.17467384 0.68152761 13949146
-0.055302706 -0.17479409 0.6819998 14080217
-0.044924982 -0.17479405 0.68199968 14343132
-0.034558725 -0.17485856 0.68224984 14474461
-0.025001081 -0.17502949 0.68291664 14277852
-0.015414377 -0.17510079 0.68319452 14014681
-0.005024415 -0.17528874 0.68392861 14146011
0.0053866957 -0.17539303 0.68433332 14014681
0.014994909 -0.17537159 0.68425006 14212060
0.024597911 -0.17530674 0.68400002 14146268
0.035017073 -0.17482294 0.68419445 14277341
0.045472018 -0.1755289 0.68486106 14408670
0.055045225 -0.17538583 0.68430549 14277085
0.064629316 -0.17530672 0.68400002 14408927
0.075047813 -0.1753317 0.68409526 14343647
0.085421063 -0.17525791 0.68380558 14212061
0.095065325 -0.17532882 0.68408334 14146269
0.10469428 -0.17536458 0.68422222 14146012
0.1150443 -0.17527077 0.68385726 14145756
0.12535924 -0.17514431 0.68336117 14211804
0.13485886 -0.17501567 0.68286115 14277597
0.14509715 -0.17483141 0.68214262 14277597
0.15476103 -0.17501543 0.6820333 14014683
0.1612692 -0.17345147 0.68300003 8883860
-0.085137255 -0.16543186 0.68211752 14672613
-0.076148465 -0.16561462 0.68058628 14409440
-0.06431099 -0.16515422 0.68071878 13948888
-0.055268828 -0.16511488 0.68158317 13948888
-0.044914562 -0.16517489 0.68183309 14343390
-0.034523178 -0.16510201 0.68152761 14343133
-0.024965856 -0.16520889 0.68197215 14211292
-0.015402826 -0.1653775 0.68266654 14014425
-0.005016908 -0.1654464 0.68295252 13948888
0.0053782221 -0.16555269 0.68338895 13883096
0.014979416 -0.16557971 0.68349999 14080218
0.024580963 -0.16558641 0.68352771 14014684
0.034981821 -0.16558547 0.68352395 14014683
0.045392107 -0.16561991 0.68366677 14146013
0.054983761 -0.16558643 0.68352783 14211292
0.064573914 -0.16555947 0.68341678 14211292
0.074961349 -0.16553324 0.68330967 14211549
0.085324042 -0.16546379 0.68302786 14212062
0.09495315 -0.1655255 0.68327785 14146012
0.10453296 -0.16549815 0.68316674 14145499
0.11489238 -0.16544563 0.68295246 14211292
0.12520643 -0.16534407 0.6825276 14277085
0.13469495 -0.16522156 0.68202758 14277342
0.14505196 -0.165197 0.68192828 14211805
0.15552893 -0.16530244 0.68236095 14211805
0.1612692 -0.16561678 0.68300003 11447732
-0.09118107 -0.15635781 0.68166667 9870241
-0.085280791 -0.15493433 0.68137479 14410471
-0.076546654 -0.15401277 0.68041676 14146526
-0.064110674 -0.1548371 0.68059999 14080218
-0.055160239 -0.15517901 0.68128937 14079448
-0.044879276 -0.15547286 0.6812855 14146011
-0.034474544 -0.15530698 0.68055552 14146268
-0.024934102 -0.15543291 0.6811111 14014683
-0.015382824 -0.15557939 0.68174982 14080219
-0.005007558 -0.15554991 0.68161887 14211034
0.0055520902 -0.15521191 0.68202543 14079704
0.014948022 -0.15485367 0.68207115 14211291
0.024532784 -0.1548814 0.68219036 14408670
0.034817006 -0.15511006 0.68229783 14342877
0.045303814 -0.15491439 0.68233311 14342877
0.054895379 -0.15493622 0.68242848 14277083
0.064458117 -0.15488145 0.68219018 14474719
0.074831367 -0.15486556 0.68212211 14343390
0.08520776 -0.15485919 0.68209505 14212061
0.094795093 -0.15487039 0.68214256 14409439
0.10515601 -0.15484169 0.68202007 14343390
0.11536667 -0.15507084 0.68197477 14409184
0.12500234 -0.15550345 0.68141651 14409185
0.13452503 -0.15544599 0.68116659 14343393
0.14510934 -0.15523167 0.68134069 14474978
0.15478365 -0.15538435 0.6819998 14277855
0.16119049 -0.15818532 0.68266672 13619412
-0.08481127 -0.14493662 0.68206966 14409186
-0.074374236 -0.14508474 0.68119031 14343649
-0.064777978 -0.14502475 0.68090469 14080219
-0.055301338 -0.14480536 0.68099988 14079961
-0.044859122 -0.14504448 0.68099993 14408926
-0.034463104 -0.14489734 0.68030959 14540513
-0.024905341 -0.14489895 0.68030959 14409184
-0.015358006 -0.14497399 0.68066663 14277855
-0.0050004926 -0.14499664 0.68077552 14474719
0.0051790029 -0.14475356 0.68135887 14540254
0.014932055 -0.14432526 0.68136096 14737891
0.024521681 -0.14442998 0.68186098 14935014
0.034993544 -0.14464001 0.68165886 14934757
0.045231629 -0.14430131 0.68124986 15000550
0.054846264 -0.14441827 0.68180537 14934757
0.064448506 -0.14447634 0.68208307 15000551
0.074836358 -0.14449348 0.68216646 15000806
0.08520256 -0.14447062 0.68205535 14935014
0.09479069 -0.14448205 0.68211091 15001065
0.10515299 -0.14445916 0.68199968 14869478
0.11565766 -0.144702 0.68176293 14935272
0.12500535 -0.14513378 0.68142843 15066603
0.13460968 -0.14516838 0.68159509 15132396
0.14455047 -0.14524513 0.68195432 15001323
0.15513916 -0.1443857 0.68305254 14738151
0.1614581 -0.14403912 0.68380004 15395567
-0.084938921 -0.13503417 0.68278569 15066857
-0.074447006 -0.13485001 0.68186104 15264235
-0.064850718 -0.13481094 0.68166649 15132650
-0.055262174 -0.1347791 0.6814999 15132906
-0.044892054 -0.1347791 0.68149978 14869990
-0.034514144 -0.13474561 0.6813333 15395308
-0.024942158 -0.13473976 0.68130535 15263979
-0.015381311 -0.13481738 0.68169439 15001065
-0.0050079552 -0.13480751 0.68164271 15263978
0.0053679897 -0.1348889 0.68205529 15395563
0.014950966 -0.13491544 0.68219447 15395563
0.024552224 -0.13501991 0.68272209 15592943
0.035140343 -0.13453153 0.68327683 15658993
0.045401819 -0.13442886 0.6838094 15527665
0.054990977 -0.13439228 0.68361902 15592944
0.064733446 -0.13459593 0.68404889 15658480
0.074984573 -0.13465497 0.68443757 15724787
0.085373782 -0.13493021 0.68376321 15659251
0.095097177 -0.13452947 0.6843096 15659508
0.10485164 -0.13489132 0.68500006 15658994
0.11482825 -0.13599733 0.68482351 15461358
0.12516668 -0.13621642 0.68500006 15527409
0.13537276 -0.13542536 0.68535137 15527151
0.14486524 -0.13463748 0.68544191 15724273
0.15469271 -0.13480979 0.6851629 15395823
0.16075031 -0.13660726 0.68533343 16382716
-0.090417601 -0.12801209 0.68800002 13354446
-0.08400438 -0.12752266 0.6859566 15461102
-0.0747042 -0.12654048 0.6860624 15855857
-0.065104529 -0.12564497 0.68628186 16184822
-0.055459805 -0.12510066 0.68553483 16184821
-0.044667661 -0.1251874 0.68402237 16053237
-0.034797743 -0.12510397 0.6832822 16053237
-0.024839479 -0.12520818 0.68310535 16185080
-0.015420713 -0.12476083 0.6834287 15987958
-0.0048639658 -0.12401774 0.68363428 16053493
0.0053940373 -0.12508196 0.68521422 15987958
0.014855478 -0.12564716 0.68628204 15922165
0.024627384 -0.12685633 0.68696779 15987701
0.033597417 -0.12726447 0.68790483 15987702
0.041310575 -0.12860256 0.68900001 15856116
0.065101765 -0.1290058 0.68900007 16184053
0.075833589 -0.12726928 0.68833339 16250615
0.085016653 -0.12649226 0.68662864 16184822
0.09491507 -0.12731931 0.68806255 16053493
0.10139338 -0.1290058 0.68900001 15724529
0.14633049 -0.12830445 0.68870008 15790066
0.1537074 -0.12814409 0.68762505 15461615
-0.050224982 -0.11932804 0.68900001 16449020
-0.043871231 -0.11870456 0.68540001 15791090
-0.034224685 -0.11897509 0.68350005 15922163
-0.026603337 -0.11988781 0.68300003 16053235
-0.0066847145 -0.33272117 0.69000006 10791851
0.044778824 -0.33418593 0.69566679 9475477
0.054776251 -0.334117 0.69446659 10331044
0.06603422 -0.33325619 0.69263637 11712697
0.071612276 -0.33241633 0.69216663 12173249
-0.0024447115 -0.32356307 0.69006264 10396580
0.0013917984 -0.32302937 0.69000006 9737623
0.045322221 -0.32455102 0.69396555 9475737
0.054928467 -0.32500377 0.69297624 10725547
0.065143712 -0.32509279 0.69159377 11581111
0.07437247 -0.32589474 0.69032019 12041664
-0.0035505381 -0.31481373 0.69052958 10791082
0.002603275 -0.31404421 0.69000018 10066589
0.045460403 -0.31476283 0.69250005 10066594
0.055165589 -0.31478035 0.69125646 11383480
0.064590514 -0.31878918 0.69000006 11909823
-0.0023236964 -0.30728883 0.69020003 11514030
0.003814752 -0.30606869 0.69000012 10395039
0.046725038 -0.30513069 0.69153333 11316660
0.055551246 -0.30472293 0.69061124 12699597
0.061696421 -0.30256882 0.69000006 13160403
0.046037968 -0.29534087 0.69162858 11777210
0.055580325 -0.29517633 0.69097233 13159632
0.062400535 -0.29407814 0.69000012 13291473
0.15323023 -0.29233861 0.69000006 14079709
0.0078530088 -0.28587738 0.69000006 13225165
0.038023945 -0.28305212 0.69033337 8881287
0.044917475 -0.28535822 0.69189119 11843001
0.055603385 -0.28558725 0.69125003 13225167
0.062571377 -0.28547353 0.69000018 13357266
0.15444171 -0.28567547 0.69000006 11251381
0.017012559 -0.2742092 0.69022244 11515065
0.024322646 -0.27291343 0.69028592 11975617
0.035114065 -0.27490568 0.69030023 11382966
0.044266477 -0.27607906 0.69062972 12896459
0.054708268 -0.27820483 0.69014293 13159888
0.061965637 -0.27941617 0.69000006 13291730
0.15565318 -0.27376261 0.69000006 10725806
0.017867884 -0.26843211 0.69000006 12304837
0.025107373 -0.26708111 0.6900003 12633288
0.033467092 -0.26926285 0.69000006 13027534
0.040159058 -0.26972437 0.69000006 13423062
0.15646084 -0.26972437 0.69000006 11712446
-0.095526353 -0.2511484 0.69000006 15000556
-0.094380975 -0.24534416 0.69064713 14277346
-0.093911052 -0.23903362 0.69000006 15329519
0.10961707 -0.13080834 0.69000006 16185080
0.11606932 -0.13162532 0.69089997 15921908
0.12530829 -0.13198091 0.6919167 15855858
0.13329054 -0.13140561 0.6907143 15724272
-0.084239058 -0.12253337 0.69193333 15856374
-0.076524429 -0.1215601 0.69100004 15922163
-0.06806621 -0.12111653 0.69000006 15658734
0.017544823 -0.12111653 0.69000006 16054262
0.025267027 -0.12203342 0.69011116 16120056
0.035254322 -0.12311212 0.69093341 16054263
0.045195017 -0.12556522 0.69215167 15922165
0.055219099 -0.12617943 0.69264531 16185080
0.065204911 -0.12547883 0.69121748 16316151
0.073440649 -0.12455177 0.69050014 16184821
0.096796073 -0.12470561 0.69071436 15987700
0.10511704 -0.12613724 0.69156677 16053493
0.11445486 -0.12692405 0.69334787 15921908
0.12454235 -0.12798661 0.6944167 15921651
0.1348947 -0.12812817 0.69247061 15790067
0.14457341 -0.12699512 0.69012505 15855859
-0.073933445 -0.11984761 0.69200003 16054263
-0.064958088 -0.11972391 0.69128573 15725297
-0.055160709 -0.11953588 0.69020003 15921906
0.04565721 -0.3391819 0.70000005 9212562
-0.1443834 -0.41521978 0.7578485 9542558
-0.13483311 -0.41524211 0.75646687 9411228
-0.1257093 -0.41503033 0.75809103 9410972
-0.14114615 -0.40904927 0.75866669 9608348
-0.13519602 -0.40925533 0.75849992 9477020
-0.1293053 -0.40904927 0.75866669 9345178
-0.12487423 -0.40525141 0.76127583 9411228
-0.12498599 -0.37507296 0.76119989 9477532
