# .PCD v0.7 - Point Cloud Data file format
VERSION 0.7
FIELDS x y z rgb
SIZE 4 4 4 4
TYPE F F F U
COUNT 1 1 1 1
WIDTH 938
HEIGHT 1
VIEWPOINT 0 0 0 1 0 0 0
POINTS 938
DATA ascii
0.018065555 -0.3466517 0.65672219 1118480
0.025327684 -0.34548664 0.65664095 198659
0.034339 -0.3454912 0.65597618 264965
0.019580297 -0.33355114 0.65599996 3948097
0.024705257 -0.33438638 0.65394449 658701
0.035225824 -0.33437285 0.65441036 1054484
0.041440271 -0.33320013 0.65900004 6779253
0.01984204 -0.32857192 0.65900004 6844279
0.025414938 -0.32531747 0.65541476 1449503
0.034963757 -0.32514492 0.65489584 1384218
0.02701279 -0.31538072 0.65700001 1515297
0.035057105 -0.31529513 0.65610635 923411
0.027478155 -0.30459914 0.65721053 1450531
0.034965765 -0.30477509 0.65561706 1317912
0.028554743 -0.29818553 0.65833336 1844003
0.034073137 -0.29782704 0.65754545 1778717
0.0053766589 -0.33109674 0.66900009 8358544
0.014274923 -0.3308391 0.66355562 8753301
0.04620624 -0.33343732 0.66180009 7305856
0.054562669 -0.33263376 0.66314286 8687768
0.064943664 -0.33267477 0.6633333 9016733
0.076277964 -0.33410963 0.66581488 9082267
0.083888911 -0.33274233 0.66666669 9082526
0.093869306 -0.33190143 0.6688183 10003885
0.10158247 -0.33042556 0.66900003 9806509
-0.0017828427 -0.32102871 0.66900003 11188932
0.0053207115 -0.32503113 0.66835135 10529974
0.015412087 -0.32490185 0.66355556 9016991
0.021417221 -0.32289022 0.66000003 2569277
0.04545128 -0.32504028 0.66148657 7503232
0.054851577 -0.32494453 0.66261125 10266800
0.064851776 -0.32452863 0.66176218 10858938
0.074790128 -0.32451758 0.66245461 10529973
0.08500953 -0.32469618 0.66445458 10464951
0.095096789 -0.3249903 0.66711438 10727865
0.10510205 -0.32395616 0.66846669 10793400
0.11137085 -0.32220334 0.66900003 11319743
-0.0028496534 -0.31374732 0.66849995 11451589
0.005167285 -0.31484401 0.66615164 11385539
0.015299805 -0.31490102 0.66292858 10135470
0.022602567 -0.31467503 0.66011763 3357505
0.04525581 -0.31502837 0.66073674 6910840
0.05473239 -0.31494895 0.66116655 11253695
0.064777218 -0.31486866 0.66099977 11582659
0.074835427 -0.31486869 0.66099989 11516611
0.085047342 -0.31498188 0.66216671 11385282
0.095622316 -0.31466722 0.66523087 11582660
0.1053029 -0.31449416 0.667081 11648453
0.11455558 -0.31422609 0.66853827 11648710
0.12168127 -0.31293699 0.66900009 11780298
-0.0033466448 -0.30483627 0.66783881 11582919
0.0052227592 -0.3049241 0.66405559 11517125
0.015501509 -0.30513379 0.6626001 10266800
0.022899877 -0.30478805 0.66045004 3884622
0.045573823 -0.30492696 0.66074991 6647413
0.054720879 -0.30482134 0.66102362 11385283
0.06477537 -0.30480096 0.66097939 11911883
0.074838243 -0.30482125 0.66102362 11846090
0.084620893 -0.30526906 0.66259998 11780297
0.094501838 -0.3052246 0.66690493 11780297
0.10451122 -0.3073453 0.66856515 12043469
0.11352429 -0.30791226 0.66900009 11977676
-0.0030762276 -0.2949515 0.66779315 11714758
0.0053744041 -0.29497924 0.66377509 11714759
0.015305907 -0.2948674 0.66300005 10793145
0.02488582 -0.29458603 0.66124326 4278862
0.035451084 -0.29371649 0.66041374 1844255
0.045011375 -0.29447979 0.66176599 5726051
0.054850191 -0.29468513 0.66259521 11977676
0.064920604 -0.29462749 0.66246945 11977677
0.075186349 -0.29484129 0.663279 11911626
0.084402859 -0.29558834 0.66618609 11846090
0.091456361 -0.29823923 0.66857153 11846090
-0.0041882587 -0.28500333 0.66748732 11714505
0.0050572664 -0.28483176 0.66378957 11714505
0.015058823 -0.28525785 0.66402483 11319746
0.02497937 -0.28508216 0.6635111 5529700
0.034658305 -0.28514451 0.66204774 1779234
0.044981286 -0.28496066 0.6642341 5595239
0.054813679 -0.2849322 0.66433328 11845578
0.065148681 -0.28495678 0.66476607 11911627
0.075003251 -0.28563058 0.66734147 11714247
0.08224649 -0.28858963 0.66883343 11713990
-0.0032533905 -0.27491349 0.66764706 11649224
0.0053823804 -0.27505732 0.66444993 11780809
0.015049565 -0.27465627 0.6635651 11714502
0.025392612 -0.27503839 0.66392833 7174012
0.034707714 -0.27468827 0.66300011 3949641
0.044688515 -0.27487427 0.66444457 7174531
0.055216532 -0.27509567 0.6648463 11846345
0.064433932 -0.27491212 0.6663903 11714758
0.07165648 -0.27722505 0.66853851 11845831
-0.003240414 -0.26537362 0.66851723 11715275
0.005238642 -0.26498783 0.66592872 11846090
0.01516541 -0.26447764 0.66414905 11780552
0.025421962 -0.26486742 0.66366661 11188158
0.034990758 -0.26495913 0.66494894 11385536
0.044949196 -0.26472613 0.66526562 11714759
0.05515907 -0.26512927 0.66628581 11780809
0.062459785 -0.26704046 0.66820008 11648710
-0.0019568584 -0.2587311 0.66900009 11846860
0.0057047028 -0.25553903 0.6685406 11978446
0.01456543 -0.25498688 0.66731685 11978446
0.024876097 -0.25534004 0.66580403 11846603
0.034778994 -0.2550177 0.66731113 11912395
0.044694073 -0.25557253 0.66809529 11847115
0.053718522 -0.25820404 0.66853851 11781321
0.0086580971 -0.24846418 0.66899997 12044239
0.015383773 -0.24577773 0.6685313 12110032
0.02464943 -0.24538533 0.66827667 12110032
0.034807906 -0.24542685 0.66900009 12109518
0.041641977 -0.24656582 0.66900009 12043468
0.018576991 -0.23958936 0.66900003 12044239
0.024058485 -0.23958935 0.66900009 12175825
0.096767448 -0.33353356 0.67000002 9279904
0.10240651 -0.33226389 0.67000002 9543079
0.11837979 -0.33298418 0.671 9674921
0.12468476 -0.33086723 0.67171425 9675177
0.13228963 -0.3311047 0.67249995 9214367
-0.023204187 -0.32209256 0.67700005 10728122
-0.014985505 -0.3229638 0.67160863 10530488
-0.0047472641 -0.32466286 0.67031431 10596026
0.10487127 -0.32895884 0.67000002 10464180
0.11583316 -0.32577854 0.67049986 10398899
0.12465058 -0.32487956 0.67127007 10661814
0.13409321 -0.32472894 0.67217672 10398642
0.1433388 -0.3230015 0.67550009 10069420
-0.022896051 -0.31512198 0.67708701 11583176
-0.015335836 -0.31517208 0.67215788 11451847
-0.007066323 -0.31640387 0.67036361 11254210
0.11846477 -0.31941727 0.67000002 11056828
0.12563619 -0.31532273 0.67031997 11517125
0.13417868 -0.31512871 0.67144442 11319745
0.14270173 -0.3156465 0.67550009 11056573
-0.022599643 -0.30507255 0.67768419 11583430
-0.015173919 -0.30529398 0.67228943 11517381
-0.0088508613 -0.30526716 0.67050004 11648968
0.098074518 -0.30164114 0.67000002 12043469
0.10551342 -0.30310532 0.67045456 12175055
0.11552596 -0.30364335 0.67079401 12241105
0.12468179 -0.30474943 0.67109525 12043984
0.13452785 -0.30492052 0.67240018 11648968
0.14217876 -0.30534691 0.67660004 11780297
-0.023384003 -0.29472169 0.6769231 11385795
-0.01500071 -0.29522771 0.67199999 11583173
-0.0085860947 -0.2957992 0.67026675 11780294
0.088162981 -0.29125676 0.67016667 11648711
0.095506959 -0.29457861 0.67147368 11845833
0.1050025 -0.29526865 0.67401767 12043468
0.11494067 -0.29539678 0.67511117 12701141
0.12494331 -0.29567206 0.67558134 12372691
0.13409227 -0.29728982 0.67703712 11912397
0.14114611 -0.29937854 0.67850006 11451332
-0.030399013 -0.28190753 0.67850006 11188931
-0.024625344 -0.28461444 0.67572731 11122624
-0.015154649 -0.2852985 0.67152786 11517125
-0.0096279169 -0.28464922 0.67000002 11385540
0.078749746 -0.28184351 0.67016667 11780296
0.086052179 -0.28443131 0.67164862 11648710
0.094941691 -0.28602424 0.67605007 11714245
0.10266612 -0.28876376 0.67875004 11911624
-0.031511508 -0.27489737 0.67800003 11582918
-0.024592092 -0.2746996 0.67345721 11583173
-0.015147391 -0.27497143 0.67126179 11583687
-0.0088436762 -0.27523831 0.67000002 11649482
0.068796188 -0.27131715 0.67000002 11846344
0.075750411 -0.27417549 0.67085707 11517123
0.084696628 -0.27496916 0.67380494 11648452
0.091672882 -0.27532616 0.67833334 11714245
-0.031098498 -0.26618594 0.67799997 11846347
-0.024832431 -0.26493531 0.67382514 11780552
-0.015145633 -0.26472998 0.67119431 11780809
-0.0085504847 -0.26457736 0.67006254 11649481
0.059385289 -0.26033777 0.67000002 11846090
0.066010736 -0.26409116 0.6707142 11714502
0.074775711 -0.26491365 0.67274368 11385536
0.08399675 -0.26557079 0.67664868 11517121
0.090340108 -0.26847085 0.67866677 11583170
-0.023792597 -0.25578418 0.6763429 11977676
-0.015319029 -0.25469497 0.67243195 11977932
-0.005573147 -0.25441495 0.6707179 11912653
0.0019788491 -0.25218165 0.67000002 11978446
0.047957782 -0.25159907 0.67000002 11978702
0.056120239 -0.25418323 0.67046416 11781321
0.065162651 -0.25467253 0.67200011 11583687
0.074478306 -0.25528646 0.67542857 11385535
0.081069827 -0.25812468 0.67820007 11451070
-0.021403706 -0.24887656 0.67866677 11911883
-0.014558028 -0.24560721 0.67594123 12043726
-0.0048737712 -0.24500726 0.67187506 11978446
0.0050144861 -0.24453574 0.67056394 12110031
0.011808003 -0.24256162 0.67000002 12044238
0.037426542 -0.24151598 0.67000002 12043469
0.0461266 -0.24465656 0.67029989 11912139
0.055104867 -0.24492623 0.67156243 11912139
0.064545885 -0.24585684 0.67575002 11582918
0.07210464 -0.24952888 0.67900002 11517125
-0.012220341 -0.23749995 0.67844445 12109519
-0.0050589689 -0.23495398 0.67442876 12109775
0.0052844766 -0.23503955 0.67166674 12176081
0.014603773 -0.23539071 0.67075598 12175825
0.025007706 -0.23477097 0.67053473 12175825
0.035101622 -0.23542395 0.67052364 12044239
0.044381384 -0.23528229 0.6711536 11715530
0.054273084 -0.23508194 0.67395359 11649735
0.061506506 -0.23774102 0.67825001 11386305
-0.0024231013 -0.22757022 0.67699999 12241105
0.0053070276 -0.22531892 0.67482626 12241361
0.014733953 -0.22505644 0.67238116 12307154
0.024936605 -0.22478661 0.67157161 12175825
0.035176139 -0.22490557 0.6719287 12110031
0.044925757 -0.22521098 0.67450011 11846858
0.052129813 -0.22754155 0.6776154 11715015
0.0077151335 -0.21829766 0.67799997 12307411
0.015110353 -0.21573745 0.67628944 12241874
0.025050698 -0.21476308 0.6746735 12241616
0.035367426 -0.21504971 0.67557138 12110029
0.043751914 -0.21622685 0.67796302 11912137
0.018854674 -0.2097901 0.67900002 12176079
0.025861645 -0.20902483 0.67866665 12110286
0.035063449 -0.20912337 0.67889994 12110286
0.041108388 -0.2097901 0.67900002 11386563
-0.034206834 -0.32234254 0.68414295 10858940
-0.028119907 -0.32359883 0.68100011 10661817
0.14941759 -0.32232746 0.68000001 8555667
0.15174174 -0.32184106 0.68150008 9213597
-0.040974431 -0.31377634 0.68842858 11188417
-0.034458872 -0.31505656 0.68397301 11517125
-0.027639661 -0.31432113 0.68093336 11846090
0.14820264 -0.31444365 0.68081254 10134957
0.15243417 -0.3151111 0.68253857 10135212
-0.050188534 -0.30218029 0.68850005 11057346
-0.043999001 -0.30452457 0.68665397 11188931
-0.034494258 -0.30472663 0.68302697 11254466
-0.02741771 -0.30549932 0.68100005 11451845
0.14783312 -0.30439448 0.6813044 10530227
0.152136 -0.30453604 0.68245465 10727090
-0.053737484 -0.29444718 0.68768007 11451587
-0.044408485 -0.2950207 0.68425012 11451332
-0.03456898 -0.29470563 0.68238872 11319745
-0.028170038 -0.295825 0.68045461 11385539
0.11607315 -0.29070261 0.68049991 12767703
0.12483501 -0.29070261 0.68050009 12504791
0.13537644 -0.29271978 0.68108702 12043726
0.1447185 -0.29487213 0.68334997 11648197
0.15172799 -0.2965351 0.68478572 10858677
-0.061769661 -0.28378141 0.6888333 11714247
-0.055660948 -0.28490621 0.68636113 11517124
-0.045145072 -0.28507647 0.683689 11253953
-0.034981631 -0.28516331 0.68165618 11122881
-0.028874325 -0.28969368 0.68000001 11319746
0.097439922 -0.28127223 0.68016666 11648451
0.10543542 -0.28481081 0.68104881 11977417
0.1154208 -0.28474742 0.68269038 12569556
0.12537941 -0.28439891 0.6838479 12504276
0.13482913 -0.2848101 0.68454558 12175825
0.14184582 -0.28779647 0.68649995 12504277
-0.061515715 -0.27901122 0.68900001 12043469
-0.055303741 -0.27535057 0.68691659 11911883
-0.044817921 -0.27478793 0.68357784 11648968
-0.036329418 -0.27526596 0.6813637 11583175
0.096423507 -0.2746107 0.68081814 11516867
0.10469535 -0.27478698 0.68324989 11714244
0.11373621 -0.27643076 0.68622583 12043211
0.12351041 -0.27900845 0.68820006 12569813
0.13194384 -0.27921084 0.68850005 12635606
-0.052423015 -0.26605678 0.68783337 11846603
-0.044486631 -0.26479045 0.68464106 11846346
-0.035688344 -0.26459128 0.68161285 11846090
0.08806067 -0.26182058 0.68099999 11714242
0.095197856 -0.26471284 0.68254751 11582656
0.10364948 -0.26631972 0.6864 11582915
-0.050224982 -0.25965568 0.68900001 12108748
-0.043788176 -0.25540644 0.68625712 12043212
-0.034403611 -0.25507191 0.68242109 11911883
-0.027757771 -0.2527262 0.68100011 11977676
0.078409187 -0.2512643 0.6808334 11122366
0.085620716 -0.25457796 0.68234199 11451072
0.09396261 -0.25621045 0.68618518 11714244
-0.042100154 -0.24800329 0.68800008 12043469
-0.034641858 -0.24538544 0.68530953 12043469
-0.025256049 -0.24483424 0.68251276 12043469
-0.018103257 -0.24235047 0.68066669 11978446
0.06783358 -0.24317667 0.68080008 11451330
0.075427465 -0.24469858 0.68256801 11385537
0.084729053 -0.24564978 0.68541193 11319743
0.091133595 -0.24824399 0.68866664 11517122
-0.032004789 -0.23752308 0.68818194 11977676
-0.025067994 -0.23506169 0.68509763 11911883
-0.016236082 -0.23454612 0.68193924 12043469
-0.0097716181 -0.23079365 0.68000001 12175055
0.058177877 -0.23143744 0.68033338 11517379
0.065178387 -0.23437002 0.68184859 11320000
0.074144885 -0.23511441 0.68495005 11320000
0.080929063 -0.23859172 0.68780005 11253950
-0.02414107 -0.22498527 0.68657583 11780296
-0.015236396 -0.22515434 0.68333334 12043468
-0.0060583455 -0.22390336 0.68159997 12240848
0.0013716273 -0.22124231 0.68000001 12240848
0.05582248 -0.22413152 0.68136668 11385793
0.064617209 -0.22508451 0.68402445 11188414
0.072051071 -0.22686157 0.68706673 11451072
-0.022308212 -0.21694641 0.68860006 11911883
-0.015481166 -0.21513879 0.6859287 11977933
-0.0050209318 -0.21499315 0.68290907 12110032
0.004842659 -0.21432579 0.68108815 12241874
0.013226211 -0.2110521 0.68022227 12373717
0.047156151 -0.21266377 0.68025005 11714758
0.054702796 -0.21502586 0.6820789 11188414
0.063979365 -0.21554315 0.68609381 11253950
-0.014449476 -0.20635766 0.68787503 11978189
-0.004937029 -0.2051179 0.68497926 12110032
0.0051866826 -0.20489675 0.6826666 12241618
0.014941848 -0.20507671 0.68183321 12241618
0.024292193 -0.20434646 0.68106228 12241617
0.035030745 -0.20431952 0.68110806 12044494
0.045253251 -0.20499289 0.68155557 11715272
0.054992586 -0.20480549 0.68359524 11188413
0.062682077 -0.20588574 0.68720001 11319741
-0.0027412265 -0.19768913 0.68806249 12175825
0.0057267807 -0.19512524 0.6858049 12175825
0.014982123 -0.19522399 0.68366671 12307411
0.024562554 -0.19504048 0.68302393 12110032
0.034967966 -0.19510294 0.68324476 11978446
0.045417193 -0.19532482 0.68402386 11715274
0.054902356 -0.19516817 0.68691671 11122621
0.061069351 -0.19916962 0.68900001 11188155
0.0084785782 -0.1885201 0.68840009 12241617
0.015651075 -0.18662946 0.68758625 12241618
0.02469171 -0.18481302 0.68661904 12044239
0.034848746 -0.18514298 0.68706518 11912653
0.045272071 -0.18483941 0.68751109 11583688
0.0523839 -0.18665443 0.68854553 11254208
0.025584202 -0.17900759 0.68900001 11912909
0.031229567 -0.17900759 0.68900001 11913166
0.043326776 -0.17900759 0.68899995 11913166
-0.053452998 -0.32136211 0.69425011 10135472
-0.045178987 -0.32279903 0.69280958 11055804
-0.064087577 -0.31422573 0.69529992 10662073
-0.054845925 -0.31459472 0.69402945 10728123
-0.045638062 -0.31525725 0.69180006 11122625
-0.073779173 -0.30542642 0.69619352 10727864
-0.06453564 -0.30479905 0.69420004 11188414
-0.054794569 -0.30521151 0.6921072 10991295
-0.048167665 -0.30810222 0.69033337 11188932
-0.080063529 -0.29325134 0.69600004 7963530
-0.074284554 -0.29500514 0.69482356 11187647
-0.064848393 -0.29497766 0.69240004 11517124
-0.058012571 -0.29679501 0.69050002 11320000
0.14845602 -0.29140219 0.69033337 10595507
0.15315987 -0.29198429 0.69300008 10332332
-0.075813003 -0.28524569 0.69436121 11384768
-0.066532366 -0.28497529 0.69135493 11713989
0.13869251 -0.28103146 0.69000006 11715276
0.14595255 -0.28454104 0.69356757 11385281
0.15261601 -0.28651395 0.69653344 10398383
-0.080178559 -0.27409002 0.69700003 8226702
-0.074423797 -0.27514869 0.69497663 11713734
-0.064709961 -0.27476636 0.69217652 11977676
-0.059451263 -0.27295497 0.69000006 12109262
0.11663481 -0.27283782 0.69150013 11977674
0.12537822 -0.27400047 0.69323254 12504020
0.13548933 -0.27474269 0.69344449 12241362
0.14425994 -0.27577248 0.69625002 11714503
0.15103042 -0.27958786 0.69850004 10727349
-0.080293596 -0.26794949 0.69800001 8095629
-0.073682137 -0.26473075 0.69577414 11779785
-0.064461648 -0.26523957 0.69345957 11977677
-0.05648867 -0.26358262 0.69084215 11977419
0.10672604 -0.26351631 0.69161117 11517380
0.11475514 -0.26477787 0.69460976 11583174
0.12397815 -0.26604167 0.69686663 12240848
0.13446522 -0.26771349 0.69738895 12372434
0.1407782 -0.26891014 0.69766665 12306640
-0.073128469 -0.25642079 0.69695467 12043212
-0.064381137 -0.25523329 0.6948536 12043470
-0.054722376 -0.25484043 0.6928001 12043469
-0.048167665 -0.25234661 0.69033337 12043469
0.09734834 -0.25325775 0.6913572 11648451
0.10471284 -0.25502563 0.69429272 11582915
0.11330387 -0.25715485 0.69688231 11517379
-0.063387997 -0.24573095 0.69689286 12043469
-0.054521248 -0.24495418 0.69450003 12109262
-0.045412548 -0.24413411 0.69217157 11911883
-0.038471166 -0.24130361 0.69033337 11911883
0.087823197 -0.24168929 0.69100004 11451329
0.095079869 -0.24462697 0.69389749 11517121
0.1030962 -0.24739243 0.69686675 11517122
-0.060772169 -0.23887871 0.69900006 12175057
-0.054126889 -0.23638037 0.69696552 12109005
-0.044942059 -0.23491727 0.6945526 11911882
-0.035909738 -0.23423389 0.69187886 11714759
0.078983508 -0.2319321 0.69050002 10991035
0.085093454 -0.23465219 0.69276321 11253950
0.093765087 -0.23557566 0.69649994 11385278
-0.05095394 -0.22906049 0.69900006 12174795
-0.044910002 -0.22535931 0.6961388 11648453
-0.035000309 -0.22482219 0.69302714 11582918
-0.029074257 -0.22477247 0.69014293 11714504
0.076297455 -0.22421627 0.69189662 11385535
0.085394286 -0.22507447 0.69521064 11188155
0.091721401 -0.22758801 0.69825006 11188155
-0.043726724 -0.21535884 0.69646424 11320259
-0.035142474 -0.21514104 0.69369447 11451845
-0.026368694 -0.21443504 0.6910001 11714760
0.068893388 -0.21378455 0.69062501 11385278
0.075142778 -0.2151795 0.69332445 11122619
0.084421188 -0.21524133 0.6961562 11122619
-0.042037327 -0.20625454 0.69723076 11385796
-0.035289865 -0.20498803 0.69465852 11452102
-0.025247782 -0.20520741 0.69254053 11715018
-0.017024331 -0.2028262 0.6907779 11846860
-0.0099153193 -0.20026635 0.69000006 11912653
0.067303464 -0.20431602 0.69147617 11319741
0.075517654 -0.20504457 0.69485366 11188412
0.083029211 -0.20646693 0.69731247 11122619
-0.041116092 -0.19542004 0.69866675 11715275
-0.035153009 -0.19484325 0.69605392 11715018
-0.025422135 -0.19503367 0.694381 11781067
-0.015642369 -0.19469774 0.69319069 11978445
-0.0062556923 -0.19384453 0.69191676 12110288
0.0019302325 -0.19111298 0.69000006 12175825
0.058913827 -0.19192204 0.69020003 11056828
0.065691493 -0.1946584 0.69305009 11253950
0.074353606 -0.19567402 0.69644445 11385535
-0.034604497 -0.18691015 0.69782615 11780553
-0.025384268 -0.18514872 0.69651431 11911883
-0.015685828 -0.18466091 0.6951111 11978189
-0.0048838723 -0.18472742 0.69393349 12175825
0.0051460112 -0.18418093 0.6920265 12176080
0.013825337 -0.18237084 0.69046152 12241618
0.05690252 -0.1841799 0.69172424 11188159
0.065526292 -0.18468547 0.69462156 11319745
0.072779708 -0.18618621 0.69776917 11385794
-0.022034453 -0.17933804 0.69866675 11846603
-0.013931674 -0.17649035 0.69750011 11912397
-0.0044518486 -0.17511532 0.69554049 12044239
0.0054637566 -0.17470947 0.69436121 12110031
0.015190344 -0.17522351 0.69319057 12044239
0.024772502 -0.17424412 0.69191909 11978446
0.03474896 -0.17458394 0.691625 11847117
0.04479776 -0.174841 0.69214296 11649737
0.055017818 -0.17497075 0.69402379 11320001
0.064884216 -0.17516336 0.69637495 11254208
0.070879906 -0.17814159 0.69825 11583173
-0.0031671661 -0.16663626 0.69772005 11912653
0.0054815793 -0.16467927 0.69664294 11978446
0.015145507 -0.16522065 0.69613498 11978446
0.025186295 -0.16473563 0.69585001 11978446
0.034798566 -0.16449127 0.69585735 11846860
0.04441411 -0.16505346 0.69605261 11649481
0.053890873 -0.16706824 0.6969583 11320258
0.061522998 -0.16920537 0.69780004 11122621
0.15395874 -0.28209379 0.70066673 9937833
0.14763303 -0.27188882 0.70100003 10727604
0.15228616 -0.27582434 0.70253342 10069418
0.1266308 -0.26200235 0.70114291 12372434
0.13523783 -0.26307127 0.70213801 12306641
0.14515208 -0.26517153 0.70399994 11451329
0.15113226 -0.26464275 0.70662498 10924212
-0.07567472 -0.25241703 0.70227778 11385281
0.10956701 -0.25069141 0.70000005 11517379
0.11602817 -0.25371045 0.70220011 11583172
0.12478372 -0.25534573 0.70494986 11977931
0.13424689 -0.25549424 0.70675009 12109262
0.14400834 -0.25851652 0.7076875 11517124
-0.074375659 -0.24566379 0.70528126 11385026
-0.067795992 -0.24373822 0.70181245 11977420
0.10611285 -0.24412414 0.70215386 11582658
0.11486215 -0.24496819 0.70592296 11582915
0.12408981 -0.24694422 0.70769238 11780552
0.1308931 -0.24893527 0.70900005 12175055
-0.073533006 -0.23540412 0.70762509 11845832
-0.065454073 -0.23502587 0.70421952 12174542
-0.057075713 -0.23248377 0.70131254 12174541
0.097997874 -0.23376192 0.70125008 11319484
0.104988 -0.23481058 0.70542109 11451072
0.11283264 -0.23602967 0.70786363 11714244
-0.072673127 -0.22669795 0.70866674 11780294
-0.06533505 -0.22493932 0.70702565 11977932
-0.055429686 -0.22492583 0.70353848 11911883
-0.049388126 -0.22201395 0.70000005 11714504
0.095641091 -0.22486256 0.70342857 11319741
0.10460076 -0.2251199 0.70733339 11253949
0.11097573 -0.22901788 0.70900005 11517379
-0.063263774 -0.21797864 0.70857143 11781322
-0.055576336 -0.21515658 0.7062369 11583688
-0.048810378 -0.21441239 0.70150012 11188930
0.08962933 -0.21545911 0.70000005 10925240
0.0949836 -0.21505415 0.70412111 11122618
0.10387699 -0.21503544 0.70746434 11254204
-0.054824919 -0.20498128 0.70735496 11057344
-0.046893172 -0.20484117 0.70315391 11123137
0.086556025 -0.2037818 0.70152634 10990777
0.094870202 -0.20518388 0.70515788 11056569
0.10280766 -0.20540616 0.70771432 11385277
-0.054097686 -0.19486727 0.70715392 10925759
-0.046049595 -0.19500539 0.70287496 11254724
0.077793181 -0.19232213 0.70057148 11253693
0.084738128 -0.19506316 0.70382047 11056570
0.094554171 -0.19523142 0.7070263 11122361
0.1015228 -0.19849491 0.70866674 11319741
-0.055161215 -0.18430519 0.70700002 11320004
-0.045480192 -0.18506838 0.70283335 11780298
-0.036387108 -0.18240562 0.70042104 11911883
-0.027757114 -0.18055454 0.70000005 11912396
0.076674066 -0.18409407 0.70126313 11451331
0.08479733 -0.18486778 0.70521051 11122365
0.092836641 -0.18531087 0.70789474 11056570
-0.055023301 -0.17475346 0.70716119 11583688
-0.045776855 -0.17516907 0.70451283 11715017
-0.035602 -0.1751876 0.70280534 11781067
-0.025814813 -0.17484118 0.70188552 11715274
-0.016627859 -0.17265928 0.70054996 11781067
0.068085618 -0.17102189 0.70033336 11648965
0.075197428 -0.17453924 0.70333332 11451586
0.084522113 -0.17523092 0.70705712 11386050
0.091058344 -0.17839453 0.70900005 11122621
-0.054018792 -0.16487135 0.70795459 11649735
-0.045500308 -0.16489676 0.70615381 11715529
-0.035730004 -0.16508514 0.70533323 11781323
-0.025177317 -0.1647072 0.70446807 11781067
-0.014668355 -0.16520201 0.70284998 11846603
-0.0060171164 -0.16312163 0.700647 11846860
0.016160384 -0.16056223 0.70000005 12044239
0.021895878 -0.16056223 0.70000005 11912653
0.046476565 -0.16056223 0.70000005 11649224
0.055492491 -0.16265231 0.70116669 11254208
0.064990714 -0.16439904 0.703475 11320000
0.074805848 -0.1649076 0.70620519 11385793
0.082848877 -0.16516244 0.70826322 11386306
-0.051466309 -0.15658182 0.70887506 11649224
-0.044975594 -0.15491758 0.70791185 11583174
-0.035543293 -0.15479098 0.7064411 11517638
-0.025017759 -0.15448496 0.70592839 11715016
-0.014098333 -0.15491162 0.70524991 11846346
-0.0043503391 -0.1549117 0.70414287 11912395
0.0055375025 -0.15479912 0.7036429 11978188
0.015427638 -0.15487425 0.70397609 12044238
0.025082108 -0.15500121 0.70282048 11978445
0.035100166 -0.15524018 0.70188868 11978443
0.045124412 -0.15475434 0.70287812 11781320
0.055022176 -0.15498745 0.70447612 11649221
0.065058716 -0.15450613 0.70602769 11648965
0.075022347 -0.1549623 0.70757151 11583173
0.082061201 -0.15658468 0.70870006 11451586
-0.042258158 -0.14706556 0.70866668 12043723
-0.034311045 -0.14480983 0.70768589 12043723
-0.024386702 -0.14491409 0.70708126 11978444
-0.014301453 -0.14482515 0.70719445 11912907
-0.0043688542 -0.14487678 0.70744455 11978700
0.0055670589 -0.14488867 0.70750016 12044493
0.015480382 -0.14466839 0.70641649 12044493
0.025551388 -0.14487419 0.70525634 12044494
0.035249259 -0.14517193 0.70485723 11912908
0.044631265 -0.14522882 0.705625 11715528
0.055274673 -0.14526394 0.70706248 11649222
0.064676493 -0.14648563 0.70787495 11714758
0.073026806 -0.14869016 0.70850009 11714758
-0.033425294 -0.13938966 0.70900005 11978700
-0.026786169 -0.13938966 0.70900005 12044493
-0.011018241 -0.13938966 0.70900005 11978700
0.007788436 -0.13877086 0.70866674 12044493
0.01625208 -0.13735026 0.70799994 12044493
0.025419906 -0.13648765 0.70687503 11912907
0.035064649 -0.13677269 0.70718187 11781320
0.042664807 -0.1377659 0.70812505 11649735
0.15083364 -0.26013663 0.71700001 10925240
0.13746352 -0.25175491 0.71149999 11649224
0.14438973 -0.25442126 0.71568006 11253951
0.15102319 -0.2592591 0.71000004 10924213
0.12639609 -0.24263048 0.71170592 11912137
0.13527338 -0.24501796 0.71548718 11846345
0.14168356 -0.2470585 0.71883339 12175309
-0.076687627 -0.23266514 0.71000004 10595761
0.11781854 -0.23430276 0.71133345 11517122
0.12504776 -0.23544432 0.71524233 11648709
0.13461122 -0.23514721 0.71845722 11648710
-0.074485563 -0.22427557 0.71049994 10792885
0.10947013 -0.22186133 0.71000004 11451584
0.11495981 -0.22501373 0.71209681 11451586
0.12493736 -0.22530882 0.71665782 11582915
0.13427487 -0.22476438 0.71882755 11714244
-0.0729075 -0.21546616 0.71529996 11122364
-0.065757453 -0.21401553 0.71262068 11649481
0.10913169 -0.21453248 0.7105 11319741
0.11503641 -0.21523397 0.71390319 11254205
0.12491163 -0.21525419 0.71752793 11714757
0.13307591 -0.21491115 0.71899992 11451586
-0.071167417 -0.2050765 0.71899998 11583171
-0.064590715 -0.2050786 0.71470273 11583429
0.10814796 -0.20448254 0.71094126 11648449
0.11500178 -0.20492201 0.71403235 11516864
0.12457114 -0.20525458 0.7167058 11254207
0.13335134 -0.20416933 0.71899992 11319744
-0.064761661 -0.19520104 0.71586108 11188414
-0.058404278 -0.19443631 0.71000004 10794172
0.099497385 -0.19194312 0.71000004 11188153
0.10548276 -0.1949625 0.71230304 11517376
0.11480127 -0.19498533 0.71579397 11583171
0.12509544 -0.19506598 0.71800005 11517379
0.13223431 -0.19622771 0.71899998 11451842
-0.070926957 -0.18427706 0.71900004 10596790
-0.064886898 -0.18537249 0.71454841 10662584
0.098074622 -0.18464366 0.71105564 11253950
0.10502531 -0.184954 0.71438712 11517378
0.11500999 -0.18526797 0.71752632 11451586
0.12353999 -0.18465532 0.71896142 11188671
-0.07167504 -0.17464547 0.71899998 10924729
-0.06466075 -0.17518362 0.71448648 11122623
0.089012645 -0.17180097 0.71033335 11123134
0.095311597 -0.17512003 0.71257579 11188414
0.1046302 -0.17497084 0.71585703 11122621
0.11472964 -0.17539713 0.71811777 11188928
0.12179853 -0.17586109 0.71899998 10991550
-0.072588235 -0.16571122 0.71877778 11254722
-0.064665653 -0.16507204 0.71480554 11583686
-0.058178578 -0.16478798 0.71014291 11649479
0.088041604 -0.16525424 0.71064711 11320770
0.095030352 -0.16495161 0.71467739 11320514
0.10481477 -0.16551656 0.71794444 11451844
0.11432087 -0.16540173 0.71889991 11254208
-0.072560444 -0.15555488 0.71850008 10991549
-0.064647652 -0.15514643 0.71589202 11254722
-0.055666335 -0.15460885 0.71139294 11385795
0.079551913 -0.15122113 0.71000004 11648711
0.086591281 -0.15495831 0.7116155 11451843
0.094917037 -0.15488106 0.71645457 11517379
0.10494312 -0.15562619 0.71883333 11451586
0.11368859 -0.15681046 0.71899992 11385793
-0.07164216 -0.14671063 0.71866667 11254207
-0.064829029 -0.14508975 0.71666688 11649222
-0.054427575 -0.145036 0.71228951 11780808
-0.045680385 -0.14407587 0.71028584 12043724
0.058775377 -0.14124838 0.71000004 11583942
0.066607967 -0.14207983 0.71140009 11649222
0.075437486 -0.1445179 0.71300006 11583172
0.084579244 -0.14524777 0.71602708 11517378
0.094142042 -0.14636186 0.71850002 11517122
0.10335992 -0.1485475 0.71899992 11517379
-0.064614609 -0.13560051 0.71796966 11780551
-0.054409202 -0.13489261 0.71434212 11912907
-0.044412602 -0.13500768 0.71216655 11912652
-0.034525752 -0.13435259 0.7122972 11847115
-0.024379024 -0.13507706 0.71321958 11847114
-0.014604236 -0.1350857 0.71395004 11912907
-0.0044081593 -0.13528216 0.71366662 11978701
0.0052429442 -0.13448413 0.71336108 11847115
0.015073103 -0.13282847 0.71316677 11846856
0.025626497 -0.13175438 0.71261114 11715270
0.035808757 -0.13234252 0.71342105 11583426
0.045623429 -0.13412499 0.71455175 11517891
0.055122264 -0.13549867 0.71547496 11517635
0.064518541 -0.13519254 0.71686101 11451841
0.074216917 -0.13590255 0.7180323 11583684
0.08342962 -0.13808176 0.71885717 11846341
-0.062608577 -0.12738 0.71849996 11978444
-0.05469222 -0.12622513 0.71700007 11978446
-0.044680506 -0.12660228 0.71649998 11781067
-0.035002984 -0.12729369 0.71754998 11583687
-0.024943966 -0.12844045 0.71846145 11781321
-0.01514117 -0.12933287 0.71899998 11978699
-0.0035992817 -0.12915254 0.71899998 11518149
0.0056571309 -0.12871671 0.71891665 11386305
0.015746465 -0.12864161 0.71849996 11780547
0.025434803 -0.12861162 0.7179091 11846338
0.034633733 -0.12857328 0.71854544 11451325
0.042688496 -0.12957332 0.71900004 11583168
0.15293732 -0.26206288 0.72700006 10858420
0.14874046 -0.25316516 0.72314292 10595761
0.1512354 -0.25695321 0.727 10858932
0.14509098 -0.24460888 0.72261912 10793656
0.13966601 -0.23257105 0.72000003 11253953
0.14491104 -0.2351952 0.72441679 10858937
0.13945292 -0.22442797 0.7201429 10990522
0.14479627 -0.22499481 0.72472006 10793142
-0.076187871 -0.2109517 0.72100002 9740714
0.13828786 -0.21460047 0.72049999 11122621
0.14489505 -0.21510485 0.72560883 10464434
-0.074817277 -0.20560984 0.72300011 10201261
0.13854519 -0.20536318 0.72042859 10727864
0.14516664 -0.20501335 0.72556001 10398640
-0.072441593 -0.19484043 0.72207153 11122363
0.1360027 -0.19411758 0.7205714 11122877
0.14335683 -0.19485553 0.72550005 10727606
-0.073756173 -0.18528886 0.72360009 10399154
0.12878667 -0.18415028 0.72000009 11386049
0.13491182 -0.18494156 0.72160012 11122621
0.14305374 -0.18516077 0.72668189 10924984
-0.074270748 -0.17619419 0.72149998 10398127
0.12629384 -0.17422825 0.72062957 11188928
0.13541865 -0.17496932 0.72430313 11451586
0.14278343 -0.17516802 0.72837508 11582914
-0.076462612 -0.16598062 0.72360009 9477539
0.11943962 -0.16290234 0.72000003 11253951
0.12471275 -0.16458854 0.72123331 11122878
0.13487215 -0.16508856 0.72591668 11451587
0.14421065 -0.16434704 0.72900003 11846343
-0.076293543 -0.15490378 0.72200006 8490641
0.11717298 -0.15278415 0.72031254 11320000
0.12479345 -0.15455514 0.72170007 11254207
0.13408926 -0.15561157 0.72689998 11320001
0.14311844 -0.15868108 0.72900003 11780296
-0.073433414 -0.14466003 0.72380006 11122364
0.097208083 -0.1418388 0.72075009 11977414
0.10571465 -0.14413987 0.72193104 11583170
0.11486545 -0.14518216 0.72391677 11583171
0.12428115 -0.14674146 0.72623813 11517377
0.13099229 -0.1490888 0.72800004 11385791
-0.071346208 -0.13540167 0.72325003 11582658
-0.069014996 -0.13162103 0.72100002 11648707
0.077394657 -0.13135307 0.7208572 11385791
0.085778959 -0.13374163 0.72303694 11583169
0.094345041 -0.13676652 0.72520846 11648961
0.10386626 -0.13865465 0.72780001 11517376
0.11239961 -0.13990846 0.72900003 11648963
-0.071913429 -0.12710895 0.72900003 11780294
-0.065745808 -0.12474851 0.72345454 11715015
-0.055462144 -0.12159991 0.72366679 10991034
-0.045171652 -0.1220588 0.72438896 10991033
-0.034551479 -0.12346742 0.72393751 10925240
-0.024820717 -0.12458097 0.72427267 11188668
-0.014283986 -0.12591761 0.72383332 11254459
-0.0045607849 -0.12500601 0.72420692 12043720
0.0054560709 -0.12397584 0.72428578 12043719
0.015254436 -0.12459789 0.72366685 11912389
0.024541648 -0.12450539 0.72447824 11978180
0.034364052 -0.12477978 0.72478271 11977924
0.044784557 -0.12667631 0.72404009 11780547
0.054894805 -0.12802722 0.72458321 11714755
0.065033212 -0.12795274 0.72416681 11714754
0.074529506 -0.12836586 0.72488892 12043720
0.083615705 -0.12914965 0.72800004 11978441
0.15491645 -0.26160061 0.73366672 9345180
0.15374126 -0.25500095 0.7344445 9937573
0.15202698 -0.24585886 0.73454547 10727603
0.15148291 -0.23462403 0.734375 10530225
0.15198319 -0.22508313 0.73509097 10332332
0.15153144 -0.21490513 0.73290914 10003625
-0.078379825 -0.20320196 0.73199999 8095623
0.15265858 -0.2043885 0.73381251 10003109
-0.077732913 -0.1949252 0.73328578 8227468
0.14854327 -0.19577326 0.73049998 10201264
0.15273133 -0.19446254 0.73416656 9674919
-0.07756158 -0.18898065 0.73400003 8227213
0.14800751 -0.1847022 0.73066664 10398383
0.1526168 -0.18458922 0.73362505 9805990
-0.077350244 -0.17989759 0.73200005 8489872
0.14730808 -0.17474826 0.73042864 10858420
0.15307195 -0.17487346 0.73363161 9608354
0.14814048 -0.16646443 0.73019999 11253692
0.15372488 -0.16497004 0.73222226 10661298
0.16065177 -0.16085778 0.73900002 10397869
0.13824201 -0.15261044 0.7302857 11451585
0.14504592 -0.15415715 0.73100007 11517122
0.15428777 -0.15503548 0.73287117 11188155
0.16065177 -0.15826276 0.73900002 11253434
-0.073721014 -0.14010037 0.73000002 10134699
0.11773513 -0.14016433 0.73033333 11385793
0.12631328 -0.14258361 0.73105556 11451584
0.13517579 -0.14457729 0.7324999 11517376
0.14510903 -0.14511855 0.73486489 11582656
0.15328482 -0.14615288 0.73685002 11582912
-0.074023977 -0.13123831 0.73300004 10332076
0.095743969 -0.13179074 0.73131251 11978698
0.10548257 -0.1338111 0.73180646 11846598
0.11512468 -0.13480908 0.73251539 11912392
0.12482415 -0.13471256 0.73454553 11846342
0.13469887 -0.13610488 0.73676676 11714756
0.14293888 -0.13869974 0.73814285 11451068
-0.072119914 -0.12508258 0.73357147 11253952
-0.066682927 -0.12133163 0.73314285 10991034
-0.034307171 -0.12083476 0.73177773 11911876
-0.024750758 -0.12094825 0.73184609 11780290
-0.015640873 -0.12172268 0.73107147 12175048
-0.0053676339 -0.12136847 0.73039997 12306891
0.0083082551 -0.121302 0.73000002 12044491
0.014297641 -0.12135739 0.73033333 12044491
0.024576835 -0.12146818 0.73100001 11978697
0.035448067 -0.12168857 0.73085719 11978439
0.045863904 -0.12217359 0.73113334 11781060
0.05547281 -0.12252345 0.73220849 11583425
0.065163098 -0.12268231 0.73242867 11583169
0.074933268 -0.12315106 0.73361546 11386047
0.085196257 -0.12532394 0.73393118 11517890
0.094898656 -0.12616973 0.73580772 11518147
0.10468802 -0.12712865 0.73668426 11518147
0.11396025 -0.12850448 0.73800004 11649733
0.1225915 -0.12971756 0.73900002 11649733
-0.063300222 -0.11917599 0.73800004 10662066
-0.054097828 -0.11873591 0.73378575 12043463
-0.045593038 -0.11914792 0.73341674 12438220
-0.036338132 -0.11901901 0.73437506 12635856
-0.0245892 -0.11853665 0.7355715 12372684
-0.014120858 -0.11819977 0.73531246 11978184
-0.0042477828 -0.11720329 0.73411125 11781576
0.0049104663 -0.11750589 0.73299998 11650248
0.014324115 -0.11756425 0.73360872 11584455
0.024323482 -0.11813326 0.73369998 11255489
0.035214964 -0.11790884 0.73482615 11255488
0.045059495 -0.1176201 0.73518187 11386817
0.054578345 -0.11756398 0.73707688 11649989
0.063789219 -0.11835551 0.73720002 11320511
0.070595473 -0.11917599 0.73800004 9477794
0.15804258 -0.2608729 0.74300003 6779252
0.16064216 -0.26140296 0.74700004 6779252
0.15799344 -0.25543374 0.74440002 6581616
0.16096473 -0.25842279 0.74849999 6779507
0.15666685 -0.24553916 0.74471432 7305593
0.15513264 -0.2345027 0.74214286 9213850
0.15759428 -0.22561972 0.74557143 8160648
0.15609284 -0.21188481 0.74200004 10464175
0.15794669 -0.20540781 0.74371427 10463403
0.16069593 -0.20376357 0.74725008 7765888
-0.081595488 -0.19637857 0.74466676 8293258
0.15821274 -0.19498679 0.74380004 10464432
0.16110739 -0.19432724 0.74712497 9410973
-0.080143973 -0.18409224 0.74200004 8160905
0.15810907 -0.18437651 0.74214286 10200747
0.16160631 -0.18505886 0.74660003 8555408
0.15916376 -0.17625315 0.7424286 9608353
0.1631211 -0.17440124 0.74677783 7568770
0.15935186 -0.16996659 0.74100006 10069417
0.16360344 -0.16501497 0.74515384 8686994
0.16375211 -0.15485898 0.74521428 10397867
0.15714754 -0.14369763 0.74228579 11648448
0.16224673 -0.14497872 0.74633336 8753044
-0.078154996 -0.13238084 0.74619997 8424333
0.13607113 -0.13107057 0.74122226 11648965
0.14548931 -0.13407333 0.74296427 11319741
0.15425965 -0.13681483 0.74594742 11188154
-0.073187575 -0.12316756 0.74540007 9806503
-0.068897888 -0.12077004 0.74250007 10004138
0.079878002 -0.1201449 0.74400002 11386561
0.085368916 -0.12079707 0.74218184 10268593
0.095374189 -0.1211226 0.74261546 11911878
0.10535786 -0.12220805 0.74295241 11846599
0.11562816 -0.12377115 0.74279988 11847113
0.1251961 -0.12478209 0.74329424 11846856
0.13479111 -0.12477598 0.74494296 11583683
0.14390671 -0.1273725 0.74700004 11319998
-0.064442128 -0.11827747 0.74566674 10990518
-0.055436719 -0.11658718 0.74514288 11911878
-0.044423848 -0.11661891 0.74441183 12175047
-0.03478856 -0.116685 0.74487507 12175561
-0.025503296 -0.11669628 0.74425012 12241868
-0.014681275 -0.11469886 0.74511117 11978952
-0.0051204739 -0.11290724 0.74453342 11123644
0.0051127514 -0.11312468 0.74450004 11124157
0.014601505 -0.11345288 0.74583346 11256002
0.025028424 -0.11441824 0.74455571 11716039
0.035162896 -0.11435357 0.74469244 11781832
0.044839319 -0.11337809 0.74606252 10728630
0.054877501 -0.11387977 0.74563169 10728886
0.06512174 -0.11558196 0.74455559 11978697
0.074734218 -0.1181767 0.74480003 11385790
0.08544866 -0.11829615 0.74700004 10598328
0.095064968 -0.11800489 0.74700004 11846855
0.10497098 -0.11867559 0.74728578 12110027
0.11524498 -0.11760672 0.74746168 11386302
0.12437762 -0.11770891 0.7475 10267566
0.13295908 -0.11914585 0.7486667 9476764
0.16350642 -0.25491405 0.75581819 6844785
0.1596379 -0.24681476 0.75050008 6976115
0.1630507 -0.24490976 0.75819999 6845042
0.1598506 -0.23834842 0.75150001 6647923
0.16367768 -0.23461826 0.75744444 6779505
0.16346039 -0.22585395 0.75680006 6910065
0.16467351 -0.21365392 0.75750005 6779248
0.16621003 -0.2054366 0.7575714 6778736
0.1661599 -0.19495493 0.75550002 6647663
0.16682394 -0.18502468 0.75481814 6712690
0.17033009 -0.18475632 0.75900006 6778737
0.16741316 -0.17467715 0.7538572 6647410
0.17015056 -0.17568773 0.75819999 6647409
0.16899104 -0.16601668 0.75460005 6581616
0.17210692 -0.16432276 0.75900006 6647921
0.16866016 -0.15297918 0.75416666 6910578
0.17210692 -0.15188491 0.75900006 6910064
0.16693108 -0.14432344 0.75433344 6976632
0.17021787 -0.14468105 0.75849998 6779252
0.15625647 -0.13295846 0.75438464 9543072
0.16359387 -0.13776329 0.75660002 9345694
-0.076515675 -0.1228784 0.75550008 9016986
0.14605598 -0.1231996 0.75444442 10069673
0.15251857 -0.12664577 0.7579 9674915
-0.072113618 -0.11885671 0.75800002 8227213
-0.064511254 -0.11623757 0.75607705 10201517
-0.054684103 -0.11346671 0.75576913 10530482
-0.045314483 -0.11307792 0.75500005 10267307
-0.035194043 -0.11343148 0.75587499 10333873
-0.024593614 -0.11340839 0.75538468 10597301
-0.015891403 -0.11194649 0.75561535 9675942
-0.0046428163 -0.11072668 0.75099999 10005164
0.005047726 -0.11102156 0.75299996 10333612
0.014821363 -0.11073518 0.75708342 9083289
0.025846016 -0.11119043 0.75568759 8820376
0.035101403 -0.11129957 0.75493342 8754583
0.044222739 -0.11099572 0.7548334 7503747
0.055953715 -0.11135662 0.75357145 6977660
0.065548353 -0.11196779 0.75484616 7833222
0.074643761 -0.11471212 0.75566673 10464428
0.084933989 -0.11581629 0.75523525 10333869
0.09465459 -0.11484087 0.75564718 8820375
0.10528364 -0.11553461 0.75531822 8885909
0.11508285 -0.11420822 0.75533336 8161928
0.12504613 -0.11357924 0.75540006 8687502
0.13498478 -0.11662795 0.75510007 8161417
0.14242154 -0.11804908 0.75771427 7964296
-0.01089248 -0.10998426 0.75800002 7898760
-0.0042771008 -0.10913704 0.75772727 8095880
0.004317448 -0.1094766 0.75799996 8160901
0.045891248 -0.10998426 0.75800002 8227211
0.054749262 -0.10995524 0.75779998 8424589
0.061861679 -0.10998426 0.75800008 8885394
0.16806054 -0.23484436 0.76240003 6779248
0.16767682 -0.22504911 0.76309091 6844527
0.16785587 -0.21443798 0.76187509 6778991
0.16890857 -0.20473357 0.76059997 6778736
0.16877532 -0.19923314 0.76000005 6844527
0.17397393 -0.16507944 0.76250005 6647663
0.15987946 -0.13162455 0.76000005 7371643
0.16581252 -0.13375294 0.76355004 7371645
0.1564199 -0.12397059 0.7622 7766661
-0.055465225 -0.11084621 0.76087511 9148827
-0.044736356 -0.11030348 0.76020002 8622737
-0.034095284 -0.11086435 0.7610001 8688789
-0.025955943 -0.11094861 0.76114285 8820376
-0.018054517 -0.11037118 0.76066667 7898760
0.069141597 -0.11027446 0.76000005 8622221
0.075775087 -0.11180668 0.7616365 8096135
0.084284149 -0.11190955 0.76250011 8227464
0.095086329 -0.11133351 0.76116675 8753806
0.10507096 -0.11152794 0.76250005 8753806
0.11383402 -0.11107762 0.76144457 8754064
0.125214 -0.11029863 0.7601667 8951186
0.1357262 -0.11206002 0.76192313 8753550
0.14567666 -0.11449374 0.76352006 8490636
