# .PCD v0.7 - Point Cloud Data file format
VERSION 0.7
FIELDS x y z rgb
SIZE 4 4 4 4
TYPE F F F U
COUNT 1 1 1 1
WIDTH 608
HEIGHT 1
VIEWPOINT 0 0 0 1 0 0 0
POINTS 608
DATA ascii
0.79635006 -0.44483724 -0.37540978 11776182
0.79457903 -0.43471673 -0.37500167 11644595
0.79285002 -0.64473021 -0.3647567 13683925
0.79250002 -0.63462645 -0.36513755 13486803
0.79299998 -0.62535757 -0.36523464 13946842
0.79278272 -0.53489155 -0.36484835 13880790
0.79225004 -0.52470809 -0.36420336 13880533
0.79166675 -0.51460832 -0.36469927 14210523
0.78900003 -0.50491625 -0.36021295 14342623
0.79170001 -0.50478929 -0.36608267 14276828
0.78900003 -0.49475735 -0.36021295 14540000
0.79165006 -0.49549109 -0.36587387 14342621
0.78900003 -0.48275146 -0.36021295 14605793
0.79144996 -0.48573089 -0.36448422 14605793
0.78900003 -0.47470352 -0.36047682 14671586
0.79155552 -0.47504818 -0.36601543 14605794
0.78900003 -0.46705142 -0.36021295 14671329
0.79149991 -0.46505547 -0.36506355 14671332
0.79247618 -0.45541477 -0.36462975 14802917
0.79160863 -0.44506732 -0.36479187 14868452
0.78900003 -0.43343487 -0.3611365 14802402
0.79076475 -0.43564621 -0.36602953 14933988
0.78883332 -0.42432556 -0.36336884 14933987
0.79033333 -0.42487466 -0.36760592 14999525
0.78900003 -0.41841209 -0.36082864 14933986
0.79025948 -0.66506207 -0.35482714 13683668
0.79032379 -0.65535378 -0.35434157 13815510
0.7905457 -0.64512664 -0.3543565 13946840
0.79042453 -0.63493466 -0.35447055 13881303
0.79043359 -0.62481493 -0.35513195 14012632
0.79066688 -0.61467505 -0.35521722 14210011
0.79067868 -0.60481989 -0.35483271 14144218
0.79130566 -0.5953086 -0.35478121 14144219
0.79199988 -0.5847075 -0.35509324 14144219
0.79242295 -0.57495844 -0.35456949 14210013
0.7936334 -0.56547451 -0.35489607 14210012
0.79424012 -0.55568308 -0.35516617 14144218
0.7926206 -0.54514498 -0.35521027 14012632
0.79125822 -0.53489381 -0.35460964 13946839
0.79046446 -0.52528465 -0.35473448 13946327
0.78900003 -0.51207358 -0.35420999 14342367
0.79000002 -0.51714212 -0.35533881 14078682
0.78899974 -0.50491619 -0.35467184 14342624
0.7889998 -0.49475729 -0.35467175 14342622
0.7889998 -0.485522 -0.35467178 14211292
0.78899974 -0.47536317 -0.35467175 14408671
0.78900003 -0.46751317 -0.35513353 14540000
0.79026318 -0.46273524 -0.35465473 14539744
0.7906431 -0.45526671 -0.35481444 14736866
0.78899986 -0.44396314 -0.35467172 14868195
0.79000002 -0.44914931 -0.35512128 14868195
0.78896409 -0.43503809 -0.35445768 14802401
0.78837496 -0.42457852 -0.35542732 14802658
0.78900003 -0.4182362 -0.3559911 14803172
0.79193336 -0.41384345 -0.35469195 14540255
0.79041213 -0.67447442 -0.34491012 14078684
0.79122585 -0.66506696 -0.34527302 13881304
0.79182136 -0.65501469 -0.34481618 13750231
0.79176927 -0.64499122 -0.34493685 13816024
0.7915557 -0.63492674 -0.34449503 13881304
0.79106683 -0.62451345 -0.34510508 14012633
0.79090929 -0.61461985 -0.34542748 14144218
0.79224336 -0.60506088 -0.34449604 14210011
0.79230773 -0.5949223 -0.34488595 14276061
0.79210335 -0.58462375 -0.34506828 14210011
0.79296547 -0.57450503 -0.34473875 14341851
0.79466671 -0.56578821 -0.34537938 14341851
0.79500002 -0.55541646 -0.34513876 14144216
0.79365224 -0.54541737 -0.34529164 14012630
0.79256654 -0.53503114 -0.34514174 14078423
0.79125005 -0.5241859 -0.3445684 14013146
0.78900003 -0.51138097 -0.34913057 14539746
0.79003364 -0.51476341 -0.34484062 14539747
0.78899997 -0.50438845 -0.34781128 14474210
0.79000002 -0.50493968 -0.34279191 14671333
0.7889998 -0.4946034 -0.34559038 14671331
0.79000002 -0.49612418 -0.34069592 14867940
0.7889998 -0.48552212 -0.34543648 14540257
0.79000002 -0.48428798 -0.34032604 14868965
0.78899974 -0.47536319 -0.34543648 14342878
0.78900003 -0.46797499 -0.34543645 14408671
0.79000008 -0.4631404 -0.3447485 14408414
0.79033357 -0.45468464 -0.34458178 14605279
0.78899986 -0.44396311 -0.34543642 14802401
0.79000002 -0.44888514 -0.34428906 14802401
0.78899974 -0.43472782 -0.34543645 14736866
0.79000002 -0.43157998 -0.34032604 14802402
0.78899992 -0.4254925 -0.34659091 14736866
0.79000002 -0.42405024 -0.34257177 14868451
0.79243201 -0.41455632 -0.34512296 14803426
0.79269564 -0.68369669 -0.33478999 13881564
0.79212892 -0.67491895 -0.33490175 14144733
0.79291648 -0.6652022 -0.33508623 14078682
0.79299992 -0.6550619 -0.33512086 13881303
0.79229993 -0.64521104 -0.33482546 13881818
0.791861 -0.63465667 -0.33463979 13947098
0.79253113 -0.62463999 -0.33468902 14078427
0.79402632 -0.61501294 -0.3355515 14144218
0.79473084 -0.60461354 -0.33506453 14144475
0.79356676 -0.59422511 -0.33535916 14342367
0.79323316 -0.58468932 -0.33521837 14342367
0.79397076 -0.5752272 -0.33525607 14407901
0.79496002 -0.56549102 -0.33501884 14407644
0.79416007 -0.55562735 -0.33468354 14144472
0.793037 -0.54535264 -0.33462164 13947093
0.79249984 -0.53498554 -0.3349109 14210522
0.79156005 -0.52415991 -0.33543903 13947865
0.79028022 -0.51406169 -0.33489659 14802405
0.79016024 -0.50473309 -0.33484504 14867939
0.78900003 -0.49475735 -0.33989525 14868195
0.79024023 -0.49553543 -0.33487868 14933989
0.78900003 -0.48598382 -0.33989525 14737379
0.79003471 -0.48539317 -0.33466479 14934245
0.78900009 -0.47511137 -0.33905569 14671586
0.79018188 -0.47506583 -0.33401343 14802916
0.78900003 -0.46828279 -0.33927956 14605793
0.79039305 -0.46476907 -0.33494329 14605793
0.79036021 -0.45490566 -0.33492956 14605792
0.78900003 -0.44303963 -0.33989525 14933986
0.79000014 -0.44545051 -0.33477786 14737120
0.78900009 -0.43548343 -0.33754447 14802657
0.79000008 -0.4352386 -0.33421499 14671585
0.78899986 -0.42497942 -0.33343053 14671329
0.79000002 -0.42405024 -0.33715561 14868451
0.79119468 -0.41452801 -0.33487242 14869219
0.79250002 -0.68454087 -0.32460362 13815770
0.79130441 -0.67476279 -0.32502216 14144990
0.79168016 -0.66442335 -0.3248904 14144989
0.79232126 -0.65509641 -0.32443449 14012890
0.79282141 -0.64503819 -0.32463783 14078683
0.79240721 -0.63457882 -0.32487246 14078683
0.79373336 -0.62500608 -0.32521069 14078940
0.79486209 -0.61534238 -0.32548141 14210268
0.79421431 -0.60460341 -0.3252098 14144218
0.7941429 -0.59445608 -0.32478043 14342110
0.79484385 -0.58552724 -0.32450247 14473697
0.79407698 -0.57573104 -0.32542318 14407904
0.79376662 -0.56526005 -0.32491511 14407903
0.79366672 -0.55548966 -0.32476953 14078682
0.79232001 -0.54506612 -0.32463223 13815767
0.79199988 -0.53536046 -0.32435825 14407903
0.79077798 -0.52521825 -0.32544035 14275804
0.79000026 -0.51464373 -0.3254033 14736869
0.79016024 -0.50473303 -0.32559708 14737124
0.79071903 -0.49519891 -0.32478535 14802916
0.79087901 -0.48533058 -0.32521871 14868452
0.79166675 -0.47511515 -0.32528856 14934245
0.79206663 -0.46515855 -0.32545313 14802658
0.7917273 -0.45518643 -0.32506156 14736607
0.79100025 -0.44493929 -0.3250446 14802400
0.78900003 -0.43072581 -0.32819721 14933985
0.79018539 -0.43541542 -0.32485253 14736607
0.78899992 -0.42456898 -0.32696584 14671071
0.79000002 -0.42510706 -0.32275668 14801888
0.78900003 -0.41841209 -0.32573444 14868706
0.79108852 -0.41408592 -0.32505155 15001062
0.79078275 -0.68438101 -0.31450564 13881051
0.78900003 -0.67576957 -0.31218931 14276576
0.79000026 -0.67471296 -0.31545478 14276318
0.79051548 -0.66528898 -0.31514364 14210781
0.79209667 -0.65509164 -0.31508949 14144988
0.79363871 -0.64536947 -0.3149524 14144732
0.79370004 -0.63520277 -0.31497592 14144475
0.79343778 -0.62535584 -0.31510779 14210525
0.79353112 -0.61526966 -0.31439003 14275804
0.79441684 -0.60508823 -0.31526119 14078938
0.79540002 -0.59522289 -0.31490552 14473440
0.79551846 -0.58492553 -0.31497434 14342111
0.79459262 -0.57466942 -0.31488317 14341855
0.79419357 -0.56542432 -0.31526256 14473696
0.79396439 -0.55529219 -0.31475189 13947864
0.79230762 -0.54520041 -0.31513882 13947610
0.79187989 -0.53549361 -0.31518313 14408161
0.79074097 -0.52526236 -0.3151401 14473954
0.79000038 -0.51480317 -0.31535918 14802919
0.79006696 -0.50467372 -0.31538537 14737382
0.79131258 -0.49527982 -0.31495509 14737381
0.7924999 -0.48516476 -0.31428102 14737380
0.79312491 -0.47541106 -0.31498033 14737379
0.7929998 -0.46477821 -0.31470022 14737122
0.79309994 -0.45462486 -0.31473932 14671585
0.79275858 -0.44527948 -0.31476334 14539998
0.79133344 -0.43488228 -0.31537509 14605535
0.79073554 -0.42484933 -0.31543341 14671072
0.79262507 -0.4149631 -0.3151502 15001063
0.79042882 -0.68459451 -0.30475706 13881309
0.78900003 -0.67761666 -0.30480105 14276576
0.79007715 -0.67427278 -0.3050034 14276319
0.79124254 -0.66522706 -0.30499262 14276062
0.79290241 -0.65502238 -0.30499333 14144733
0.79600024 -0.64523792 -0.30457342 14079196
0.7959336 -0.63512558 -0.30468145 14144989
0.79453838 -0.62528515 -0.30457678 14210782
0.79429042 -0.61485833 -0.30504322 14144733
0.79526925 -0.60502148 -0.30550495 14079196
0.79592597 -0.59557575 -0.30582219 14473953
0.79532146 -0.58496475 -0.30518284 14276575
0.79504007 -0.57485425 -0.30527323 14210781
0.79440004 -0.56509459 -0.30502784 14408160
0.79279989 -0.55467594 -0.30441403 13881816
0.79158628 -0.54443365 -0.30471462 14013403
0.79100019 -0.5348981 -0.3046478 14605540
0.79073352 -0.52546328 -0.30454451 14408419
0.79009122 -0.51483434 -0.30471742 14803176
0.7910859 -0.50452918 -0.30454674 14803175
0.79268748 -0.49515364 -0.30535501 15066344
0.79332131 -0.48506382 -0.3044816 15000551
0.79335999 -0.47520438 -0.3046293 14934757
0.79363346 -0.46514809 -0.30473268 14737377
0.7944445 -0.45498127 -0.30511278 14671584
0.79362494 -0.44517353 -0.30488393 14671326
0.79209983 -0.43550918 -0.30507118 14670812
0.79232424 -0.42525283 -0.30503085 14473948
0.7943334 -0.6946848 -0.29464027 10854573
0.79129177 -0.68444943 -0.2952646 14078428
0.79065734 -0.67454338 -0.29512691 14210527
0.79236358 -0.66470706 -0.29480004 14144733
0.79482937 -0.65484458 -0.29484415 14144731
0.79570383 -0.62473208 -0.29449001 14079452
0.79538226 -0.61486107 -0.29527229 14144988
0.79506671 -0.60465407 -0.2950463 14144988
0.79500002 -0.59529757 -0.29502171 14539747
0.79537839 -0.58516234 -0.29503447 14407904
0.79548275 -0.57504594 -0.29535982 14341854
0.79444832 -0.56525755 -0.294976 14342110
0.79251993 -0.55448025 -0.29502833 13750230
0.79132009 -0.54437822 -0.29458204 14210781
0.79100013 -0.53489816 -0.29446322 14737127
0.79100019 -0.52471358 -0.29446322 14540004
0.79100019 -0.51466048 -0.29505733 14802918
0.79241931 -0.50509816 -0.29481065 14868965
0.79348481 -0.49520493 -0.29420447 15000551
0.79299992 -0.4848673 -0.29540664 15132137
0.79300004 -0.47498852 -0.29520777 15000551
0.79319996 -0.46489456 -0.29528281 14934756
0.79460615 -0.45430332 -0.29529849 14737377
0.79482764 -0.44457951 -0.29479638 14802655
0.79351848 -0.43512079 -0.29471043 14671069
0.79338235 -0.42430156 -0.29518536 14539996
0.79395461 -0.69437766 -0.28458032 11380663
0.7920416 -0.68517441 -0.28465298 14144478
0.79177147 -0.67522883 -0.28468749 14210783
0.79357892 -0.66526616 -0.28496078 14210526
0.79517245 -0.65460849 -0.28491223 14078939
0.79513639 -0.6451506 -0.28458133 14079195
0.79423076 -0.63541275 -0.28465497 14079452
0.79382771 -0.6249209 -0.28423941 14079452
0.79500002 -0.61483902 -0.28478566 14144988
0.79496002 -0.60457277 -0.28477153 14210781
0.79500002 -0.59488308 -0.28485504 14474210
0.79635012 -0.57487047 -0.2852698 14276574
0.79488468 -0.56529629 -0.28495836 14144988
0.79330003 -0.55502582 -0.28510401 13684438
0.79146159 -0.54483205 -0.2850855 14079195
0.7900002 -0.53443533 -0.28470165 14868711
0.79025954 -0.52473539 -0.28514391 14737125
0.79082149 -0.51500595 -0.28494295 14934503
0.79243737 -0.50514299 -0.2850858 14934503
0.79327995 -0.49558371 -0.28417051 15000551
0.79278767 -0.48520985 -0.28500655 15000808
0.79302841 -0.47484544 -0.28455704 15066344
0.79369706 -0.46476355 -0.28549841 15132136
0.79436356 -0.45467168 -0.28506255 15000550
0.79504007 -0.44456974 -0.28480002 14803171
0.79399997 -0.43449074 -0.28484005 14605791
0.79376465 -0.4245615 -0.2849974 14539997
0.79142314 -0.6851148 -0.27445447 14144476
0.79151618 -0.67529309 -0.27445266 14276574
0.79283321 -0.66513133 -0.27472985 14276318
0.79419994 -0.65512151 -0.27520445 14210781
0.79488009 -0.6454497 -0.27543911 14079452
0.79484391 -0.63501078 -0.27455047 14079195
0.79503137 -0.62515652 -0.27478823 14144988
0.79503226 -0.61495423 -0.27531096 14079195
0.79416001 -0.60396475 -0.27518901 14210781
0.79420006 -0.59469748 -0.27520287 14605539
0.79529029 -0.58506364 -0.27570194 14408417
0.79516673 -0.57479101 -0.27538326 14342624
0.79456002 -0.56520754 -0.27532873 14079452
0.7934401 -0.55512422 -0.27494064 13815767
0.79140908 -0.54519731 -0.27474099 14079196
0.78900003 -0.53222638 -0.27498418 14934504
0.79000008 -0.53703624 -0.27447119 14671332
0.78899974 -0.52549779 -0.27498418 14605796
0.79000002 -0.52220082 -0.27929568 14868710
0.78900009 -0.51625049 -0.27323306 14868967
0.79004759 -0.51338077 -0.27614215 14868966
0.7905519 -0.50498319 -0.27464253 14935015
0.79113805 -0.49501172 -0.27401596 15066344
0.7904402 -0.48455811 -0.27390164 15066344
0.79175007 -0.47475681 -0.27452958 15197928
0.79460716 -0.46538588 -0.27514538 15263464
0.79562855 -0.4550091 -0.27489838 15263463
0.79558623 -0.4450047 -0.27491131 15065827
0.79388011 -0.43463099 -0.27509174 14868192
0.79187506 -0.68394858 -0.26497301 14144476
0.79207683 -0.67490947 -0.26533717 14276318
0.79296756 -0.66527492 -0.26531401 14276317
0.79300004 -0.65506196 -0.26550493 14144732
0.79338706 -0.6450147 -0.26545525 14013402
0.79615819 -0.6355949 -0.26513958 14144988
0.79517245 -0.61391407 -0.26514086 14210524
0.7949667 -0.60457778 -0.26523265 14342367
0.79538238 -0.59492505 -0.26515108 14605537
0.79585314 -0.58475667 -0.26552525 14474208
0.79539293 -0.57484376 -0.26563931 14342365
0.79400003 -0.56493843 -0.26506934 14013657
0.79259986 -0.55453646 -0.26537138 13684439
0.79123813 -0.54502726 -0.26473862 14079197
0.79003477 -0.53501034 -0.26463944 14737382
0.78899986 -0.52384859 -0.26693627 14605538
0.79000002 -0.52631992 -0.26248291 14605536
0.7889998 -0.51563722 -0.26569146 14868709
0.79000002 -0.51236534 -0.26332355 14934244
0.79012018 -0.50470757 -0.26454017 14802915
0.79068983 -0.49505019 -0.2647303 14737636
0.79019248 -0.48461929 -0.26456395 14803172
0.7912001 -0.47483385 -0.26490149 15000550
0.79391176 -0.4650906 -0.26515421 15197672
0.79519355 -0.45504418 -0.26455873 15197157
0.79530776 -0.44457686 -0.26463148 15065570
0.79385191 -0.4348217 -0.26537761 14933728
0.79158336 -0.68439192 -0.25553492 14079197
0.79203123 -0.67506111 -0.25504258 14276318
0.79311413 -0.66534042 -0.25519928 14210524
0.79351509 -0.65497923 -0.25520542 14210524
0.79356229 -0.64501792 -0.25559023 14078940
0.79524255 -0.63490915 -0.25525662 14079197
0.79570377 -0.61466056 -0.25481763 14144988
0.79504007 -0.60463357 -0.25502044 14276575
0.79615635 -0.59499514 -0.25502867 14605539
0.79471993 -0.56502515 -0.25528944 13947608
0.79266661 -0.55458295 -0.25518695 13684438
0.7912001 -0.54429543 -0.25471506 14342367
0.79103249 -0.53474057 -0.25451154 14934502
0.79064542 -0.52492654 -0.25444567 14671332
0.79000026 -0.51464373 -0.25538099 15000295
0.79065406 -0.50490558 -0.25525087 15131624
0.79152787 -0.49541426 -0.25482094 15066344
0.79230291 -0.48519289 -0.25481492 14868965
0.7928918 -0.47477067 -0.25528255 14803171
0.79493338 -0.46510237 -0.25516999 15000549
0.79500008 -0.45462352 -0.25513601 14868707
0.79488009 -0.44448102 -0.25496906 14737121
0.79351997 -0.43465617 -0.25497788 14671070
0.79032165 -0.68410522 -0.24485128 14276317
0.79062527 -0.67461407 -0.24469765 14342110
0.79315138 -0.66480392 -0.24513175 14210781
0.79493546 -0.65503955 -0.2449619 14079195
0.79503226 -0.64539325 -0.24463025 14079195
0.79488575 -0.63508654 -0.2448689 14079196
0.79584849 -0.62506258 -0.24460983 14144987
0.79440731 -0.56530786 -0.24510653 14012888
0.79247832 -0.55477375 -0.2451653 13684180
0.7905001 -0.54515982 -0.24405967 14210781
0.7901336 -0.53523636 -0.24419875 14868711
0.79050022 -0.52509397 -0.24445523 14605538
0.79000038 -0.51453125 -0.24486412 15000551
0.79000026 -0.50475895 -0.24492231 15132135
0.79130006 -0.4952704 -0.24455829 15132136
0.79369676 -0.48536977 -0.24479002 15132136
0.79444456 -0.47492278 -0.2445986 15066343
0.79580009 -0.46468654 -0.24488537 15132135
0.79451859 -0.43505058 -0.24513867 14605789
0.79036009 -0.68433678 -0.23501684 14210526
0.79040027 -0.67419153 -0.23502915 14276574
0.79288888 -0.66440123 -0.23514932 14210781
0.79518747 -0.65512109 -0.23476397 14144988
0.79577279 -0.5748772 -0.23451103 14276828
0.79354554 -0.56516242 -0.23503542 14078936
0.79129165 -0.55531925 -0.23514086 13749717
0.78900003 -0.542781 -0.2327656 14276575
0.79006666 -0.54659754 -0.23616308 14079196
0.78899986 -0.53558719 -0.23354332 15000296
0.79000002 -0.53348219 -0.23712929 14934248
0.78900003 -0.52985156 -0.23276559 14737379
0.79000014 -0.524975 -0.23490997 14737381
0.79026693 -0.51497608 -0.23498842 15066088
0.79044014 -0.50491238 -0.23503958 15132137
0.79140002 -0.49533331 -0.23532708 15131881
0.79348385 -0.48552322 -0.23486884 15000549
0.79392588 -0.47513026 -0.23442793 15197928
0.79382759 -0.46471661 -0.23412849 15329514
0.7942307 -0.43446663 -0.23459497 14539998
0.79030025 -0.68428457 -0.22482352 14341854
0.79006284 -0.67448288 -0.22475611 14407390
0.79167575 -0.66508353 -0.22483921 14276575
0.79407704 -0.58509749 -0.2251137 14211038
0.79393107 -0.57482076 -0.2248005 14276574
0.79280961 -0.5647583 -0.22487472 13947609
0.79076684 -0.55510587 -0.22495624 13552852
0.7889998 -0.54447412 -0.22522338 14211037
0.79000002 -0.54901713 -0.22473828 13947609
0.7889998 -0.5353927 -0.22537737 15000552
0.79000002 -0.53052306 -0.22936179 14934504
0.78899986 -0.52580565 -0.22414593 14737380
0.79000002 -0.52381903 -0.22843708 14868711
0.79041696 -0.51507324 -0.22485799 14868966
0.79056686 -0.50499433 -0.22490041 15066344
0.79020029 -0.49507746 -0.22535099 15000294
0.79081273 -0.48547876 -0.22439371 14934756
0.79141372 -0.47480416 -0.22408816 15066341
0.79207397 -0.4647494 -0.22460775 15329512
0.79390615 -0.45490873 -0.22486424 15328999
0.7954616 -0.44502085 -0.22521994 15065570
0.79320002 -0.4351868 -0.2247217 14933984
0.7909584 -0.68470097 -0.21497999 14210780
0.79083341 -0.67456168 -0.21479125 14342366
0.79209995 -0.66451484 -0.21513559 14342365
0.79533345 -0.65540856 -0.21472664 14276828
0.79490328 -0.58484042 -0.21499556 14342623
0.79423344 -0.57489115 -0.21509513 14079450
0.79300016 -0.56524628 -0.21546979 13750487
0.79116005 -0.55538201 -0.21488144 13684694
0.7889998 -0.54370445 -0.21521848 14276831
0.79000002 -0.54901713 -0.21456656 13684695
0.78849995 -0.53505427 -0.21508335 15000808
0.78877759 -0.52508533 -0.21515888 14474464
0.78899986 -0.51525098 -0.21359132 14606050
0.79000002 -0.51326197 -0.21795714 14803429
0.78900003 -0.50879508 -0.21207848 14671843
0.79000008 -0.50430983 -0.21480773 14737636
0.78900003 -0.49537304 -0.21829695 15000807
0.79000002 -0.4952963 -0.21395007 14869221
0.78900003 -0.48829263 -0.21429496 14869220
0.79000026 -0.48494855 -0.21456657 14934756
0.79033357 -0.47431481 -0.21465711 14934500
0.79213333 -0.46426752 -0.21514544 15263207
0.79390907 -0.45407233 -0.21483873 15132134
0.79487097 -0.44465572 -0.21510874 15066084
0.79299992 -0.43471897 -0.21416496 14802142
0.79213321 -0.68401712 -0.2049461 14276573
0.79213321 -0.67474437 -0.20494621 14276828
0.79313135 -0.6650387 -0.20500809 14342622
0.79493117 -0.6551801 -0.20506066 14276572
0.7952401 -0.64536989 -0.20482138 14210780
0.79439276 -0.63475782 -0.20480397 14079195
0.79556 -0.58454406 -0.20490231 14408414
0.79474998 -0.57557565 -0.20469353 14013400
0.79273319 -0.56576419 -0.20510258 13816021
0.79130012 -0.55547982 -0.20473081 13684436
0.78900003 -0.54293495 -0.20644492 14408416
0.79014289 -0.54713494 -0.20377062 14013402
0.78886354 -0.53488076 -0.20544338 15066601
0.79000002 -0.53915364 -0.20223719 14803173
0.7888664 -0.52514488 -0.20502467 14606050
0.7889998 -0.51507509 -0.20505965 14868965
0.79000002 -0.51017964 -0.20439482 14671586
0.78900003 -0.50953388 -0.20875375 14606050
0.79100013 -0.504399 -0.20470916 14803172
0.79189992 -0.49534008 -0.20488289 14868965
0.79023361 -0.48498666 -0.20500898 14737635
0.79060632 -0.47422558 -0.20497233 14869220
0.79215145 -0.46470085 -0.20520554 15197415
0.79326463 -0.45471552 -0.20458534 15197928
0.79496157 -0.44474056 -0.204605 15132135
0.79456002 -0.43500173 -0.20464636 14802656
0.79210329 -0.68475813 -0.1946128 14211035
0.79280001 -0.67531174 -0.19491109 14211035
0.79394293 -0.66513056 -0.19519171 14276828
0.79579407 -0.65457439 -0.19471568 14211035
0.79428571 -0.64426118 -0.195454 14276828
0.79219991 -0.63400191 -0.194764 14144988
0.79248148 -0.6245361 -0.19504155 14145244
0.79509526 -0.57569301 -0.19511995 14211035
0.7924 -0.56552684 -0.19481343 13750484
0.79112017 -0.55535203 -0.19449896 13618898
0.79051745 -0.54554832 -0.19511592 14144987
0.78900003 -0.53206807 -0.19656315 15526895
0.79000014 -0.53673708 -0.19481495 15000551
0.78899974 -0.52523392 -0.19490083 14671843
0.7889998 -0.51574004 -0.19530718 15132137
0.79000002 -0.51118845 -0.19422312 15197929
0.79121888 -0.50471216 -0.19487008 15132136
0.79256004 -0.49513501 -0.1948534 15000550
0.79100013 -0.4846966 -0.19488011 14803427
0.79060632 -0.47473156 -0.19487613 14803425
0.79120004 -0.46464917 -0.19451971 15197669
0.79163331 -0.45470938 -0.19462624 15460329
0.79292309 -0.44502783 -0.19508711 15394536
0.79125017 -0.43488893 -0.19437815 14868192
0.79096448 -0.68426234 -0.18540169 14276828
0.79257137 -0.67531437 -0.18544677 14211036
0.79394883 -0.66527951 -0.18509275 14342621
0.79548496 -0.65485394 -0.18439965 14342621
0.79554176 -0.64505738 -0.18534113 14342621
0.7937001 -0.63520324 -0.18491076 14276829
0.79273325 -0.62514919 -0.18468636 14276830
0.79352367 -0.61462295 -0.18487148 14276830
0.79568189 -0.57422018 -0.18495005 14342364
0.7923913 -0.56471449 -0.18480858 13816277
0.79028016 -0.55476302 -0.18504165 13684691
0.78900003 -0.5430119 -0.18220223 14211037
0.79000002 -0.54607981 -0.18617277 13881815
0.78884983 -0.53492194 -0.18387637 14869223
0.79000002 -0.53755081 -0.18830502 14868967
0.78889978 -0.52516705 -0.18471901 14671586
0.78899997 -0.51649588 -0.18388946 14935014
0.79000002 -0.51318491 -0.18590079 15000807
0.78900003 -0.50491625 -0.18104781 14868963
0.79020011 -0.50475895 -0.18594858 15000549
0.78900003 -0.49475735 -0.18197137 14934755
0.79043752 -0.49531141 -0.18704543 15066341
0.78900003 -0.48552203 -0.18197134 15066340
0.79000002 -0.48469904 -0.18651727 15000547
0.78900003 -0.47536317 -0.18104781 14868961
0.79000002 -0.47504097 -0.18590081 14934754
0.79000026 -0.46486932 -0.18497606 15066084
0.79079324 -0.45438555 -0.1852897 15460841
0.79199994 -0.44479239 -0.18510096 15131620
0.79184371 -0.43502083 -0.18424611 14802141
0.78900003 -0.68408138 -0.17329016 14341851
0.79000002 -0.6852203 -0.17670815 14341852
0.78900003 -0.67884803 -0.17242819 14144985
0.79063356 -0.67426717 -0.17574829 14210266
0.7912963 -0.66511029 -0.17423642 14210522
0.79248375 -0.65534961 -0.17448981 14210779
0.79365528 -0.64528644 -0.17436747 14408414
0.79387999 -0.63534617 -0.17473574 14408414
0.79295999 -0.62532836 -0.17453219 14408415
0.79365706 -0.61472619 -0.17468502 14539488
0.79328573 -0.56509757 -0.1748675 14013656
0.79100013 -0.55526954 -0.17502478 13750484
0.7888999 -0.5436359 -0.17548475 13947864
0.79000002 -0.54901713 -0.17480437 13289678
0.78792006 -0.53466052 -0.17526703 14737636
0.78776926 -0.5251233 -0.17537604 14539743
0.78831029 -0.51538807 -0.17522714 14803170
0.7884444 -0.50507313 -0.17558953 14868963
0.78807414 -0.49492836 -0.17523374 14868963
0.78830773 -0.48530817 -0.17521207 15000292
0.78869981 -0.47518209 -0.17544106 15066084
0.78899997 -0.46705145 -0.17484696 15131620
0.79000002 -0.46230063 -0.17562631 15262949
0.79070991 -0.45492554 -0.17505148 15328998
0.7915588 -0.44540235 -0.17493296 14934238
0.7919628 -0.4350208 -0.17452058 14605788
0.79360598 -0.42484686 -0.1745059 14934752
0.78879148 -0.68390131 -0.16530448 13947092
0.78891152 -0.67498738 -0.16505787 14013142
0.78900003 -0.66653425 -0.1631313 13750229
0.79000002 -0.66429669 -0.16549571 13882071
0.79006696 -0.65541285 -0.16464685 14013658
0.79063356 -0.64477634 -0.16476575 14342622
0.79149997 -0.63469708 -0.16514516 14408671
0.79188883 -0.62489426 -0.16482073 14342621
0.79468 -0.58501166 -0.16561189 13947350
0.79333335 -0.57493603 -0.16525295 14408157
0.79200006 -0.56508607 -0.16489677 14408157
0.79072022 -0.55507243 -0.164784 14013399
0.78891981 -0.54383439 -0.16514592 13684436
0.79000002 -0.54901713 -0.16555734 13553107
0.78760016 -0.53444397 -0.16505377 14737121
0.78683341 -0.52471304 -0.16489439 14539999
0.78705567 -0.51472646 -0.16494185 14605791
0.78649974 -0.50423753 -0.16482575 14737120
0.78636676 -0.49494687 -0.16479754 14737119
0.78682846 -0.48523706 -0.16502653 15131877
0.78726482 -0.47491288 -0.16509505 15197669
0.78824997 -0.46539459 -0.16478816 15197666
0.79000002 -0.46024573 -0.16740675 15197409
0.78900003 -0.45689258 -0.16165367 15000543
0.79000002 -0.45442015 -0.16546485 15000030
0.78899992 -0.44439411 -0.16270033 14802651
0.79000002 -0.44619027 -0.16722183 14934237
0.78899992 -0.43576676 -0.16257718 14671065
0.79000002 -0.43408993 -0.16674626 14802652
0.79223329 -0.65547752 -0.15520062 11842490
0.79160005 -0.57422125 -0.1547731 13881811
0.79050028 -0.56416976 -0.15455827 14211290
0.78900003 -0.55155456 -0.15380363 13882069
0.79008698 -0.55527002 -0.15516086 13947861
0.7889998 -0.54462808 -0.15518893 13947862
0.78832 -0.53493249 -0.15505415 14408156
0.78727996 -0.52501142 -0.15484893 14211288
0.78666657 -0.51498377 -0.15452293 14671840
0.78639299 -0.50475991 -0.15487167 14803170
0.78665382 -0.49491495 -0.15458332 14868962
0.78631991 -0.48534554 -0.15466049 15197413
0.78674197 -0.47527802 -0.15468338 14934495
0.78821421 -0.46533194 -0.15523089 15263203
0.79000002 -0.46024573 -0.1516868 14342870
0.7889998 -0.45508566 -0.15623294 14671578
0.79000002 -0.45469758 -0.15199503 14408662
0.78891975 -0.4448418 -0.15517318 14606042
0.7889331 -0.43469077 -0.15517578 14671836
0.79393554 -0.55522603 -0.14475675 10526881
0.78900003 -0.54185748 -0.14964774 12566206
0.79189301 -0.54549694 -0.14522438 10790053
0.78900003 -0.53470016 -0.14895508 12171449
0.79154164 -0.53526145 -0.14410345 11251374
0.78872734 -0.5254724 -0.14858852 11053224
0.79166675 -0.52493399 -0.14370759 11251632
0.78860003 -0.51493663 -0.14797109 11185325
0.79188234 -0.51510173 -0.14288576 11843768
0.78870583 -0.50499928 -0.14763625 11777720
0.79199994 -0.50498062 -0.14279778 12041148
0.78862506 -0.49486813 -0.14784501 12763587
0.79135716 -0.49530858 -0.14268214 11908789
0.78846663 -0.48519433 -0.14770001 13092804
0.79070592 -0.485374 -0.14267434 11645100
0.78874993 -0.47567376 -0.14798415 13882318
0.79125005 -0.47468066 -0.14303318 11513775
0.78900003 -0.46705142 -0.14964774 15000028
0.79122579 -0.46466336 -0.14510641 12500668
0.79181266 -0.45510218 -0.14542612 12434619
0.79184389 -0.4452135 -0.14543059 12631997
0.78900003 -0.43472782 -0.14964774 14737885
