# .PCD v0.7 - Point Cloud Data file format
VERSION 0.7
FIELDS x y z rgb
SIZE 4 4 4 4
TYPE F F F U
COUNT 1 1 1 1
WIDTH 256
HEIGHT 1
VIEWPOINT 0 0 0 1 0 0 0
POINTS 256
DATA ascii
0.44020003 -0.040666036 -0.061644368 12958901
0.4371666 -0.035081215 -0.063150749 14143174
0.43462002 -0.024783945 -0.063104041 15591649
0.43709993 -0.016228395 -0.062955201 15394786
0.44000003 -0.013248099 -0.065942936 15065308
0.44355178 -0.042437028 -0.055149384 12564400
0.45200002 -0.045353614 -0.052927416 12433072
0.43438366 -0.034459349 -0.054984931 14537933
0.43127269 -0.02464029 -0.05509669 15657442
0.43423185 -0.015953809 -0.054991364 15394786
0.44300002 -0.010227214 -0.054466225 12829630
0.49675003 -0.061473414 -0.041013069 11578535
0.4876667 -0.055783004 -0.043404203 12039083
0.49300003 -0.057354633 -0.041471351 11973034
0.43233332 -0.04068185 -0.041683789 12893366
0.44900003 -0.044001479 -0.049422778 12301484
0.42808002 -0.032572571 -0.042832714 15130584
0.43077591 -0.035698459 -0.045575332 14077640
0.4275001 -0.025475297 -0.044289179 15789283
0.42999998 -0.024379535 -0.04891324 15723747
0.42847055 -0.018682307 -0.041853756 15920614
0.43061545 -0.016007192 -0.045580521 15328994
0.49900001 -0.061167184 -0.039740242 11512998
0.5049355 -0.062523089 -0.035704214 11973547
0.49840003 -0.057243597 -0.039458826 11644325
0.5037058 -0.056957945 -0.035181392 11513252
0.42700002 -0.04084589 -0.03000772 12695727
0.43204767 -0.041620243 -0.03585548 12630450
0.42589554 -0.033930779 -0.034620803 14472398
0.43026665 -0.038204156 -0.037423119 13091002
0.42395008 -0.025168564 -0.03525912 15789285
0.42603561 -0.017098496 -0.035076182 15394787
0.43000001 -0.013953644 -0.039278284 15328480
0.50849998 -0.058761045 -0.029783148 11578531
0.42513052 -0.041662298 -0.024252495 12432813
0.41866669 -0.030574642 -0.020928094 15065304
0.42308414 -0.035069011 -0.025338355 14077894
0.4185001 -0.026120594 -0.021426339 15658212
0.42093745 -0.024670744 -0.026049301 15658212
0.42396149 -0.016154839 -0.025255894 14934492
0.42700002 -0.0098578334 -0.023010418 12434355
0.41827276 -0.041968573 -0.011858904 12236461
0.42326319 -0.041480154 -0.017133677 12367533
0.41734996 -0.033786323 -0.013830541 14209738
0.42135146 -0.036949292 -0.017403303 13485756
0.41655999 -0.024836261 -0.015013269 15658212
0.42000002 -0.020511733 -0.019683514 15724521
0.41819233 -0.017974567 -0.013161446 15395299
0.42079368 -0.014529729 -0.015751278 14277075
0.42050004 -0.0090052998 -0.014995483 12829884
0.41671425 -0.041604538 -0.0058750398 12236205
0.41434866 -0.035238396 -0.00485959 13814980
0.41280165 -0.02498815 -0.0048576761 15592418
0.41651487 -0.015257373 -0.0047157006 14277332
0.41999999 -0.0110072 -0.009523497 12434872
0.41820002 -0.0094584962 -0.0051134056 12697787
0.42000002 -0.0096962294 -0.0088680126 12237492
0.41530773 -0.041784462 0.0065212417 12170154
0.4085173 -0.032054495 0.0071363505 14407630
0.41232401 -0.036227625 0.0045069656 13551807
0.40842491 -0.025800059 0.0063447985 15460831
0.41068569 -0.022883125 0.0027278054 15592932
0.40900001 -0.019655362 0.0092371376 15593188
0.41421887 -0.015962007 0.0047148345 14474453
0.40854171 -0.0061636386 0.006877217 13290693
0.41047063 -0.004953247 0.0082343817 13290179
0.40900001 -0.040081523 0.018652324 12565169
0.41238236 -0.041948557 0.013859415 12038826
0.40673044 -0.033854384 0.015607351 13947080
0.41105556 -0.038306236 0.012596665 12762291
0.4051908 -0.025002258 0.015150143 15395296
0.40744907 -0.01810603 0.015294251 14803418
0.41111112 -0.014619668 0.013349952 13553609
0.40900001 -0.0056123752 0.010513773 13093312
0.4106364 -0.005372636 0.011167694 13224898
0.40899998 -0.040765438 0.022413837 12433070
0.41044447 -0.042251959 0.022508046 12104617
0.40380582 -0.034995366 0.024925377 13618114
0.40153876 -0.025237946 0.025346419 15263966
0.40665072 -0.016328504 0.025132101 13882319
0.41000003 -0.012104865 0.023976922 13356232
0.40277779 -0.041254565 0.038537078 12235691
0.39780563 -0.03231154 0.037203446 14144714
0.40063381 -0.035987876 0.034061823 13354941
0.39763713 -0.025614455 0.035815049 15132125
0.40015796 -0.021908846 0.032423146 15198175
0.39900002 -0.019486146 0.038745731 15066590
0.40097779 -0.017557336 0.035441507 14474454
0.39825004 -0.041125588 0.047877781 12170669
0.40075007 -0.041243002 0.043649606 12235948
0.39587608 -0.03447846 0.045510143 13815493
0.40018186 -0.038536329 0.04171313 12827829
0.39480188 -0.024822019 0.045254871 15197917
0.39747828 -0.018439183 0.046586841 15066333
0.40102497 -0.015005541 0.045467056 14079441
0.39549997 -0.041111942 0.055332985 12301741
0.38900003 -0.030836301 0.059175078 14671315
0.39295107 -0.035010181 0.054914027 13815493
0.389 -0.027193679 0.059175078 15065560
0.39183459 -0.024516473 0.054775208 15263454
0.39485186 -0.017499229 0.055279095 14869212
0.40089998 -0.013571652 0.053756721 13618890
0.39292595 -0.041371081 0.063816182 12301742
0.38837671 -0.033575159 0.065925531 14341839
0.3910251 -0.03740688 0.063233718 13486529
0.38793552 -0.025557954 0.065165512 15065819
0.39030004 -0.021162091 0.061199762 15395042
0.38873079 -0.018249003 0.067918345 15132385
0.3912093 -0.017165838 0.063597105 14803420
0.38738459 -0.041171875 0.077059083 12499121
0.39127779 -0.042774491 0.073107809 11906729
0.3855553 -0.035144195 0.07520593 11972778
0.38462842 -0.025084732 0.075160682 12302001
0.38644439 -0.017650651 0.075063266 14934749
0.38286662 -0.041504528 0.085022055 11250853
0.37852788 -0.03281258 0.087488003 2633000
0.38128263 -0.035524372 0.083930463 2633257
0.37843081 -0.026112847 0.08690995 2764330
0.38102812 -0.023833672 0.083223686 3092524
0.38434654 -0.016269997 0.085177183 14605270
0.37900001 -0.040690541 0.098910794 11052965
0.38168171 -0.043242875 0.095441617 11973806
0.37667933 -0.034834012 0.095216811 2567207
0.38000003 -0.03961179 0.092351608 3225142
0.37631783 -0.025106244 0.095011346 2633003
0.38000003 -0.020337408 0.090720698 3158066
0.37841183 -0.018845038 0.09727025 12765122
0.38292164 -0.0146373 0.09471947 14408147
0.38489476 -0.0090754023 0.097056881 13815755
0.38200006 -0.051147681 0.10967974 12169900
0.37773341 -0.041351669 0.10597394 10394517
0.38160229 -0.046058729 0.10511053 12498865
0.36899999 -0.03112253 0.10940253 2238244
0.37265179 -0.034874603 0.10482553 2501670
0.36900014 -0.024931706 0.10888237 2369314
0.37213027 -0.024712617 0.10392459 2632232
0.37748006 -0.017368643 0.1048897 12763323
0.38119715 -0.012845266 0.10455213 14408148
0.3827967 -0.0077568237 0.10589027 14013392
0.38225707 -0.051958684 0.11598079 12104619
0.37688893 -0.043192338 0.11551273 10789018
0.38098112 -0.047922458 0.11419273 12565171
0.36736074 -0.033430882 0.11564021 2304035
0.37136361 -0.037838086 0.11384773 2567206
0.36729741 -0.025161121 0.11520771 2368802
0.37635005 -0.015164031 0.11605706 12236464
0.38027784 -0.011795594 0.11185527 14210255
0.37892309 -0.0084064892 0.11878126 14210512
0.3812899 -0.0066911965 0.11498439 14210256
0.37837932 -0.051436659 0.1262826 12959157
0.38042861 -0.052040178 0.12167461 12498863
0.37682614 -0.045209128 0.12502 11643813
0.38000003 -0.049397245 0.1203736 12697014
0.36342961 -0.03427396 0.12493017 2501670
0.37062502 -0.039574832 0.12286271 2697511
0.36340508 -0.025045082 0.12477921 2566951
0.36766669 -0.019150214 0.12750944 9343631
0.37525183 -0.014391392 0.12483804 12434099
0.3779344 -0.0071401582 0.1253939 13815752
0.38158137 -0.0026353702 0.12354355 13618120
0.38383788 0.0018239747 0.12616406 12566459
0.37690011 -0.051547974 0.13423221 12697014
0.36900002 -0.040480748 0.13215019 5197649
0.37479323 -0.045289479 0.1349088 10789532
0.36503398 -0.034588099 0.13343221 1383704
0.37059999 -0.035207883 0.1391785 1054738
0.36476701 -0.024580289 0.13459949 1514521
0.37050003 -0.028936703 0.13962618 791566
0.36661765 -0.018583087 0.13492963 9341579
0.37418824 -0.013269443 0.13470688 11710122
0.37676567 -0.0059908838 0.1353229 13026753
0.38090479 -0.0015319403 0.13365157 13421513
0.38287094 0.0013116702 0.1345723 12237496
0.36305884 -0.040724486 0.1462445 5066571
0.37341669 -0.044835757 0.14057668 9079942
0.364272 -0.035340901 0.14606079 988689
0.37075564 -0.033844743 0.14205565 988944
0.36519402 -0.024520099 0.1461962 1250575
0.37044442 -0.027888896 0.1430732 857100
0.36200005 -0.019036014 0.14741628 4658965
0.37444448 -0.012440874 0.14072277 9604490
0.37521431 -0.0064017079 0.14083759 9737360
0.36071432 -0.041260988 0.15470758 1711641
0.35831565 -0.033482391 0.15787229 1645847
0.36061555 -0.035485175 0.15364262 1514775
0.35853851 -0.026935223 0.15767169 1317395
0.36055061 -0.0242677 0.15378498 1645590
0.36100003 -0.018697828 0.15330401 3416349
0.34364706 -0.041221496 0.16736846 1777946
0.35405886 -0.04078785 0.16408235 790796
0.36000001 -0.040757563 0.16010937 1053710
0.3441073 -0.034977939 0.16690923 1514774
0.35442734 -0.035203449 0.16277133 1317139
0.34478509 -0.025016336 0.16654524 1514775
0.35516658 -0.027053542 0.16227521 1514774
0.34488887 -0.019354109 0.16647658 1579803
0.33713788 -0.040904306 0.17657357 1777948
0.34 -0.041466352 0.17176858 1580825
0.33760369 -0.035438374 0.17503962 1580825
0.34008703 -0.034867592 0.17112181 1580823
0.33783323 -0.025479557 0.17467627 1646617
0.3403509 -0.024687052 0.1712186 1777432
0.338 -0.019672118 0.17524388 1711898
0.34060004 -0.019663785 0.17141268 1776662
0.33295453 -0.041629143 0.18371803 1777179
0.33169499 -0.035282925 0.18560456 1909281
0.33160418 -0.026253426 0.1855333 2040606
0.79300004 0.078844838 0.32731107 10329752
0.79099995 0.079187147 0.33582342 10330008
0.79217237 0.085692704 0.33485678 10461338
0.79146153 0.078360118 0.34459111 10329750
0.79159999 0.085501872 0.34465152 10527130
0.79269224 0.095041625 0.34491205 10592924
0.79140002 0.07955084 0.35382271 10329752
0.79203331 0.085548885 0.35503513 10461338
0.79263324 0.094890609 0.35530412 10592923
0.79255545 0.10508648 0.35526845 10658717
0.78860009 0.078900538 0.36143535 10263960
0.78849995 0.084706351 0.36526501 10461339
0.79028571 0.086945549 0.36178535 10527131
0.79088902 0.09447775 0.36511672 10592924
0.79051542 0.1050664 0.36503813 10658717
0.79051638 0.11511464 0.36524877 10658717
0.79168588 0.12448505 0.36501628 10724767
0.78883338 0.08766523 0.37391582 10395545
0.79000002 0.088410832 0.3784757 10461338
0.79108012 0.094706118 0.37479615 10527131
0.79185194 0.10468229 0.37483364 10592924
0.79150015 0.11513717 0.37518266 10724510
0.79036683 0.12564142 0.37495133 10724767
0.7915715 0.13533533 0.37488106 10790816
0.79099995 0.087844007 0.38586941 10264473
0.79217857 0.095037058 0.38510534 10396058
0.79149997 0.12509468 0.38502383 10593694
0.79137045 0.13570435 0.38489586 10724767
0.79275 0.088641338 0.39456445 10330009
0.79287994 0.094920665 0.39532453 10396058
0.7927354 0.10532843 0.39459395 10396315
0.79200006 0.11520812 0.39488199 10462108
0.79108351 0.1252614 0.39535213 10527901
0.79070032 0.13538243 0.3951602 10658974
0.79203135 0.14505671 0.39541781 10724511
0.79293323 0.094926141 0.40555725 10330265
0.79276651 0.1051145 0.40454757 10396315
0.79203993 0.11521422 0.40491736 10462108
0.79043365 0.12515873 0.4052068 10462108
0.79072016 0.13538633 0.40535516 10593437
0.79135007 0.14475718 0.40475097 10724510
0.79213315 0.15509924 0.4042241 10724510
0.78900003 0.090761669 0.41370651 10461338
0.79071426 0.096645035 0.41433975 10395545
0.79261106 0.105096 0.41467041 10461594
0.79282141 0.11512888 0.4151133 10592924
0.79157698 0.12462766 0.41491663 10527389
0.7927407 0.13470171 0.41553158 10593439
0.79237509 0.097642146 0.42475626 10330265
