# .PCD v0.7 - Point Cloud Data file format
VERSION 0.7
FIELDS x y z rgb
SIZE 4 4 4 4
TYPE F F F U
COUNT 1 1 1 1
WIDTH 252
HEIGHT 1
VIEWPOINT 0 0 0 1 0 0 0
POINTS 252
DATA ascii
0.44075 -0.040874209 -0.062053952 13090487
0.43702 -0.034631263 -0.06302195 14340297
0.44000003 -0.038999297 -0.063882843 13222073
0.43478003 -0.024792746 -0.063127048 15656928
0.43740001 -0.016340433 -0.06276647 15460577
0.44100001 -0.012413592 -0.063851677 14342097
0.46566668 -0.051085461 -0.051976021 11907496
0.4443334 -0.042467486 -0.055009853 12564657
0.45033336 -0.045537535 -0.052028388 12630706
0.43460751 -0.03415573 -0.055158827 14603982
0.44000003 -0.038999297 -0.053324845 13024950
0.43161598 -0.024659898 -0.055141371 15723235
0.43395168 -0.01627299 -0.054867573 15460580
0.44400004 -0.0102503 -0.055108886 13224387
0.4975 -0.0609839 -0.040785439 11052701
0.46900001 -0.051451139 -0.049428362 12104875
0.4946 -0.057965863 -0.041240171 11842219
0.43516669 -0.040948201 -0.041960549 12827317
0.44611114 -0.042447977 -0.04829428 12498863
0.45416668 -0.046464507 -0.04874919 12564656
0.46350002 -0.049762707 -0.049390659 11906726
0.42792863 -0.032779027 -0.042883281 15064790
0.43090484 -0.035243347 -0.045364637 14275274
0.42732906 -0.025409849 -0.044384286 15854307
0.42999998 -0.024523338 -0.048925232 15854820
0.4285 -0.018719155 -0.042302456 15920616
0.43095756 -0.015699381 -0.045895886 15394530
0.49900001 -0.061167184 -0.039740242 11644839
0.50328571 -0.061859239 -0.036710154 12039596
0.51600003 -0.065868683 -0.032631729 11381665
0.49900001 -0.058830846 -0.039740242 11710632
0.50317872 -0.057557814 -0.035644658 11447460
0.42800003 -0.040941548 -0.030077996 12630449
0.43308002 -0.041753359 -0.035873093 12564656
0.42601639 -0.033661697 -0.034535933 14538446
0.43066674 -0.03798141 -0.036987349 13288379
0.42415002 -0.025180366 -0.035275139 15855077
0.42616332 -0.017409176 -0.034738727 15526627
0.43000001 -0.013450325 -0.038774967 14210514
0.51700002 -0.061558157 -0.029070694 11644837
0.42512009 -0.041701347 -0.0243051 12367534
0.41900003 -0.030598724 -0.020944498 14868181
0.42279801 -0.035008073 -0.025263632 14077895
0.41860008 -0.026126999 -0.021431493 15723747
0.42102495 -0.024675284 -0.026055137 15724005
0.42398727 -0.016137835 -0.025531413 15000027
0.42766669 -0.0098732244 -0.024048299 12697273
0.41875008 -0.042016342 -0.011701173 12236459
0.42278951 -0.041538715 -0.017115915 12367533
0.41750816 -0.033724714 -0.014153422 14210250
0.42106071 -0.037232783 -0.017375885 13223100
0.416549 -0.024833685 -0.015063044 15723747
0.41804764 -0.018225079 -0.0131162 15526371
0.42077941 -0.014508147 -0.015476709 14276819
0.42062503 -0.0093419477 -0.014789353 12829372
0.41736367 -0.042190194 -0.0055767405 12170667
0.41458181 -0.035300203 -0.0048797159 13749442
0.41234681 -0.024960641 -0.0048539219 15592418
0.4161616 -0.015279694 -0.0045218472 14408405
0.42000002 -0.01185933 -0.0096545946 13026496
0.41733333 -0.0093092648 -0.0039288634 12500921
0.4141053 -0.041756164 0.0063584819 12104104
0.40850002 -0.032125469 0.0075208936 14407631
0.41204053 -0.036018372 0.004475961 13552064
0.40845281 -0.025535986 0.0058300882 15395296
0.41047826 -0.022509364 0.0026548072 15527396
0.40900001 -0.019735152 0.0088381898 15526883
0.41381958 -0.015935484 0.0048742057 14474709
0.40878057 -0.0048853592 0.0065878388 13422022
0.41163638 -0.0078425109 0.0087421425 12829887
0.41269392 -0.042358611 0.014803303 11907239
0.40703353 -0.033860378 0.015475497 14012616
0.41111767 -0.03864786 0.013170595 12827826
0.40558198 -0.025027011 0.015164102 15461089
0.40744743 -0.018642616 0.015310341 15132383
0.41376668 -0.013963195 0.013250675 13487558
0.40900001 -0.0046548988 0.010753142 13158851
0.41315386 -0.0076118801 0.012112503 12829886
0.40877777 -0.040910318 0.023479121 12170668
0.41061541 -0.042385101 0.022460274 11907496
0.40408659 -0.0351278 0.024968008 13552321
0.40150458 -0.025235495 0.025344899 15395039
0.40621144 -0.01668098 0.025470134 14079440
0.41000003 -0.012344819 0.028296102 13487561
0.40233338 -0.041104108 0.038493659 12104875
0.39763156 -0.032403592 0.038045768 14078921
0.40086797 -0.035852481 0.033285536 13420478
0.39750001 -0.025729585 0.036587384 15263196
0.40019226 -0.023542741 0.031654462 15329504
0.39900002 -0.01917479 0.038901407 15000798
0.40194449 -0.016935304 0.034264445 14277075
0.39833334 -0.041056503 0.048315451 12170668
0.40115383 -0.041516855 0.043935038 12104875
0.39602929 -0.034354683 0.045567274 13815749
0.40014291 -0.038344014 0.041867256 12762805
0.39499182 -0.024833836 0.045200516 15263453
0.39776674 -0.018275848 0.045823935 15132127
0.40056813 -0.014999927 0.044674024 13948113
0.395087 -0.041050635 0.055348355 12170669
0.39282247 -0.034966785 0.054935623 13881286
0.38900003 -0.028104331 0.059175082 15065816
0.39204213 -0.024500599 0.054839384 15263454
0.39505458 -0.017372254 0.055276573 14934748
0.40057144 -0.013399995 0.052898955 13618892
0.39323816 -0.041520782 0.06248809 12169900
0.38849446 -0.034354147 0.066258796 14210252
0.39094132 -0.036995716 0.0622955 13617600
0.38808224 -0.025609445 0.065269262 15131611
0.39025 -0.021494256 0.061115917 15460832
0.38859996 -0.01800726 0.06796734 15132130
0.39125642 -0.017296441 0.06301339 14803163
0.38788465 -0.041505042 0.076006778 12236207
0.39000002 -0.043012779 0.072793908 11644327
0.38548887 -0.03510499 0.075198092 12104106
0.38468903 -0.025088632 0.075172804 12367536
0.38629022 -0.017638747 0.075195774 15065820
0.38262507 -0.041658401 0.085329652 11119011
0.37854761 -0.033109743 0.087355368 2567465
0.38119537 -0.035584338 0.083636969 2699308
0.37848213 -0.026425716 0.087208316 2698796
0.38114989 -0.023899892 0.083529614 2961453
0.38439211 -0.01622596 0.085181259 14605526
0.37900001 -0.040690541 0.098910794 10856100
0.38144928 -0.043039177 0.094818838 11776939
0.37669531 -0.03472339 0.095357686 2501674
0.38000005 -0.039315265 0.092697561 3028019
0.37650648 -0.02525321 0.095061205 2633003
0.38000003 -0.020337408 0.091165498 3289909
0.37842861 -0.018797528 0.097684622 12764866
0.38295329 -0.014678258 0.094454661 14276819
0.38484219 -0.0090740649 0.096235789 13487560
0.38300002 -0.050534397 0.10892081 11972779
0.37773341 -0.041292589 0.10591487 10263448
0.3815465 -0.045972701 0.10513154 12368050
0.36876467 -0.032228872 0.10890914 2304553
0.37256005 -0.035026453 0.10450081 2501418
0.36899999 -0.025137382 0.10927912 2172452
0.37227026 -0.02472074 0.10434102 2566696
0.37721065 -0.017408751 0.10506098 12763322
0.38123181 -0.01278285 0.104489 14539221
0.38291675 -0.0077470155 0.10586091 14144719
0.38205403 -0.051944859 0.11571833 12170155
0.37743866 -0.04335032 0.1155325 10986141
0.38096663 -0.047622044 0.11424122 12696242
0.36711931 -0.033771191 0.11523439 2304038
0.37144002 -0.038419306 0.11357627 2566952
0.36723509 -0.025188707 0.11517741 2237986
0.37656713 -0.015119546 0.11586319 12433843
0.38036847 -0.011592724 0.11227224 14144719
0.37889999 -0.0087471502 0.11884222 14144974
0.38114282 -0.0068093971 0.11504333 14210512
0.37836844 -0.051671602 0.12566608 12828085
0.3801429 -0.051746797 0.12075762 12893621
0.37708867 -0.045307752 0.12492419 11578532
0.38000003 -0.049248978 0.12007707 12697012
0.36333072 -0.034317683 0.12488469 2436134
0.37050003 -0.03934487 0.12228157 2829095
0.36363801 -0.025074404 0.12481292 2370088
0.36815795 -0.019249344 0.12653808 8817542
0.37514162 -0.014420553 0.12482457 12368050
0.37805697 -0.006623501 0.12519246 13815495
0.38071433 -0.0036294986 0.12144668 13816011
0.38100001 0.00012341311 0.12931234 12698045
0.37730014 -0.05163797 0.13425151 12631476
0.36900002 -0.040480748 0.13344593 5000268
0.37491918 -0.04526839 0.13482298 10855323
0.36525491 -0.034892984 0.13336669 1449241
0.37076184 -0.035342086 0.1389813 1186068
0.36448461 -0.02420331 0.13443969 1579800
0.37050003 -0.028719574 0.13940963 857102
0.3666842 -0.018605547 0.13502118 9406596
0.37396669 -0.013470685 0.13494682 11579049
0.37657011 -0.0058263429 0.1351123 13092546
0.38050005 -0.0010343821 0.1337734 12697532
0.38266668 0.00094643066 0.13517807 12171958
0.36206669 -0.0408471 0.14705546 4672073
0.37391672 -0.045549605 0.14054759 9605770
0.36377293 -0.035330921 0.14606468 923152
0.37119648 -0.033846047 0.14218321 988688
0.36521178 -0.024527146 0.14664607 1316111
0.37056416 -0.027396351 0.14363088 857103
0.36450002 -0.019507855 0.14502248 4333086
0.37372732 -0.012683034 0.14052381 9604231
0.37594998 -0.0060788766 0.14115146 10132630
0.38000003 -0.00076649763 0.14053756 8422276
0.36084214 -0.041364051 0.15503694 1580569
0.35831249 -0.032860834 0.15780166 1514774
0.36057809 -0.035529528 0.15383539 1448981
0.35857147 -0.02717571 0.15784191 1448210
0.36070547 -0.024339879 0.15392993 1711125
0.36100003 -0.018845163 0.15437429 2760219
0.34405264 -0.041344594 0.1671973 1646619
0.35493755 -0.040648587 0.16381338 791054
0.36040002 -0.040887594 0.16096196 1382418
0.34435254 -0.035007734 0.16689417 1449238
0.35459334 -0.035159901 0.16287352 1186323
0.36000001 -0.038861338 0.16032007 791051
0.34529921 -0.025398392 0.16702929 1580567
0.3542529 -0.026228946 0.16269208 1317653
0.34549999 -0.019297466 0.16785979 1645079
0.35100001 -0.019607041 0.16514531 1185044
0.33723333 -0.040916719 0.17647153 1711642
0.33999997 -0.04127907 0.17179529 1514779
0.33775875 -0.035622016 0.17484793 1580825
0.34019297 -0.035154283 0.17111143 1515032
0.33820692 -0.025840636 0.17423543 1777689
0.34043756 -0.024532566 0.1715308 1777690
0.34150001 -0.019675665 0.17146415 1907734
0.33302367 -0.041602317 0.18365274 1711902
0.33163419 -0.035162382 0.18567483 1975071
0.33143392 -0.026258113 0.18561214 2106141
0.7930001 0.087302685 0.30813113 10592924
0.7931177 0.095386378 0.30588445 10724510
0.79100001 0.077569515 0.31892565 10263959
0.79320002 0.085526541 0.31526452 10527131
0.78900003 0.074138105 0.32320043 10658717
0.79038894 0.077867284 0.32479692 10395288
0.79322219 0.085680343 0.32492927 10592667
0.79079998 0.078566007 0.33523154 10395288
0.79337043 0.085627146 0.33503234 10527131
0.79133338 0.078525923 0.34407166 10329749
0.79266655 0.085824683 0.34470075 10527385
0.79299974 0.10521364 0.34511122 10724510
0.79162955 0.11495088 0.34507367 10659231
0.79280764 0.12475176 0.34496206 10725023
0.79316121 0.15514873 0.34515062 10856353
0.79155564 0.079319865 0.35512891 10329751
0.79189986 0.085534185 0.3549754 10461337
0.79166675 0.094774343 0.35486975 10658460
0.79068768 0.10460649 0.35501006 10658717
0.79174072 0.11524293 0.35507625 10724510
0.78900003 0.079063602 0.36260447 10263959
0.79000002 0.078855574 0.36059815 10263959
0.78883338 0.083663642 0.36591271 10461338
0.79016668 0.08647719 0.36375675 10395545
0.79057705 0.094503127 0.36477694 10527131
0.79106677 0.10488875 0.3647922 10724510
0.7920385 0.11535992 0.36502492 10724510
0.79033333 0.088242903 0.37575805 10461338
0.79216671 0.094992332 0.37472463 10527131
0.79014289 0.088514999 0.38523769 10395545
0.79199994 0.094817534 0.38468492 10461338
0.79320008 0.12466823 0.38526899 10724510
0.79274976 0.13480568 0.38505194 10724767
0.79162508 0.088515438 0.39446938 10395545
0.79171997 0.094781898 0.39474592 10329753
0.79193318 0.10500383 0.39485139 10527131
0.792 0.11521047 0.39488551 10527644
0.79291993 0.12462566 0.39534342 10658974
0.79258615 0.094756864 0.40522099 10330265
0.79300004 0.087508954 0.41023463 10396315
0.79133332 0.096280605 0.41472271 10395803
