# .PCD v0.7 - Point Cloud Data file format
VERSION 0.7
FIELDS x y z rgb
SIZE 4 4 4 4
TYPE F F F U
COUNT 1 1 1 1
WIDTH 271
HEIGHT 1
VIEWPOINT 0 0 0 1 0 0 0
POINTS 271
DATA ascii
0.44033337 -0.04063322 -0.062326595 13024437
0.43718362 -0.034685131 -0.063037165 14274761
0.44000003 -0.038999297 -0.064912885 12629936
0.43416008 -0.024758436 -0.063037559 15657185
0.43672508 -0.016086008 -0.063028738 15460320
0.46300003 -0.050792918 -0.052047689 12498350
0.4448334 -0.042357359 -0.054772533 12564656
0.4532308 -0.046627086 -0.052163575 12564657
0.43414801 -0.034153748 -0.055095989 14538446
0.44000003 -0.038999297 -0.053582359 13287866
0.42900002 -0.026474901 -0.050234206 15591906
0.43087497 -0.024623601 -0.055176716 15722979
0.43350801 -0.016495707 -0.054972176 15592165
0.44200003 -0.010719152 -0.056920744 13289411
0.49700001 -0.060340282 -0.04074445 11184288
0.49650002 -0.058536686 -0.040703461 12039343
0.43520004 -0.04081561 -0.04220058 12827828
0.44500002 -0.042052317 -0.048803788 12564143
0.45299998 -0.045637336 -0.049332049 12367277
0.4605 -0.049440619 -0.049070973 12038825
0.42808333 -0.032432608 -0.042863172 15065047
0.43165463 -0.035749473 -0.045529258 14077639
0.42744049 -0.025472641 -0.044792943 15789028
0.43000001 -0.023013381 -0.048942007 15855078
0.42847055 -0.019036489 -0.042443961 15855080
0.43062267 -0.015721748 -0.045177292 15328993
0.49900001 -0.061167184 -0.039740242 11644583
0.50490904 -0.060869563 -0.034831818 11908011
0.51800001 -0.067740455 -0.032764867 11578533
0.49850002 -0.058772482 -0.039700422 11315874
0.50261116 -0.057884164 -0.03649094 11447203
0.42800003 -0.040941548 -0.030077996 12564654
0.43333337 -0.041749325 -0.035994187 12564912
0.42577788 -0.033710346 -0.034577917 14603982
0.4308421 -0.038135838 -0.037074562 13287866
0.42381999 -0.025160195 -0.035248939 15789286
0.42641175 -0.017415149 -0.034943517 15526629
0.43000004 -0.013953643 -0.038559258 14539477
0.42484009 -0.042230789 -0.023093192 12236204
0.41900003 -0.030762207 -0.020617537 14999767
0.42277327 -0.035042714 -0.025307996 14077894
0.41857901 -0.02601186 -0.021371081 15724005
0.42096305 -0.024717914 -0.026009133 15789541
0.42466262 -0.015961625 -0.02523597 14934749
0.43000001 -0.0099270912 -0.023172082 12895422
0.41888893 -0.042248446 -0.011132766 12104618
0.42274079 -0.041869167 -0.016416272 12301740
0.41734543 -0.03367376 -0.013965948 14210250
0.42125729 -0.037171211 -0.017293723 13354171
0.41667002 -0.024842151 -0.015006831 15723748
0.42000002 -0.020511733 -0.019683514 15658212
0.41831827 -0.018069321 -0.012840218 15526370
0.42074245 -0.014727794 -0.015647383 14473940
0.41900003 -0.0086922571 -0.014241774 12961214
0.42000002 -0.0096962294 -0.014374087 12698298
0.41742313 -0.042148888 -0.0065280469 12170411
0.41449991 -0.035292018 -0.0048803515 13814722
0.41262773 -0.024977056 -0.0048579606 15526881
0.41649997 -0.015169046 -0.004712211 14342611
0.42000002 -0.01185933 -0.0096545946 13027008
0.41742858 -0.0087297196 -0.0046273088 12698044
0.42000002 -0.0096962294 -0.0098512396 12435128
0.4141852 -0.042243384 0.0071993498 11973289
0.40844446 -0.032059729 0.0073463996 14407630
0.41176394 -0.036019675 0.0044381861 13551808
0.40836617 -0.025608618 0.0059364829 15460831
0.41058335 -0.022612432 0.002383834 15592676
0.40900001 -0.019495783 0.0085988203 15723747
0.41345838 -0.015559901 0.0046106623 14342611
0.40886128 -0.0055306139 0.0071344548 13290436
0.41039997 -0.0064028739 0.0074739759 13027262
0.41268528 -0.042664606 0.014699996 11973032
0.40678906 -0.033840775 0.015466922 13947335
0.41100001 -0.038636886 0.013166608 12762035
0.40544525 -0.025017207 0.01515909 15460832
0.40803865 -0.018033946 0.01516817 14934490
0.41060001 -0.013417278 0.011900987 13224387
0.40899995 -0.0060475916 0.01147125 13224387
0.41000003 -0.0044743167 0.01111537 13290180
0.40877777 -0.040697545 0.023266351 12302254
0.41088238 -0.042587046 0.022613171 11907496
0.40397966 -0.034863338 0.024830833 13552578
0.40148562 -0.025707103 0.024986085 15198173
0.40654057 -0.017223164 0.023544051 14145746
0.41050002 -0.012839783 0.024967151 13225414
0.40361542 -0.041445203 0.037848283 12235947
0.39786848 -0.032472264 0.03723545 14144201
0.40081441 -0.035971332 0.033907209 13420478
0.39758042 -0.025569724 0.036245625 15197916
0.40004349 -0.023771394 0.032352515 15198430
0.39900002 -0.019486146 0.039212763 15658982
0.40199992 -0.017188113 0.036299489 14408917
0.39850003 -0.041151553 0.048024669 12170411
0.40144002 -0.041522857 0.043321144 12235691
0.39584443 -0.034391563 0.045517594 13881286
0.40016672 -0.038513567 0.041903127 12762035
0.39495099 -0.024792746 0.045234717 15263454
0.3972857 -0.018537669 0.045848627 15132126
0.40130004 -0.014929778 0.044763919 13948366
0.39490476 -0.040989392 0.055619586 12301998
0.39270416 -0.034917533 0.054957621 13815750
0.39185113 -0.024637066 0.055015069 15263454
0.39480388 -0.017481621 0.055027213 14869212
0.40178576 -0.013102959 0.055479206 13355975
0.39352944 -0.0417112 0.061973494 12169898
0.38834095 -0.034298941 0.066240989 14210253
0.39091441 -0.037030682 0.062393147 13552322
0.3879042 -0.025502844 0.065154143 15066076
0.39025003 -0.02157044 0.060849719 15394785
0.38872001 -0.018328333 0.067940243 15132640
0.39113045 -0.017088236 0.063516244 14737627
0.38727778 -0.04132605 0.076682836 12301999
0.39083332 -0.04282666 0.073431917 11840936
0.38529834 -0.035121158 0.075198837 11972778
0.38468909 -0.025088402 0.075174004 12302000
0.38647613 -0.017666323 0.07488285 14935006
0.38311115 -0.041863356 0.085178487 11316390
0.37869233 -0.032576673 0.08812312 2633000
0.38119426 -0.035201982 0.084183708 2698794
0.37856102 -0.02622525 0.087955222 2895147
0.38119373 -0.024295134 0.083814152 3092523
0.38438603 -0.016263122 0.085221544 14539477
0.37900001 -0.040690541 0.098910794 11315620
0.38183331 -0.043416183 0.095007785 11842218
0.37644941 -0.034759942 0.09522675 2501673
0.38028574 -0.039175157 0.091932334 2633515
0.37627313 -0.025135772 0.095028788 2633003
0.38000003 -0.020337408 0.091165498 3289903
0.37835297 -0.018737923 0.097672217 12830659
0.38284475 -0.014607873 0.09467154 14276819
0.38468426 -0.0091652907 0.096766241 13619146
0.38300002 -0.050534397 0.10892081 12038571
0.37787101 -0.041369427 0.10601639 10460569
0.38161364 -0.04603976 0.10501286 12433329
0.36900002 -0.030762598 0.10947451 2238502
0.37286133 -0.034854803 0.10496403 2501416
0.36900011 -0.024654046 0.1089809 2500902
0.37229368 -0.024796143 0.10408734 2501415
0.37744188 -0.017584981 0.10465304 12565686
0.38114661 -0.012948566 0.10475536 14407890
0.38298327 -0.0077634589 0.10584907 14079185
0.38205552 -0.051876046 0.11565414 12235949
0.37707049 -0.043088991 0.11572903 10723226
0.38091061 -0.047792118 0.11419999 12630451
0.36724994 -0.03342817 0.1155825 2238244
0.37159458 -0.037688334 0.1133491 2436137
0.36745846 -0.025235467 0.11522856 2237985
0.37 -0.020668389 0.11648405 2827293
0.37613329 -0.015406517 0.11605123 12235949
0.3802858 -0.012042978 0.11185763 14144973
0.37892857 -0.0085577536 0.11853439 14210508
0.38102901 -0.0066625089 0.11489188 14210767
0.37887877 -0.051616888 0.12622619 12893622
0.38016674 -0.052237432 0.12153843 12696244
0.37707818 -0.045270782 0.12501863 11643813
0.38000003 -0.049248978 0.12007707 12959416
0.36344182 -0.034319229 0.12483884 2501670
0.37050003 -0.039561413 0.12206209 2500133
0.36378193 -0.024984132 0.12488604 2501160
0.36805004 -0.019137058 0.12698209 9080460
0.37492961 -0.014422148 0.1248958 12499635
0.37791783 -0.006807412 0.12494233 13815751
0.38025004 -0.0036599152 0.12171313 13881801
0.37710214 -0.051531654 0.13439728 12762292
0.36900002 -0.040480748 0.13474169 4803659
0.37482491 -0.045321826 0.13469888 10920861
0.36445284 -0.035292316 0.13292795 1515036
0.37069228 -0.034390312 0.13923134 1054995
0.36307159 -0.023939952 0.13358462 1842975
0.37100002 -0.02897517 0.1398146 857102
0.36592111 -0.01849848 0.13535033 9010557
0.37397653 -0.013343518 0.13462299 11841707
0.37662491 -0.0056471503 0.13509633 13092287
0.38033333 -0.0010636989 0.1329425 12894909
0.38174999 0.00057079043 0.13492753 12106165
0.36200005 -0.040822171 0.14689541 4474438
0.37427273 -0.045925524 0.14064807 8882820
0.36265257 -0.0354601 0.1463834 988688
0.37229314 -0.034417979 0.1426 1054481
0.36399984 -0.024343707 0.1468274 1381647
0.37173691 -0.027660815 0.14427994 791309
0.36390004 -0.018962124 0.14401518 4727845
0.37372732 -0.012683034 0.14052381 9604232
0.37515387 -0.0068356255 0.14083943 10066580
0.36029723 -0.04128122 0.15463451 1646617
0.35835806 -0.033354573 0.15722321 1515032
0.36044586 -0.035679471 0.15334353 1449239
0.35858071 -0.027503632 0.1576356 1383446
0.36074588 -0.024243761 0.15425625 1579798
0.36125001 -0.01885796 0.15406041 3088157
0.3437106 -0.041366767 0.16722228 1646618
0.35486668 -0.040699761 0.16407 790797
0.36071429 -0.041019861 0.16139188 1317137
0.34421903 -0.035026077 0.16686904 1449238
0.35470429 -0.035174869 0.1627717 1317396
0.36000001 -0.039212491 0.16039029 923147
0.34463242 -0.025662679 0.16688518 1515032
0.35490477 -0.027457813 0.16221631 1449240
0.361 -0.021851178 0.1601304 1843742
0.34260005 -0.019779252 0.16841 1842971
0.36300001 -0.019427575 0.16059382 1185814
0.33712897 -0.040930279 0.1764541 1580569
0.34 -0.041478053 0.17166029 1449239
0.33781105 -0.035666984 0.17472158 1580569
0.34014285 -0.034827694 0.17105427 1580824
0.33808061 -0.025754321 0.17403799 1777691
0.3403208 -0.024977442 0.17110804 1777689
0.34099999 -0.019580627 0.17028587 1710869
0.33250004 -0.04101735 0.18510371 1711641
0.33136004 -0.034987807 0.18651392 2106143
0.33131036 -0.026449755 0.18634306 2105886
0.79000002 0.07608147 0.31991127 10198166
0.78900003 0.075985163 0.3278181 10264213
0.79080003 0.078381069 0.32467708 10329752
0.78900003 0.075985163 0.3305887 10198420
0.79071426 0.079323336 0.33580375 10395801
0.79264289 0.085815512 0.33522797 10461593
0.79166669 0.078507818 0.34406167 10395545
0.79261529 0.085397772 0.34523597 10461338
0.78850007 0.078706436 0.35806757 10263702
0.79100001 0.079881258 0.35735109 10395288
0.79249996 0.085599601 0.35504505 10461082
0.79300004 0.094934665 0.35454178 10592924
0.79224229 0.10507146 0.35470858 10658717
0.79296005 0.11535056 0.35452485 10724510
0.778 0.080389738 0.36331546 10395547
0.78845459 0.085162632 0.36375093 10395546
0.7905556 0.088266917 0.36372778 10461338
0.79223335 0.094844528 0.36439794 10527132
0.79287857 0.10510025 0.36511767 10724253
0.79248381 0.11534009 0.36472109 10724508
0.78800005 0.086957194 0.37444302 9934994
0.79000002 0.089027308 0.37354398 10790303
0.79211116 0.094624482 0.37495387 10527131
0.7931332 0.1051609 0.37502652 10592923
0.79133344 0.1150344 0.37432972 10658971
0.79069728 0.12506175 0.37516382 10659485
0.79270959 0.13537006 0.37464237 10725023
0.78900003 0.085836172 0.38784763 10133143
0.79000002 0.088657416 0.38575006 10330265
0.79114288 0.094913326 0.38459983 10461594
0.79276192 0.12486404 0.38492656 10659230
0.7926333 0.13521919 0.38524336 10659487
0.7906667 0.088074192 0.39422244 10133144
0.79145837 0.094828524 0.39461625 10396059
0.79245466 0.088460512 0.40505889 10198938
0.79189986 0.094803207 0.40502888 10330010
0.79254538 0.10483384 0.40493894 10461595
0.79283321 0.1348187 0.40458077 10527901
0.79179984 0.14483719 0.40479499 10593181
0.79112917 0.15505138 0.40538365 10724510
0.79228562 0.16513295 0.40489647 10790303
0.79079998 0.096523665 0.41465113 10330522
0.79296428 0.10507661 0.41459221 10527131
0.79257137 0.12443804 0.41465193 10527388
0.7924481 0.15531944 0.4153879 10658719
0.79288 0.16545472 0.41499901 10790305
0.79228568 0.13485688 0.4347682 10592925
0.7911669 0.14472212 0.43428716 10527389
0.792 0.1544957 0.43497652 10658717
0.78844452 0.10771931 0.44315159 10330523
0.79000002 0.10752135 0.44012251 10396317
0.78857881 0.11451831 0.4440909 10461339
0.79000002 0.11553543 0.44043076 10461340
0.78899992 0.12447057 0.4453375 10592925
0.79000002 0.12561908 0.44144359 10527133
0.78900003 0.13139705 0.44603014 10592925
0.79030442 0.13563688 0.44375038 10461340
0.79068011 0.14463334 0.4442032 10527390
0.78900003 0.15356182 0.4451066 10592924
0.79041398 0.15479542 0.4439888 10527388
