# .PCD v0.7 - Point Cloud Data file format
VERSION 0.7
FIELDS x y z rgb
SIZE 4 4 4 4
TYPE F F F U
COUNT 1 1 1 1
WIDTH 921
HEIGHT 1
VIEWPOINT 0 0 0 1 0 0 0
POINTS 921
DATA ascii
0.79220003 0.065101162 0.14517134 10856096
0.79234612 0.074311428 0.14485858 10987682
0.79231995 0.11525635 0.14464289 11513769
0.79185712 -0.095080525 0.15488239 11908525
0.79213333 -0.085045032 0.15480494 11777195
0.79166675 0.054926939 0.15471062 10922146
0.78900003 0.063055716 0.15881181 12502463
0.79056025 0.064957038 0.15505251 11120039
0.79135489 0.074838907 0.15503965 11777455
0.78900003 -0.15674481 0.16989419 15329763
0.78885716 -0.10421709 0.16933571 15723749
0.79224014 -0.10590677 0.16427961 12434356
0.78866667 -0.094960093 0.16744778 13948108
0.79039997 -0.094852045 0.1624236 12040112
0.78866667 -0.084673546 0.16797538 14606297
0.79080003 -0.08490181 0.16287541 11646125
0.78881818 -0.075791821 0.16867967 15329505
0.79134792 -0.074570239 0.16379225 12303796
0.78858346 -0.065281175 0.16888098 15263199
0.79177278 -0.064364351 0.16357809 12763320
0.78864288 -0.054867484 0.16810216 15263199
0.79219055 -0.055200763 0.16245116 12631479
0.78850007 -0.044968963 0.16886301 15131613
0.78866673 -0.034823909 0.16797538 14869213
0.78855556 -0.02466549 0.1679517 14145746
0.79221743 -0.024902206 0.16235757 11645872
0.78826678 -0.014508218 0.16788985 14211539
0.79106659 -0.014559281 0.16292985 12237236
0.78816658 -0.0049721915 0.1672527 14211283
0.79058337 -0.0057593561 0.16236851 12170928
0.78808331 0.0048672757 0.16692698 14540247
0.79058331 0.0048834975 0.16190596 12566715
0.78800011 0.015013026 0.16690883 14277075
0.79079998 0.015067073 0.1619501 13028039
0.78820825 0.025165895 0.1669537 14211282
0.79066664 0.025243357 0.16192292 13752017
0.78786355 0.035549346 0.1664608 14277332
0.79025 0.034711376 0.16160691 14211796
0.78707129 0.045001831 0.16578837 14474454
0.79000002 0.043716893 0.16086249 14606294
0.78776473 0.054928817 0.16479595 14605784
0.7872256 0.064934157 0.16504703 14802906
0.78718746 0.074773319 0.16517936 15066077
0.79000002 0.077930868 0.16086249 15198177
0.78696287 0.085204989 0.16535635 15394786
0.79000002 0.083479084 0.16086249 15527142
0.78765619 0.094815232 0.16550992 15657700
0.79000002 0.097349614 0.16086249 15920617
0.78883338 0.10305392 0.16862695 13157566
0.79100013 0.10573097 0.16415119 11842221
0.78900003 -0.17152131 0.17820597 15789031
0.7911725 -0.17576391 0.17457494 14275791
0.78875995 -0.16452727 0.17604642 15460322
0.79009998 -0.16602682 0.17124069 15657698
0.78827995 -0.15475608 0.17527416 15657701
0.79000002 -0.1546317 0.17010953 15461348
0.78844428 -0.14514913 0.17510518 15591908
0.79000002 -0.14492233 0.17010953 15527144
0.78807133 -0.13501503 0.17542425 15525858
0.79000002 -0.13475062 0.17010953 15461607
0.78763986 -0.12512849 0.17512962 15460065
0.79000002 -0.1255036 0.17010953 15658728
0.78753346 -0.11497215 0.17510596 15591652
0.79000002 -0.11533186 0.17010953 15789543
0.78676003 -0.1047297 0.17493376 15591909
0.7857241 -0.095014252 0.17514579 15460322
0.78459996 -0.085023776 0.17550029 15262943
0.78473353 -0.075065106 0.17539835 15262943
0.78497213 -0.064981192 0.17545211 15262686
0.78503346 -0.054878876 0.17546739 15196893
0.78516656 -0.044779316 0.17549795 14933722
0.78413361 -0.034624048 0.17526603 14736343
0.78376687 -0.02543404 0.175184 14342098
0.78380579 -0.015342819 0.17519262 13947597
0.78413337 -0.0052528591 0.17526695 13947598
0.78350031 0.0048372429 0.17512596 14079439
0.78263324 0.014910703 0.17493249 13947340
0.78336108 0.025011508 0.17509325 13684168
0.77900004 0.037941162 0.17807494 13684168
0.78262973 0.034723528 0.17448868 13947340
0.7790001 0.043290544 0.17740625 13947340
0.78161532 0.045715928 0.1734381 14210512
0.7821666 0.05518597 0.17482762 14210512
0.77900004 0.068639323 0.17777099 13881547
0.78187513 0.064773038 0.17430542 14276305
0.77881819 0.07516975 0.17748059 13881547
0.78157896 0.075174376 0.17272319 14605270
0.77900004 0.081100948 0.17807494 14342098
0.78183872 0.085450836 0.17460641 14933722
0.78390628 0.09534023 0.17498717 15262942
0.78808326 0.10526358 0.17538381 12368563
0.79000002 0.10875428 0.17072599 11514023
0.78900003 0.11440408 0.17802127 11448230
0.79035008 0.11515492 0.17305169 11447974
0.78900003 0.12123821 0.17820598 11514023
0.79044849 0.12519431 0.17460771 11447975
0.78900003 -0.17152131 0.18097657 15262687
0.79070836 -0.17575133 0.18522495 13288642
0.78859991 -0.16442065 0.1847613 15065308
0.79000002 -0.16988929 0.18767884 15196894
0.7875334 -0.15461095 0.18524748 14867929
0.78646672 -0.14519511 0.18499526 14868185
0.78586096 -0.13496578 0.18485337 14867929
0.78460008 -0.12464649 0.1845571 14802137
0.784639 -0.11454771 0.18456638 14736343
0.78503323 -0.10449917 0.18466093 14736856
0.78444451 -0.095444106 0.18503244 14671063
0.78366691 -0.085054882 0.18525836 14605270
0.78296012 -0.074896805 0.18508984 14539221
0.78196681 -0.064733602 0.18485329 14473171
0.78200006 -0.054666229 0.18486147 14407634
0.78263348 -0.044633564 0.18501163 14276049
0.78288019 -0.034568954 0.18507129 14078413
0.78227997 -0.025385624 0.18493024 13881034
0.78240013 -0.015315039 0.18495892 13749704
0.78300017 -0.0052454234 0.18509935 13354947
0.78283364 0.0048343227 0.1850605 13815754
0.78195989 0.014897764 0.18485449 13552582
0.78176653 0.024959086 0.18480812 13552582
0.7790001 0.036421452 0.18263407 13684168
0.78038466 0.033558443 0.18588734 13618375
0.77886683 0.043526635 0.18242081 13815754
0.78013331 0.04639728 0.18612656 13815754
0.78108001 0.05510962 0.18464543 13815754
0.77900016 0.067439541 0.18568949 13749961
0.78058827 0.062382776 0.18474296 13749961
0.77763343 0.074889012 0.1847398 13881547
0.77877408 0.08435227 0.18527666 14144719
0.78000003 0.089361161 0.18365978 14341841
0.78157699 0.09525907 0.1849726 14539477
0.78682756 0.10512431 0.18492371 12171443
0.78900009 0.11309435 0.18315949 11448230
0.79050004 0.1163142 0.18621269 11382437
0.79175013 0.12428858 0.18516435 11382694
0.78887504 -0.17218678 0.19641413 14999516
0.7909525 -0.17662115 0.19447447 12499640
0.78790003 -0.16568965 0.19461675 15262687
0.78376687 -0.15509664 0.19512333 14999515
0.77900004 -0.14341098 0.19793248 14933722
0.78171998 -0.14534257 0.1937965 14867929
0.77900004 -0.1383453 0.198743 14933722
0.78230017 -0.13496162 0.19469732 14736600
0.78300035 -0.12517691 0.19531122 14736600
0.78346694 -0.11529396 0.19529656 14538964
0.78397071 -0.10548937 0.19515084 14473171
0.78396684 -0.095180713 0.19541883 14341841
0.78466666 -0.085163243 0.19467695 14210255
0.78311127 -0.07470876 0.19469951 14209999
0.78194433 -0.064731553 0.19491988 14013132
0.78193319 -0.054662164 0.19491643 14078668
0.78255576 -0.044628523 0.1950708 14012875
0.78332174 -0.03478336 0.19493429 13750216
0.78403997 -0.025442362 0.19452484 13487045
0.78377444 -0.01519601 0.19463556 13420996
0.78303361 -0.0052457242 0.19518927 13157824
0.78302819 0.0048363754 0.19518776 13486789
0.78250015 0.01490785 0.19505683 13223617
0.78269458 0.024989702 0.19510624 12960445
0.78233331 0.035050537 0.19501723 13157824
0.78194451 0.045101337 0.19492058 13487045
0.78143328 0.05513306 0.19479194 13552581
0.77900016 0.067083851 0.19466664 13684168
0.78023088 0.062354539 0.19596669 13684167
0.77855992 0.074980013 0.19498681 13815754
0.7790001 0.082316712 0.19327202 14013133
0.78014994 0.086547419 0.19629742 14144719
0.78165525 0.095534801 0.19500388 14342612
0.78734779 0.10500114 0.19486184 12303029
0.79000002 0.10937075 0.19785058 11514023
0.78850001 -0.17279769 0.20531988 14999772
0.79135716 -0.17799027 0.20480584 10986914
0.78583336 -0.1653178 0.20508382 15460065
0.78288895 -0.15546444 0.20516574 15262687
0.77900004 -0.14381625 0.20056668 14867929
0.78162509 -0.14521532 0.20551477 14999515
0.77900004 -0.1383453 0.20056666 14604757
0.78296155 -0.13481636 0.20560886 14867929
0.78421444 -0.12517312 0.20538701 14802136
0.78420013 -0.11540313 0.20557921 14736343
0.78350031 -0.10498259 0.20505036 14538964
0.78332007 -0.09510088 0.20534676 14473171
0.78441674 -0.085135452 0.20471723 14341585
0.78442866 -0.075233795 0.20504825 14341585
0.78433347 -0.064928308 0.2056143 14078413
0.78396004 -0.054805037 0.20551647 13947340
0.78376687 -0.044698428 0.20546588 13749961
0.78474081 -0.034445677 0.20531276 13552582
0.78513324 -0.025477998 0.20490357 13355203
0.78462857 -0.015491998 0.20490238 13157824
0.78316015 -0.005247056 0.20530508 12960445
0.78300029 0.0048361714 0.20526259 13223617
0.78284019 0.014914248 0.20522109 13092287
0.78316694 0.025005421 0.20530686 13223617
0.78404015 0.035128113 0.20553616 13157824
0.78373349 0.04520414 0.20545693 13158080
0.78304017 0.055246774 0.20527501 13552837
0.7822333 0.065260254 0.20506364 13618630
0.78152001 0.075264893 0.20487745 13749960
0.78179997 0.085357592 0.20494944 14078926
0.78263992 0.095529854 0.20516877 14211284
0.78766662 0.10430915 0.20490551 12960959
0.79000002 0.10937075 0.20524819 11382183
0.80460727 0.13527618 0.2050731 11382438
0.80472016 0.14531688 0.20530267 11382439
0.78822219 -0.17319852 0.21493463 14473688
0.79059994 -0.17834765 0.21465763 9999764
0.78488469 -0.16497734 0.21515478 15394530
0.78314739 -0.15488051 0.2151151 15262944
0.78440011 -0.14481142 0.21481283 14999771
0.78626651 -0.13503259 0.21532382 14868186
0.78632003 -0.12491982 0.21533766 14933722
0.78527576 -0.11480189 0.21498775 14867929
0.78403866 -0.10457855 0.21478282 14736343
0.78413349 -0.095200226 0.21565488 14605014
0.78499991 -0.08519873 0.21497534 14407635
0.7850399 -0.075095028 0.2149865 14407635
0.78546655 -0.065021895 0.21510413 14013133
0.78583992 -0.054934673 0.21520723 14013133
0.78646678 -0.044851985 0.21537955 13881547
0.78684008 -0.034743823 0.2154815 13618375
0.7862401 -0.025514502 0.21531564 13420996
0.78556663 -0.015378549 0.2151313 13289410
0.78428 -0.0052551217 0.21478072 13092031
0.7844668 0.0048464788 0.21483102 13355203
0.78475988 0.014951114 0.21491066 13223617
0.78473341 0.025054386 0.21490431 13026238
0.78487998 0.035165653 0.21494298 13289410
0.78499991 0.045277897 0.21497536 13420996
0.78460002 0.055357207 0.21486716 13420996
0.78410727 0.065089151 0.21453664 13684168
0.78396314 0.075091869 0.21489745 13749961
0.78331065 0.084983811 0.21495597 14013133
0.78297091 0.094651595 0.21533668 14276305
0.78775001 0.10475907 0.21518999 12763578
0.79000002 0.10937075 0.21449521 11250851
0.78800011 -0.17315021 0.22502054 14473432
0.79083329 -0.17840058 0.22490473 9868178
0.78520691 -0.16531071 0.22530088 15328993
0.78453135 -0.15470903 0.22552398 15263200
0.78529996 -0.14497809 0.22516935 15196894
0.78639984 -0.1351874 0.22535163 14999771
0.78653848 -0.12502499 0.22481523 14933979
0.78561091 -0.11469276 0.22525811 14933979
0.78390008 -0.10434996 0.22476612 14736856
0.78288007 -0.095048316 0.22539048 14605270
0.78413898 -0.085102767 0.22483505 14407891
0.78555167 -0.075270817 0.22508392 14407891
0.78659993 -0.065115474 0.22462234 14407891
0.78740007 -0.055043817 0.22485065 14276305
0.78786671 -0.044932604 0.22498256 14078926
0.78780007 -0.034786396 0.22496399 14013133
0.7870335 -0.024618458 0.22474463 13815754
0.78684014 -0.01448137 0.22469002 13552582
0.78648013 -0.0052695787 0.22458787 13486789
0.78542858 0.0049812659 0.22507547 13618375
0.78516656 0.014959829 0.22513045 13815754
0.78516656 0.025068471 0.22513002 13552582
0.78516662 0.035178568 0.22512986 13618375
0.7851944 0.045288302 0.22513789 13749961
0.78496659 0.055382829 0.22507304 13815754
0.78493327 0.064568572 0.22506328 13749961
0.78463894 0.074645206 0.22497845 13881290
0.78270966 0.08507096 0.22510426 14013133
0.78274077 0.095473416 0.22501098 14342098
0.78742862 0.10427763 0.22512019 12960445
0.79000002 0.10937075 0.22559166 11447719
0.78785008 -0.17348638 0.23530547 13881037
0.79037499 -0.17852779 0.23425573 9933970
0.78516001 -0.16517325 0.23523746 15197407
0.78506655 -0.15504412 0.23520981 15263200
0.78559995 -0.14503388 0.23536907 15131614
0.78625804 -0.13488302 0.23538837 14868442
0.78700012 -0.12496345 0.23502688 14999771
0.7864666 -0.11481806 0.23563008 15000028
0.78479993 -0.10446888 0.23513216 14868442
0.78404015 -0.09518934 0.23490512 14802649
0.78499997 -0.085196003 0.23519164 14671063
0.7871154 -0.075150304 0.23561241 14671063
0.787889 -0.065222599 0.23513383 14736856
0.78793341 -0.055081986 0.23514631 14671063
0.78752786 -0.044913545 0.23502524 14407891
0.78743345 -0.034769926 0.23499714 14144719
0.78719461 -0.024622941 0.23492683 14013389
0.78733343 -0.014490263 0.23496909 13816011
0.78720021 -0.0052737161 0.23492883 13553095
0.78651619 0.0047079129 0.23546654 13553352
0.78587997 0.014972074 0.23545431 13618888
0.78509992 0.0250652 0.23522098 13487301
0.78380013 0.03511586 0.23482935 13750218
0.78336686 0.045183659 0.23469931 13815754
0.78348023 0.055278473 0.23473383 13947340
0.78353363 0.065370232 0.23474957 13749705
0.78308016 0.075414762 0.23461445 13946827
0.78205705 0.085515402 0.23509318 14078669
0.78242862 0.095306553 0.23500811 14276305
0.78734773 0.10459971 0.23509131 13026494
0.79000002 0.10937075 0.23391396 11382440
0.78811115 -0.17378967 0.24473204 13354692
0.79022223 -0.17857021 0.24600506 9802383
0.78444839 -0.16489877 0.24496502 15197151
0.78372258 -0.15477799 0.24489562 15197150
0.78396672 -0.14473273 0.2449712 15065564
0.7849167 -0.1348013 0.24526858 14999772
0.78559989 -0.12480437 0.24548255 14999515
0.78558326 -0.11468715 0.24547765 14933978
0.78575855 -0.10472188 0.24537501 15000028
0.7865001 -0.094895415 0.24504372 14868442
0.78670353 -0.084871083 0.24470548 14736856
0.78788012 -0.075366415 0.2452752 14802649
0.78800005 -0.065232389 0.24531245 14802649
0.78780007 -0.05507319 0.24525021 14802649
0.78706682 -0.044886909 0.24502157 14539477
0.78700006 -0.034750327 0.24500112 14276305
0.78796673 -0.024647266 0.24530225 14078927
0.78800005 -0.014502529 0.24531251 13947341
0.78792006 -0.0052787568 0.24528734 13815754
0.78706676 0.0048608989 0.24502176 13618631
0.78671998 0.014987796 0.24491428 13684681
0.78616655 0.025099097 0.24474262 13421508
0.78478569 0.035356935 0.24490395 13553093
0.78430581 0.045238346 0.24508272 13618887
0.7846334 0.055359229 0.2451846 13684681
0.78413898 0.065419622 0.24503016 13553352
0.78310031 0.075416572 0.24470411 13684681
0.78248399 0.085283242 0.2452499 14013646
0.78303707 0.095781565 0.24519339 14078924
0.78785175 0.10559345 0.24485609 12565685
0.78839999 -0.17323732 0.25466543 13946572
0.79110003 -0.17846082 0.2555379 9868176
0.78411108 -0.16495651 0.25511411 15131101
0.78186661 -0.15532783 0.25529808 15131614
0.78205699 -0.14542595 0.25523135 15000028
0.78353351 -0.13456275 0.25492808 14934235
0.78420007 -0.12458216 0.25514534 14934235
0.78453857 -0.11523998 0.25511372 14868442
0.78460002 -0.10505219 0.25521207 14934235
0.78559983 -0.095378384 0.25467861 14868442
0.78613871 -0.085321389 0.2548537 14736856
0.78696674 -0.075279355 0.25512344 14671063
0.7875002 -0.065189868 0.2543743 14605270
0.78792006 -0.0550812 0.25451052 14539478
0.78708595 -0.04475661 0.25503063 14408149
0.78722227 -0.034964759 0.25469491 14211027
0.78800005 -0.024648499 0.25453609 13947855
0.78792602 -0.01443293 0.25492156 13881806
0.78742868 -0.0051447456 0.25494376 13947341
0.78688914 0.0048596058 0.25509796 14013133
0.78643328 0.014983488 0.25494909 14210767
0.7863611 0.025105273 0.25492656 13947595
0.7850371 0.034965951 0.25500646 14013131
0.78329432 0.045340076 0.25549418 14079181
0.78380018 0.055301525 0.2550126 13947595
0.78442866 0.065116845 0.25502166 13684422
0.78370392 0.075066127 0.25518715 13815752
0.78258079 0.085589178 0.25479499 14210254
0.78258622 0.095395774 0.25537631 14341839
0.7874074 0.10512476 0.25475264 12894650
0.78900003 0.11107937 0.25855324 11316390
0.79166681 0.11550804 0.25496241 11184804
0.78841174 -0.17313147 0.2645494 13880265
0.79090905 -0.17816556 0.26523781 10065554
0.78419995 -0.16497505 0.26469108 14999515
0.78188002 -0.1553307 0.26537332 15000028
0.78263336 -0.14540096 0.26532352 15000028
0.7851668 -0.13484247 0.26465178 14934235
0.78607994 -0.12488142 0.26495945 14868442
0.78516662 -0.11462675 0.26465005 14802649
0.78341407 -0.10415791 0.26481682 14802649
0.78320032 -0.095087387 0.26490214 14802649
0.78538698 -0.085385472 0.26490074 14671063
0.78776002 -0.075354658 0.2655243 14671063
0.78800005 -0.065232381 0.26468214 14605270
0.78790003 -0.055079896 0.26464814 14605270
0.78735495 -0.04505273 0.2652081 14342356
0.78800005 -0.034596823 0.26501152 14211026
0.78777784 -0.024642266 0.26460651 13947597
0.78685725 -0.01454788 0.26462507 13947341
0.78700012 -0.0054090391 0.26485646 13749962
0.78646666 0.0048562568 0.26508623 13749962
0.7852667 0.014961109 0.26559967 13881547
0.78551602 0.024930961 0.26494378 14144719
0.7840001 0.035319813 0.2648457 14276305
0.78303152 0.044992179 0.26542011 14210512
0.78384018 0.055304907 0.264204 14144975
0.78435493 0.065527096 0.26485002 13750216
0.78335512 0.075263575 0.26480684 13815752
0.78327298 0.085100234 0.26484564 14210510
0.78235716 0.095230773 0.26553431 14342095
0.78675002 0.10543936 0.26458889 12631735
0.78900003 0.11181819 0.26575676 11250597
0.79066676 0.11635382 0.26465225 11119011
0.79180002 0.12445057 0.26503319 11184804
0.78858346 -0.17281599 0.27549323 13881547
0.79093337 -0.17786795 0.27473876 10197140
0.78596437 -0.16534528 0.2750369 14933977
0.78306693 -0.15465012 0.27494094 14934490
0.78361553 -0.14452544 0.27492076 14934235
0.78613895 -0.13500963 0.27509737 14934235
0.78682154 -0.12506467 0.27500865 14868442
0.78562844 -0.11456428 0.27478954 14868442
0.784154 -0.10452374 0.27511218 14802649
0.78464007 -0.09526144 0.27549595 14736856
0.7863549 -0.085432582 0.27472967 14736856
0.78800005 -0.075378366 0.27482808 14671063
0.78800005 -0.065232389 0.27482805 14605270
0.78733337 -0.054836664 0.27500367 14407891
0.78652757 -0.044856325 0.27523348 14342098
0.78696686 -0.034748461 0.2753866 14144976
0.7863 -0.025517106 0.27515343 13684939
0.78513879 -0.015369892 0.27474788 13487561
0.78476661 -0.0052577257 0.27461585 13487561
0.78405589 0.0048411307 0.27436632 13684939
0.78252012 0.014908807 0.2747474 13749961
0.78431439 0.025174793 0.27459013 13618375
0.78492588 0.034962706 0.27518532 13881547
0.78523338 0.045292959 0.27570277 13947340
0.78626919 0.055334434 0.27443811 14078926
0.785923 0.064860471 0.27438858 13749962
0.7842415 0.074766293 0.27548173 13684168
0.78428006 0.084710196 0.27536803 14078669
0.78340024 0.094703086 0.27505881 14342097
0.7869615 0.10512875 0.27467871 12697787
0.78900003 0.11138722 0.27456108 11119011
0.79114997 0.11619952 0.27537113 11119011
0.78800005 -0.17395252 0.28517291 12368053
0.79016668 -0.17886586 0.28421542 9868175
0.7838335 -0.16489643 0.2849316 15000027
0.7826947 -0.15457499 0.28488681 14934235
0.78283364 -0.14452316 0.28493795 14934235
0.78354311 -0.13469486 0.28506401 14868442
0.78574079 -0.12475767 0.2846669 14868442
0.78570956 -0.11485583 0.28488681 14802649
0.78492582 -0.10434876 0.28518888 14802649
0.78585172 -0.09499938 0.28491107 14736856
0.7864688 -0.084839508 0.28482074 14671320
0.78670019 -0.075254321 0.28450191 14671576
0.78700018 -0.065149546 0.28461176 14539990
0.78639287 -0.055172555 0.28472099 14342611
0.78599989 -0.044826381 0.28517067 14276819
0.78596002 -0.034704581 0.28515607 14144976
0.78563994 -0.025494657 0.2850402 13750218
0.78493327 -0.015365562 0.28478429 13421510
0.78367889 -0.0050544101 0.28491971 13421768
0.78269452 0.004833146 0.28488863 13619146
0.78206652 0.014899749 0.28465942 13816267
0.78331459 0.024880238 0.28498191 13749962
0.7854799 0.035193186 0.28498274 13947340
0.78596658 0.045333859 0.28515875 14078926
0.78641373 0.055612713 0.28455743 13947340
0.78672427 0.064588599 0.28467029 13815753
0.78573322 0.074750304 0.28507504 13816008
0.78485185 0.08497566 0.28516173 14013132
0.78400028 0.094645008 0.2852301 14276306
0.78775865 0.10550267 0.2850455 12697789
0.79150009 0.1152832 0.28509954 11119011
0.78742856 -0.17381611 0.29516882 12236469
0.79000002 -0.17913629 0.29494432 9934228
0.78303838 -0.1648705 0.29488295 14999772
0.78243339 -0.15452273 0.29486692 15000028
0.78356016 -0.14465679 0.29529324 14934235
0.78480649 -0.13463314 0.29558507 14868442
0.78566658 -0.1248147 0.29516682 14868442
0.78539979 -0.1147931 0.29509175 14868442
0.78375882 -0.10464731 0.29473212 14736856
0.78360027 -0.09513586 0.29438666 14736856
0.78411132 -0.085101023 0.29457867 14736856
0.78553325 -0.075141475 0.29511464 14737113
0.78677428 -0.065278552 0.29483879 14671320
0.78688014 -0.055008408 0.29470116 14276819
0.7864334 -0.044851921 0.29453447 14342611
0.78603709 -0.034503784 0.29479423 14210769
0.78577775 -0.025703289 0.29469746 13815754
0.78553116 -0.015146671 0.29454172 13421253
0.78533328 -0.0054661958 0.29555267 13421510
0.78386682 0.0048393388 0.29540864 13487303
0.78300017 0.014917859 0.29508072 13750219
0.78461301 0.025201695 0.29551208 13815755
0.78646147 0.035095669 0.29475713 14078927
0.78613883 0.045341879 0.2953428 14078927
0.78516662 0.055396855 0.29497692 14078926
0.78526664 0.064595915 0.29501405 13684168
0.78552771 0.074730359 0.29511231 13947339
0.78343767 0.085131839 0.29484183 14144463
0.78213334 0.095222674 0.29499522 14341842
0.78714818 0.10509009 0.29520851 13092032
0.79114294 0.11488906 0.29503992 11118755
0.7871539 -0.17424251 0.30550215 11644846
0.79000002 -0.17913632 0.30326661 9671314
0.78256661 -0.16462879 0.30499122 14933979
0.78212112 -0.15487748 0.30456868 14999772
0.78300023 -0.14505263 0.30540895 14933978
0.78408593 -0.13478796 0.30545092 14868442
0.78549993 -0.1250003 0.30542743 14868442
0.78429037 -0.11523938 0.30551368 14802393
0.78350025 -0.10521308 0.30535686 14802649
0.78340018 -0.095111437 0.30440223 14736856
0.78456676 -0.08515048 0.30485538 14605270
0.78564 -0.075151488 0.3052713 14671063
0.78725719 -0.065037392 0.30511075 14671063
0.78793341 -0.055081602 0.30524054 14539477
0.78772229 -0.04492538 0.30515939 14342098
0.7872858 -0.034960594 0.3053197 14276305
0.7872355 -0.024407621 0.30524185 13749448
0.78739303 -0.014689343 0.30536112 13420483
0.78640008 -0.0052690422 0.30556747 13420997
0.78493333 0.0048460057 0.30499703 13552840
0.78382772 0.014807684 0.30532569 13619146
0.78569978 0.02508701 0.30529478 13487047
0.78634471 0.035357948 0.304782 14013135
0.78546655 0.045303803 0.30520296 14078926
0.7850399 0.055388175 0.30503836 14078926
0.78499991 0.064573742 0.30502263 13684168
0.78486657 0.074667864 0.30497068 13815754
0.78277159 0.085539714 0.30494195 13947340
0.7811482 0.095549278 0.30494705 14144719
0.78642851 0.10513518 0.30504891 13157825
0.79200006 0.11521401 0.30514708 11053218
0.78900003 -0.18075661 0.31581217 9605774
0.79165226 -0.18579954 0.31485766 10000274
0.7861852 -0.17466439 0.31502411 11315880
0.78128576 -0.1641639 0.31514022 14802650
0.77900004 -0.15658183 0.31773636 15065821
0.78061539 -0.15479754 0.31470299 15000028
0.77900016 -0.14437737 0.31770134 14934235
0.78108686 -0.14531404 0.31359643 14934235
0.77900004 -0.1383453 0.31910411 14868442
0.78148264 -0.13500024 0.31538722 14868442
0.78278393 -0.12495216 0.31470731 14868442
0.77900004 -0.11281415 0.31910411 14736856
0.78165513 -0.11509214 0.31545678 14802649
0.78258836 -0.10519511 0.31539819 14671064
0.78366673 -0.095143184 0.31459203 14736856
0.7848888 -0.085186079 0.31508467 14671063
0.78528565 -0.075314522 0.31491619 14671063
0.78736675 -0.065177254 0.31515828 14539477
0.78800005 -0.055086419 0.31541193 14276049
0.78823334 -0.044953711 0.31550634 14341842
0.78800005 -0.034794472 0.3154119 14276049
0.78800005 -0.024648504 0.31541193 13749705
0.78796005 -0.014501981 0.31539607 13486532
0.78691995 -0.0052728076 0.31498003 13486789
0.78506058 0.0050973659 0.31473657 13947597
0.78338474 0.015065376 0.31518725 13882318
0.7845 0.025048226 0.31492671 13948110
0.78530002 0.0351847 0.31524801 14013903
0.78508323 0.045283128 0.31516346 14210512
0.78581476 0.055443175 0.31494612 14078926
0.78481817 0.065058842 0.31530669 13881547
0.7839396 0.07499633 0.3144508 13684168
0.78211766 0.085551225 0.31520933 14013133
0.77900004 0.093258642 0.31819227 14144719
0.78053582 0.095401749 0.31490371 14144719
0.78600001 0.10521335 0.31494862 13026240
0.78900003 -0.18075661 0.32135338 9605774
0.79175001 -0.18525128 0.32517669 9868946
0.78730434 -0.17476314 0.32474935 11117990
0.79000002 -0.17913631 0.32915828 9671314
0.78199995 -0.16451053 0.32509419 14868187
0.78131998 -0.15521803 0.32554406 14934235
0.77899998 -0.14173207 0.32223034 14868442
0.78086954 -0.14599034 0.32607111 14934235
0.77900016 -0.13413689 0.32401398 14934235
0.78008342 -0.13549358 0.32563475 14868442
0.7790001 -0.12359028 0.32722762 14934235
0.78078264 -0.125788 0.32309076 14934235
0.77860719 -0.1143204 0.32532153 14934235
0.78000003 -0.11843696 0.32133973 14868442
0.77876002 -0.10541351 0.32607853 14736600
0.78090918 -0.10295231 0.32171294 14605270
0.77900004 -0.09822493 0.32822239 14473171
0.78151721 -0.094755456 0.32454988 14605270
0.7840001 -0.085316114 0.32516643 14736856
0.78525919 -0.074910872 0.32493576 14736856
0.78700006 -0.065363385 0.32487309 14671063
0.78839993 -0.055113249 0.32480103 14473428
0.7889331 -0.044993356 0.32502031 14341842
0.78855985 -0.034820415 0.32486659 14144719
0.78781819 -0.02455939 0.32506257 13749961
0.78729022 -0.01466769 0.32541034 13486789
0.78706688 -0.0052733687 0.32517055 13420997
0.78563619 0.004599554 0.32499874 13684169
0.78444016 0.014943516 0.3250061 13684168
0.78330034 0.025007727 0.32453373 13684169
0.78332168 0.03516091 0.32513049 13947340
0.7838335 0.045210876 0.32566854 13947597
0.78486204 0.055249754 0.32479823 13947596
0.78377175 0.065518789 0.32551298 13815754
0.78256685 0.075364277 0.32514465 13815754
0.78166658 0.085092328 0.32518718 14013133
0.78092009 0.095317118 0.32537538 14144720
0.78486204 0.10486585 0.32485843 13158083
0.78900003 0.11144878 0.32652515 11119011
0.78841174 -0.17356575 0.33435971 11775663
0.79044449 -0.17820963 0.33592355 9605263
0.78512508 -0.16516934 0.33539894 14736347
0.78300029 -0.15479435 0.3352803 14934235
0.78250015 -0.14467481 0.33533397 14868186
0.7807309 -0.1348585 0.33464634 14933980
0.77900016 -0.12270027 0.33350134 14934237
0.7800625 -0.12689254 0.3360889 14934237
0.77872002 -0.11459708 0.33503273 15000030
0.78000003 -0.11843696 0.33959967 15000030
0.77892315 -0.10550875 0.332398 14868443
0.78053337 -0.10377654 0.33654341 14934237
0.78212005 -0.094954073 0.3350316 14604758
0.78452945 -0.084929541 0.33541411 14605014
0.78499991 -0.075091377 0.3353447 14999772
0.78652936 -0.065107279 0.33507517 15197151
0.78813332 -0.055094879 0.3348369 15131357
0.78847206 -0.044967216 0.33498037 14736856
0.78738713 -0.034650359 0.33472651 14341841
0.78528118 -0.025657045 0.33505842 14013133
0.7848888 -0.015363472 0.33529639 13750218
0.78516662 -0.0052599367 0.33541498 13815754
0.7848888 0.0048473175 0.33529651 13618632
0.78489989 0.014954201 0.33530203 13553095
0.78474998 0.025054419 0.33523893 13421253
0.78377801 0.035046525 0.3353335 13684939
0.78313369 0.045170236 0.33546457 13684940
0.78344858 0.055402912 0.3348392 13750733
0.78287107 0.065165184 0.33517358 13816524
0.78203988 0.075314693 0.33499539 13816011
0.78150004 0.085552379 0.33510581 13882061
0.7790001 0.095811754 0.33807009 13816526
0.78085005 0.094942547 0.3336623 13882064
0.78414291 0.1048966 0.33497313 13027012
0.78861547 0.11216187 0.33525559 10987682
0.79078573 0.11701793 0.3347742 10856096
0.79189664 0.12433642 0.33474097 10921889
0.78900003 -0.17182915 0.34474954 13223109
0.79127783 -0.17644399 0.34512681 9867923
0.78559262 -0.16513379 0.34502697 14670810
0.7782858 -0.15383606 0.34770155 14737371
0.78154993 -0.15563135 0.34310788 14868444
0.77861118 -0.14516144 0.34780395 14802651
0.7812174 -0.14494106 0.34275171 14802394
0.77899998 -0.13547955 0.34776154 14736858
0.78059101 -0.13489105 0.34334433 14802651
0.77900016 -0.12431721 0.34716031 14736858
0.78027773 -0.12538096 0.34306902 14802651
0.7788077 -0.11495977 0.34588146 14802907
0.78000003 -0.11478497 0.34325165 14868444
0.77900004 -0.1073432 0.34828255 14934237
0.78121871 -0.10450377 0.34441522 15065823
0.77866673 -0.091499291 0.34874061 15065823
0.78203571 -0.095142163 0.34473279 15000030
0.7785002 -0.0854045 0.34896967 15065823
0.78222603 -0.084749363 0.34440473 14736601
0.78330022 -0.074927136 0.34561655 14538965
0.78425014 -0.064737484 0.34539151 14933979
0.78523338 -0.054891996 0.34463137 15131358
0.78600001 -0.044825546 0.34496936 15065564
0.78599995 -0.034833871 0.34513035 14473427
0.78515989 -0.025478985 0.34552291 14012620
0.78529984 -0.015371921 0.34558499 13749961
0.78495997 -0.0052592088 0.34543392 14210769
0.78383362 0.0048409668 0.34493729 14013646
0.78404009 0.014938612 0.34502792 14013903
0.78489989 0.025060218 0.34540755 13948110
0.78487998 0.035164718 0.34539962 14013390
0.78416687 0.045229491 0.3450864 14013390
0.78400016 0.055315159 0.34501252 13947341
0.78325015 0.065572791 0.34502605 13815755
0.78159988 0.075271025 0.34487012 13881547
0.77900004 0.08892747 0.34531912 13947341
0.78080779 0.083772071 0.34437928 13881548
0.77793336 0.094950534 0.34507146 13816526
0.77900004 0.10055325 0.34554708 13948112
0.78426087 0.10554905 0.34464553 12697790
0.78850007 0.11193252 0.34514633 10921889
0.79074997 0.11676465 0.34462786 10790303
0.78850007 -0.17215119 0.35603535 12039092
0.79153848 -0.17635109 0.35488474 9670799
0.77788895 -0.16182166 0.35607851 14934237
0.78399998 -0.1662332 0.35418272 14539480
0.77608597 -0.15490602 0.35517868 14802650
0.77651632 -0.14499883 0.35514474 14671065
0.77726847 -0.13519686 0.35491586 14802651
0.77737153 -0.12531741 0.35482883 14736858
0.77645975 -0.11504982 0.35515228 14671322
0.77716219 -0.10497429 0.35448733 14671065
0.77692336 -0.095119126 0.35499823 14802651
0.77633363 -0.085166804 0.35526714 15000030
0.77770966 -0.076036371 0.35533753 15000030
0.78071439 -0.073375143 0.35165924 14867931
0.77878582 -0.065641038 0.35743243 14736858
0.78095454 -0.063901678 0.35372493 14473429
0.78206456 -0.054788012 0.35443357 14934236
0.78377783 -0.044696789 0.35500276 15197151
0.78575999 -0.034695372 0.35498279 14407891
0.7845518 -0.025334004 0.3551954 13815498
0.7835834 -0.015338857 0.35491386 13683655
0.78280002 -0.0052448632 0.35455999 14144975
0.7825278 0.0048340028 0.3544381 14210767
0.7828337 0.01491459 0.35457698 14211025
0.78347272 0.025014855 0.3548657 14145489
0.78360003 0.035107605 0.35492191 14211025
0.78313905 0.045170918 0.35471308 14277075
0.78290319 0.055355124 0.35481268 14342611
0.78215021 0.065070234 0.3554537 14079440
0.77900004 0.078669414 0.3592245 14145489
0.78096545 0.075084582 0.35540009 14013903
0.77894133 0.087244533 0.35587189 14013904
0.78042108 0.083235107 0.35420626 14013903
0.7778399 0.094940141 0.35504791 13948112
0.77900004 0.10055325 0.35284168 13882319
0.78395838 0.1054825 0.35508278 13026754
0.78850001 0.11208642 0.35514483 10856098
0.79124999 0.11718591 0.3546842 10790304
0.78705883 -0.17294486 0.36478111 10526108
0.79100007 -0.17843817 0.36475575 9473934
0.77733338 -0.16271791 0.3643212 14737627
0.78170002 -0.16719046 0.3650448 13881806
0.77606696 -0.15508422 0.36514014 14737369
0.7760002 -0.14507906 0.36510763 14539990
0.77596688 -0.13508198 0.36509174 14474199
0.77551997 -0.12501884 0.36488029 14737113
0.77539998 -0.11501486 0.3648251 14868444
0.7760002 -0.10511317 0.36510766 14736858
0.77623367 -0.095149882 0.36521822 14473686
0.7760402 -0.085134804 0.36512661 14671065
0.77658856 -0.074980356 0.36474189 15065566
0.77782154 -0.065493114 0.36472848 15000030
0.77900016 -0.056280907 0.36573753 14539478
0.78061545 -0.05344487 0.36207703 14473686
0.77900004 -0.045338992 0.36765882 15065821
0.78126931 -0.044625692 0.36336389 15065566
0.78302717 -0.034870744 0.3649908 14670550
0.7828216 -0.025339192 0.36484677 13815241
0.77900004 -0.013121123 0.36773488 13289155
0.7810607 -0.015483893 0.36438379 13420741
0.77900004 -0.0029390599 0.36788684 14013135
0.7806924 -0.0055812057 0.36393908 14276820
0.77866673 0.0057196724 0.36788079 14276563
0.78076923 0.0046819313 0.36313167 14276562
0.77800018 0.0149233 0.36726081 14474456
0.78088242 0.014770009 0.36234885 14540247
0.77749997 0.024823757 0.36672059 14408663
0.78105545 0.024937214 0.36199933 14408405
0.77760017 0.034839131 0.36676776 14277077
0.78100002 0.034991346 0.36197358 14342869
0.778036 0.045136362 0.36632296 14606042
0.78071421 0.044507984 0.36131981 14540249
0.77791995 0.054885451 0.36600837 14474712
0.78088897 0.054688379 0.36111102 14474455
0.77766681 0.065129161 0.36539242 14343125
0.78000003 0.062336456 0.36151159 14277075
0.77813333 0.074939579 0.36519808 14408661
0.77777779 0.084916852 0.36503023 14342868
0.77653348 0.094781682 0.36444661 14342612
0.77800006 0.10042417 0.36604577 13882318
0.78395998 0.10560435 0.36510533 13158596
0.78863621 0.11396635 0.36551407 10790303
0.79014289 0.11784662 0.36304116 10658717
0.78900003 0.12169997 0.36891526 10658717
0.79121882 0.12534267 0.36491242 10790303
0.78778589 -0.17297147 0.37473622 10131866
0.79136366 -0.178268 0.3755357 9408142
0.77885723 -0.16072081 0.37426648 14671578
0.78273684 -0.16572709 0.37570274 13882065
0.77696013 -0.15435421 0.37465358 14737370
0.77588463 -0.14491835 0.3743445 14671578
0.77536118 -0.13497707 0.37479064 14605785
0.77517849 -0.12515809 0.37437886 14474199
0.77603352 -0.11510792 0.37420851 14869213
0.77704561 -0.1051705 0.37411842 14737626
0.78000003 -0.10748099 0.37977153 14606040
0.7777369 -0.095477611 0.3734006 14868956
0.78025001 -0.093815222 0.37806669 14342355
0.77783352 -0.085028209 0.37386304 14539478
0.78000003 -0.088308051 0.37794554 14473684
0.77754188 -0.075288095 0.37402609 14539736
0.78000003 -0.072787106 0.37977156 14671835
0.77875 -0.064921491 0.37460577 14868957
0.78000003 -0.065483123 0.37977153 14671834
0.77899987 -0.055286203 0.37458739 14540247
0.78000003 -0.054527164 0.37520656 14342611
0.77900016 -0.045642931 0.37259793 14671063
0.78037506 -0.044047181 0.37767076 14802906
0.77900004 -0.039868034 0.37107822 15131356
0.78177768 -0.034924552 0.3752155 14341841
0.78221422 -0.025579762 0.37476748 13683913
0.77900004 -0.012513238 0.37244594 13486790
0.78063637 -0.016279407 0.37509793 13289410
0.77900016 -0.0048538959 0.37326658 13881549
0.78000009 -0.0054535745 0.37771732 12763067
0.77870584 0.004593587 0.37485224 13092031
0.77656019 0.014793474 0.37446105 13684168
0.77600032 0.024775863 0.37419075 13749962
0.77600032 0.034961969 0.37477455 13552325
0.77631283 0.044551127 0.37468219 14078925
0.77740014 0.054849315 0.37486717 14210768
0.77736676 0.06485524 0.37485117 14210512
0.77776015 0.074902967 0.37504092 14407888
0.77673352 0.084802918 0.37454566 14144974
0.77607995 0.094727002 0.3742322 13816525
0.77822232 0.10146599 0.37384522 13553868
0.78329414 0.1062889 0.37533149 11974580
0.78840727 0.1144843 0.37504598 10593181
0.78900003 0.12348108 0.37333497 10658974
0.79000008 0.12553295 0.3758758 10658974
0.79056686 0.1353607 0.37473568 10724767
0.79183871 0.14478724 0.37476879 10790303
0.7882942 -0.17332304 0.38500309 9737107
0.79154551 -0.17864548 0.38488486 9276813
0.77900004 -0.16022913 0.38110831 14277075
0.78350008 -0.16519402 0.38477755 13684686
0.77822232 -0.15500866 0.3815383 14737883
0.78291672 -0.15477134 0.38745639 14540504
0.77820003 -0.14530703 0.38181108 14343127
0.78300005 -0.14560117 0.38699383 14343128
0.77900004 -0.1351539 0.38293195 14277077
0.78300005 -0.13538964 0.38673127 14803168
0.77820003 -0.12545356 0.38181108 14277077
0.78200006 -0.12423268 0.3856284 14606043
0.77866673 -0.11823372 0.38094524 14540506
0.78406674 -0.11427877 0.38579291 14211541
0.78499997 -0.10458481 0.38506028 14079698
0.78577274 -0.094896674 0.38551444 13421767
0.78495449 -0.084776513 0.38477942 13421510
0.78441179 -0.075358726 0.38516492 13289924
0.78355563 -0.064865775 0.38517421 13552583
0.78273338 -0.054717463 0.3847698 14013133
0.78391665 -0.044705432 0.38443545 14013647
0.78530008 -0.034674671 0.38511387 13816012
0.78494996 -0.025472825 0.38494191 13158339
0.78312516 -0.015332338 0.38404664 12829631
0.7821666 -0.0053407638 0.38428801 13289924
0.77900004 0.0084587717 0.38110831 12236463
0.78257143 0.0045291921 0.38573855 13290180
0.77780002 0.014816354 0.38052124 12105390
0.78246659 0.014906979 0.38647157 13290952
0.77780008 0.025198067 0.38125068 12302772
0.7830714 0.024740865 0.38729328 13225672
0.77842861 0.03409658 0.38213134 12566200
0.78350002 0.035103355 0.38789707 12896451
0.77811116 0.045183465 0.3816863 12236465
0.78307694 0.045517419 0.38747659 13093317
0.77900004 0.054961931 0.38110831 11645098
0.78193337 0.055168729 0.38620672 12369335
0.77899998 0.065122269 0.38136882 11644842
0.7814706 0.065144084 0.38608542 12632250
0.77900004 0.075022101 0.38110831 11578535
0.78186673 0.075298034 0.38617334 12895166
0.77883339 0.085033804 0.38102677 11907499
0.78200006 0.084807225 0.38612643 13487561
0.77866673 0.093219519 0.38094524 12105136
0.78275007 0.094851889 0.38592374 12829630
0.78565001 0.10546218 0.38519189 11185064
0.78864694 0.11331122 0.38474223 10527646
0.79000002 0.11792424 0.38533393 10527646
0.79016697 0.12511751 0.38472214 10593438
0.79076022 0.13539395 0.38501197 10527902
0.79142308 0.14491235 0.38512069 10658973
0.78875005 -0.17239049 0.39234126 10000279
0.79122227 -0.17663674 0.39532161 10132635
0.78800005 -0.16577008 0.39328691 11645362
0.79000002 -0.16526578 0.39758626 10000536
0.78800011 -0.15520261 0.39372981 11974064
0.79000002 -0.15509406 0.39758626 10066325
0.78758335 -0.14570931 0.39253095 11646130
0.79100001 -0.1441799 0.39747301 10066329
0.78725004 -0.13474156 0.39190355 10790052
0.79111111 -0.13535112 0.39732352 10000534
0.78766674 -0.1251329 0.39272636 10131864
0.7911666 -0.12476385 0.39817342 10000789
0.7883001 -0.11582077 0.39193302 10000020
0.79153848 -0.11462816 0.39693701 10000531
0.78900003 -0.10625841 0.39154175 10065555
0.78900003 -0.092097588 0.39154175 9605521
0.79180962 -0.095249914 0.39585185 9934227
0.78900003 -0.084709331 0.39154175 9671314
0.79106677 -0.084932156 0.39627278 9868947
0.78866673 -0.074980758 0.39276168 9803157
0.79054546 -0.074780576 0.39769307 9934742
0.78805554 -0.065237314 0.39291939 10197658
0.79049999 -0.064514056 0.39876375 10000534
0.78773338 -0.055067468 0.3927595 10460574
0.79049999 -0.055261184 0.39876375 10000534
0.78831255 -0.045303352 0.39281633 11052709
0.79049999 -0.044388324 0.39737552 9802900
0.78850001 -0.034816552 0.39221713 11184551
0.79049999 -0.03490486 0.3969132 9671314
0.78850001 -0.024664141 0.39221716 10987944
0.79066664 -0.024731135 0.39699706 9474192
0.788077 -0.01407914 0.3926461 10593189
0.79037499 -0.014777708 0.39754409 9474192
0.78773683 -0.0054714596 0.39382938 10066842
0.79020005 -0.0052945926 0.39953673 9540236
0.78778952 0.004816839 0.39443752 9409169
0.79000002 0.0048794062 0.39943561 9606030
0.78766674 0.015006674 0.39457032 9146253
0.79000002 0.015051129 0.39943561 9408652
0.78799999 0.025158996 0.3947365 9080460
0.79000002 0.025222851 0.39943561 9408909
0.78813326 0.035310473 0.39480296 9277582
0.79079998 0.035431352 0.39984009 9409422
0.7877143 0.045301862 0.39419836 9145997
0.79042858 0.043872211 0.39912391 9409422
0.787238 0.055190001 0.39514577 9277581
0.79000002 0.051114514 0.39943561 9475215
0.78595245 0.064913839 0.3945021 9343118
0.78695655 0.075068653 0.39525679 9474960
0.78755003 0.085064441 0.39543438 9672595
0.78794998 0.095067397 0.39415875 10066838
0.7902 0.096079916 0.39916688 10461595
0.78860003 0.10474702 0.39245123 10461340
0.79083329 0.10547615 0.39723492 10592925
0.78900003 0.11107937 0.39154175 10592926
0.79159105 0.1155723 0.39510554 10527133
0.78900003 0.058438063 0.4007771 9409422
0.78900003 0.064902782 0.4007771 9409422
0.79100007 0.065182887 0.40572974 9738387
0.78900003 0.072291039 0.4007771 9738387
0.79115003 0.075451769 0.40492725 9804180
0.79135722 -0.0052355262 0.43472576 9869973
0.79149997 0.0048885411 0.43447274 9869973
0.78900003 0.093532264 0.43956542 10396317
0.78900003 0.087436959 0.44455248 10396317
0.7910527 0.083099924 0.44363302 10199195
0.79000002 0.09827432 0.44012251 10462110
