# .PCD v0.7 - Point Cloud Data file format
VERSION 0.7
FIELDS x y z rgb
SIZE 4 4 4 4
TYPE F F F U
COUNT 1 1 1 1
WIDTH 1045
HEIGHT 1
VIEWPOINT 0 0 0 1 0 0 0
POINTS 1045
DATA ascii
0.79214716 0.075085312 0.13462231 10921889
0.78900003 0.068135142 0.1481912 10987682
0.79088473 0.064557463 0.14480405 10856096
0.78899986 0.073263183 0.14559074 11053218
0.79005879 0.077175297 0.1444466 11119268
0.79288 0.085643865 0.14474361 11316647
0.78900003 0.059361596 0.15881181 11580338
0.79211766 0.054683384 0.15479861 10921889
0.78899992 0.066172637 0.15592578 11382700
0.79000002 0.062724665 0.15387586 10922146
0.78900009 0.07178729 0.15511769 11843250
0.79015791 0.077070788 0.15534492 11777455
0.79200011 0.085546002 0.15477587 12303285
0.79263347 0.09489052 0.15489718 12697787
0.78900003 -0.11241528 0.16989417 15658983
0.78900003 -0.10502703 0.16989419 15526882
0.78874999 -0.094838805 0.16891687 15724005
0.79192024 -0.095183708 0.16377015 11909038
0.78890002 -0.084698126 0.16894916 15395811
0.79100001 -0.084923469 0.16384152 12040882
0.78900003 -0.076265626 0.16936646 15263968
0.79193336 -0.074331507 0.16434097 12764091
0.78900003 -0.064391643 0.16927852 15526369
0.79262972 -0.064892918 0.1636586 12829626
0.78860009 -0.055128831 0.16888456 15328990
0.78843749 -0.044504289 0.16815734 15066075
0.79256004 -0.045312408 0.16278811 12632506
0.78816658 -0.03449399 0.16725264 15000284
0.79146153 -0.035661329 0.16229783 11317420
0.78818172 -0.02499002 0.16719992 14342868
0.7918824 -0.023840969 0.16200563 10988198
0.78820002 -0.01450543 0.16787551 14342868
0.79260004 -0.014586136 0.1623144 11974062
0.78846669 -0.0052825129 0.16793276 14211282
0.7926501 -0.0053107715 0.16232516 12237234
0.78811103 0.0048672198 0.16785653 14408662
0.79150003 0.0045159813 0.16264696 13092801
0.78782362 0.015009664 0.16735986 14211284
0.7910769 0.015071287 0.16264738 13488845
0.78775007 0.025150919 0.16685607 14145491
0.79066664 0.025243357 0.16192292 13752020
0.78774995 0.035447687 0.16608675 14408148
0.79016668 0.034784794 0.16120467 14211798
0.78707397 0.044884894 0.16599433 14539734
0.79000002 0.044641595 0.16086249 14606040
0.78728122 0.055142231 0.16496846 14671320
0.79000002 0.051114514 0.16086249 14803419
0.78703332 0.064741246 0.16485845 14737370
0.78788877 0.074956514 0.16503906 15066077
0.78753322 0.085060887 0.16496442 15394786
0.78711754 0.094937235 0.16514783 15591909
0.79000002 0.09827432 0.16086249 15789546
0.78876919 0.10366115 0.1671451 12236721
0.79064709 0.106631 0.16360652 11645097
0.79203987 0.1152157 0.16498318 11382440
0.78900003 0.12493233 0.16989419 11448233
0.79240638 0.1248913 0.16435978 11382440
0.78900003 -0.1723129 0.1767547 15262945
0.79086965 -0.17651823 0.17424138 14012877
0.78853327 -0.16495952 0.17533031 15526115
0.79000002 -0.16526578 0.17010953 15460320
0.78847808 -0.15503591 0.17563905 15591652
0.79000002 -0.15430143 0.17063792 15592164
0.78837508 -0.14485496 0.17552525 15592163
0.79000002 -0.14584704 0.17072599 15526885
0.78778589 -0.13496594 0.17535982 15460576
0.79000002 -0.1347506 0.17010953 15461608
0.78685719 -0.12480873 0.17554438 15460321
0.79000002 -0.12550358 0.17010953 15593192
0.78572738 -0.11512624 0.17536759 15526369
0.79000002 -0.11810597 0.17010953 15527399
0.78460616 -0.10494143 0.17561913 15526113
0.78562528 -0.095035493 0.17536798 15329247
0.78624994 -0.085005172 0.17501749 15328991
0.78664011 -0.075247794 0.17490679 15328735
0.78633326 -0.065094724 0.17483884 15262942
0.78553575 -0.054718506 0.17525151 15131356
0.78436112 -0.044734247 0.17531759 14934233
0.78353339 -0.034597944 0.17513312 14670806
0.78316683 -0.025414024 0.17505094 14341842
0.7839722 -0.015345042 0.17523064 14013133
0.78456688 -0.0052568549 0.17536339 13816268
0.78349996 0.0048371786 0.17512509 14144719
0.78236669 0.014905622 0.17487289 13947340
0.78344464 0.025015304 0.17511466 13749961
0.78499991 0.035170559 0.17454602 14013133
0.78486657 0.045269504 0.17451674 14144719
0.78335732 0.05546381 0.17476968 14210512
0.77900004 0.068943262 0.17807494 13947340
0.78184861 0.064868331 0.17439738 14276306
0.77899998 0.074240543 0.17816177 13947340
0.7823478 0.075582899 0.17363277 14473684
0.77900004 0.081404895 0.17868282 14210512
0.78181815 0.085441254 0.17461006 14868442
0.78299993 0.095396832 0.17486757 15328736
0.78791666 0.10524265 0.17534785 12303027
0.79000002 0.10937075 0.17103422 11448230
0.78900003 0.11292643 0.17497362 11382694
0.79011548 0.11522053 0.17468809 11382695
0.78900003 0.12268948 0.17253284 11382439
0.79054183 0.12533101 0.17531739 11382439
0.78864288 -0.17289494 0.18537785 14999771
0.79066664 -0.17790042 0.18459786 11644586
0.78736377 -0.1651351 0.18495744 15131101
0.78618187 -0.15484686 0.18518001 14933465
0.78556651 -0.14502941 0.18478292 14867929
0.78390908 -0.13510381 0.18436252 14867929
0.77869236 -0.12398739 0.18800677 14671063
0.78200001 -0.1256665 0.18350601 14867929
0.77883339 -0.11765153 0.18867235 14605270
0.78108704 -0.11462635 0.18440655 14670807
0.78176653 -0.10497872 0.18480717 14670807
0.78239995 -0.094989769 0.18495613 14670806
0.78388911 -0.085077092 0.18438953 14736599
0.78476673 -0.075068742 0.18459769 14670550
0.78497213 -0.064981587 0.18464673 14605013
0.78374094 -0.054993898 0.18486503 14473171
0.78280008 -0.044645209 0.18505159 14276048
0.78203982 -0.034531496 0.18487228 14012876
0.78207976 -0.025378382 0.18488218 13749961
0.78293359 -0.015325322 0.18508388 13684168
0.78292012 -0.0052452614 0.18508059 13355203
0.78196645 0.0048295944 0.18485518 13749961
0.78163987 0.014892603 0.1847789 13552582
0.78283352 0.024995089 0.18506034 13552582
0.78383356 0.035119154 0.18437596 13684168
0.7847777 0.045265861 0.18459982 13749960
0.78403711 0.055110089 0.18493567 13816009
0.77887511 0.067944288 0.18549125 13815753
0.78094733 0.062891699 0.18490195 13684423
0.778 0.074925803 0.18482703 13881546
0.7789374 0.084475838 0.18505052 14144719
0.78000003 0.089726366 0.18530318 14342098
0.78120703 0.09522856 0.18543026 14474197
0.7874167 0.10448498 0.18483631 12237749
0.79050004 0.10943997 0.18594824 11448231
0.78870583 -0.1734131 0.1950282 14999770
0.79049999 -0.17832495 0.19519992 10460056
0.78720003 -0.16560379 0.19530649 15328479
0.78461295 -0.15498841 0.19490039 15064795
0.77900004 -0.14089841 0.19728409 14802649
0.78207421 -0.14533399 0.19464262 14802393
0.77880967 -0.13423061 0.19565547 14736856
0.78087515 -0.136622 0.1912227 14736856
0.77816659 -0.12521754 0.19450863 14671063
0.78025001 -0.1230405 0.1990619 14736856
0.77875006 -0.11824657 0.1932103 14539477
0.78133339 -0.1138479 0.19559456 14539477
0.78247237 -0.10507382 0.19505104 14407891
0.78236663 -0.094986528 0.19502473 14276305
0.7838335 -0.085069574 0.19447227 14144719
0.78499991 -0.075091384 0.19476067 14144719
0.78473324 -0.064963214 0.19469421 14013133
0.7832225 -0.054684877 0.19472674 14078926
0.78274322 -0.044510931 0.19498594 13947339
0.78209984 -0.034534346 0.19495709 13815753
0.78276694 -0.025400108 0.19512324 13486788
0.78300041 -0.015196087 0.19505 13486787
0.78296697 -0.0052453559 0.19517282 13223871
0.78265733 0.0047554956 0.19496615 13420996
0.78267866 0.01478113 0.19477484 13289410
0.78300041 0.024999356 0.19518095 12960445
0.78290027 0.035076007 0.19515613 13092031
0.78297257 0.045161437 0.19517371 13552582
0.78276688 0.05522643 0.19512273 13618375
0.778889 0.068122834 0.19364998 13749961
0.7808637 0.063650362 0.19589552 13618375
0.77837509 0.074810922 0.19478877 13881547
0.78000003 0.078770399 0.19899812 13947340
0.7790001 0.082316719 0.19327207 14144719
0.78039998 0.086576298 0.19636013 14144976
0.78119242 0.095492676 0.19543435 14342868
0.78733337 0.10452921 0.19507572 12368564
0.79066664 0.10946304 0.19523953 11513767
0.78860003 -0.17328125 0.20488448 14736601
0.79049999 -0.17832497 0.2053781 10066072
0.78659999 -0.1654775 0.20528476 15394273
0.78467745 -0.15553461 0.20534654 15131358
0.77900004 -0.14089841 0.20202558 14736856
0.78172725 -0.14548539 0.20517951 14933979
0.77900004 -0.13538186 0.20125052 14802649
0.781353 -0.13478136 0.20623153 14802649
0.77900004 -0.12922704 0.20056666 14868442
0.78244841 -0.12506011 0.20524758 14802649
0.78355557 -0.1148987 0.20561518 14671063
0.78439295 -0.10500235 0.20543264 14539477
0.78460002 -0.095257327 0.20568362 14407891
0.78497213 -0.085195355 0.20486103 14276305
0.78499991 -0.075091384 0.20486797 14276305
0.78499991 -0.064984761 0.20486885 13947340
0.78435725 -0.054898061 0.20502962 13947340
0.7835809 -0.044837363 0.2052386 13815754
0.78332025 -0.03458792 0.20534863 13486789
0.78416002 -0.025445692 0.20556879 13223617
0.78396791 -0.015494465 0.20534047 13158079
0.78408015 -0.0052518146 0.20554785 13026493
0.7845484 0.0049352604 0.20549192 13224130
0.78462958 0.015084422 0.20528309 13223617
0.7845 0.025047056 0.20565751 13223617
0.78408015 0.035129152 0.20554747 13223617
0.78350031 0.045190886 0.20539501 13157824
0.78316015 0.055255894 0.20530508 13618374
0.78296572 0.065164156 0.20513028 13684423
0.77900004 0.073198453 0.20056666 13618375
0.78212005 0.075175002 0.20532882 13815752
0.78221428 0.085076153 0.2048624 14079182
0.78322232 0.095192656 0.20552616 14407891
0.78772223 0.10383299 0.20465678 13420996
0.79074997 0.10878105 0.20613801 11381668
0.78842854 -0.17377123 0.21538723 13947086
0.79025 -0.17849946 0.21386868 9934486
0.78575999 -0.16530086 0.21518338 15460066
0.78476661 -0.15498702 0.21491154 15328736
0.78320718 -0.14446777 0.2152434 15131357
0.78326505 -0.1347867 0.21525499 14868186
0.78481477 -0.12508701 0.21519601 14868442
0.78463328 -0.1147325 0.21505676 14802649
0.78430301 -0.10490157 0.21594994 14736856
0.78484619 -0.095357642 0.21514437 14539477
0.78509986 -0.085209161 0.21500304 14407891
0.78576005 -0.075163253 0.215184 14407891
0.78589988 -0.065059051 0.21522237 14078670
0.78540003 -0.054904666 0.21508627 14012876
0.78549975 -0.044797361 0.21511382 13881547
0.78564 -0.034690823 0.21515255 13684168
0.78547996 -0.025488904 0.2151081 13486789
0.78559983 -0.015377913 0.21514103 13354947
0.78548002 -0.0052623171 0.21510819 13223619
0.78509992 0.0048486348 0.21500312 13355203
0.78507996 0.014957678 0.21499754 13223617
0.78556651 0.025081109 0.21513191 12895166
0.78519988 0.035179328 0.21503086 13224131
0.78493339 0.045274522 0.21495932 13420995
0.78504008 0.055389199 0.21498911 13487044
0.78600007 0.064656474 0.21525191 13750215
0.78576678 0.074751966 0.21518786 13816008
0.7841481 0.08489836 0.21514995 14013387
0.7840305 0.094530955 0.21520968 14276304
0.78805876 0.10367745 0.21516153 13552583
0.79110003 0.10859834 0.21479364 11316132
0.78834999 -0.17415003 0.22512011 13420485
0.79000002 -0.17913629 0.22466695 9867920
0.78589642 -0.16520213 0.22518112 15328480
0.78480554 -0.15499394 0.22502679 15328736
0.78292334 -0.14468224 0.22519158 15197150
0.78231996 -0.13527177 0.22522879 15065308
0.78322887 -0.12521282 0.22470431 14933979
0.78314304 -0.1154447 0.2248762 14999771
0.78236663 -0.10505969 0.22524215 14802649
0.78320706 -0.095023647 0.2247241 14605270
0.78477776 -0.085172199 0.22501768 14342098
0.78599989 -0.07518705 0.22536945 14407891
0.78676683 -0.065128841 0.22466874 14342098
0.78683996 -0.055005703 0.22469063 14276305
0.78668767 -0.044635084 0.22499169 14078926
0.78678578 -0.034544133 0.22526477 13947341
0.78589988 -0.025502956 0.22534014 13881547
0.78629398 -0.015606875 0.22518335 13552583
0.78691995 -0.0052720588 0.22471279 13487302
0.78623325 0.0048550102 0.22451727 13618888
0.78564 0.014968251 0.2243482 13816011
0.78646666 0.025109729 0.22458394 13421766
0.78599989 0.035215359 0.22536936 13552839
0.78644115 0.04514597 0.22522479 13684423
0.78719991 0.055540755 0.22479314 13750215
0.78760004 0.064787343 0.22490615 13750215
0.78654283 0.074956454 0.22539161 13816008
0.78360021 0.08481764 0.22516863 14013387
0.78341967 0.095269196 0.22489512 14342352
0.78765213 0.1047198 0.22540171 12894393
0.7902 0.10902856 0.22231841 11381927
0.79237133 0.13487223 0.22494048 11316646
0.78808695 -0.17397112 0.23499212 13288899
0.79000002 -0.17913631 0.23483868 9801871
0.78592306 -0.16547646 0.23525344 15262944
0.78433347 -0.15490232 0.2349899 15263200
0.78296018 -0.14454752 0.23457903 15131614
0.78296179 -0.13517122 0.234722 14999771
0.78351748 -0.12523139 0.2346212 14933979
0.78344023 -0.11529139 0.2347243 14934235
0.78276676 -0.10511419 0.23452269 14868442
0.78272021 -0.095028706 0.23450783 14802649
0.78440017 -0.085130416 0.23501113 14671063
0.78620011 -0.07520552 0.23555011 14736856
0.78719467 -0.065165162 0.23492557 14736856
0.78730017 -0.055038191 0.23495656 14605270
0.78652954 -0.04507478 0.23499784 14473684
0.78566664 -0.03489719 0.23497973 14210768
0.78491998 -0.025470918 0.23516612 14013391
0.78603113 -0.015154119 0.23515351 13816013
0.78733343 -0.0052738283 0.23496753 13618890
0.78708357 0.0048612291 0.23489316 13421766
0.78710014 0.014995954 0.23489852 13487559
0.78711134 0.025129896 0.23490222 13421766
0.78563994 0.035197735 0.23538214 13750217
0.78534371 0.04552909 0.23494637 13815754
0.78606689 0.055460121 0.23458688 13947594
0.78576666 0.064636894 0.2344974 13750215
0.785258 0.074555933 0.23508857 13881801
0.78310734 0.085171089 0.23442748 14078924
0.7831111 0.095179603 0.23482798 14407632
0.78770369 0.10529982 0.23490626 12828857
0.79148 0.11513695 0.23527832 11316389
0.79228574 0.12478852 0.23531918 11250853
0.79189283 0.13499121 0.23540099 11250597
0.78852636 -0.17404264 0.24489327 13157570
0.79037499 -0.17875898 0.24605271 9868177
0.78562963 -0.16506907 0.24498266 15262944
0.78461111 -0.15495579 0.24517737 15262687
0.78413332 -0.14476433 0.2450294 15196894
0.78466666 -0.13475853 0.24519423 14999772
0.78527993 -0.12475327 0.24446678 14999515
0.78523326 -0.1146365 0.24445282 14999515
0.78466672 -0.10424706 0.24468489 14999772
0.7845 -0.095245004 0.24514331 14933979
0.78554833 -0.085404441 0.2447281 14868185
0.78680009 -0.075262815 0.24493945 14802905
0.78700012 -0.065149605 0.24500114 14802905
0.78684008 -0.055005983 0.24495123 14802649
0.78626657 -0.044841751 0.24477395 14539477
0.78591996 -0.034703285 0.24466562 14276305
0.78561532 -0.025280271 0.24471331 14013134
0.78648263 -0.015235196 0.24471405 14013135
0.78708005 -0.0052724751 0.24502569 13750220
0.7871002 0.0048611434 0.24503176 13619147
0.78732002 0.0150011 0.24510008 13619146
0.78793341 0.025156477 0.24529177 13290181
0.7860384 0.035356466 0.24491414 13553096
0.78486109 0.045269988 0.24525401 13618375
0.78528559 0.055209428 0.24505861 13749961
0.78596014 0.064653181 0.24467897 13684168
0.78586662 0.074762374 0.24465008 13749961
0.78436673 0.084718153 0.24510029 14078926
0.78341699 0.094706565 0.24480218 14144206
0.78746432 0.10540281 0.24494632 12631479
0.78900003 0.11107937 0.24747086 11381925
0.79074091 0.11543994 0.24493085 11250596
0.79083365 0.12522061 0.24526739 11250597
0.79023361 0.13530292 0.24508251 11316134
0.79275 0.14508319 0.24473368 11250597
0.78866667 -0.17329592 0.25475141 13946827
0.79080003 -0.17839301 0.25544074 9933969
0.78625923 -0.16547386 0.25506517 15131358
0.78589988 -0.15520878 0.25569829 15131358
0.78584009 -0.1450792 0.25567883 15000028
0.78513324 -0.13484015 0.25544864 14999771
0.78553313 -0.12479386 0.25465706 14934235
0.78594422 -0.11473951 0.25479168 14933979
0.78535706 -0.10474026 0.25492936 14934235
0.78479993 -0.095282361 0.25533894 14934235
0.78494287 -0.08506079 0.25459588 14671063
0.7857666 -0.075163715 0.25473106 14671063
0.78649992 -0.065107897 0.25497034 14605270
0.78700012 -0.055016518 0.25513425 14605270
0.78700024 -0.044883426 0.25513431 14407891
0.78696674 -0.034748696 0.25512359 14276305
0.78730017 -0.024626253 0.25431117 14013133
0.7871539 -0.014345689 0.25447583 13947340
0.78680003 -0.0052716606 0.25506893 13947340
0.78633332 0.0048561748 0.25491694 13882061
0.78646672 0.014984357 0.25496009 14145489
0.78719449 0.025132529 0.25519517 13882317
0.78558612 0.035068147 0.25483236 13816525
0.78406686 0.045225322 0.25510034 13948110
0.78548151 0.055624962 0.25515267 13816524
0.78650004 0.064698309 0.25497177 13684424
0.78608334 0.074781455 0.25483572 13749961
0.77900004 0.089611337 0.25892356 14407893
0.78272742 0.085538305 0.25516182 14210256
0.77900004 0.093258642 0.25892356 14407893
0.78155172 0.095458969 0.25503716 14341841
0.78677791 0.10517693 0.25489059 12763064
0.78900003 0.11107937 0.25393558 11250339
0.79090005 0.11560693 0.25547457 11250339
0.7925238 0.12482706 0.25494054 11250597
0.79237509 0.13512641 0.25533363 11250597
0.79265517 0.14512405 0.25527295 11119268
0.78839999 -0.17360666 0.26518583 13223105
0.79044443 -0.17841512 0.26416665 9802127
0.78635722 -0.16536152 0.26524547 14934235
0.78545702 -0.15499052 0.26553267 15065565
0.78513336 -0.14494842 0.26555333 14999772
0.78425014 -0.13526297 0.26502463 14999771
0.78279424 -0.12500541 0.26497906 14868442
0.78474993 -0.11479285 0.26485163 14868185
0.78499991 -0.10449457 0.26459318 14868185
0.78452003 -0.095249116 0.26443216 14802649
0.78460002 -0.085155226 0.26446018 14736856
0.78452003 -0.075044639 0.26443273 14605270
0.78549987 -0.065023512 0.26476195 14605270
0.78704011 -0.055018846 0.26528049 14605270
0.78689998 -0.044878229 0.26523292 14473684
0.78712004 -0.034755155 0.26530758 14342098
0.78772229 -0.024639813 0.26458758 14013133
0.78731048 -0.014617706 0.26460779 13947597
0.78619987 -0.0052677966 0.26499671 13750475
0.78533334 0.0048494129 0.26470414 13684939
0.78473324 0.014950792 0.26541924 13750219
0.78472209 0.025053825 0.26541406 14013390
0.78396678 0.035123874 0.2651599 14144976
0.78427285 0.044987351 0.26484865 14210769
0.78519994 0.055400111 0.26466006 14079183
0.78560007 0.064622909 0.26479381 13815754
0.78460598 0.074890763 0.26495984 13684169
0.77900004 0.088699505 0.26165903 14407380
0.7816788 0.084556773 0.26530299 14210001
0.77900004 0.092346817 0.26165903 14473173
0.78099996 0.0958509 0.26559624 14341586
0.78721744 0.10490369 0.26469928 12894139
0.79000002 0.10937075 0.26720321 11447720
0.78805274 -0.17364764 0.27523366 12960189
0.79062498 -0.17881566 0.27481851 9934484
0.78368974 -0.16499378 0.27477556 14933978
0.78190005 -0.15509161 0.27477121 14999771
0.77884632 -0.14406858 0.27738556 14868442
0.78133327 -0.14555299 0.27337202 14934235
0.77887511 -0.13718303 0.27779916 14868442
0.78113627 -0.13456897 0.27392808 14934235
0.78256667 -0.12523663 0.27476606 14868442
0.78517652 -0.11440884 0.27503356 14868186
0.78644013 -0.10468569 0.27428558 14868186
0.78653562 -0.094899915 0.27451804 14802649
0.78718519 -0.084922791 0.27434179 14736856
0.78684008 -0.075268425 0.27442539 14736856
0.78603029 -0.064818598 0.27464345 14605270
0.78603327 -0.054948937 0.27506194 14407891
0.78622848 -0.044970784 0.27499834 14407891
0.78688467 -0.034886412 0.27465114 14210512
0.78700012 -0.024776055 0.27435216 13881547
0.78599989 -0.014811536 0.27527982 13684168
0.78543323 -0.0052621132 0.27485248 13487047
0.78483331 0.0048465845 0.27464196 13816268
0.7832402 0.014921027 0.27500135 13684682
0.78243333 0.024980837 0.27471861 13618889
0.78344017 0.035101701 0.2750735 13750732
0.784697 0.045512088 0.27501276 13816525
0.78499991 0.055385251 0.27470058 13947598
0.78499991 0.064573742 0.27470058 13749961
0.78506047 0.074435338 0.27514046 13815241
0.78310728 0.085170403 0.27476043 14144206
0.78262973 0.095119365 0.27499223 14538708
0.78738105 0.10427149 0.27487519 13025982
0.79000002 0.10937075 0.27552557 11118242
0.78719234 -0.17425133 0.28538841 12170931
0.79000002 -0.17913631 0.28384787 9933969
0.78224134 -0.16462341 0.28488004 14934235
0.78182131 -0.15531895 0.285225 14934235
0.77900004 -0.14341098 0.28161791 15000028
0.78109998 -0.14548391 0.28632045 14934235
0.77900004 -0.13773741 0.28141528 14868442
0.78208017 -0.13427559 0.28594783 14868442
0.78424144 -0.12534505 0.28440824 14868442
0.78573328 -0.11470779 0.2850742 14868442
0.78746682 -0.10482167 0.28478089 14868442
0.78797227 -0.094744772 0.28496385 14802649
0.78786665 -0.084587574 0.28492504 14736856
0.78740013 -0.075322054 0.28475615 14736856
0.78615153 -0.065331802 0.28472281 14605270
0.78600007 -0.054946229 0.28517091 14473684
0.78683871 -0.044724926 0.28529763 14407891
0.78700012 -0.034623265 0.28477123 14210512
0.78666675 -0.025528694 0.28449112 13815754
0.78599989 -0.015385744 0.28517073 13552839
0.78583997 -0.0052648224 0.28511325 13487303
0.78452951 0.0050605778 0.28528398 13684427
0.78435719 0.014747561 0.2851643 13816267
0.78533334 0.025074951 0.28493088 13684938
0.78596002 0.035213001 0.28515846 13882060
0.78536665 0.04529823 0.28494212 14013390
0.78519994 0.055399917 0.28488129 13947597
0.78587997 0.064646609 0.28512767 13749961
0.78579986 0.074756809 0.28509834 13881290
0.78451854 0.084938534 0.28504097 14012876
0.78311145 0.094668813 0.28503859 14276305
0.7876786 0.10536484 0.28518638 12697275
0.79000002 0.10937075 0.28107378 11118243
0.7918573 0.11539093 0.28484219 11119011
0.7926774 0.12476577 0.28495452 11053475
0.79212117 0.13461357 0.28474844 11053475
0.79263991 0.14499412 0.28535357 11053475
0.79250008 -0.1843463 0.29494885 9671310
0.787 -0.17470595 0.29531136 11841710
0.78244001 -0.16460134 0.29486993 15000027
0.78316683 -0.15466718 0.29514435 15000027
0.78419995 -0.14477625 0.29553524 15000027
0.78473336 -0.13477029 0.29573587 14934235
0.78556651 -0.12479859 0.29512924 14868442
0.78569436 -0.11470319 0.29517719 14868442
0.78640008 -0.10467971 0.29452083 14802649
0.78700012 -0.094627708 0.2947455 14736856
0.78634477 -0.084298007 0.29526046 14736856
0.78573322 -0.075161926 0.29518929 14802649
0.78577131 -0.065178737 0.29507357 14736856
0.78663993 -0.054990124 0.29461101 14407891
0.78723341 -0.044895831 0.2948325 14407891
0.78684628 -0.034602441 0.29490024 14210512
0.78625786 -0.02533612 0.29523855 13749961
0.7858569 -0.015252284 0.29536822 13421253
0.78549987 -0.0052627167 0.29510158 13487046
0.78406268 0.0046100947 0.29513636 13618375
0.78403705 0.015143882 0.29506239 13815754
0.78608328 0.025099784 0.29532149 13684682
0.78692317 0.035398073 0.29492876 14013903
0.78626466 0.045350127 0.29512 14078926
0.78596658 0.05545361 0.29527864 14144719
0.78599989 0.064656004 0.29529098 13749961
0.7854442 0.074722722 0.29508069 13947083
0.78324252 0.085261256 0.29494667 14144462
0.77900004 0.09508229 0.29722029 14342098
0.78134495 0.095053755 0.29495865 14342098
0.78628582 0.10498322 0.29506698 13026498
0.78900003 0.11160709 0.29628611 10921634
0.79017407 0.11590966 0.29448566 11053218
0.79100019 0.125249 0.29531765 11053475
0.79152 0.13552359 0.294586 11053475
0.78713644 -0.17413586 0.30492994 11775919
0.79000002 -0.17913631 0.3060407 9868179
0.78275007 -0.16447128 0.30473739 14934235
0.78250003 -0.15480526 0.30474973 15065564
0.7833752 -0.14496616 0.30553401 14933978
0.78487492 -0.13502406 0.30531684 14933978
0.78480762 -0.12460832 0.30515862 14868442
0.78576654 -0.11471152 0.30531996 14736856
0.78730011 -0.10479987 0.30499575 14802649
0.78780574 -0.094725125 0.30519158 14736856
0.78657699 -0.08459226 0.3054229 14671063
0.78600001 -0.075187042 0.30541116 14605527
0.7865808 -0.064964771 0.3054589 14671063
0.78700012 -0.055016514 0.30487862 14473684
0.78694463 -0.044880584 0.30485696 14342098
0.78658617 -0.034858789 0.30487671 14342098
0.78642303 -0.02530711 0.30571869 13749961
0.78568959 -0.01522246 0.30516455 13420998
0.78499991 -0.0052588214 0.30502269 13420998
0.78456676 0.0048455745 0.3048546 13552840
0.78483993 0.014953199 0.30496117 13553097
0.78593326 0.025093406 0.30538553 13552583
0.78675866 0.03512188 0.30494305 14078926
0.78640604 0.045359861 0.30522394 14078926
0.78607994 0.055461079 0.30544236 14078926
0.78540003 0.064605705 0.30517739 13749961
0.78474188 0.074803382 0.30509937 13815754
0.7824859 0.085298359 0.30509174 14012620
0.77872735 0.094883107 0.30639619 14078671
0.7804445 0.096071191 0.30264229 14210769
0.77900004 0.10055325 0.30998585 14079698
0.78503466 0.10501559 0.30503237 12961216
0.78900003 0.11190029 0.30431935 11053219
0.79075003 0.11664891 0.3056379 10987425
0.79219991 0.12451243 0.30596751 11053218
0.79241925 0.13465959 0.30467534 10987682
0.78796285 -0.17519315 0.31498724 11315366
0.78359258 -0.16505015 0.31507441 14802394
0.78115392 -0.15525746 0.31471121 15000028
0.78183311 -0.1452536 0.31477413 14934235
0.78319383 -0.13471213 0.31455144 14934235
0.78325027 -0.12500457 0.31471327 14868442
0.78344125 -0.11475032 0.31444588 14802649
0.78476465 -0.10510813 0.31546086 14736856
0.78621864 -0.095108151 0.31538472 14802649
0.78596759 -0.085273817 0.31530955 14671063
0.78596151 -0.075183362 0.31480804 14671063
0.78623331 -0.065085396 0.31470421 14473684
0.78647995 -0.054979414 0.3148028 14276305
0.78700012 -0.044883423 0.31501171 14342098
0.78691995 -0.034745667 0.31498063 14276306
0.78770012 -0.024638843 0.31529301 13684168
0.78704 -0.014486363 0.31502926 13486789
0.78560007 -0.0052635898 0.3144525 13486791
0.78499991 0.0049797883 0.31499857 13881805
0.78499991 0.014955873 0.31512988 14079183
0.78494436 0.025061896 0.3151049 13947340
0.78599989 0.035018548 0.31520134 14144719
0.78590614 0.045559704 0.31491828 14276305
0.78509992 0.055391919 0.31516802 14144719
0.7841391 0.065419428 0.31478199 13881547
0.78313816 0.075293384 0.31453884 13749961
0.77900004 0.089611329 0.31728044 14144720
0.7813549 0.085099831 0.31493405 14012877
0.77827996 0.094993278 0.31516528 14144977
0.77900004 0.10055325 0.31545681 14079441
0.78472728 0.1057244 0.31509945 12960704
0.78885716 0.11132312 0.31549045 11053218
0.79170007 0.11609609 0.31503975 10987425
0.79289275 0.15491593 0.31571254 10987682
0.787875 -0.17450751 0.3245832 11447208
0.79000002 -0.17913631 0.32823357 9802383
0.78324008 -0.1647716 0.32450974 14802393
0.7826668 -0.15480684 0.32461172 15000028
0.78300023 -0.14473777 0.32477692 14868442
0.78280026 -0.1353554 0.32524145 14934235
0.78233325 -0.1252024 0.32504687 14934235
0.77899998 -0.11203258 0.32587767 14868442
0.78100008 -0.11584746 0.32399365 14868442
0.77900016 -0.10692235 0.32597792 14802649
0.78099996 -0.10329728 0.32332835 14539477
0.78230006 -0.09497647 0.32503262 14605270
0.78442872 -0.085107312 0.3248409 14736856
0.78548265 -0.075136684 0.32467586 14736856
0.78594422 -0.065062098 0.32470858 14671319
0.78646666 -0.054977827 0.32492515 14539732
0.78754848 -0.045062475 0.32462892 14342098
0.78772002 -0.034781363 0.32452106 14144719
0.7879678 -0.024498915 0.32480058 13815497
0.78720009 -0.014488979 0.32522622 13552325
0.78596658 -0.0052665453 0.32471624 13420996
0.78481805 0.0048188483 0.32532734 13684169
0.78476 0.014950268 0.325138 13618632
0.78380024 0.025022717 0.32473931 13684169
0.78451866 0.035354737 0.32462776 14013134
0.78458834 0.04503658 0.32441622 14078927
0.7832225 0.055191491 0.32490751 14013133
0.78303069 0.065578051 0.32492098 13881547
0.78243327 0.07535167 0.3250905 13815754
0.77900004 0.089246608 0.32348087 14079184
0.78118515 0.084238186 0.32528177 14013134
0.77892005 0.095072433 0.32454202 14013648
0.77900004 0.10055325 0.32457507 14342356
0.78395659 0.10590591 0.3249608 12763068
0.7884286 0.11245001 0.32560232 11052962
0.79106671 0.11729746 0.32441533 10987425
0.79086137 0.15484828 0.32488564 10921889
0.79143351 0.16515431 0.32512078 10987682
0.78831255 -0.17321835 0.3349148 11775660
0.79059994 -0.17834765 0.33496186 9802383
0.78538471 -0.16508071 0.33480358 14736857
0.78452784 -0.15493917 0.33514217 14999772
0.78289306 -0.14460301 0.33516088 14868186
0.77890015 -0.13395171 0.33802655 14933722
0.78120005 -0.13544513 0.33381075 14933978
0.77876198 -0.12449928 0.3364554 14999514
0.78057152 -0.12544261 0.33201623 15000028
0.778862 -0.11455441 0.33495387 15065564
0.78000003 -0.11843696 0.33138269 15065564
0.77900016 -0.10770793 0.3344228 15000028
0.78044999 -0.10270038 0.33513638 14934234
0.78256005 -0.095007874 0.33521885 14539477
0.78490627 -0.085186541 0.33530498 14605270
0.78529996 -0.075120158 0.33547246 15000028
0.78513885 -0.064996034 0.33540192 15197407
0.78549993 -0.054910399 0.33555594 15131614
0.78757143 -0.044782531 0.33472988 14736856
0.78800005 -0.034794472 0.33478147 14276305
0.78724259 -0.025044307 0.33437443 13947340
0.78606677 -0.014652047 0.33561406 13816011
0.78483337 -0.005259031 0.33527237 13881547
0.78394145 0.0047339527 0.33516201 13618375
0.78460008 0.014948954 0.33517441 13552582
0.78474993 0.025054874 0.33523914 13486789
0.78492302 0.035025753 0.33460549 13684168
0.78477782 0.045264632 0.33525091 13881547
0.78442866 0.055410147 0.33542994 13947340
0.78339428 0.065106563 0.33507499 13881547
0.78167868 0.075474627 0.33542633 13947340
0.77900004 0.089003444 0.33855641 13947342
0.78069717 0.084875867 0.33497226 13947598
0.778862 0.095190734 0.33463958 13882062
0.78000003 0.091552362 0.33229572 13750733
0.77900004 0.10055325 0.33460519 14013647
0.78409523 0.10584784 0.33517575 12632250
0.78825009 0.11282012 0.33488801 10987682
0.79009998 0.11770807 0.33474937 10921889
0.79112005 0.1243436 0.33518136 10921889
0.7927776 0.13481118 0.33495539 10921889
0.79258347 0.14498071 0.334874 10921889
0.7913332 0.15494166 0.3352747 10921889
0.79250008 0.16537759 0.33484051 10987682
0.78900003 -0.17221394 0.34467253 12762810
0.79120004 -0.17657033 0.3450923 9736588
0.78575009 -0.16510555 0.34492263 14736856
0.77818185 -0.15294033 0.34758458 14868442
0.78172737 -0.15588342 0.34367588 14934235
0.77800012 -0.14468184 0.34573111 14802649
0.78100008 -0.14684509 0.3413637 14868442
0.77714717 -0.13502069 0.34493771 14802392
0.77633363 -0.12514986 0.34436265 14802393
0.77691692 -0.11523947 0.34462136 14868185
0.77865517 -0.10540881 0.34536138 15065821
0.78039998 -0.10059358 0.34233069 15065821
0.78156674 -0.094886824 0.3448537 15065821
0.78433335 -0.085039943 0.34498954 14736600
0.78423089 -0.074878067 0.34532315 14538964
0.78269446 -0.064792752 0.34535107 14999516
0.78388023 -0.054796532 0.34495807 15196894
0.78638238 -0.045061741 0.34486806 15065309
0.78800005 -0.034794472 0.34492749 14473171
0.787 -0.025398763 0.34470227 13947340
0.78521204 -0.015624146 0.34504277 13684168
0.78352022 -0.0052484376 0.3447997 14276561
0.78456676 0.0048475261 0.34526128 14013646
0.78448004 0.014946712 0.34522206 14145489
0.78499991 0.025063915 0.34545156 13948110
0.78586203 0.035336081 0.34506929 13947853
0.78536665 0.045297686 0.345613 13947853
0.78499991 0.055385251 0.34545195 14013133
0.78353137 0.065594971 0.34514904 13881547
0.77900004 0.076845758 0.34281161 13947340
0.78069234 0.074901469 0.34503153 13881547
0.77900004 0.086369283 0.34260899 14012620
0.77999997 0.084596202 0.34594712 13947340
0.77891308 0.095388524 0.34435931 13947340
0.78000003 0.091552362 0.34781665 14013134
0.77900004 0.10055325 0.34098795 13947340
0.78387505 0.10501301 0.34503064 12960702
0.78854555 0.11219077 0.34483039 10921889
0.79056257 0.11685223 0.34500837 10856096
0.79183996 0.124456 0.34475583 10921890
0.78875005 -0.17192872 0.35587198 12367797
0.79135716 -0.17613754 0.35486579 9867917
0.77900004 -0.16022913 0.3574008 14934235
0.78421438 -0.16530898 0.35454264 14670808
0.77770376 -0.15470536 0.35458043 14868442
0.7761113 -0.14489841 0.35466212 14736856
0.77651644 -0.13532226 0.35461932 14736857
0.77708024 -0.12527014 0.35470119 14802650
0.77736676 -0.115306 0.3548331 14802649
0.77861279 -0.10458355 0.35469535 14736856
0.77868426 -0.096074134 0.35648751 14737114
0.7805385 -0.09335836 0.35304558 15000029
0.77883339 -0.086048186 0.35884368 14868699
0.78191441 -0.08447051 0.35434088 15000029
0.78176481 -0.074890077 0.35516617 14999772
0.77900004 -0.06539917 0.35849506 14802651
0.78074211 -0.064483576 0.35483709 14538965
0.78276676 -0.054718938 0.35454509 15065565
0.78511125 -0.044772699 0.35499325 15131358
0.78696668 -0.034747761 0.35460594 14407378
0.78682762 -0.025661165 0.35470226 13946827
0.78405559 -0.015351191 0.35512927 13487303
0.78263354 -0.0052422644 0.35448614 14210768
0.78288913 0.0048353556 0.35460097 14276303
0.78260028 0.014910066 0.35447028 14211025
0.78333372 0.025011431 0.35480207 14145232
0.78416663 0.035133149 0.35517895 14145489
0.77900004 0.048123226 0.35876858 14540247
0.78289205 0.044932686 0.35482121 14342868
0.77800006 0.054890729 0.35760322 14408661
0.78266662 0.055220723 0.35342872 14276562
0.77883339 0.0649781 0.35823584 14276560
0.78203583 0.064981297 0.35355905 14144718
0.77869564 0.075547412 0.3555955 14210766
0.78057146 0.073345117 0.3518562 14013387
0.77867848 0.084431313 0.3555595 14144718
0.78000009 0.087215632 0.35146865 14144719
0.77890021 0.095526233 0.35553104 14144721
0.78000009 0.094291352 0.35329461 14144721
0.78477782 0.10504866 0.35487869 13157826
0.78855562 0.11183771 0.35399082 10921632
0.79113334 0.11669085 0.35494158 10856096
0.792606 0.15477073 0.35537583 10790305
0.78768754 -0.17285115 0.36530212 10526106
0.79114294 -0.17807396 0.36442429 9605258
0.77883339 -0.1604988 0.36522451 14802650
0.78269571 -0.16585279 0.36474892 14210514
0.77753347 -0.15446828 0.36491781 14802393
0.77653599 -0.14537534 0.364775 14605014
0.77645743 -0.13503639 0.36454231 14605271
0.77768755 -0.1250252 0.36487579 14736858
0.77826458 -0.11517167 0.36536783 14868444
0.77793336 -0.10537653 0.36510447 14736858
0.77647251 -0.095180601 0.36441928 14408405
0.77630031 -0.085162446 0.36433795 14671321
0.77750003 -0.075282529 0.36489958 15065822
0.77810007 -0.065323539 0.36518127 15065565
0.7785911 -0.056747653 0.36657384 14736857
0.78100002 -0.053843401 0.36261901 14539222
0.77900004 -0.048986297 0.36834273 15000028
0.78224331 -0.044288091 0.36482361 15065308
0.78470969 -0.034766164 0.36481652 14670550
0.78437501 -0.025283584 0.36485386 13749704
0.78119457 -0.015293592 0.36480474 13420740
0.78120005 -0.0052323495 0.36480865 14342869
0.77807146 0.0071464968 0.36699119 14474198
0.78123999 0.0038369694 0.36354768 14275792
0.77732152 0.014809491 0.36513996 14474454
0.78071439 0.014874218 0.36053672 14606040
0.77788001 0.024362775 0.36664498 14474454
0.78088236 0.025631368 0.36191937 14342868
0.77777791 0.03514988 0.36715561 14277075
0.78117639 0.034676604 0.36248547 14277075
0.77697152 0.044943176 0.36478186 14606040
0.78100002 0.040476352 0.36105973 14474454
0.77650017 0.054786243 0.3644338 14540247
0.77708358 0.064832255 0.3647072 14342868
0.776667 0.074796535 0.36451063 14539990
0.77613914 0.084739514 0.36426282 14408148
0.77626687 0.094749212 0.36432114 14408148
0.77775002 0.1003919 0.36683929 13816526
0.78480011 0.10520459 0.36461446 13289925
0.78900003 0.11107936 0.36475936 10987426
0.7925483 0.15533006 0.365293 10790560
0.78669232 -0.17414157 0.3753064 9999765
0.79025 -0.17919299 0.3727363 9408394
0.7786364 -0.16114905 0.37446728 14737371
0.78158826 -0.1662527 0.37505391 13749966
0.7769233 -0.15455607 0.37463677 14671835
0.77644014 -0.14516167 0.37440425 14606041
0.77620035 -0.13512239 0.37428808 14671578
0.77680022 -0.12522434 0.37457648 14605785
0.77765524 -0.11550538 0.37486461 14869214
0.77829415 -0.1053168 0.37379774 14737628
0.7802 -0.10385516 0.37804246 14935007
0.77736855 -0.094667599 0.37332019 14869214
0.78000003 -0.096525036 0.37794554 14474713
0.77695012 -0.085234687 0.37374213 14473943
0.77725011 -0.075259812 0.37388602 14539479
0.78000003 -0.071874104 0.37977153 14605270
0.77748019 -0.065271378 0.37490767 15065819
0.77822572 -0.055224162 0.37479526 14539477
0.78000003 -0.050875176 0.37977153 14078413
0.77900016 -0.046136837 0.37312987 14473428
0.78025007 -0.044345018 0.37654504 14737112
0.78196955 -0.035081748 0.37446138 14341842
0.78160715 -0.025561815 0.37447551 13684168
0.77900016 -0.014988196 0.37329268 13421253
0.78005552 -0.015471944 0.37533489 13289410
0.77900004 -0.0070422799 0.37199005 13421767
0.78044999 -0.004771607 0.37496787 13684938
0.77775854 0.0050823386 0.37415835 13092289
0.78000003 0.0008613214 0.37794554 12236979
0.77560723 0.014776411 0.37458524 13552837
0.77650034 0.024793351 0.37443221 13749960
0.77664018 0.034795348 0.37450024 13749960
0.77683359 0.044807829 0.37459543 14144975
0.77787501 0.054313973 0.37361726 14802649
0.78033334 0.055665832 0.37841138 13881289
0.77816689 0.065732151 0.37361804 14736599
0.78028578 0.063663229 0.37782311 14341840
0.77724016 0.074851185 0.37479168 14538961
0.7760002 0.084723786 0.37419257 14210253
0.77567983 0.094677337 0.37403828 13882315
0.77800006 0.101336 0.37424496 13553611
0.78439999 0.10657997 0.37492871 12040372
0.78850007 0.11147073 0.37606415 10658717
0.79266649 0.18489286 0.3748045 10921634
0.79185712 0.19509867 0.37501723 10856098
0.79277772 0.20440935 0.37485498 10987427
0.79237038 -0.18531273 0.38503611 9539981
0.78733343 -0.17500351 0.38495529 9737106
0.77900004 -0.16114096 0.38110831 14868444
0.78293747 -0.16516374 0.38486984 13684942
0.77880007 -0.15471798 0.38101047 14737628
0.78276926 -0.15550552 0.38619679 14606299
0.77900004 -0.14381626 0.38110831 14671835
0.78308326 -0.14548425 0.38555276 14474456
0.77880007 -0.13466342 0.38101047 14277077
0.78350002 -0.13492478 0.38606292 14737628
0.77900004 -0.12466791 0.38110831 14211285
0.78345454 -0.12496259 0.38595697 14737629
0.78411114 -0.11457086 0.38534701 14408152
0.78536361 -0.10504086 0.38497961 14145492
0.78590912 -0.094914407 0.38558102 13421769
0.78468186 -0.084746271 0.38464621 13422025
0.78466678 -0.075365514 0.38511109 13486791
0.78383338 -0.064888567 0.38531137 13684167
0.78353345 -0.05477339 0.38516396 14143948
0.78381819 -0.044368036 0.38463762 14013390
0.78400004 -0.034617856 0.38447624 13619147
0.78339994 -0.025423113 0.38418144 13224643
0.78292 -0.014995228 0.38471621 12961215
0.78340006 -0.0052486639 0.38509843 13289924
0.77825004 0.0079944218 0.3811973 12631478
0.78266668 0.0040047229 0.38587213 13290438
0.77814293 0.01482556 0.38199088 13025981
0.78219998 0.014903461 0.38725287 13356491
0.778 0.024191258 0.38087961 12104877
0.7828235 0.025263766 0.38675508 13224645
0.77900004 0.034901742 0.38110831 11841705
0.78270006 0.035069149 0.38566843 13289922
0.77900004 0.04310818 0.38110831 11907498
0.78288889 0.045969769 0.38606837 13026751
0.78265226 0.055458184 0.38504845 12368821
0.78234506 0.065111883 0.38470373 12434615
0.77900004 0.076845765 0.3815642 11972782
0.78094441 0.075107276 0.38581905 12369081
0.77842116 0.084844589 0.38284022 13288898
0.78109097 0.085529491 0.38861549 11448752
0.77800018 0.094541192 0.38216126 12697272
0.7815001 0.095616564 0.38759166 10921891
0.7840476 0.10505633 0.38497612 10856868
0.78849995 0.11326598 0.38555101 10593182
0.79081821 0.11773121 0.3831847 10658717
0.79174304 0.12507692 0.38442385 10658718
0.79268575 0.13497914 0.38440561 10724511
0.79278785 0.16492644 0.38481501 10724768
0.79174989 0.17483252 0.38479564 10790562
0.79152948 0.18490016 0.38423896 10856098
0.7911483 0.19451991 0.38478738 10790305
0.79213792 0.20437084 0.3849149 11052963
0.78880006 -0.17295547 0.39218134 9934482
0.7911765 -0.17624447 0.39589208 10198168
0.78787506 -0.16528256 0.39306021 12039861
0.79016668 -0.1637585 0.39797875 9935256
0.78785717 -0.15440968 0.39295268 12500666
0.79037499 -0.15586206 0.39846939 10132119
0.78806663 -0.14536667 0.39280191 11645617
0.79049999 -0.14408818 0.39737552 10000535
0.7881819 -0.13494231 0.39197531 11184810
0.79090005 -0.13490364 0.39711455 9934743
0.7883001 -0.12523377 0.39211792 10066073
0.79063642 -0.12510009 0.39706591 10000791
0.78854555 -0.11553877 0.39215577 9934229
0.79066664 -0.11465684 0.39668867 10000789
0.78900003 -0.10595056 0.39154175 10131092
0.79137504 -0.10511098 0.39619637 9868946
0.78900003 -0.093944646 0.39154175 9605521
0.7917369 -0.09544079 0.39641428 9869204
0.78900003 -0.084709331 0.39154175 9539985
0.79159999 -0.084989414 0.39653996 9803412
0.78883338 -0.074843168 0.39176688 9868693
0.79068756 -0.075173229 0.39631346 9803413
0.78850001 -0.065273777 0.39221716 10132121
0.79038459 -0.06493178 0.39749581 9934997
0.78850007 -0.05512137 0.39221716 10921381
0.79030001 -0.055246502 0.39681253 9934997
0.78850001 -0.044968959 0.39221716 11447464
0.79049999 -0.04508302 0.3969132 9802895
0.78857148 -0.034556173 0.39304408 10921377
0.79028571 -0.034895398 0.39773038 9803151
0.78804535 -0.024314785 0.39392126 10000535
0.79028571 -0.02643864 0.3990517 9540494
0.7873913 -0.014972051 0.39475328 9738133
0.78785002 -0.0052780304 0.3955842 9277582
0.78782612 0.004665059 0.39545232 9277581
0.79000002 0.0095029166 0.39943561 9343627
0.78740007 0.015002532 0.39443704 9146251
0.79000002 0.015051129 0.39943561 9475213
0.78794456 0.02515807 0.39470884 9145995
0.79016668 0.025229147 0.39951989 9277834
0.78762496 0.035057865 0.39293626 10330013
0.79055554 0.035830446 0.39889458 9343629
0.78764999 0.044969168 0.39428538 9671827
0.79025 0.043729849 0.39956203 9606031
0.78672719 0.055002093 0.3951883 9342860
0.78512007 0.065096863 0.39461902 9408652
0.78488016 0.074852929 0.39538142 9606031
0.78430009 0.084713183 0.3956393 10000789
0.78551996 0.094923906 0.39518794 10264218
0.78785002 0.10520152 0.39456961 10396317
0.79000002 0.10875428 0.39881918 10396317
0.78875005 0.11242946 0.39187944 10462110
0.79070008 0.1154843 0.3956261 10396317
0.79150003 0.1246163 0.39449465 10527903
0.79224139 0.13487872 0.39513442 10593696
0.79203993 0.1448828 0.3949044 10593439
0.79233325 0.15513831 0.39504954 10724512
0.79191995 0.16525315 0.39484489 10790305
0.79135722 0.17499416 0.39436695 10790305
0.7917037 0.1851842 0.3949447 10790304
0.79243982 0.19504447 0.39510581 10790047
0.79134488 -0.024596317 0.40554628 9869458
0.78900003 -0.014257068 0.40130481 9541008
0.79016662 -0.014644499 0.40630287 9804178
0.78900003 -0.0052856174 0.4007771 9475214
0.79084218 -0.0054920167 0.40619656 9738385
0.7914167 0.0048893271 0.40478599 9672592
0.79205 0.015089719 0.40510973 9672592
0.79220825 0.025294384 0.40519011 9541006
0.78866673 0.056053631 0.40142864 9606801
0.79166675 0.054123733 0.40608752 9804180
0.78841668 0.064701065 0.40278867 9738130
0.79137498 0.065561667 0.40823662 9935509
0.78846157 0.074797556 0.40305999 10001046
0.7910834 0.075258173 0.40831771 10001302
0.78820002 0.085133918 0.40406248 10329754
0.79000002 0.08532849 0.40868264 10330524
0.78850007 0.095088288 0.40306193 10395804
0.79025 0.095299855 0.4081184 10461340
0.78900003 0.10276759 0.4007771 10462110
0.79122734 0.10516422 0.40553054 10527133
0.79259992 0.14498399 0.40446198 10593183
0.79199988 0.15507276 0.40508208 10724512
0.79210705 0.16509442 0.4048059 10724512
0.79210001 -0.16477911 0.41440123 10330524
0.79193324 -0.15528736 0.41431567 10395804
0.79239982 -0.14522883 0.41469339 10461339
0.79199994 -0.024925033 0.4151006 10001302
0.79175001 -0.014725174 0.41499567 9869972
0.79250008 0.084955625 0.41525799 10395546
0.79275006 0.094906375 0.41474742 10396060
0.79263324 0.15519531 0.41561189 10658719
0.79262954 0.16560885 0.41519782 10724512
0.79283321 0.20442098 0.41478702 10855584
0.79226929 -0.17423232 0.42447934 10462110
0.79116011 -0.16458191 0.42410034 10396317
0.79225004 -0.15493758 0.42488453 10396061
0.78654552 0.13801411 0.42848232 10592924
0.77673703 0.14504787 0.42832807 10592926
0.78572732 0.14514863 0.42627943 10658718
0.79214996 0.14434555 0.42258739 10658719
0.778 0.15142089 0.42888269 10527133
0.78641176 0.15403636 0.42772174 10658719
0.79141665 0.15557577 0.42346326 10592926
0.79119468 0.19478537 0.42478156 10658719
0.79158068 0.20523474 0.42468262 10525852
0.79233319 0.0048909578 0.43492898 10001046
0.79146671 0.015080321 0.4344534 9935253
0.79252756 0.025304761 0.43503627 9869460
0.79209995 0.044758856 0.43480307 10132374
0.79133344 0.05490518 0.43438041 10132374
0.79093128 0.06493336 0.43431854 10132630
0.7909447 0.075247012 0.43416521 10132888
0.79229999 0.085578628 0.43490961 10330267
0.78900003 0.11754408 0.43956542 10724512
0.78873676 0.12591061 0.43708575 10593182
0.79104757 0.12397604 0.43276727 10527646
0.77900004 0.13884997 0.4321706 10658719
0.78640634 0.13504134 0.43466339 10592925
0.77663165 0.14521959 0.43430248 10527390
0.78066665 0.14158325 0.43796924 10461854
0.77694744 0.15361151 0.434764 10527389
0.78283334 0.15755342 0.43322113 10592926
0.78709531 0.16319592 0.43586698 10592926
0.79121429 0.16709162 0.43299058 10658719
0.78900009 0.18731269 0.43671086 10592926
0.7910834 0.18320964 0.43377948 10592926
0.7889998 0.19406039 0.43539238 10592926
0.79000002 0.19837333 0.43341845 10592926
0.79107428 0.20602711 0.43475285 10065300
0.79207993 0.044758752 0.44499001 10066582
0.79126674 0.054899953 0.44453314 10066838
0.78900003 0.068596907 0.4451066 10329754
0.79037517 0.064860404 0.44395483 10132375
0.78900003 0.076293007 0.44541451 10198682
0.79000002 0.074334815 0.44238296 10263960
0.78900003 0.083989099 0.44572231 10264731
0.79018754 0.086043127 0.44253919 10330523
0.79196566 0.09513323 0.44408822 10396060
0.78900003 0.1092323 0.44695365 10592926
0.78837502 0.11537376 0.44429156 10396317
0.79028571 0.11258137 0.44186726 10396317
0.78750008 0.12469483 0.44333744 10396317
0.78720003 0.13505642 0.44344634 10396317
0.778 0.14868777 0.44072235 10330524
0.78312504 0.14324772 0.4429391 10462110
0.77766675 0.15499865 0.44053352 10462108
0.78050005 0.15921614 0.44122556 10592925
0.78646159 0.16553585 0.44324726 10658719
0.78900003 0.17018539 0.44418308 10592926
0.79038483 0.17575034 0.4436807 10592926
0.78899986 0.18537235 0.44438833 10527133
0.79000002 0.18195987 0.44150957 10592926
0.7889998 0.19470094 0.44435111 10527133
0.79000002 0.19999154 0.44197193 10592669
0.79071426 0.20528714 0.44360492 10000276
