# .PCD v0.7 - Point Cloud Data file format
VERSION 0.7
FIELDS x y z rgb
SIZE 4 4 4 4
TYPE F F F U
COUNT 1 1 1 1
WIDTH 948
HEIGHT 1
VIEWPOINT 0 0 0 1 0 0 0
POINTS 948
DATA ascii
0.79219997 -0.095120266 0.15494993 11842990
0.79262501 0.074826226 0.15512937 11646127
0.78900003 -0.11149175 0.16989419 15593189
0.78900003 -0.10433438 0.16920155 15527139
0.79147828 -0.10576192 0.16414015 12303282
0.78866661 -0.094828099 0.16797538 14408401
0.79055566 -0.095054701 0.16282552 11974576
0.78858346 -0.085126363 0.16841918 15000796
0.79147369 -0.084485896 0.16340218 12040370
0.78875005 -0.076141879 0.16914773 15329247
0.78900003 -0.065315172 0.1698942 15328991
0.78871435 -0.054345757 0.16930495 15328734
0.78850007 -0.044968963 0.16886301 15065819
0.78820002 -0.034803148 0.16787568 15066078
0.7916472 -0.035285182 0.16261169 11975348
0.78863627 -0.025003809 0.16729742 14277334
0.79042858 -0.024196068 0.16227075 11119782
0.78839999 -0.014510202 0.16791855 14277076
0.79033339 -0.014545472 0.16277975 12237489
0.78831571 -0.0050869756 0.16712274 14277075
0.79045451 -0.0056316177 0.16213192 11908010
0.7877776 0.0051725279 0.16634907 14474453
0.79033333 0.0039555929 0.16154681 11975345
0.78754163 0.014850471 0.16604199 14211796
0.79016668 0.015671553 0.16120465 12304830
0.78767991 0.025185954 0.16665658 14211283
0.79027271 0.025147177 0.16175866 13752019
0.78766662 0.035443079 0.16606919 14408149
0.79000002 0.034778107 0.16117072 14211540
0.78672403 0.045153379 0.16571468 14539735
0.79000002 0.043716896 0.16086249 14736856
0.78650004 0.055144683 0.16462976 14671577
0.79000002 0.050189808 0.16086249 14803419
0.78646654 0.064695098 0.16473751 14802906
0.78774184 0.07479468 0.16575283 15000028
0.79000002 0.07608147 0.16086249 15001057
0.78781474 0.085296221 0.16553736 15395043
0.79000002 0.083479084 0.16086249 15527144
0.78712493 0.094751768 0.1653973 15526630
0.79000002 0.097349614 0.16086249 15856109
0.78875005 0.10227355 0.16845506 14210513
0.78900003 -0.17198306 0.17774421 15328481
0.79129636 -0.17600213 0.1743663 14210255
0.7888332 -0.16502231 0.17724457 15394273
0.79029411 -0.16505498 0.17213103 15657955
0.78875005 -0.15507969 0.17699479 15525858
0.79035723 -0.15489995 0.17190371 15658213
0.78852373 -0.14487086 0.17620736 15591395
0.79046154 -0.14536265 0.17134699 15592935
0.78820831 -0.13467579 0.17594945 15525602
0.79025 -0.13548766 0.17085686 15527142
0.78788 -0.12516718 0.17518288 15394529
0.79000002 -0.12550358 0.17010953 15658728
0.78684837 -0.11478885 0.17545347 15460322
0.79000002 -0.11718126 0.17010953 15593189
0.78596789 -0.10480125 0.17582314 15394785
0.78512913 -0.095144346 0.17533769 15394784
0.78391427 -0.084949635 0.17534533 15394271
0.78383321 -0.074979477 0.1751952 15262942
0.78472227 -0.064960279 0.17539391 15197149
0.78443331 -0.054838248 0.17532998 15131613
0.78308558 -0.044791482 0.17489879 14934234
0.7831614 -0.034756698 0.17519589 14671319
0.78461307 -0.025281452 0.17522471 14342098
0.78537148 -0.015241805 0.1756756 14013133
0.7846334 -0.0052580805 0.17537889 14013133
0.78263897 0.0048322175 0.17493336 14144719
0.78183323 0.01489585 0.17475337 13947340
0.78286099 0.024996189 0.17498286 13749961
0.78293341 0.035077263 0.1749994 13947340
0.78291708 0.045158036 0.17499816 14144719
0.78233325 0.055195864 0.17486845 14210512
0.78144437 0.065194972 0.17466795 14210512
0.78256673 0.075366862 0.17491491 14342098
0.78297144 0.085353039 0.17513809 14868186
0.78325808 0.095427863 0.17492598 15263200
0.78799993 0.10368454 0.17570448 12763324
0.79115391 0.10824958 0.17406037 11513512
0.78884625 -0.1727666 0.18548629 14999515
0.79053843 -0.17769352 0.18460345 11906990
0.78797227 -0.16484219 0.18535174 15065051
0.78776675 -0.15465586 0.18530293 14933465
0.78736669 -0.14536135 0.18520795 14999258
0.78616667 -0.13501848 0.18492503 14867929
0.78443348 -0.12462112 0.18451646 14802136
0.78311133 -0.11544708 0.18471628 14736343
0.78300029 -0.10514486 0.18509939 14736599
0.78183997 -0.094923638 0.18482386 14670806
0.78199977 -0.084873132 0.184863 14670806
0.78151995 -0.074759535 0.18475035 14473683
0.77899998 -0.064096563 0.18701954 14276305
0.78057152 -0.064877793 0.18484916 14407890
0.77900004 -0.056584854 0.18749715 14210512
0.78035998 -0.054260544 0.18491209 14407891
0.78044438 -0.045015808 0.18469994 14342098
0.78192842 -0.035112731 0.18465136 14013133
0.78300017 -0.025408616 0.18509941 13749961
0.78340036 -0.015335004 0.1851941 13683912
0.78288007 -0.00524593 0.18507074 13420483
0.78133339 0.0048239254 0.18470579 13815497
0.7803601 0.014867374 0.1844763 13552838
0.78060001 0.024923123 0.1845323 13552582
0.78107995 0.034995493 0.18464567 13684168
0.78253353 0.045137275 0.18498898 13815754
0.78272003 0.055223256 0.1850332 13881547
0.77900004 0.068132751 0.18759847 13749961
0.78104001 0.064318687 0.18427026 13749961
0.77878582 0.07395988 0.18722789 13815754
0.7800625 0.07603772 0.18337752 13881547
0.78173321 0.085351959 0.18480015 14210256
0.78231996 0.095488742 0.18493807 14473941
0.7873044 0.10427297 0.18499354 12369080
0.7902 0.10939844 0.18495063 11448231
0.78852946 -0.1733743 0.194984 15130587
0.79049999 -0.17832495 0.19519995 10525080
0.78661537 -0.16526812 0.19501846 15328479
0.78565496 -0.1550023 0.19504815 14999771
0.78551996 -0.14502023 0.19488823 14736856
0.78431255 -0.13458537 0.19493283 14736856
0.78348023 -0.12446778 0.19438477 14671063
0.78403705 -0.11497015 0.1947284 14539732
0.78346449 -0.10488109 0.19418408 14473682
0.78203326 -0.094947144 0.19493988 14276559
0.78199977 -0.084873147 0.19493169 14144973
0.78193319 -0.074798495 0.19491558 14144718
0.78130019 -0.06467732 0.19567508 14013132
0.78155988 -0.054636031 0.19574021 14013133
0.78214288 -0.044735871 0.19483845 13947340
0.78338474 -0.034729965 0.19457301 13749961
0.78464007 -0.025461271 0.19467305 13486789
0.78453332 -0.015358903 0.19464606 13486789
0.7830373 -0.0050430424 0.19468176 13157824
0.78213888 0.0048300391 0.19496837 13486789
0.78220004 0.014903069 0.19498342 13223874
0.78291684 0.024997121 0.19516158 12960703
0.78308004 0.035083883 0.19428642 13157824
0.78316158 0.045320019 0.19448307 13552582
0.78265524 0.055344932 0.19493729 13618375
0.7789287 0.067721121 0.19442654 13552582
0.78094441 0.06261377 0.19548136 13618375
0.77870011 0.07408233 0.19502142 13815755
0.78000003 0.078770399 0.19534615 13881549
0.78196871 0.084805243 0.19481024 14144464
0.78236365 0.094716042 0.19499511 14407891
0.78745824 0.10510612 0.19514 12237236
0.79000002 0.10937075 0.19415176 11448233
0.78817648 -0.1732973 0.20531644 14539479
0.79055554 -0.1784403 0.20498157 10131095
0.78516674 -0.16517638 0.20490915 15394529
0.78422242 -0.15487593 0.20466425 15197150
0.78499991 -0.14492396 0.20486793 14868442
0.78467643 -0.1348694 0.20505492 14802649
0.7852999 -0.12475599 0.20494851 14802393
0.78586084 -0.11472759 0.2050941 14671063
0.78493333 -0.10448656 0.20485173 14539219
0.78271997 -0.095030576 0.20519066 14473682
0.78253329 -0.084930331 0.20514192 14342096
0.78340012 -0.074937776 0.20536911 14341840
0.78463328 -0.064952791 0.20569363 14013131
0.78463995 -0.054851994 0.20569503 14013131
0.78416139 -0.044573847 0.20539118 13815753
0.78451729 -0.034512743 0.20490076 13552582
0.78556651 -0.025490729 0.20501576 13289410
0.78569436 -0.0153809 0.2050501 13157824
0.78471428 -0.005454388 0.20512304 13092031
0.78420013 0.0048435051 0.20557973 13223874
0.78380013 0.014933009 0.20547386 13092288
0.78390026 0.025028445 0.20549871 13158337
0.78483325 0.035163872 0.20482507 13092287
0.78505731 0.045150138 0.20501703 13223617
0.78423077 0.055188801 0.20537537 13552582
0.77900004 0.069551148 0.20056666 13552582
0.78227592 0.06510517 0.20520087 13684167
0.77900004 0.072286628 0.20056666 13684170
0.78143477 0.07549578 0.20517223 13749962
0.78261566 0.084743276 0.20530285 14078927
0.78333354 0.095002219 0.20504405 14342098
0.78773689 0.10401266 0.20466046 13223874
0.79042858 0.10890168 0.20615314 11316389
0.78756523 -0.17409828 0.2149547 13355205
0.79000002 -0.17913631 0.21449521 9999762
0.78351748 -0.16470176 0.21532674 15329249
0.78445166 -0.1550685 0.21500282 15263200
0.78539985 -0.14499715 0.21508592 15000028
0.78589988 -0.13497066 0.21522215 14868186
0.78604007 -0.12487458 0.21526036 14933722
0.78603321 -0.11475272 0.21525812 14867929
0.78592002 -0.10461732 0.21522766 14736600
0.78564 -0.09538386 0.21515331 14604757
0.78556663 -0.085260116 0.21513242 14473171
0.78564 -0.07515242 0.21515191 14473171
0.78609979 -0.065074593 0.21527688 14078670
0.78600001 -0.054947354 0.21524975 14012876
0.78523332 -0.044783555 0.21504036 13881547
0.78472 -0.034649171 0.21489963 13618375
0.78523999 -0.025480457 0.2150405 13420996
0.78586656 -0.015383524 0.2152123 13355203
0.78519988 -0.0052610976 0.21503012 13157824
0.78499991 0.004848524 0.21497534 13289667
0.78483999 0.014952448 0.21493182 13289410
0.78516668 0.025069898 0.21502304 12960701
0.78620005 0.035225261 0.21530606 13289922
0.78619993 0.045346338 0.21530451 13355715
0.7850799 0.055390142 0.2149968 13355714
0.78320026 0.065471373 0.21526752 13750215
0.78206652 0.075317211 0.21508721 13815752
0.78213876 0.085395075 0.21510637 14078923
0.78272402 0.095413491 0.21510988 14342096
0.78776479 0.10363948 0.21508099 13552582
0.79100001 0.10858449 0.21476671 11250340
0.78714281 -0.17375389 0.22503884 13354947
0.79000002 -0.17913629 0.22466695 9933969
0.78326946 -0.16491707 0.22529165 15328736
0.7834003 -0.15458246 0.22475182 15263200
0.78489983 -0.14490353 0.22505103 15131614
0.78602844 -0.1351238 0.22524492 14933979
0.78692007 -0.12501428 0.22471231 14933979
0.78693348 -0.11488424 0.22471625 14933979
0.78692007 -0.10474996 0.22471285 14802393
0.78706676 -0.094697841 0.22481517 14605013
0.78593743 -0.084726639 0.22557971 14407634
0.78539985 -0.075129636 0.22519593 14407635
0.78618169 -0.065330729 0.22500268 14407891
0.78716004 -0.05502798 0.22478169 14276049
0.78703332 -0.044885356 0.22474612 14078926
0.78676009 -0.03474085 0.2246682 13947340
0.78534466 -0.025358692 0.22502403 13881547
0.78527761 -0.01537102 0.22516285 13684169
0.78573322 -0.0052640452 0.2252942 13421510
0.78513879 0.0048488295 0.22512317 13487046
0.78509986 0.014958168 0.22511172 13749961
0.785972 0.025094349 0.22536162 13487046
0.78659999 0.035242006 0.22553986 13618375
0.78594434 0.045330688 0.22535247 13684424
0.78420007 0.055326544 0.2248525 13750217
0.78232241 0.065119617 0.22505261 13750216
0.78116006 0.075229093 0.22489575 13881288
0.78066689 0.085235186 0.22475335 14144205
0.7821154 0.095606528 0.22495884 14473171
0.78734779 0.10468012 0.22531441 12894395
0.79040003 0.10905625 0.22237459 11316647
0.78778952 -0.17368703 0.23466675 13618119
0.79042858 -0.17870508 0.23575966 9999247
0.78330773 -0.16464578 0.23489514 15262687
0.78192574 -0.15554269 0.23467588 15328480
0.78290009 -0.14544982 0.2345612 15196894
0.78570956 -0.13478728 0.23522434 14999515
0.78700012 -0.125027 0.23486805 14999515
0.78680563 -0.11486585 0.23480906 14999771
0.78676677 -0.10472999 0.23479722 14934235
0.78648269 -0.095614202 0.23487081 14802649
0.78539985 -0.085243233 0.23531012 14671063
0.78531998 -0.075121246 0.23528646 14736856
0.78654552 -0.064858437 0.23515037 14736856
0.78743345 -0.055046879 0.23499604 14670806
0.78780574 -0.044928804 0.23510753 14473684
0.78740019 -0.034768999 0.23498686 14144719
0.78592306 -0.025646903 0.23525453 14078926
0.78553319 -0.015375435 0.23535056 13815754
0.78627998 -0.0052668331 0.23557442 13684425
0.78606671 0.0048545669 0.23551042 13618376
0.78576005 0.014970723 0.23541868 13684168
0.78609979 0.025098296 0.23552011 13552582
0.78600001 0.035215363 0.23548967 13815754
0.7856999 0.0453173 0.23540059 13881546
0.78447998 0.055346593 0.23503551 13881547
0.78238249 0.06548775 0.23505148 13749961
0.77900004 0.074110284 0.23886338 13749961
0.78096437 0.075275823 0.23456647 13881547
0.78097147 0.085138559 0.23476864 14144206
0.78236002 0.095494464 0.23440069 14407634
0.78710711 0.10528926 0.23489866 12697273
0.78900003 0.11107936 0.23454139 11250597
0.79065001 0.11594043 0.23503084 11250597
0.78850001 -0.17312756 0.24480914 14078672
0.79124999 -0.17803212 0.24508953 10394264
0.78481489 -0.16503522 0.24507028 15197406
0.78406674 -0.1548461 0.24470267 15197150
0.78480005 -0.1448862 0.24431816 15131357
0.78603333 -0.13499357 0.24470015 14999515
0.78679991 -0.12499495 0.24493915 14999771
0.78623325 -0.11478294 0.24476305 14999772
0.78591996 -0.10461742 0.24466492 14934235
0.78565377 -0.095315687 0.24479404 14868442
0.7858181 -0.085537724 0.24513432 14802649
0.78600001 -0.07518705 0.24468988 14802649
0.78656667 -0.065112062 0.24486628 14802649
0.78688014 -0.055008501 0.24496379 14802649
0.78706682 -0.04488707 0.24502157 14539477
0.78764009 -0.034778111 0.24520107 14276305
0.78647989 -0.025522942 0.24483955 14078926
0.78593326 -0.015384517 0.24466909 13947340
0.78648019 -0.0052673304 0.244839 13815498
0.78693354 0.0048600752 0.24498065 13749961
0.78663987 0.014988051 0.24488991 13749961
0.78720009 0.025133375 0.24506392 13420996
0.78623992 0.035225175 0.24476503 13618374
0.78599989 0.04533558 0.24468985 13684167
0.7851724 0.055458356 0.24519175 13815753
0.77824998 0.067964867 0.24667929 13618375
0.78178257 0.063669488 0.24409245 13684168
0.77806658 0.074933939 0.24495046 13815754
0.78152007 0.08441519 0.24512443 14144206
0.78366697 0.094737336 0.24488133 14144205
0.78703845 0.10542111 0.24480012 12565686
0.7889998 0.11431173 0.24562378 11250852
0.79000002 0.11676836 0.24131157 11185059
0.78859252 0.12517457 0.24590638 11250852
0.79022223 0.12420012 0.24107096 11250853
0.78895223 0.13464348 0.24622454 11250597
0.79044449 0.13636725 0.24154955 11250597
0.78850007 -0.17233613 0.25469762 14341843
0.79141188 -0.17771484 0.25498304 10789278
0.78588879 -0.1655326 0.25528476 15065820
0.78517634 -0.15484902 0.25481132 15131613
0.78503335 -0.14493059 0.25449374 15000283
0.78505552 -0.13482517 0.25450161 15000026
0.78643346 -0.12493534 0.25494936 14934234
0.78770012 -0.11499638 0.25444037 14934235
0.78692871 -0.10455532 0.25478366 14868442
0.78599989 -0.095490925 0.25496873 14868442
0.78575742 -0.085029244 0.25514993 14736856
0.78646684 -0.075231381 0.25496301 14671063
0.78688908 -0.06514015 0.2550987 14605270
0.78700012 -0.055016514 0.25513428 14539477
0.78737521 -0.045076288 0.25468025 14407891
0.78800005 -0.034794472 0.25453609 14276305
0.7870667 -0.024989029 0.25509474 14013133
0.78605872 -0.015116507 0.25461298 13947340
0.78603321 -0.0052655865 0.25482079 13947340
0.78655553 0.004857807 0.25498879 14013133
0.78646648 0.014984437 0.25496003 14276305
0.78672248 0.025117736 0.25504243 13947340
0.78556651 0.035194855 0.25466803 14013133
0.78472227 0.045261297 0.25439298 14013133
0.78400016 0.055242028 0.25486597 14013133
0.77880007 0.068074368 0.25229383 13684168
0.78147829 0.064362019 0.25521436 13749961
0.77855563 0.073967725 0.25249851 13749961
0.78118742 0.07580398 0.2574808 13815754
0.78168565 0.085216053 0.25537345 14210255
0.78273326 0.095234409 0.25527629 14341841
0.78660715 0.10502405 0.25467703 12828602
0.78856516 0.11447022 0.25439769 11250596
0.79000002 0.11769307 0.25888091 11053218
0.78894109 0.12421659 0.25299329 11250852
0.7906363 0.12544438 0.25774422 11316390
0.78900003 0.13324411 0.25116497 11316644
0.79150003 0.13505583 0.25576228 11250596
0.7924782 0.14520572 0.2544522 11316389
0.78866661 -0.17329592 0.26490599 13552326
0.7906363 -0.17827183 0.2651459 9868176
0.78596002 -0.16534452 0.26491734 14999515
0.78319478 -0.15467535 0.26490149 15065564
0.78336698 -0.14462194 0.26496035 14999772
0.78400022 -0.13477556 0.26504174 14999771
0.78499997 -0.12501313 0.26550868 14868442
0.78727788 -0.11493373 0.26443645 14868186
0.78681481 -0.10494217 0.26479355 14802649
0.78568 -0.095388547 0.2648215 14802649
0.78603321 -0.0853092 0.2649413 14736856
0.78744012 -0.075323671 0.265416 14671063
0.78746682 -0.065189406 0.26542541 14605270
0.78700006 -0.055016518 0.26526734 14605270
0.78791189 -0.044772264 0.26492396 14473684
0.78800005 -0.034794472 0.26468211 14276305
0.78728139 -0.024857599 0.2650159 14013133
0.78635997 -0.014473565 0.26505125 13947340
0.78583997 -0.0052648224 0.26487568 13815755
0.78531235 0.0050221537 0.26504141 13684426
0.78496665 0.01495555 0.26549858 13750475
0.78522569 0.024921883 0.26484588 14079183
0.78472006 0.035156988 0.26449928 14211025
0.78436685 0.045242038 0.26438096 14210769
0.78491998 0.055379599 0.26456735 14079183
0.78453851 0.064746924 0.26437023 13750474
0.78408706 0.074791491 0.26532468 13749961
0.78278583 0.085136369 0.2654843 14144719
0.78253573 0.095252477 0.26559553 14276305
0.78703701 0.10548507 0.26487026 12631480
0.78900003 0.11154113 0.2617856 11315877
0.7917273 0.11559491 0.26568311 11184804
0.78843749 -0.1734764 0.27521119 13157824
0.79039997 -0.17848723 0.27473897 9933968
0.78570008 -0.16528866 0.27494374 14868186
0.78416675 -0.15486643 0.27532727 14999772
0.78428006 -0.14479122 0.27536675 15065051
0.78336024 -0.13545273 0.2750428 15065051
0.78316158 -0.12518516 0.27479559 14868442
0.78463882 -0.11454728 0.27457297 14868442
0.78566664 -0.1047869 0.27442366 14802649
0.7862221 -0.095045127 0.27441388 14736856
0.78660709 -0.085043192 0.27414617 14736856
0.78700006 -0.0752827 0.27447927 14671063
0.78700012 -0.065149605 0.27447927 14605270
0.78748012 -0.055048756 0.27464712 14473684
0.78726673 -0.044898473 0.27457175 14342098
0.78710711 -0.034558412 0.2751067 14144719
0.7867099 -0.024934903 0.2747331 13815754
0.78581804 -0.014965485 0.27523762 13552840
0.7851333 -0.0052599474 0.27474779 13618633
0.78420597 0.0046785432 0.2746917 13750731
0.78292006 0.01491624 0.27488869 13619145
0.78425723 0.0251731 0.27457061 13619145
0.78536659 0.035187531 0.27483025 13816524
0.78574979 0.04509167 0.27438945 13882317
0.78632009 0.055479418 0.27424309 14078926
0.78606886 0.064788826 0.27491593 13749961
0.7858609 0.074761808 0.2750026 13684168
0.78456002 0.084739886 0.27546635 14078926
0.78393358 0.094768085 0.27524677 14342098
0.78756005 0.1050548 0.27474809 12763579
0.79000002 0.10937075 0.27922437 10987427
0.78728575 -0.1745754 0.28497764 12039090
0.79000002 -0.17913631 0.28199846 10065555
0.78236675 -0.1645864 0.28476572 15000028
0.78221881 -0.15505426 0.2844831 15000028
0.78255892 -0.14511856 0.28505281 14999771
0.78383356 -0.13491945 0.28469241 14933979
0.78415394 -0.1247867 0.28436321 14868442
0.78474188 -0.11447477 0.2848922 14868442
0.78639275 -0.10448124 0.28472024 14868442
0.78736126 -0.094671093 0.28474271 14736856
0.78733343 -0.08453086 0.28473279 14736856
0.78700012 -0.0752827 0.28461239 14802649
0.78694463 -0.065145016 0.28459221 14605270
0.78750014 -0.055050448 0.28479338 14473684
0.78738904 -0.04490618 0.28475446 14407891
0.78651851 -0.034934893 0.2849499 14210512
0.7868126 -0.024725702 0.28512025 13815754
0.78680015 -0.014481008 0.28546175 13552583
0.78636009 -0.0052689612 0.28530273 13487303
0.78418773 0.0050694873 0.28485775 13684939
0.78303474 0.01479233 0.28485417 13816268
0.78509992 0.025069177 0.28484631 13684938
0.78724009 0.035272039 0.28562248 13750731
0.78766668 0.045063082 0.28491727 13882317
0.78761792 0.054918658 0.2850545 14013389
0.78680778 0.064579651 0.28525144 13749961
0.78596658 0.074772857 0.28515849 13881547
0.78474069 0.0849635 0.2851209 14013133
0.78357172 0.094593838 0.28507361 14342098
0.78779167 0.10476456 0.28528234 13026752
0.79000002 0.10937075 0.28477257 10855841
0.79237121 0.15501288 0.28483093 11053475
0.79239291 -0.18518431 0.29510689 10065811
0.78719234 -0.17467642 0.29503062 11842224
0.78284013 -0.16468649 0.29502249 15065564
0.78211105 -0.15496908 0.29494998 15065565
0.78325003 -0.14518738 0.29498026 14999771
0.78587872 -0.1350494 0.29510716 14934235
0.78640014 -0.12493242 0.29452181 14868442
0.78520578 -0.11484929 0.2952095 14868442
0.78506452 -0.10468026 0.29485014 14802649
0.78561288 -0.095202044 0.29499429 14736856
0.78582859 -0.085156351 0.29535583 14736856
0.78675026 -0.075455353 0.29524282 14802649
0.78720015 -0.065165065 0.29482034 14736856
0.7880401 -0.055089027 0.29513511 14407891
0.78823334 -0.044954572 0.29520804 14407891
0.78736007 -0.034767624 0.29488102 14210512
0.78700012 -0.024617223 0.29474545 13684168
0.78700006 -0.014484126 0.29474542 13421253
0.78655547 -0.005066094 0.29498792 13355974
0.78514701 0.0046313391 0.29524127 13553096
0.78473079 0.015093542 0.2955218 13815754
0.78678125 0.024892602 0.29500964 13749962
0.78843993 0.035325997 0.29528522 14013390
0.78899992 0.043715876 0.29451668 13947853
0.79000002 0.046491001 0.29794955 14013133
0.78874058 0.055237856 0.29519272 14078927
0.79000002 0.050189808 0.29771841 14210512
0.78724009 0.064756423 0.2948359 13684168
0.7856943 0.074745886 0.2951766 13881291
0.78353137 0.08514145 0.29487762 14144462
0.78167754 0.095234267 0.29499191 14407635
0.78678578 0.10504961 0.2952545 13092032
0.78900003 0.11107937 0.29734156 11119011
0.79062968 0.11542282 0.2948685 11053218
0.79178566 0.12424874 0.29527774 11053218
0.79196435 -0.18534634 0.30527779 10000017
0.788037 -0.1749357 0.30510944 11315365
0.78414297 -0.16476522 0.30527854 14999772
0.7831769 -0.15488599 0.30496144 15065308
0.78436011 -0.14480422 0.30477417 14933978
0.78578126 -0.13471921 0.30498052 14934235
0.78626657 -0.12491081 0.30459279 14868442
0.78519988 -0.11463188 0.30509982 14802649
0.78444451 -0.104218 0.30521348 14802649
0.78336686 -0.095107935 0.30530331 14736856
0.78457582 -0.08539959 0.3053571 14605270
0.78618515 -0.074999526 0.3050735 14671063
0.78713912 -0.065160297 0.30493212 14671063
0.7881667 -0.055097364 0.30533016 14539477
0.78869683 -0.045065142 0.30511603 14407891
0.78776675 -0.034785029 0.30517623 14276305
0.78719473 -0.024623267 0.30495501 13749705
0.78716683 -0.014487195 0.30494419 13420996
0.78646427 -0.0054670316 0.30499983 13421509
0.78529996 0.0048489338 0.30513915 13552839
0.78519988 0.014960618 0.30510035 13618375
0.78652942 0.025330102 0.30496523 13552583
0.78740001 0.035279103 0.30503017 14013133
0.78814805 0.044332162 0.30583337 14013133
0.79000002 0.046491001 0.30141723 14013133
0.78820002 0.054819297 0.30547321 14078926
0.79000002 0.050189808 0.30141723 14078926
0.78693348 0.064731307 0.30485103 13684168
0.7851935 0.074845813 0.30527431 13749961
0.78265727 0.08557912 0.30489632 13947341
0.7790001 0.095538199 0.30755433 14013392
0.78058827 0.095170386 0.30362952 14079440
0.78524148 0.10504278 0.30511302 12895424
0.78890002 0.11180411 0.30561399 11053218
0.79018748 0.11656533 0.30495772 11053218
0.79181486 0.12465844 0.30540606 10987425
0.79173082 -0.1849505 0.31526518 9934224
0.78811109 -0.17522614 0.31504574 11380901
0.78310353 -0.16474339 0.31528205 14802394
0.78225726 -0.1546182 0.31515035 15065564
0.78396785 -0.1449092 0.31486189 14934235
0.78455567 -0.13473989 0.31494907 14934235
0.78440005 -0.12461434 0.31488645 14868442
0.78415161 -0.11489493 0.31453612 14736856
0.78335512 -0.10498695 0.31502989 14736856
0.78228003 -0.094975948 0.31495276 14802649
0.78369719 -0.084804274 0.31502295 14671063
0.78527576 -0.075243704 0.31508139 14671063
0.7869001 -0.065138631 0.31497195 14605270
0.78800005 -0.055086412 0.3154119 14276305
0.78842425 -0.044880927 0.31507859 14276305
0.78800005 -0.034794472 0.3154119 14276305
0.78800005 -0.024648504 0.31541196 13749961
0.78800005 -0.01450253 0.31541193 13486789
0.78696007 -0.00527373 0.31499636 13487046
0.78563619 0.0049353135 0.31496751 13816525
0.78570372 0.01517364 0.31490159 14079440
0.78538871 0.025075046 0.31528449 13882061
0.78516662 0.035178185 0.31519598 14079440
0.78513885 0.045286272 0.31518242 14145232
0.78543317 0.055416062 0.31530124 14079183
0.78526652 0.064595133 0.31523576 13881547
0.78405726 0.074457608 0.31488147 13749961
0.78245181 0.085278384 0.3148452 14012877
0.77900004 0.096298061 0.31322792 14144721
0.78038895 0.094643138 0.31652802 14144720
0.78407699 0.10488678 0.31475735 13157826
0.78854555 0.11202287 0.31512648 11118498
0.79068756 0.11675541 0.3149837 10987682
0.78766662 -0.17446196 0.32449779 11512746
0.79000002 -0.17913631 0.32823357 9605004
0.78207707 -0.16452859 0.32494164 14671065
0.77890927 -0.15498924 0.32536557 15000028
0.78060001 -0.15251683 0.32158595 14934236
0.77881831 -0.14610262 0.32797953 14934235
0.7814073 -0.14486963 0.32333964 14934235
0.77900004 -0.13743347 0.32822239 14868443
0.78167862 -0.1349646 0.32444611 14934235
0.78224999 -0.12518772 0.32501146 14934235
0.78243339 -0.11514316 0.32508811 14868442
0.78230572 -0.10505188 0.32503539 14670807
0.7824828 -0.095126241 0.32495379 14539477
0.78386682 -0.085073307 0.3247689 14802649
0.78503835 -0.074953519 0.32504094 14736856
0.7867223 -0.065123819 0.32502893 14671063
0.7880401 -0.055089027 0.32465187 14473684
0.7888332 -0.044986997 0.32497883 14342098
0.78812003 -0.034800332 0.32468525 14144719
0.78782356 -0.024426507 0.32521287 13749961
0.78763336 -0.014495938 0.32540479 13552582
0.78686672 -0.0052728099 0.32508856 13420996
0.78551501 0.0047670752 0.32494816 13684169
0.78482747 0.014887763 0.32478401 13684169
0.78403354 0.02503169 0.32483596 13749962
0.78499991 0.035170559 0.3252373 14013133
0.78423339 0.045231387 0.32492051 14013133
0.78440011 0.0553446 0.32498914 13947340
0.78499991 0.064573742 0.3252373 13881547
0.78415644 0.074827783 0.3252314 13815754
0.78241676 0.085422859 0.32508221 14078670
0.78096014 0.095321521 0.32539099 14144719
0.78468966 0.10496921 0.32510564 13092034
0.78850007 0.1119325 0.3248415 11053218
0.79094124 0.11701778 0.32519266 10921632
0.79243308 0.12454867 0.32553264 10921889
0.79126674 0.14473981 0.3250533 10921889
0.78900003 0.15540889 0.32874164 10921889
0.79058105 0.1546457 0.32402465 10987425
0.78900003 0.16095006 0.32874164 11053475
0.79203129 0.16556908 0.32461008 10987682
0.78850001 -0.17279752 0.33437958 12237241
0.79108334 -0.17768531 0.33532116 9539727
0.78454167 -0.16504818 0.33514953 14737114
0.77877277 -0.15380217 0.33458984 14999772
0.78066665 -0.15844005 0.33501789 15000028
0.77884614 -0.14547013 0.33411795 14868186
0.7801429 -0.14167885 0.33731383 14802393
0.77899998 -0.1360006 0.33082762 14803164
0.78105563 -0.13454489 0.33569288 14868699
0.78163326 -0.12508836 0.33482233 15000028
0.78195983 -0.11507351 0.33496109 15065308
0.78193313 -0.10500161 0.33494955 14933722
0.78288472 -0.094906449 0.33514506 14604758
0.78480554 -0.085176356 0.33526129 14605014
0.78525913 -0.075319588 0.33494535 15065821
0.78683341 -0.065133035 0.33520794 15197407
0.78810006 -0.055093013 0.33482453 15131614
0.78880531 -0.044985309 0.33512387 14736856
0.78829998 -0.034808889 0.33490902 14342098
0.78659254 -0.025731202 0.33469337 14012877
0.78580534 -0.015381712 0.33568749 13815755
0.78574061 -0.0052641295 0.33514926 13816010
0.78494436 0.0048478562 0.33532074 13618631
0.78403461 0.014809771 0.33508816 13618632
0.78433347 0.025043942 0.33505946 13486789
0.78571415 0.035006497 0.33532086 13749961
0.78556657 0.045309145 0.33466801 13881547
0.784931 0.055506874 0.33515641 13881548
0.78430563 0.065433264 0.3350462 13881547
0.78353602 0.075261012 0.33504629 13881547
0.78223336 0.085402682 0.33507833 14012877
0.77892315 0.096475534 0.33688629 14012622
0.78062505 0.09436617 0.33313301 14013135
0.78353584 0.1047489 0.33510861 13157572
0.78855556 0.11286361 0.33501726 11052962
0.7902 0.11772309 0.33479053 10921889
0.79075879 0.12505193 0.33515498 10921889
0.79115397 0.13524584 0.33505219 10921889
0.78900003 0.1498677 0.33151221 10921889
0.79040015 0.14458117 0.33487594 10921889
0.78899997 0.15484054 0.33229369 10921889
0.79006672 0.1550028 0.33683106 10921889
0.7913751 0.16498783 0.33513609 11053475
0.78900003 -0.17152131 0.3453652 13486281
0.791875 -0.17574076 0.34511662 9736593
0.78518522 -0.1650486 0.34484869 14736857
0.77894753 -0.15369205 0.34451625 14868442
0.78085721 -0.15852226 0.34493414 15065821
0.77900004 -0.14807145 0.34220374 14802649
0.78104168 -0.14426722 0.34576729 14802649
0.78272021 -0.13534066 0.34445029 14802649
0.78234375 -0.12497518 0.34462723 14802649
0.78196645 -0.11507454 0.34503227 14934235
0.78102779 -0.10488167 0.34461606 15065821
0.77900004 -0.097313106 0.34828255 15197407
0.78128564 -0.094658062 0.3444024 15065565
0.78269446 -0.084947318 0.34535044 14802136
0.78412509 -0.074948132 0.3452338 14538964
0.78708827 -0.06537053 0.34517634 15000028
0.78855985 -0.055124626 0.3451719 15065565
0.78876656 -0.044984359 0.34526217 15131101
0.78803998 -0.03479699 0.34494412 14473171
0.78613323 -0.025511229 0.34503022 14012877
0.78523326 -0.015371632 0.3455545 13749961
0.78510708 -0.0052598743 0.34490737 14276304
0.78396678 0.0048401519 0.34499556 14144975
0.78246665 0.014907449 0.34525138 14079696
0.78306276 0.024774203 0.3449415 14013390
0.78496289 0.03537387 0.34502658 14013133
0.78524995 0.045292221 0.34464166 13947340
0.78457695 0.055213407 0.34505174 13947340
0.7838217 0.065066233 0.34473705 13947340
0.78455555 0.075148411 0.34546205 13881548
0.78262514 0.085672788 0.34475058 13947085
0.77787501 0.095778085 0.34497067 14012879
0.7802 0.091575839 0.34333876 14012622
0.77900004 0.10055325 0.34463525 13947342
0.78395241 0.10565528 0.3448135 12894399
0.78864288 0.11274422 0.34494495 10987169
0.79000002 0.11747967 0.34523389 10921889
0.79093963 0.12498756 0.34486786 10856096
0.79124016 0.13547443 0.34449431 10856096
0.79104012 0.14469919 0.3444069 10921889
0.79160011 0.15499623 0.34465158 10856096
0.78840005 -0.17212945 0.35599038 12039091
0.79135299 -0.17682943 0.35500294 9671057
0.77875006 -0.16108896 0.35728556 14868442
0.78410721 -0.16548157 0.35449332 14671065
0.77793765 -0.15454672 0.35582745 14802649
0.78049999 -0.15642801 0.35123745 15065821
0.77887499 -0.14561594 0.35871097 14671063
0.78120691 -0.14472622 0.35431239 14736856
0.77809101 -0.13354886 0.35797593 14802650
0.78216016 -0.1355374 0.35342789 14736856
0.77761912 -0.12509659 0.35754436 14802906
0.78149992 -0.12540196 0.35239169 14736856
0.77751732 -0.11485843 0.35671681 14671577
0.78055561 -0.11527354 0.35161689 14736857
0.77802938 -0.10490458 0.35480842 14671063
0.78000003 -0.10839398 0.35055563 14934237
0.77811426 -0.094782449 0.35485706 14868442
0.77751738 -0.085422128 0.35564956 15000028
0.78000003 -0.084656067 0.35055563 15065308
0.77785188 -0.075620957 0.35545567 15000028
0.78100008 -0.073692232 0.35141006 14999515
0.77866673 -0.066737764 0.35709557 14736858
0.78264517 -0.063811235 0.35339278 14605015
0.78502864 -0.054877501 0.35464463 15065823
0.78602433 -0.044939429 0.35496199 15131359
0.78619999 -0.034715462 0.3542591 14473171
0.78476673 -0.025466802 0.35545149 13881290
0.78416699 -0.015350635 0.35517952 13552839
0.7839002 -0.0052525448 0.35505936 14144976
0.78286147 0.0048346957 0.35458991 14145489
0.78199983 0.014898715 0.35511592 14277075
0.78258848 0.025202757 0.35473511 14145489
0.7838335 0.035118915 0.35502836 14211026
0.77900004 0.049490962 0.3592245 14671833
0.78291893 0.045230567 0.35478607 14342355
0.77875012 0.055703554 0.35758951 14474454
0.78195655 0.05477275 0.35302404 14276562
0.77875006 0.062464803 0.35796943 14211282
0.78225023 0.065607801 0.35413885 14079440
0.78461283 0.075385734 0.35523421 14079441
0.77900004 0.089611337 0.3592245 14276305
0.7829119 0.085257545 0.35488147 14078928
0.77792865 0.094884038 0.35489136 14144721
0.77857149 0.10075845 0.35511938 13947599
0.78386956 0.105895 0.35476419 13026753
0.78850001 0.11208642 0.35514483 10856097
0.79028571 0.11694335 0.3549138 10856097
0.79117256 0.12492558 0.35538423 10790304
0.79196966 0.13481371 0.35464245 10856097
0.7923125 -0.18505454 0.36483684 9605775
0.78717387 -0.17417304 0.36523455 10131608
0.79016668 -0.17855763 0.36283183 9342604
0.77723539 -0.163507 0.36536616 14539737
0.78200012 -0.16800311 0.36409962 13815758
0.7748611 -0.154844 0.36517331 14737114
0.77531445 -0.1449507 0.36478031 14605271
0.77560002 -0.13514803 0.36413872 14671064
0.77519983 -0.12496714 0.36473018 14736858
0.77580005 -0.1150746 0.36501291 14803165
0.77644461 -0.10497004 0.36491254 14736858
0.77652967 -0.09540157 0.36471516 14473686
0.77623105 -0.085015364 0.36500639 14671065
0.77744454 -0.075276561 0.36487713 15065821
0.77890497 -0.06608557 0.36482498 15065821
0.78020012 -0.060750924 0.36434308 14934235
0.78133339 -0.054618735 0.36487141 14539222
0.78277791 -0.044641446 0.36524042 15000028
0.78423339 -0.034627844 0.36438972 14671062
0.78360015 -0.025429206 0.36501411 13684425
0.78248578 -0.015187558 0.36527875 13290181
0.78206676 -0.0052396385 0.3652128 14342612
0.7786001 0.0086367931 0.36851743 14606041
0.78151512 0.0044660578 0.36459512 14079440
0.77777791 0.015121303 0.36715582 14605785
0.7807647 0.014551429 0.36229497 14605784
0.77734494 0.024975933 0.36586195 14408406
0.78107703 0.024588248 0.36130667 14474454
0.77732027 0.034826189 0.36572465 14342355
0.78140008 0.035008799 0.36124516 14342868
0.77726477 0.045045704 0.36505622 14606040
0.78083342 0.042600378 0.36067855 14540247
0.77700019 0.054820973 0.36466759 14540247
0.77748585 0.064737253 0.36502504 14408661
0.78050005 0.069685072 0.36082917 14277075
0.77805889 0.074610472 0.36746734 14671320
0.78166676 0.075585082 0.36289215 14276819
0.77722234 0.085496373 0.36594912 14539477
0.78142864 0.083748363 0.36217222 14210768
0.77529401 0.094522409 0.36493087 14408148
0.77694124 0.10200139 0.36490679 14210514
0.78292853 0.10708497 0.3643063 12500152
0.78803837 0.11413975 0.36523527 10790047
0.79000002 0.11815541 0.36198521 10592925
0.78899992 0.12450135 0.3676531 10724510
0.79004759 0.12540676 0.3631739 10790303
0.79132158 0.13542573 0.3651028 10790560
0.78900003 -0.18075661 0.37584174 9342603
0.79140913 -0.18569073 0.37479904 9473932
0.78668189 -0.17562598 0.37473619 9408141
0.77726322 -0.16399284 0.37451151 13882065
0.78157145 -0.16938438 0.37583089 13026758
0.77464515 -0.15494668 0.37517706 14671835
0.77459997 -0.14481731 0.37533134 14737371
0.77513874 -0.13493752 0.37468383 14605785
0.77516657 -0.12496178 0.37469718 14539735
0.77570975 -0.11520578 0.37422779 14934748
0.77735007 -0.10547654 0.37393397 14868955
0.78050005 -0.1034373 0.37864435 14671833
0.77794117 -0.095091343 0.37319982 15000286
0.78100002 -0.094821379 0.3784301 14211284
0.77794123 -0.085021518 0.37373593 14473943
0.78000003 -0.08739505 0.37794554 14408663
0.77796161 -0.075048119 0.37457785 14605527
0.78000003 -0.07643909 0.37977156 14868957
0.77839988 -0.065348811 0.37443665 15000285
0.77880967 -0.057395414 0.37424302 14736856
0.78023082 -0.0527164 0.37524611 14407890
0.78174186 -0.044434398 0.37495205 14605270
0.78256661 -0.034553941 0.37460753 14276306
0.78250021 -0.025392625 0.37457567 13684169
0.78112912 -0.015440634 0.37465733 13224130
0.78036004 -0.0052282996 0.37446705 13684169
0.77834618 0.0055761365 0.37434101 13157826
0.78016669 0.0014700401 0.37559167 12434102
0.77612013 0.014785748 0.37424889 13815497
0.77531254 0.024980625 0.37420067 13683912
0.77541369 0.034615945 0.37466052 13617863
0.77653337 0.044791657 0.37444979 14144719
0.77812511 0.054901168 0.37506628 14408146
0.78000003 0.055032481 0.37977153 13025979
0.77796668 0.064904444 0.37514099 14342096
0.77724016 0.074852146 0.37478954 14538705
0.77596688 0.084719643 0.37417573 14276046
0.77540004 0.094643585 0.37481108 13685194
0.77716666 0.10183436 0.37399757 13619403
0.78236371 0.10714921 0.3749283 10987428
0.78768003 0.11436414 0.3747327 10658718
0.79000002 0.11861777 0.37909219 10658717
0.78900003 0.12339311 0.37153193 10790303
0.79031825 0.12522572 0.37613395 10724510
0.79134786 0.13573614 0.37450454 10790303
0.78900003 -0.18075661 0.3804594 9342606
0.78718185 -0.17473282 0.38460866 9737106
0.79000002 -0.17913631 0.38833919 9671824
0.77850008 -0.16240411 0.38268673 14210771
0.78246158 -0.16573264 0.3857632 13355719
0.77775002 -0.15587494 0.38277337 14605785
0.78266668 -0.15426201 0.38778937 14606042
0.77900004 -0.14563991 0.38293195 14211284
0.78244442 -0.14526789 0.38625526 14540249
0.77900004 -0.13378617 0.38293195 14408663
0.78311121 -0.13459028 0.38719583 13684941
0.77900004 -0.12466791 0.38293195 14474456
0.78314292 -0.12493528 0.3873269 13487562
0.77800006 -0.1163104 0.38061908 14606042
0.78346157 -0.11373759 0.3855508 14211284
0.78559995 -0.1046641 0.38535446 14079698
0.78654557 -0.09499082 0.38589391 13290441
0.7853182 -0.084815875 0.38495815 13290440
0.78493333 -0.075086884 0.38585252 13092547
0.78338897 -0.064850479 0.38509315 13618120
0.78394121 -0.054478932 0.38493332 14013131
0.78416675 -0.044722021 0.38455856 14079182
0.78410012 -0.034621917 0.38452497 13619147
0.78370017 -0.025431562 0.38432878 13093059
0.78325003 -0.015332398 0.38410804 12829630
0.78325003 -0.0052473312 0.3841086 13224130
0.78320009 0.0044706864 0.38463396 13092801
0.778 0.014819697 0.38061908 12236209
0.78275007 0.015370282 0.38615224 13290439
0.77810013 0.024114739 0.38176194 12565685
0.78316671 0.025003901 0.38773164 13356745
0.77833337 0.035479363 0.38230106 12697527
0.78330004 0.035095096 0.38779783 13158852
0.77820003 0.043977138 0.38071695 11907757
0.7826429 0.045143537 0.38564101 13027008
0.78276479 0.055551019 0.38521758 12434614
0.77900004 0.066815667 0.38110831 11578279
0.7816 0.064840809 0.38567632 12434615
0.77866673 0.075444557 0.38231277 12499635
0.78150004 0.074806377 0.38797367 11776943
0.77800018 0.084422305 0.38192132 12959674
0.7816667 0.085649379 0.38709003 13750992
0.77842861 0.094232664 0.38134977 13027006
0.78266674 0.095071197 0.38672134 12172214
0.7851001 0.10538884 0.38492271 11053990
0.78846669 0.11297417 0.38463268 10462110
0.79030001 0.11755316 0.38552696 10527903
0.78850007 -0.1726436 0.39252463 10000789
0.79105562 -0.17649685 0.39585501 10198168
0.78772217 -0.16530229 0.39449564 11053222
0.79000002 -0.16526578 0.39943561 10198168
0.78753853 -0.15545933 0.39393833 11710382
0.79042858 -0.15491399 0.39885974 10132119
0.78786677 -0.14483842 0.39307201 11513518
0.79033333 -0.1449827 0.39775398 10197658
0.78792858 -0.13558117 0.39312002 10526623
0.79000002 -0.13475062 0.39758626 10000536
0.7879231 -0.12559825 0.39313772 9934485
0.79099995 -0.12473658 0.39808953 9935254
0.788077 -0.11597193 0.39236209 10000021
0.79120004 -0.11383955 0.39708036 9869460
0.78900003 -0.10779762 0.39154175 9802900
0.79166675 -0.10538308 0.39546266 9868948
0.78900003 -0.090250522 0.39154175 9474194
0.7918421 -0.095062867 0.39529666 9803156
0.78900003 -0.082862265 0.39154175 9737366
0.79147053 -0.085302055 0.39603972 9737619
0.78860009 -0.075436227 0.39226678 9737364
0.79091668 -0.074731104 0.39712289 9804181
0.78850007 -0.065273784 0.39221719 10263710
0.79159999 -0.064602666 0.39746633 9803671
0.78850007 -0.055121373 0.39221716 10592674
0.79160005 -0.055339478 0.39746609 9738134
0.78853858 -0.04461595 0.39244938 11315879
0.79081821 -0.045522448 0.3971574 9868947
0.78866673 -0.034823909 0.39322343 10855328
0.79100001 -0.03492694 0.39808953 9868946
0.78860003 -0.025221389 0.39282092 10527391
0.79066664 -0.023807211 0.39730534 9474188
0.78854555 -0.014176738 0.39249161 10659494
0.79055554 -0.01496054 0.39704391 9408652
0.78853327 -0.005282647 0.39315698 10527394
0.79033333 -0.0046780813 0.39806262 9540238
0.78827786 0.0048680543 0.39302984 10396066
0.79014289 0.0042189513 0.39792269 9540240
0.7879287 0.014880902 0.39338371 10001049
0.79049999 0.015061241 0.39876378 9277836
0.78799999 0.025429867 0.39462796 9145996
0.79014289 0.024566075 0.39924362 9277834
0.78793335 0.035301983 0.3947033 9211789
0.79000002 0.035394575 0.39943561 9343627
0.78804988 0.044992238 0.3938401 9935766
0.79000002 0.044641595 0.39943561 9409420
0.78780013 0.054843795 0.39478442 9606800
0.79000002 0.051114514 0.39943561 9409420
0.78563637 0.065124303 0.39430675 9343372
0.78505552 0.07499221 0.39499846 9474959
0.78560007 0.08485534 0.39445597 9738388
0.78762501 0.095213927 0.39485717 10198682
0.79000002 0.09827432 0.39943561 10330524
0.78833336 0.10498879 0.3925958 10461852
0.79054546 0.10524094 0.39786118 10461597
0.78900003 0.11107937 0.39154175 10462110
0.79166669 0.11542727 0.39498597 10527390
0.79203993 0.16527838 0.39490479 10790305
0.79195994 -0.155182 0.40561795 10198166
0.79230541 -0.14534429 0.40523821 10198167
0.78900003 0.058438063 0.4007771 9475213
0.79146165 0.05491266 0.40573475 9803666
0.78866673 0.065285042 0.4014287 9475214
0.79025012 0.064774141 0.40673137 9935251
0.7883684 0.075050153 0.40249705 9738387
0.79000002 0.075072706 0.40784198 10001558
0.78857136 0.084911332 0.4022741 10067352
0.79018188 0.085685022 0.40759981 10264730
0.78900003 0.092146963 0.40123886 10198938
0.79085004 0.094955973 0.40588394 10330524
0.79136682 -0.14517316 0.41494864 10527132
0.79211992 0.065158777 0.41534358 10066580
0.79120004 0.075270079 0.41486168 10132629
0.7909202 0.08542794 0.41471359 10330266
0.79157698 0.094908722 0.41484281 10330524
0.79218513 -0.14480849 0.42444399 10461597
0.79222566 -0.0053090407 0.42466751 10066581
0.7918064 0.0047425511 0.42462534 10066838
0.79187995 0.065139122 0.42448571 10001302
0.79106265 0.07525792 0.42439458 10132887
0.79127997 0.085467108 0.42416543 10395802
0.79215997 0.094835222 0.42463887 10396059
0.79229987 0.10505138 0.42471272 10527389
0.79218507 -0.0055136592 0.43536595 9935766
0.79203033 0.12549385 0.43462449 10527389
0.79146671 0.13539095 0.43445408 10592925
