# .PCD v0.7 - Point Cloud Data file format
VERSION 0.7
FIELDS x y z rgb
SIZE 4 4 4 4
TYPE F F F U
COUNT 1 1 1 1
WIDTH 890
HEIGHT 1
VIEWPOINT 0 0 0 1 0 0 0
POINTS 890
DATA ascii
0.79135299 0.075012758 0.15486754 11711919
0.78900003 0.08891461 0.15881181 15526372
0.78900003 0.090761669 0.15881181 15460579
0.78900003 -0.16043893 0.16989419 15460833
0.78900003 -0.1013329 0.16989419 15855589
0.78900003 -0.094472386 0.16963032 15592418
0.79227287 -0.095064379 0.16418508 12566198
0.78900003 -0.084709331 0.16989419 15197662
0.78900003 -0.075474024 0.16989419 15263200
0.78875005 -0.064372115 0.16937861 15394785
0.78815395 -0.054672007 0.16814962 15263454
0.78805554 -0.044943292 0.16784455 15197661
0.78846675 -0.03481492 0.16793273 14934748
0.79230005 -0.034984577 0.16225326 11712178
0.78853327 -0.025218913 0.16831622 14211539
0.78833336 -0.014509289 0.1679042 14277076
0.78805262 -0.0050852131 0.1670668 14211025
0.79125005 -0.00591989 0.16204093 11907753
0.78777784 0.0051729614 0.16634923 14605782
0.79055554 0.0039574853 0.16159207 12040367
0.78758335 0.01485097 0.16605087 14342612
0.79033333 0.015675118 0.16123861 12568001
0.78804153 0.025161354 0.16691829 14210769
0.79066664 0.025244916 0.16192293 13948883
0.78780955 0.035471458 0.16664915 14408148
0.79066664 0.035012946 0.16182017 14343126
0.7869643 0.045060489 0.1659638 14539989
0.79000002 0.044641595 0.16086249 14606295
0.78681475 0.05510284 0.16552928 14605783
0.79000002 0.054813322 0.16086249 14737626
0.78638709 0.064865164 0.16486925 14737369
0.78685725 0.074989006 0.16468957 14935005
0.78636652 0.084935114 0.1647173 15394786
0.78715152 0.094796211 0.16524759 15592166
0.79000002 0.09827432 0.16086249 15855339
0.78880006 0.10255706 0.1683735 13486789
0.78900003 -0.17231289 0.17675471 15262944
0.79086959 -0.17651823 0.17424138 13947083
0.78858614 -0.16481167 0.17546962 15526371
0.79000002 -0.16680694 0.17041777 15526112
0.78828001 -0.15475665 0.17527334 15592164
0.79000002 -0.15509406 0.17010953 15395297
0.78818506 -0.14510186 0.17504656 15526372
0.79000002 -0.14492233 0.17010953 15461350
0.78696662 -0.1347257 0.17553066 15394530
0.79000002 -0.1347506 0.17010953 15330022
0.78629029 -0.12509127 0.17589396 15328737
0.79049999 -0.12465598 0.17021717 15527399
0.78728569 -0.11526352 0.17564203 15460322
0.79062498 -0.1142665 0.17093763 15461349
0.78763998 -0.10484618 0.17512961 15526371
0.79000002 -0.10608484 0.17010953 15527138
0.78742856 -0.095008805 0.17488551 15526113
0.78561288 -0.0845844 0.17556648 15394272
0.78473336 -0.075065643 0.17539796 15328479
0.78411126 -0.064911306 0.17525952 15197149
0.78289998 -0.054730367 0.1749911 15131612
0.78330559 -0.044671316 0.17508139 14868441
0.78403354 -0.034618776 0.17524417 14671063
0.78490347 -0.025291624 0.17529008 14276305
0.78425729 -0.015221032 0.1754258 13947596
0.78426665 -0.0052544544 0.17529716 14013133
0.7833612 0.004835573 0.1750949 14144719
0.77900004 0.016665209 0.177771 13815754
0.78160727 0.014759799 0.17444122 14013133
0.7825278 0.024986787 0.17490713 13749961
0.78373343 0.035113808 0.17517738 13947340
0.78344476 0.04518728 0.17511681 14079182
0.78283364 0.055231206 0.17497984 14144975
0.77900004 0.068092227 0.17795336 13815754
0.78174198 0.064717762 0.1741149 14341841
0.77900004 0.074414223 0.17837888 13947084
0.78154165 0.075419538 0.17362134 14539220
0.77900004 0.080493063 0.17868282 14275792
0.78138244 0.085312009 0.17465317 14868186
0.78370011 0.095354624 0.17486574 15262945
0.78823525 0.10402618 0.17559034 12631482
0.79045463 0.10842469 0.17373872 11448231
0.78890914 -0.17234111 0.18515253 15065822
0.79100001 -0.17751287 0.18513881 12104884
0.7877059 -0.16505833 0.18507233 15065308
0.78596866 -0.15464875 0.18510796 14802136
0.78533328 -0.14498602 0.18472791 14933722
0.78435713 -0.13582346 0.18482806 14867929
0.78300029 -0.12530805 0.18509936 14802136
0.78384405 -0.11471824 0.18426368 14736343
0.78478795 -0.10496584 0.18485063 14867671
0.78499997 -0.095306709 0.18465097 14802134
0.78378159 -0.085297525 0.1849404 14670548
0.78344017 -0.074941605 0.18520519 14473427
0.78370011 -0.06487608 0.18526721 14473426
0.78336012 -0.054762889 0.1851863 14473171
0.78313351 -0.044662736 0.18513209 14407378
0.7835201 -0.034595996 0.18522406 14012620
0.78348023 -0.02542522 0.18521376 13815241
0.78303361 -0.015327864 0.18510741 13749448
0.78320014 -0.0052470434 0.18514742 13355203
0.78246683 0.0048306137 0.18497379 13749961
0.77900004 0.017273095 0.18172224 13420997
0.78054547 0.014538257 0.18485218 13552582
0.77900004 0.020920401 0.18172224 13618375
0.78070384 0.025367239 0.18482773 13486788
0.7818799 0.03503171 0.18483426 13618629
0.78376687 0.04520946 0.18527968 13750215
0.78360015 0.055284314 0.18524161 13881801
0.77900004 0.068335377 0.18172224 13815754
0.78150004 0.064359486 0.18535493 13684423
0.77900016 0.075326048 0.18303934 13881547
0.78009105 0.074960746 0.18823008 13881547
0.7790001 0.083643012 0.1838222 14144720
0.78004169 0.085622668 0.1856932 14144720
0.78192317 0.095582411 0.18463162 14539478
0.78683341 0.10525272 0.18508156 12236980
0.78885716 0.11158698 0.18674718 11579049
0.79186368 0.11628811 0.184158 11382183
0.78866667 -0.17317277 0.19554724 15000030
0.79057139 -0.17794487 0.19468853 10986401
0.78623992 -0.16540229 0.19506691 15328479
0.78277433 -0.15533274 0.19497438 15065307
0.77900004 -0.14746356 0.19691937 14999515
0.78120607 -0.14492172 0.19478405 14867929
0.78230011 -0.13526759 0.19500545 14670550
0.78300035 -0.12553717 0.19460812 14670550
0.78340757 -0.11521798 0.19470671 14670550
0.78396571 -0.10511464 0.19437881 14473171
0.78499991 -0.095305517 0.19476141 14341585
0.78573322 -0.085277297 0.19494425 14209998
0.78583997 -0.075171545 0.1949698 14209998
0.78599989 -0.065066814 0.19500875 14078412
0.78543991 -0.054908678 0.1948704 14078413
0.78456676 -0.044744983 0.19465442 14012620
0.78495997 -0.034660053 0.19475096 13815240
0.78479993 -0.025467679 0.19471142 13486531
0.78390014 -0.01534639 0.194489 13486787
0.78384024 -0.0052512372 0.19447428 13157823
0.78262872 0.0049631679 0.19495757 13486532
0.78166658 0.014891895 0.19484995 13223617
0.78186095 0.024963873 0.19489783 12960444
0.78250009 0.035058789 0.19505768 13092287
0.78286147 0.04515522 0.19514689 13552581
0.78300029 0.055244137 0.19518097 13552838
0.78261131 0.065291792 0.19508457 13618631
0.77900004 0.077301674 0.19828708 13947340
0.78068179 0.074600518 0.19468616 13750218
0.77900016 0.085052207 0.19691938 14144463
0.78023082 0.085538901 0.192453 13948110
0.77900004 0.093056001 0.19671673 14276305
0.78090489 0.09618675 0.19357027 14473684
0.7856155 0.10495012 0.19512519 12368308
0.78883332 0.11259512 0.19386525 11447718
0.79040009 0.11658136 0.19560738 11316645
0.78833336 -0.17322268 0.20481519 14802649
0.79049999 -0.17832497 0.20537809 10131347
0.78546673 -0.1652402 0.20498924 15394527
0.78277791 -0.15510246 0.20540905 15197149
0.78257149 -0.14506277 0.20495741 14933978
0.78396559 -0.1347952 0.20564558 14867929
0.78433341 -0.12466475 0.20475678 14802136
0.78461772 -0.11454508 0.20503914 14670807
0.78493536 -0.10466354 0.20470333 14538964
0.78563619 -0.094879597 0.20511752 14407378
0.78687894 -0.084982723 0.20527487 14341585
0.78696686 -0.075279675 0.20538148 14341585
0.78688914 -0.065140285 0.20536159 14012876
0.78649986 -0.055179123 0.20493232 13947083
0.78603023 -0.044578373 0.20472065 13749961
0.78533334 -0.034677193 0.20495634 13552582
0.78541923 -0.025308445 0.20512749 13355203
0.78577131 -0.015249971 0.20494062 13157824
0.78553325 -0.0052634086 0.20500912 13157824
0.78438723 0.0046946863 0.20545027 13355202
0.78259993 0.014909489 0.20515925 13158079
0.78196645 0.024966175 0.20499144 13223871
0.78228003 0.035049632 0.2050724 13223615
0.78280032 0.045151636 0.20520943 13158078
0.78300017 0.055244144 0.20526259 13552582
0.77866673 0.068913497 0.20746802 13618374
0.78203726 0.064665906 0.20487376 13684168
0.77693117 0.074946664 0.20473465 13749961
0.78000003 0.071466424 0.20082413 13749961
0.77661145 0.084792472 0.20449449 14144462
0.77817655 0.093054004 0.2046409 14342098
0.78145462 0.097878046 0.20535669 14473427
0.78686368 0.10475495 0.20460063 12697272
0.79033333 0.10941689 0.20718576 11448230
0.78826082 -0.17400976 0.21514559 13618120
0.79016668 -0.17886586 0.21392322 9999761
0.78461552 -0.16492026 0.21508089 15328736
0.78328609 -0.1548226 0.21529117 15328735
0.78516006 -0.14495179 0.21501896 15065565
0.78646684 -0.13506787 0.21537736 14802649
0.78551996 -0.12479311 0.21511842 14868442
0.78506655 -0.11461148 0.21499392 14802649
0.78515989 -0.10451606 0.21501991 14736856
0.78499991 -0.095306084 0.21497536 14605014
0.78623331 -0.085330836 0.21531263 14407634
0.78704 -0.075286336 0.21553417 14342098
0.78770006 -0.065206811 0.21571565 14078926
0.78800005 -0.054881446 0.21538696 13947340
0.78787893 -0.045185581 0.21526115 13815754
0.78740013 -0.034768544 0.21563457 13684168
0.78680021 -0.02461065 0.21546941 13486532
0.78687996 -0.01448248 0.21549015 13289409
0.78628004 -0.0052684261 0.21532543 13289410
0.78516656 0.0048485785 0.21502098 13355203
0.78463995 0.01494845 0.21487829 13223873
0.78296781 0.025143245 0.21459873 13026493
0.78123343 0.035000626 0.21486025 13355459
0.78155547 0.045080721 0.21494693 13486788
0.78285205 0.055030711 0.21479456 13420995
0.77900004 0.069551148 0.2124204 13815753
0.78217244 0.064907283 0.21540131 13749960
0.7772274 0.075098246 0.2141726 13815753
0.78033334 0.073322959 0.21917771 13815754
0.77762955 0.084466353 0.21444291 14013133
0.78033334 0.089156039 0.21856904 14276560
0.77900004 0.092042871 0.21211646 14276305
0.78239125 0.095976852 0.2158539 14276305
0.78782362 0.10364707 0.21509735 13552325
0.79089993 0.10857065 0.21474004 11316389
0.78788 -0.17467473 0.22505875 12763068
0.79000002 -0.17913631 0.22466694 9868175
0.78451741 -0.16516684 0.22510226 15328736
0.78306478 -0.15450086 0.22526656 15328736
0.78366685 -0.14467639 0.2246981 15131358
0.78566653 -0.13492903 0.22527236 14934235
0.78660005 -0.12496373 0.22462207 14934235
0.78656685 -0.11483043 0.22461264 14868442
0.7862857 -0.10446907 0.22512309 14736856
0.78566653 -0.095387653 0.22527392 14539477
0.78566641 -0.085270822 0.22527242 14342098
0.7867859 -0.075458348 0.22526464 14342098
0.78786671 -0.065220654 0.22498211 14407891
0.78800005 -0.055086419 0.22502059 14210512
0.78800005 -0.044940446 0.22502054 14078926
0.78800005 -0.034794472 0.22502053 13947340
0.78682756 -0.024962261 0.22487509 13816010
0.78611749 -0.015117659 0.22561896 13618375
0.78596658 -0.0052654524 0.22535981 13421253
0.78522217 0.004849962 0.22514756 13618888
0.78586662 0.014972616 0.22533187 13618888
0.78557563 0.025164384 0.22511004 13487046
0.78416002 0.035131987 0.22576313 13552582
0.78403324 0.045223121 0.22572711 13684168
0.78507149 0.055587601 0.22543415 13749961
0.78475863 0.064742789 0.22536407 13684168
0.78328574 0.074842893 0.22570775 13815754
0.78186661 0.08536505 0.2251015 14013133
0.78246146 0.095647603 0.22505833 14342097
0.78734773 0.1044395 0.22547393 12960443
0.79033333 0.10910866 0.22321902 11250597
0.78816676 -0.1738016 0.23449905 13552325
0.79028571 -0.17867269 0.23571719 9999505
0.78551996 -0.16525038 0.23534787 15131614
0.78416693 -0.15486857 0.23494278 15197407
0.7840001 -0.14473878 0.23489286 15131614
0.78599995 -0.13498592 0.2354905 14934235
0.78723341 -0.12506352 0.23493811 14868442
0.78708357 -0.11490675 0.23489279 14934235
0.78581494 -0.10480931 0.23502342 14868442
0.78456002 -0.095253326 0.23505682 14736856
0.78470004 -0.085165657 0.23510033 14605270
0.78629631 -0.075009204 0.23516935 14671063
0.78711134 -0.065158539 0.23490053 14671319
0.78683352 -0.055004857 0.2348157 14539733
0.78708345 -0.04488736 0.23489104 14277075
0.78773332 -0.034782544 0.23508659 14079439
0.78709692 -0.025185494 0.23546301 14013902
0.78666687 -0.014886891 0.235486 13750731
0.78652018 -0.0052693784 0.23564672 13553352
0.78599989 0.004854701 0.23548964 13553352
0.78603995 0.014975871 0.23550183 13553095
0.78643727 0.024878956 0.23527673 13486789
0.78627992 0.035227433 0.2355746 13815754
0.78599989 0.045335587 0.23548967 13815754
0.78600001 0.055455808 0.23548964 13947340
0.78531992 0.064599507 0.23528542 13749961
0.78406471 0.074737005 0.23508619 13815754
0.78163886 0.08533749 0.23509622 14013133
0.78151727 0.095265865 0.23490195 14276304
0.78722221 0.10537318 0.23510374 12631735
0.78861547 -0.17285851 0.24436739 14210514
0.79093337 -0.1776212 0.24548464 10657692
0.78680772 -0.16530831 0.24494131 15131614
0.78610349 -0.15509102 0.24472329 15131614
0.78648001 -0.14519645 0.24484098 15065821
0.78696686 -0.13515417 0.24499092 15000028
0.78736001 -0.12508391 0.24511234 14934235
0.78645152 -0.11466786 0.24500753 14934235
0.78479993 -0.10446896 0.24523538 15000028
0.78475004 -0.095471866 0.24489249 14934235
0.78556657 -0.085259087 0.24455622 14802649
0.78680009 -0.075262815 0.24493942 14802649
0.78696674 -0.065146729 0.24499063 14802649
0.78648001 -0.05498128 0.24483992 14736856
0.78660017 -0.044859279 0.2448772 14473684
0.78732002 -0.034763515 0.24510011 14276305
0.78800005 -0.024648501 0.2453125 14013134
0.78780007 -0.01449941 0.24525093 13881805
0.78724009 -0.0052746702 0.24507633 13750219
0.78666675 0.0048575704 0.24489768 13684682
0.78647995 0.014985471 0.24483919 13684168
0.78783339 0.025154183 0.24526101 13420996
0.7863704 0.035434149 0.24521312 13487046
0.7853331 0.045297388 0.24539945 13684168
0.78582132 0.055377904 0.2452247 13749961
0.78464699 0.065190628 0.24540152 13618375
0.78270972 0.074904218 0.244491 13749961
0.78129983 0.085301094 0.24505673 14144206
0.78192317 0.095582686 0.24504097 14078669
0.78707397 0.10528558 0.24502294 12697015
0.78900003 0.11107937 0.24285319 11382183
0.79125005 0.11525822 0.24478181 11250597
0.78853327 -0.17338975 0.25520045 13683655
0.79063642 -0.17827183 0.25420862 10197141
0.78658623 -0.16534752 0.2548413 15065564
0.78608328 -0.15524533 0.25483611 15196894
0.78629988 -0.14516379 0.25490466 15065308
0.78625 -0.1350316 0.2548885 14999771
0.78603333 -0.1248736 0.25481814 14933979
0.786057 -0.1148874 0.25495991 14933978
0.78579992 -0.10460144 0.25566581 14933978
0.78588891 -0.095209278 0.25528559 14868442
0.7860831 -0.085315868 0.25483668 14736856
0.78633344 -0.075219318 0.25491816 14605270
0.78605539 -0.065071613 0.2548278 14605270
0.78599989 -0.054946605 0.25481007 14539477
0.78691685 -0.044878181 0.25510758 14407892
0.7871787 -0.034954943 0.25486332 14276306
0.78800005 -0.024648504 0.25453609 14013133
0.78800005 -0.01450253 0.25453606 13947340
0.7872858 -0.0050785742 0.25489664 13881547
0.78605545 0.0048543941 0.25482738 13947596
0.78589994 0.014973719 0.25477579 14276562
0.78647226 0.025109731 0.25495973 13881804
0.78482151 0.034962989 0.25475344 13947597
0.78363353 0.045200206 0.25495881 14013390
0.78496289 0.055451307 0.25498357 13881804
0.78360027 0.06537322 0.25494939 13684168
0.78247994 0.075357065 0.25458592 13749961
0.78255546 0.084931232 0.25440726 14144719
0.78321451 0.095009334 0.2550208 14341842
0.78727782 0.10408188 0.25450623 13354690
0.79128569 0.10902034 0.25639272 11118498
0.78849989 -0.17418264 0.26485005 12565432
0.79000002 -0.17913629 0.26535383 10131347
0.78665382 -0.16563115 0.2649371 14999515
0.78419459 -0.15487367 0.26523617 15065308
0.78343332 -0.14463441 0.26497838 15131101
0.78359395 -0.1351482 0.2648032 14999515
0.78347075 -0.12511276 0.26520783 14933722
0.7854687 -0.11489737 0.2650941 14933722
0.78692001 -0.10475015 0.2652404 14868185
0.78636026 -0.095471658 0.26505283 14802649
0.78616655 -0.085324526 0.26498607 14671063
0.78688014 -0.075271122 0.26522675 14671063
0.78670007 -0.065125197 0.26516733 14539477
0.78620011 -0.054960117 0.26499796 14539477
0.78666663 -0.044865113 0.26515439 14407891
0.78696293 -0.034543112 0.26484382 14276306
0.78744447 -0.024630865 0.26449353 13947340
0.78723353 -0.014489125 0.26442209 13947340
0.78651845 -0.0054750033 0.26469409 13750217
0.78554833 0.0049989424 0.26495478 13618889
0.78479308 0.014825596 0.26528257 13816011
0.78496659 0.025061956 0.26458207 14079183
0.78452009 0.035148397 0.26443288 14145232
0.78443342 0.045246515 0.26440397 14145232
0.78527993 0.055405844 0.26468831 14079439
0.78500009 0.064784713 0.26445347 13750217
0.78396887 0.07498312 0.26487783 13684168
0.78366691 0.084643334 0.26506042 14144463
0.78317177 0.094544753 0.26476222 14276306
0.78750008 0.10380363 0.26502502 13618375
0.79129994 0.10862532 0.26560241 11052448
0.80496317 0.12477151 0.26559731 11053475
0.7881875 -0.1734219 0.27466214 13157825
0.79000002 -0.17831434 0.27593654 9933968
0.78483337 -0.1651071 0.27463952 14999515
0.7826001 -0.15547401 0.27477634 14999515
0.77900004 -0.14016895 0.27898374 14934235
0.78164691 -0.14522089 0.27508658 14999772
0.77900004 -0.1383453 0.27898374 14934235
0.78149992 -0.13512935 0.27497655 14933978
0.78276676 -0.12526894 0.27483511 14868442
0.78488231 -0.11436673 0.27492923 14868442
0.78636664 -0.10467565 0.27517775 14868185
0.78648567 -0.094697669 0.27508807 14736856
0.78648144 -0.08477968 0.274708 14736856
0.78658623 -0.075116538 0.27509591 14671063
0.78611088 -0.065075509 0.27508911 14605270
0.78631032 -0.054968953 0.27499998 14407891
0.7858054 -0.04481611 0.27498186 14342098
0.78549999 -0.034684237 0.27487403 14210512
0.78606242 -0.025162179 0.27484131 13881291
0.78582335 -0.015112728 0.27520442 13684168
0.78509992 -0.0052606612 0.27473453 13552839
0.7840001 0.0047098459 0.27447894 13684938
0.78338492 0.015067534 0.2748397 13684168
0.78499991 0.025064517 0.27470046 13684424
0.78583324 0.035207264 0.27499279 13881803
0.78558326 0.045313079 0.27490485 13947340
0.78603327 0.055458311 0.2750622 14013133
0.78606659 0.06466125 0.27507386 13749961
0.78454542 0.074383445 0.27495807 13684168
0.78304023 0.084576547 0.27493104 14078926
0.78358084 0.094874829 0.27494413 14342098
0.78783327 0.10523181 0.27492419 12697530
0.79000002 0.10937075 0.27182674 10920351
0.78742844 -0.17460713 0.28502917 12039090
0.79000002 -0.17913631 0.28199846 9999762
0.78300023 -0.16471954 0.28499883 15000028
0.78265637 -0.15514094 0.28510427 14934235
0.77900004 -0.14016895 0.28171921 14933979
0.78162962 -0.1453878 0.28521264 14934235
0.77900004 -0.1383453 0.28171921 14999771
0.78149992 -0.1346717 0.28536862 14868442
0.78331447 -0.12548634 0.28498372 14868442
0.78483862 -0.11460842 0.28498578 14868442
0.7853213 -0.10506117 0.28544804 14802649
0.78621417 -0.094860867 0.28531471 14736856
0.78696787 -0.084728345 0.28474975 14671320
0.78669226 -0.075395614 0.28521034 14737113
0.78623319 -0.065086804 0.2852563 14474198
0.78607684 -0.05495207 0.28498599 14342611
0.78583324 -0.044817384 0.28511074 14342355
0.78519994 -0.034670833 0.28488147 14210512
0.78559995 -0.025492234 0.2850264 13815498
0.78593326 -0.01538475 0.28514692 13552582
0.78512001 -0.0052610291 0.28485221 13421509
0.78311151 0.0048362073 0.28503954 13684938
0.78246677 0.014907995 0.28480405 13881547
0.78468746 0.024826523 0.28503785 13749961
0.78607994 0.035219036 0.28520012 13947340
0.78589994 0.045329932 0.28513491 14013133
0.78600001 0.055455808 0.28517073 14013133
0.78600001 0.064656012 0.28517067 13749961
0.78483331 0.074662462 0.28474885 13815754
0.78329653 0.084807396 0.28459844 13947340
0.78394306 0.094639905 0.28520924 14276305
0.78820831 0.10451167 0.28504962 13158595
0.79000002 0.10937075 0.28477257 10987425
0.78719229 -0.17467651 0.29503047 11907504
0.78424001 -0.16497904 0.29554999 14999773
0.78413349 -0.15486075 0.29550838 14934235
0.78344011 -0.14463633 0.29524821 14934235
0.78362083 -0.13473676 0.29544297 14868442
0.78429639 -0.12466449 0.29522961 14802649
0.78435725 -0.1156234 0.29500085 14868185
0.78485286 -0.10517558 0.29513067 14736856
0.78664523 -0.094732001 0.29479089 14736856
0.78764015 -0.084562756 0.29498482 14736856
0.78728002 -0.075310238 0.2948505 14737113
0.78683347 -0.065136634 0.29468349 14671320
0.7861923 -0.054889634 0.29465601 14211282
0.78664517 -0.045011122 0.29479137 14277075
0.78671998 -0.034738243 0.29464173 14210512
0.78634608 -0.025304977 0.29464343 13815754
0.78599983 -0.015023311 0.29492852 13420996
0.78533328 -0.0052623022 0.29504082 13486790
0.78403348 0.0048401733 0.29547083 13553096
0.78288007 0.014915292 0.29503566 13749961
0.78509378 0.025069755 0.29495078 13815754
0.78700006 0.035260163 0.29474548 14013135
0.78676683 0.045379307 0.29465908 14013135
0.78599989 0.055455804 0.29529095 14078927
0.78599989 0.064656004 0.29529089 13683912
0.78588873 0.074765071 0.29524931 13881290
0.78432149 0.084516063 0.29498729 14078924
0.78296787 0.094799094 0.29488933 14342098
0.78743994 0.10481729 0.29557192 13158082
0.79000002 0.10937075 0.2921702 10855842
0.78900003 0.11107937 0.29918861 10987682
0.78757143 -0.17490235 0.30509835 11447467
0.77900004 -0.1620528 0.30998585 15065821
0.78270012 -0.16465725 0.30504036 14934236
0.77900004 -0.15506212 0.30968192 15065821
0.78218752 -0.15481816 0.30444002 15065564
0.78257608 -0.14497466 0.30524337 14933722
0.78365648 -0.13481317 0.30484384 14933979
0.78476 -0.12467095 0.3049292 14933722
0.78482747 -0.11473543 0.30508298 14867929
0.78538454 -0.10475637 0.30503127 14868442
0.78640634 -0.094843052 0.30453214 14671063
0.78606051 -0.084895581 0.3047629 14605270
0.78616679 -0.07520292 0.30455381 14671063
0.78633332 -0.065094426 0.30461878 14671063
0.7869311 -0.055075385 0.30501083 14407891
0.78711444 -0.044757806 0.30505493 14342098
0.7877 -0.034780845 0.3051511 14276562
0.78758347 -0.024635762 0.3051061 13618632
0.78696162 -0.014625861 0.30557296 13289923
0.78608 -0.0052664299 0.30544257 13420996
0.78489995 0.0048463852 0.30498445 13618375
0.78424013 0.014941674 0.30472961 13618119
0.78556234 0.025312938 0.30489585 13486533
0.78623313 0.035225887 0.30457947 14013133
0.78622222 0.045348536 0.30457586 14013133
0.78571999 0.05543568 0.30530143 14013133
0.78539979 0.064606644 0.30517665 13749448
0.78477418 0.07480602 0.30511069 13815241
0.78294301 0.085349604 0.3052693 14012620
0.78180641 0.095248125 0.3045477 14210256
0.78606898 0.10521546 0.30505428 12960704
0.78900003 0.11177202 0.30542246 10856096
0.79047066 0.11640344 0.30497128 10987682
0.79150003 0.12453519 0.30509955 10987682
0.787 -0.17477702 0.31501019 11381415
0.7790001 -0.16188699 0.31429633 15000028
0.78150016 -0.16597334 0.31607509 14539478
0.77900016 -0.1553053 0.31472737 15000028
0.78000003 -0.15276565 0.31878334 14934237
0.77900004 -0.14928721 0.31545678 15000028
0.78134483 -0.1449392 0.3147659 14933978
0.78411782 -0.1344462 0.3150456 14933979
0.78493327 -0.12469875 0.3151027 14933722
0.78469706 -0.11497568 0.31475627 14867929
0.78421211 -0.10489012 0.31506094 14736600
0.78486669 -0.095289201 0.31507328 14671576
0.78511095 -0.085210972 0.31517398 14671063
0.78510332 -0.075227767 0.31501272 14671062
0.78593326 -0.065060295 0.31458518 14539477
0.78696001 -0.055013247 0.31499588 14276305
0.78763348 -0.04491879 0.31526607 14276305
0.78780007 -0.034785081 0.31533253 14210512
0.78773344 -0.024640858 0.31530431 13618632
0.78695989 -0.014484234 0.3149949 13355717
0.78588456 -0.0051238346 0.31477654 13355975
0.78536105 0.004850137 0.31527451 13816013
0.78499991 0.014955874 0.31512985 14013134
0.78461117 0.025049562 0.31497201 14013133
0.78486657 0.035164822 0.3150757 14144719
0.78491658 0.045273382 0.31509498 14210512
0.78453332 0.055352245 0.31494066 14078926
0.78430569 0.06543339 0.3148497 13881290
0.78341407 0.075320274 0.31464979 13749705
0.78251618 0.085581928 0.31522551 13947084
0.78100002 0.09520112 0.31519395 14078928
0.7851482 0.10496157 0.31501707 13158083
0.78900003 0.1120029 0.31488863 11053218
0.79056257 0.11673664 0.31493363 10987425
0.79171997 0.12443697 0.31504768 10987425
0.78748 -0.17488237 0.32478997 11249318
0.78207999 -0.16452746 0.3251276 14736600
0.77900004 -0.15749365 0.32183957 15065821
0.78109521 -0.15465181 0.32597211 15000029
0.78191161 -0.14505219 0.32514215 14934236
0.7830314 -0.13505006 0.32510594 14934237
0.7832945 -0.12508547 0.32566142 14868443
0.78223348 -0.11511542 0.32500398 14868442
0.77900004 -0.10460771 0.32822239 14671063
0.78116667 -0.10489917 0.32364592 14605270
0.77900004 -0.09822493 0.32822239 14473684
0.78196561 -0.094809234 0.32473478 14539477
0.78394133 -0.085297748 0.32544386 14802649
0.78515375 -0.074964114 0.32508919 14737112
0.78661114 -0.065115981 0.32498482 14671063
0.78744441 -0.055251338 0.32481673 14473684
0.78800005 -0.044940446 0.32463551 14342098
0.78792602 -0.034654733 0.32501447 14144719
0.78693569 -0.02535931 0.32496801 13750217
0.78594273 -0.015253529 0.32483861 13487046
0.78596544 -0.0053923493 0.32487577 13355461
0.78503323 0.0048485347 0.32525107 13684425
0.7842223 0.015143597 0.32532093 13749962
0.78344476 0.025012247 0.32550824 13684169
0.78339309 0.035294369 0.32515988 14013133
0.78275025 0.045146793 0.32522073 14013134
0.78280026 0.055230808 0.32524174 13947341
0.78350031 0.065367892 0.32495975 13881547
0.78290021 0.07539732 0.32528314 13749961
0.7818284 0.085229062 0.32496864 14013133
0.78076929 0.095439129 0.32509974 14079183
0.78464282 0.10483197 0.32495403 13092289
0.78900003 0.11200291 0.32504749 11184034
0.79076475 0.11699113 0.32512119 11052705
0.78814995 -0.1738289 0.33466071 11315369
0.79000002 -0.17860791 0.33549911 9737103
0.78474998 -0.16509026 0.33523807 14802140
0.78151995 -0.15525992 0.33477214 14999772
0.7790001 -0.1443136 0.33833534 14736857
0.7804001 -0.14517117 0.33356112 14868443
0.77900004 -0.1383453 0.33825245 14802650
0.78096002 -0.13496159 0.33460531 14868443
0.7826336 -0.12524839 0.33524883 14934235
0.77900004 -0.1109905 0.33460513 15000028
0.7811904 -0.11574607 0.33489251 14934235
0.77899987 -0.10512061 0.33420625 14933979
0.78000003 -0.10063351 0.33823019 14999516
0.77900004 -0.09822493 0.33095786 14605270
0.78129172 -0.094700269 0.33513227 14539221
0.7833128 -0.084784925 0.33519587 14539479
0.78486663 -0.075077698 0.33528593 15000029
0.78594452 -0.065061957 0.33574566 15131614
0.78624243 -0.054795641 0.33528593 15065821
0.78719449 -0.044893824 0.33443725 14736856
0.78710711 -0.034887407 0.33472997 14276305
0.78581476 -0.025296807 0.33518052 14013133
0.78480554 -0.015363433 0.33526012 13749962
0.78476673 -0.0052573364 0.33524325 13881289
0.78497213 0.0048485156 0.33533275 13618374
0.78414309 0.014741139 0.3353065 13552582
0.78410012 0.025035065 0.33587939 13420996
0.78411108 0.034925848 0.33547667 13749961
0.78350043 0.045191117 0.33562258 13815754
0.78312021 0.055252142 0.33545861 13947340
0.78320622 0.065342262 0.33484611 13881547
0.78174067 0.075487643 0.33527207 13947083
0.77894461 0.086160272 0.33691117 13947084
0.7807222 0.084122069 0.33300835 14012876
0.77884614 0.094923414 0.33516946 13947598
0.78000003 0.096117347 0.33092621 13947855
0.78414297 0.10489743 0.3349731 13026754
0.78858346 0.11194424 0.33502924 11052961
0.79100007 0.11691773 0.33513016 10987425
0.78858334 -0.17281602 0.34472105 11973296
0.79064286 -0.17769636 0.34542412 9539468
0.77900004 -0.16022913 0.34828255 15000028
0.78471434 -0.16508405 0.34479806 14605272
0.77833337 -0.15391679 0.34717295 14802906
0.78082353 -0.15587412 0.34243017 14868699
0.77881235 -0.14480664 0.34489334 14737113
0.7790001 -0.13743347 0.34463525 14671063
0.78049999 -0.13312994 0.34438404 14802649
0.77900004 -0.12010878 0.34828255 14934235
0.78117144 -0.12514567 0.34454781 14802649
0.77880967 -0.11365477 0.34637326 14868442
0.78081834 -0.11690013 0.34244692 14934236
0.778862 -0.10550044 0.34526509 15065821
0.78000003 -0.10017701 0.34416464 15065565
0.78120691 -0.094717607 0.34485346 15065565
0.78188902 -0.084860824 0.34499466 14802136
0.78210002 -0.074813209 0.34508741 14538965
0.78308576 -0.064954661 0.34539166 14933722
0.78448004 -0.05483913 0.34522209 15131101
0.7859714 -0.044954013 0.34482685 15065565
0.78696007 -0.034748748 0.34447244 14473685
0.78539276 -0.025685253 0.34503263 13947341
0.78290933 -0.015077444 0.34502989 13618889
0.78346181 -0.0053880755 0.34498569 14144975
0.78489989 0.0048491945 0.34540832 14079182
0.78539985 0.014963771 0.34562927 14276561
0.78585178 0.02498888 0.34541899 14013390
0.78559995 0.035196599 0.34571686 14013390
0.78440011 0.045241036 0.34518757 14013133
0.78266686 0.055219766 0.34533951 13947340
0.78197217 0.065238662 0.34503359 13881547
0.77900004 0.078061529 0.34524313 13881805
0.78054547 0.074090034 0.34440339 13815755
0.77817649 0.085174143 0.3449122 13881805
0.77703351 0.094842568 0.34467256 13882062
0.77880007 0.10052744 0.34636903 13882319
0.78413051 0.10553161 0.3445875 12763582
0.78850007 0.11193252 0.34514636 11053218
0.79094124 0.11680006 0.34501639 10921632
0.78833342 -0.1722997 0.35522267 11776430
0.79126668 -0.17757334 0.35500088 9539724
0.77812505 -0.16187105 0.35608611 14868956
0.78361911 -0.16633779 0.35427567 14408149
0.77660018 -0.15505995 0.35551867 14802650
0.77870584 -0.14456505 0.35479942 14671320
0.77860707 -0.13482676 0.35481063 14737113
0.78000003 -0.1321319 0.35055563 14802649
0.77770263 -0.12507519 0.35473394 14736857
0.77688265 -0.11539596 0.3551971 14736856
0.77790326 -0.10448697 0.35437021 14605271
0.7784999 -0.094820932 0.35498276 14802650
0.78000003 -0.095612034 0.35055563 15065821
0.77792305 -0.085201032 0.35487306 15065565
0.78000003 -0.086482063 0.35055563 15262687
0.77850002 -0.075594001 0.35470405 14999772
0.78000003 -0.071874104 0.35055563 14736343
0.7790001 -0.067388617 0.35673773 14868185
0.78108335 -0.063438863 0.35401249 14539221
0.78246659 -0.054699373 0.35441005 14999772
0.78430557 -0.044726133 0.35493469 15131358
0.78646678 -0.034727242 0.35438052 14342355
0.78356665 -0.025430828 0.35490736 13815754
0.78172731 -0.015551919 0.35449088 13553095
0.7825864 -0.0051153479 0.3546229 14145232
0.78402793 0.0048448276 0.35511521 14210512
0.78489995 0.014954044 0.35550997 14211025
0.78530788 0.025143595 0.35519817 14144976
0.78426665 0.035136614 0.3552222 14211025
0.77899998 0.047146264 0.35844296 14408663
0.78217155 0.044668492 0.35424736 14342355
0.77850014 0.055154167 0.35694271 14408661
0.78050005 0.054806229 0.35247606 14210769
0.778889 0.063058428 0.35816014 14145489
0.78088897 0.06579347 0.35433903 14013903
0.77900004 0.078669421 0.35466537 14144976
0.78079176 0.0742798 0.35547987 14079439
0.77781826 0.084836759 0.35487157 14013391
0.77603364 0.094720021 0.35513145 14013649
0.77787501 0.10109191 0.35529104 13882319
0.78374994 0.10612582 0.3542566 12829375
0.78845459 0.11184215 0.35485846 10921891
0.79119998 0.11694745 0.35497186 10724512
0.78661901 -0.17355186 0.36554152 10395034
0.79090005 -0.17841545 0.36322847 9473933
0.77712506 -0.16348405 0.36529514 14605785
0.78137505 -0.16757742 0.36397547 13684683
0.77519351 -0.15493757 0.36490291 14737115
0.77739418 -0.14484063 0.36460191 14605272
0.77727288 -0.1348974 0.36504263 14539479
0.7760402 -0.12510274 0.36512622 14802651
0.77609408 -0.11489099 0.3648105 14868444
0.77663356 -0.10519858 0.36449459 14736858
0.77658355 -0.095193833 0.36447087 14473686
0.77663356 -0.085199252 0.36449513 14671063
0.77752793 -0.075284407 0.3649157 15065821
0.77862507 -0.067189746 0.3648614 15000283
0.78076476 -0.061783385 0.36487588 15000283
0.78169996 -0.05464616 0.36504316 14539221
0.78208101 -0.044478022 0.36504757 15065565
0.7836777 -0.034721863 0.36433691 14670550
0.78237039 -0.025186419 0.36484909 13749704
0.77900004 -0.014336892 0.36651909 13420485
0.78060013 -0.01530763 0.36445171 13355203
0.77900004 -0.005218626 0.36765882 14342615
0.78081816 -0.0052299551 0.3632181 14277076
0.7790001 0.0066351192 0.36706614 14539990
0.7811538 0.0041224631 0.36352065 14144720
0.77864707 0.015155552 0.36678091 14540248
0.78133333 0.014886169 0.36212787 14540248
0.77829176 0.024848888 0.3670949 14408662
0.78138882 0.024947595 0.36215368 14342870
0.77803844 0.034998037 0.36585385 14277076
0.78133345 0.034599204 0.3611128 14277077
0.77705586 0.044817913 0.36469221 14606040
0.77630031 0.054771259 0.36433858 14540247
0.77694458 0.064821936 0.36463895 14408661
0.77800012 0.074926287 0.36529186 14474454
0.78000003 0.075118415 0.36151159 14211282
0.77711445 0.084714383 0.36485055 14342611
0.77596009 0.094711311 0.36508858 14277077
0.77772731 0.1012179 0.36459464 13882319
0.78435296 0.10664839 0.36482263 13026497
0.78837508 0.11168402 0.36400792 10856096
0.78900003 -0.18075661 0.37676525 9276809
0.79129171 -0.18537492 0.37453952 9408396
0.78657699 -0.17468365 0.37496847 9934484
0.77720004 -0.16325743 0.37488988 14211029
0.78100008 -0.16795453 0.37503496 13289416
0.77499986 -0.15484414 0.37474605 14737371
0.77561539 -0.14486669 0.37421477 14671578
0.77569461 -0.13503481 0.37495074 14605529
0.77535725 -0.12518695 0.37446412 14474199
0.77633351 -0.11515245 0.37435263 14934750
0.77719051 -0.10501312 0.37398762 14737371
0.78000003 -0.10839398 0.37977153 14671835
0.77763647 -0.095156617 0.37382352 14737628
0.78000003 -0.094699033 0.37794554 14211541
0.77770013 -0.085316971 0.37410241 14342356
0.77804166 -0.075335458 0.37426642 14605527
0.77887517 -0.066299923 0.37318397 15000541
0.78007698 -0.062118169 0.37573543 14671576
0.77900004 -0.05992822 0.37381372 14737626
0.7804001 -0.054554187 0.37448487 14605527
0.78163326 -0.044575747 0.37507829 14605271
0.78306919 -0.034449842 0.37500858 14407380
0.78307712 -0.025552562 0.37485453 13749704
0.78140002 -0.015298117 0.3749676 13223874
0.77900004 -0.0048133694 0.37097687 14145235
0.7808125 -0.0054588714 0.37628448 13224389
0.77900016 0.0058535528 0.37172955 13947598
0.78062499 0.0039067492 0.37642178 12895166
0.77822226 0.014757811 0.3745209 13881290
0.78000003 0.011208621 0.37977153 12762037
0.77723348 0.024814036 0.37478703 13815496
0.77684003 0.034804121 0.37459746 13749960
0.77693343 0.044813562 0.37464371 14210510
0.77756011 0.05486051 0.37494668 14276305
0.77743351 0.064860791 0.37488544 14276049
0.77756017 0.074883714 0.37494582 14473171
0.7772668 0.084862158 0.37480432 14144975
0.77672011 0.094804265 0.37454078 13816524
0.77812505 0.10135185 0.37339383 13684941
0.78366673 0.10656194 0.37502915 11842737
0.78825009 0.11143553 0.37594622 10592924
0.79177785 -0.18530884 0.38509521 9408653
0.7877143 -0.17458233 0.38466841 9671056
0.79000002 -0.17913632 0.38648978 9540238
0.77850002 -0.16240469 0.38268617 14013908
0.78269231 -0.16578175 0.3858766 13355722
0.77775002 -0.15587378 0.3827734 14474456
0.78275001 -0.15458696 0.38752514 14606044
0.77785718 -0.14516439 0.38133076 14606042
0.78224999 -0.14510159 0.38567579 14540249
0.77900004 -0.134698 0.38293195 14342356
0.78240001 -0.1352873 0.38643494 14868700
0.778 -0.12542203 0.38153088 14342871
0.7823 -0.12446316 0.38565463 14737116
0.77866673 -0.11823372 0.38094524 14408410
0.78407693 -0.11368643 0.38557255 14210775
0.78529996 -0.10462499 0.38520765 14079443
0.78613627 -0.094941147 0.385694 13421770
0.78481823 -0.084761865 0.38471314 13355976
0.78405005 -0.07500051 0.38450271 13421768
0.784087 -0.065107442 0.38464016 13816269
0.78355008 -0.054776151 0.38425702 13947852
0.78479165 -0.044754986 0.38486519 13948110
0.78640008 -0.034723356 0.38565221 13684683
0.78626084 -0.025354426 0.38530445 13093060
0.78456533 -0.015159838 0.38463318 12895165
0.78394991 -0.0052507329 0.38445225 13092800
0.78374988 0.0048395353 0.38435444 12960957
0.78273332 0.014911749 0.38477057 13026750
0.77900004 0.025783475 0.38110831 11710376
0.78323078 0.024655573 0.38571945 13224643
0.77900004 0.033989914 0.38110831 11710376
0.78354555 0.035438668 0.38583609 13093056
0.77900004 0.044020005 0.38110831 11841705
0.78323531 0.045230165 0.38512614 12829370
0.78286666 0.055234268 0.38483706 12434357
0.77900004 0.068639323 0.38110831 11709866
0.78238893 0.065071918 0.38521183 12434614
0.77900004 0.075022109 0.38110831 11775659
0.78284204 0.075101711 0.38617527 12631739
0.77900004 0.082316719 0.38110831 12038317
0.78244436 0.085426837 0.38564655 13289669
0.77900004 0.091434985 0.38110831 12434101
0.78280002 0.095425002 0.38504711 12500409
0.78547615 0.10524642 0.38498044 11250856
0.78874993 0.11289123 0.38553223 10592925
0.79115385 0.11765202 0.3840583 10592925
0.78850007 -0.1726436 0.39252463 10000534
0.79088241 -0.17650636 0.39552608 10263960
0.78766668 -0.16533083 0.39407825 11250601
0.79049999 -0.16537018 0.39876375 10132120
0.78761554 -0.15462464 0.39312565 12237498
0.79079998 -0.15524878 0.39798886 10000536
0.78730011 -0.14534928 0.39162049 12566720
0.79099995 -0.14510578 0.39716485 9934741
0.78700012 -0.13516009 0.39147165 11052966
0.79100001 -0.13492118 0.39716488 10000789
0.78780001 -0.12515315 0.39186954 10196886
0.79145455 -0.12522836 0.39747766 10000788
0.78850007 -0.11585113 0.39203247 10065301
0.79161549 -0.11464074 0.39697552 10000530
0.78900003 -0.10687409 0.39154175 10065559
0.79188895 -0.1047925 0.39637688 9934483
0.79195243 -0.094825819 0.39539391 9868691
0.78900003 -0.083785802 0.39154175 9605780
0.7915625 -0.085217096 0.39629012 9868948
0.78850007 -0.075426191 0.39221713 9802902
0.79083341 -0.074723713 0.39708099 9934741
0.78850001 -0.065273784 0.39221716 10263454
0.79100001 -0.06455487 0.39716488 10066327
0.78850001 -0.055121373 0.39221713 10592672
0.79120004 -0.055310585 0.39726526 10000276
0.78860009 -0.045712784 0.39208212 11776944
0.79121429 -0.044594269 0.39687589 9802640
0.78900003 -0.034838628 0.39154175 12961731
0.79099995 -0.03492694 0.39623937 9540238
0.78890002 -0.023938414 0.39223093 11251373
0.7906428 -0.025259987 0.39658862 9342862
0.78850007 -0.014511731 0.39221716 10856616
0.79049999 -0.01454854 0.39691314 9342863
0.78850007 -0.0052822684 0.39221716 11053995
0.79089999 -0.0052978778 0.39711452 9408911
0.78850001 0.0048701419 0.39221716 10988202
0.79083329 0.0048837732 0.39708093 9408655
0.78799999 0.015013025 0.39289179 10330015
0.79020005 0.015054002 0.3976869 9343374
0.7879231 0.024802057 0.39214361 10725028
0.79054546 0.025660586 0.39702016 9277325
0.78840005 0.035323363 0.39216757 10725284
0.79109997 0.03544433 0.39721495 9277582
0.78850007 0.044556838 0.39221716 10658978
0.79149997 0.044725657 0.39741555 9211791
0.78833336 0.055250552 0.3926883 10263708
0.79070008 0.054490723 0.39756894 9343120
0.78789997 0.064811826 0.39450282 9803155
0.79000002 0.063135646 0.39943561 9277835
0.78762501 0.074931458 0.39547172 9539984
0.78799993 0.084928229 0.39529094 10000793
0.79000002 0.0890273 0.39943561 10198168
0.78785706 0.094846599 0.39334819 10658978
0.79014289 0.095385894 0.39897946 10264218
0.78870004 0.10475992 0.39250112 10461597
0.79058832 0.10553291 0.39788312 10396061
0.78900003 0.11107937 0.39154175 10790305
0.79114288 0.11552698 0.39507684 10462110
0.79143351 0.1253165 0.39460355 10527903
0.79036701 0.13532433 0.39499483 10593439
0.79128587 0.14454797 0.39512229 10527903
0.78900003 0.073214576 0.4007771 9672336
0.79129994 0.075650558 0.40528178 9935252
0.79133332 0.085472718 0.40496421 10263960
