# .PCD v0.7 - Point Cloud Data file format
VERSION 0.7
FIELDS x y z rgb
SIZE 4 4 4 4
TYPE F F F U
COUNT 1 1 1 1
WIDTH 1042
HEIGHT 1
VIEWPOINT 0 0 0 1 0 0 0
POINTS 1042
DATA ascii
0.78650004 -0.062716283 0.10859124 12040108
0.78700006 -0.057224095 0.10866169 12040365
0.79363996 -0.14466299 0.11515143 12303538
0.7874167 -0.13415819 0.11809085 12303537
0.79235291 -0.13548094 0.11354683 12369330
0.7765556 -0.12478223 0.11913836 11974831
0.78637511 -0.12527171 0.11616706 12238001
0.79145455 -0.1252303 0.11197388 12369330
0.77657157 -0.11739665 0.11916957 11974317
0.78666663 -0.11515151 0.11690119 12171438
0.79171431 -0.11465325 0.11275617 12303537
0.78710008 -0.10624567 0.11881115 12040108
0.78800005 -0.094747938 0.11987137 11842729
0.78650004 -0.083829917 0.11933533 11184799
0.76333332 -0.071827225 0.11909524 12302504
0.77442867 -0.073302262 0.11728448 12302764
0.78687501 -0.074812494 0.11555515 12105387
0.79328579 -0.076683603 0.11284556 12105645
0.75849998 -0.063856535 0.11822437 12893358
0.76357138 -0.064490005 0.11538573 12564653
0.77427274 -0.065001883 0.11267144 11973802
0.78560007 -0.068527445 0.11140915 12105388
0.75839996 -0.054792605 0.11803102 12695983
0.76346672 -0.055035215 0.11446629 11907497
0.77450007 -0.055048656 0.11207405 11974573
0.78474998 -0.05210267 0.11110674 11974316
0.75900006 -0.047728628 0.11901352 13287864
0.76269245 -0.045211919 0.11766636 13354685
0.77400005 -0.045047048 0.11574595 11842731
0.78654552 -0.044607639 0.11378754 11842987
0.79350007 -0.043205138 0.11160169 12039852
0.76433343 -0.038522016 0.11924971 12565427
0.77500004 -0.036033701 0.11829384 12960699
0.78530008 -0.034674548 0.1170667 11513509
0.77566671 -0.026380166 0.11981105 12435641
0.78610003 -0.025507335 0.11865926 11316388
0.78700006 -0.016323697 0.11971923 10921114
0.78708345 -0.15360318 0.12786657 11381412
0.79315794 -0.15571551 0.12338783 12105903
0.76900005 -0.14016984 0.12958278 14276557
0.77563643 -0.14352727 0.12772582 13158078
0.78605884 -0.14479114 0.12389758 11842218
0.79066664 -0.14751284 0.12151033 12171696
0.76458341 -0.13339989 0.127938 12040883
0.77431583 -0.1349346 0.12379267 11776941
0.78425002 -0.13790172 0.12159452 12040367
0.75900006 -0.12324402 0.12967452 13355203
0.76332003 -0.12505096 0.12604274 12434872
0.77188891 -0.1256377 0.12183646 10856096
0.75900012 -0.11448678 0.12916687 13093059
0.76343477 -0.11553203 0.12521824 12040885
0.77360004 -0.11329651 0.12148075 11185317
0.75858331 -0.10541827 0.12871493 12829626
0.76424998 -0.1049733 0.12508602 12764091
0.77515388 -0.10597476 0.12182129 11710633
0.7816667 -0.10221863 0.12073782 11250850
0.75771427 -0.094148412 0.12818685 12631477
0.76393342 -0.095606774 0.12502675 12960957
0.7750001 -0.094546735 0.12220097 12171695
0.78300005 -0.095063269 0.12094377 11118749
0.75600004 -0.084394611 0.12697257 12631472
0.76420009 -0.085263535 0.12358155 12237233
0.77400005 -0.08490745 0.12156247 11908008
0.78133339 -0.087545224 0.12068633 11118750
0.75506896 -0.074484117 0.12552211 12959924
0.76300001 -0.076558724 0.12142254 12631213
0.77200001 -0.079269633 0.12105195 12104873
0.74900001 -0.062003881 0.12971945 12302767
0.75324255 -0.064893134 0.12451319 12762803
0.74782354 -0.054647613 0.1278668 12500917
0.75304174 -0.055286288 0.12277404 13092281
0.74752635 -0.044427563 0.12706724 12895932
0.75361907 -0.045119688 0.12219578 13354686
0.74716675 -0.035517547 0.12755395 13158077
0.75387508 -0.035164002 0.12294535 13158591
0.76385725 -0.033216756 0.12079347 12895935
0.77000004 -0.030394508 0.12073835 13225416
0.7482 -0.025912745 0.12806191 12566969
0.7535882 -0.025080202 0.12459186 12764352
0.76377785 -0.024386872 0.12234223 12435130
0.77371436 -0.024585912 0.12080105 12040882
0.75323081 -0.015284078 0.12691757 12039858
0.76380002 -0.014955161 0.12333812 12631993
0.77400005 -0.016062802 0.12176327 11974318
0.78425002 -0.01213522 0.12067509 10657685
0.75500005 -0.0050565987 0.12722054 12171953
0.76420009 -0.0051171379 0.12429743 13158334
0.77537501 -0.0056464509 0.12248626 12631989
0.78600001 -0.0067366152 0.12103774 10788757
0.79000002 -0.0043676146 0.1201756 10920599
0.7563529 0.0044133863 0.1275534 12434358
0.76454544 0.0044751042 0.12475961 12697528
0.77514285 0.004391341 0.12309384 12300713
0.78537512 0.005765154 0.12176771 11116177
0.79033333 0.0048814653 0.1202263 10919829
0.75825006 0.012228112 0.12910217 12236467
0.76378572 0.01493629 0.12742224 12894910
0.77450013 0.015210762 0.1246143 11709606
0.78576922 0.01539821 0.12164956 11183259
0.79000002 0.012277024 0.1201756 11051673
0.76833338 0.023633307 0.12947042 12435126
0.77423823 0.024849316 0.12700674 11316388
0.7861501 0.025099758 0.12262084 10921116
0.79000002 0.026764022 0.1201756 10329751
0.77428579 0.034044407 0.12813796 12895420
0.78605258 0.035411537 0.12402318 11249312
0.79040003 0.035413902 0.12023644 9672082
0.77622223 0.043862779 0.12837526 13685966
0.78568423 0.045266733 0.12570788 11776944
0.79140002 0.044722579 0.12131374 10988974
0.77700001 0.054822691 0.12911186 13884117
0.78609085 0.054958258 0.12584785 12040116
0.79133338 0.05490369 0.12130352 11580339
0.77833343 0.064937957 0.12933344 13160398
0.78555542 0.065026693 0.12521221 12302515
0.79020005 0.065000556 0.12020602 11513772
0.77900004 0.073198453 0.1294442 13685456
0.78574073 0.075055666 0.12564979 12498608
0.79066664 0.076146975 0.12089348 11645355
0.78554541 0.084597178 0.12734729 13025724
0.79238474 0.086015359 0.1221054 11579560
0.78820002 0.093623303 0.12801972 12368818
0.79345006 0.095360056 0.12357356 11711404
0.79345465 0.10484037 0.12497581 11711405
0.79385185 0.11540984 0.12482374 11777198
0.792871 0.12479545 0.12539901 11842991
0.79234272 0.13486814 0.12503535 11908784
0.78800005 -0.16187559 0.13585609 11511972
0.79235303 -0.16657929 0.13405928 10526106
0.7755 -0.15328662 0.1361206 12169644
0.78450012 -0.15707576 0.13372059 13420737
0.76339132 -0.14397001 0.13593686 15196889
0.77233338 -0.14720665 0.13215123 13881287
0.759 -0.13405307 0.13707799 12369593
0.76062506 -0.13597378 0.1327327 13684165
0.75889301 -0.12475001 0.13523953 12697274
0.76000005 -0.12874392 0.13162455 10920862
0.75764287 -0.11485343 0.13533248 13157823
0.75700003 -0.10519848 0.13553384 12499118
0.75620604 -0.094726764 0.13518354 12433582
0.75412494 -0.084829047 0.13524006 12039337
0.74900001 -0.071647704 0.13760984 11051673
0.75158626 -0.075476952 0.13416904 12695982
0.74723339 -0.064717539 0.13599971 12368049
0.75016671 -0.068539627 0.13196988 12565172
0.74494445 -0.054694198 0.13511707 12764348
0.7439335 -0.045039695 0.13493313 12567740
0.74455565 -0.035489328 0.13504735 13290177
0.74602789 -0.025080029 0.13531449 12895935
0.7479285 -0.015451917 0.13634767 12171703
0.75044447 -0.011858678 0.1321158 12565687
0.74900001 -0.008524497 0.13848655 11711659
0.75179327 -0.004912612 0.13444866 12105903
0.75397217 0.0046590604 0.13499181 12105908
0.75640005 0.015172615 0.13555017 11908019
0.76066667 0.019240635 0.13055234 12105137
0.75733346 0.024898015 0.13715403 11315366
0.76235718 0.025489304 0.13190167 12171187
0.75781822 0.034517445 0.13769609 11776943
0.76359999 0.035463162 0.13259906 12434615
0.77200001 0.037299015 0.13008828 10198170
0.75869995 0.044827405 0.13779318 12105907
0.76347059 0.044929072 0.13400616 12501178
0.77219999 0.045263693 0.13084373 10198685
0.75900006 0.051774006 0.13855869 12170929
0.7638182 0.054705035 0.1364242 12171954
0.77281255 0.055429734 0.13225736 9343632
0.76566672 0.064328119 0.13842824 12763833
0.77340007 0.065211527 0.13343213 10264734
0.76700002 0.074359335 0.13903822 12631478
0.77360713 0.075085238 0.13416846 11381673
0.77480012 0.084956802 0.13514717 12960187
0.78050005 0.088870883 0.13152061 11578532
0.77600002 0.09315934 0.13724677 13552580
0.78442854 0.096359685 0.13340081 13421251
0.78770006 0.10278378 0.13697204 11645356
0.79161108 0.10712519 0.13421437 11645611
0.79270005 0.11499919 0.13449962 11711405
0.78900009 0.12585586 0.13731873 11777198
0.79036844 0.12461299 0.13357215 11777198
0.7912001 0.13547051 0.13517503 11842991
0.78900003 -0.17152131 0.1468059 10196625
0.79129648 -0.1755216 0.14506905 10394518
0.78687996 -0.1651725 0.14526847 10261905
0.79000002 -0.16927283 0.14236845 10196882
0.76900005 -0.15097131 0.14488482 15656416
0.77450013 -0.15538065 0.14481032 11183005
0.75900012 -0.14088544 0.14262 15460318
0.76145458 -0.1448759 0.14573036 14604496
0.75900012 -0.13479343 0.14477758 13552322
0.75888908 -0.1250032 0.14475659 12696244
0.75788885 -0.11527785 0.14505957 12894139
0.75673336 -0.1051618 0.14523166 12565426
0.7555601 -0.095270388 0.14500602 12105133
0.75323534 -0.085073434 0.14518054 11645100
0.74799997 -0.073498987 0.145207 11840932
0.75033337 -0.077630915 0.14370912 12498605
0.74478388 -0.065264486 0.14538428 12104874
0.73871428 -0.053864986 0.14794874 11777709
0.74176913 -0.055061594 0.14369151 12304567
0.73844451 -0.045571666 0.14690636 12238780
0.74106663 -0.04486591 0.14222285 12304057
0.73877776 -0.037040368 0.14774184 12434873
0.7417407 -0.034743998 0.14383014 12960958
0.74313879 -0.024983298 0.14522724 12829373
0.7457779 -0.014594762 0.14545266 12303288
0.74825001 -0.0067634173 0.14546268 12763835
0.75050002 -0.0030189403 0.14378271 12237748
0.75338238 0.0044480897 0.14520897 11908013
0.75429994 0.015254629 0.14476456 11249829
0.75479996 0.024983063 0.14485984 11249825
0.75606674 0.034760952 0.14510195 10987169
0.75719434 0.045447469 0.14443137 11250856
0.75789297 0.055057418 0.14488056 11513515
0.76000005 0.058069326 0.14052041 12301486
0.75827998 0.064861558 0.14623623 11776945
0.76063651 0.065645486 0.14144677 12500406
0.75843745 0.074596122 0.14711045 12105907
0.76200002 0.075647272 0.1423137 12565430
0.75880003 0.081603661 0.14846961 12829886
0.76336664 0.085012339 0.14494483 12960699
0.77074999 0.087309778 0.14115435 11972781
0.76536369 0.092767499 0.14736955 12960700
0.77325004 0.095650949 0.14396146 12697788
0.77700013 0.10120536 0.14639051 11711405
0.78594995 0.10596408 0.14476281 11579819
0.79000002 0.10937075 0.14144376 11645612
0.78900003 0.11107937 0.1495765 11514026
0.79055196 0.11512643 0.14508449 11579819
0.78900003 0.12548645 0.14144941 11777198
0.79018193 0.12453103 0.14593339 11711405
0.79163992 0.13554649 0.1445193 11711405
0.79196423 -0.17494784 0.15543805 10065810
0.78650004 -0.16315591 0.15416734 10261904
0.79033333 -0.16769955 0.1555866 9998989
0.77422225 -0.15421699 0.15452634 10985371
0.78166676 -0.15894775 0.15733652 11249057
0.76234621 -0.14445668 0.15502498 14670034
0.75899994 -0.13346082 0.15481669 13355200
0.76000011 -0.13802102 0.1555163 14933718
0.75900024 -0.12502086 0.1554386 11445922
0.7585668 -0.11518309 0.15535125 13025467
0.75738883 -0.10525376 0.15510841 12827827
0.75490004 -0.095188789 0.1545976 11710634
0.7486667 -0.0809635 0.15741135 12039085
0.75206673 -0.085912712 0.15460269 11710120
0.74670005 -0.074926816 0.1546656 11643811
0.73875004 -0.060723152 0.15777642 12565684
0.74258059 -0.065318622 0.15501867 12104104
0.7366876 -0.054682236 0.15501399 12040367
0.74000001 -0.058660313 0.15068132 12172206
0.73473793 -0.045343678 0.15476406 12501178
0.73528564 -0.035046823 0.15487804 13486269
0.73690921 -0.025531089 0.15579659 12565943
0.74071437 -0.02230173 0.15181701 12960962
0.73866671 -0.018205613 0.15847932 12829631
0.74318188 -0.014200157 0.15501596 12631993
0.74690002 -0.0050007757 0.15470631 12829114
0.74837506 0.0013380091 0.1574228 12697783
0.75189662 0.0056496104 0.15449706 12237233
0.75511098 0.015273931 0.15464197 11907757
0.75666678 0.025044283 0.15496229 11052703
0.75652802 0.034779888 0.15493383 11316388
0.75622249 0.045388561 0.15487084 11381410
0.75676674 0.05516525 0.15498178 11118752
0.75688893 0.064918585 0.15500638 11316134
0.75657153 0.075392425 0.15506685 11382442
0.75783336 0.085107915 0.15519783 12171699
0.76000005 0.089204863 0.15119545 13882571
0.75900012 0.091371998 0.15658085 11908270
0.76350009 0.095095128 0.15423612 12632251
0.77200001 0.09964969 0.15357992 12961215
0.77590007 0.10269803 0.15471843 11842991
0.78509098 0.10769086 0.1548478 11514026
0.78900003 0.11107936 0.15511768 11514026
0.79164994 0.11608754 0.15563878 11514026
0.7930001 0.12463788 0.15479259 11579819
0.78800011 -0.162696 0.16414469 10459540
0.79208344 -0.16709441 0.16545957 9802124
0.77521431 -0.15387985 0.1643329 11051931
0.78271431 -0.15863872 0.16618396 11315104
0.76329166 -0.14382768 0.16458213 14078666
0.77100009 -0.14955902 0.16782476 11840935
0.75900006 -0.1330166 0.16165751 14998999
0.76040751 -0.13530767 0.16505729 14670546
0.75899994 -0.12481583 0.16288765 11248279
0.76000017 -0.12534255 0.16720802 11644068
0.75899994 -0.11471522 0.16450045 13354430
0.76000005 -0.11753513 0.16827552 14341324
0.75745171 -0.10512139 0.16504541 12301743
0.75406665 -0.09508457 0.16501921 11250858
0.74747825 -0.083068393 0.16544102 11184547
0.75091666 -0.088385366 0.16374196 11580079
0.74456257 -0.074767165 0.16500653 11709606
0.73747623 -0.063559659 0.16553965 11840417
0.74161541 -0.067737713 0.16356191 11840934
0.73340005 -0.05529486 0.16537416 12432554
0.73163915 -0.045152422 0.16524775 12894135
0.73163909 -0.034873988 0.16524822 13354427
0.73305267 -0.024462327 0.16524875 12697531
0.73613346 -0.015496626 0.16557069 12237494
0.74155557 -0.011139486 0.1629542 12171444
0.73900002 -0.0084106857 0.16950783 13355975
0.74425817 -0.0050381431 0.1648085 12631994
0.74755162 0.0038055785 0.16585578 12500148
0.75042862 0.0080236187 0.16234048 12565941
0.75352776 0.01524357 0.16489908 12302514
0.75696152 0.024918983 0.16497175 11578536
0.75793338 0.03484498 0.16498022 11119267
0.75753331 0.045466509 0.16489325 11514024
0.75744009 0.055214133 0.16487303 11382182
0.75763333 0.06498275 0.16491468 11052959
0.75696671 0.075558253 0.16476874 11776940
0.75787997 0.085409291 0.16496861 11908527
0.75900006 0.090864323 0.16254592 11710633
0.76286674 0.093593478 0.16510034 12566201
0.77180004 0.098541856 0.16582863 11711148
0.77850008 0.10413368 0.16125514 11250854
0.78654552 0.10738912 0.16517906 11579819
0.79000002 0.10937075 0.16826011 11514026
0.78900003 0.11107937 0.1615824 11579819
0.79265219 0.1156321 0.16535662 11514026
0.78850007 -0.16149168 0.17601597 10394514
0.79264718 -0.16664115 0.17504372 9736843
0.77563643 -0.15227629 0.17477371 10657175
0.78337502 -0.15746443 0.17509677 10854809
0.76615387 -0.14296414 0.17491183 14209480
0.77177781 -0.14790444 0.17521973 12827829
0.76223993 -0.13537107 0.17484128 14866896
0.76109076 -0.12512279 0.17506115 11577509
0.75900006 -0.11204996 0.17267388 13220789
0.76036 -0.11609659 0.17576048 13419453
0.75782865 -0.1054428 0.17484069 12432814
0.75303566 -0.094768226 0.17505476 11645100
0.74703705 -0.08519572 0.17517127 10790304
0.75000006 -0.089301005 0.17115308 11579566
0.73799998 -0.071556069 0.17714767 11183264
0.74272424 -0.076328225 0.17437728 11315618
0.73465616 -0.064959019 0.1749018 11708577
0.72866672 -0.051507488 0.17850952 12694959
0.73150015 -0.055873606 0.17498782 12628651
0.72667748 -0.044325214 0.17638814 12893627
0.73030001 -0.046266824 0.17178626 13419713
0.72662503 -0.034847859 0.17655016 12828603
0.73049998 -0.034135606 0.17166218 13552321
0.72764295 -0.02628687 0.17785074 13289924
0.73074991 -0.023784094 0.1738866 13158080
0.73313159 -0.014345219 0.17502218 12565685
0.73766667 -0.0072429483 0.17639536 12894906
0.74242109 -0.0035073627 0.17422374 12697528
0.74588895 0.0046109874 0.17515965 13091775
0.74838459 0.012102732 0.1754327 12236721
0.75178272 0.01692846 0.17442909 12302769
0.75658619 0.025167389 0.17457876 12171441
0.75880569 0.034886226 0.17493898 11578791
0.7587502 0.045539785 0.17492738 11184801
0.75830007 0.055276331 0.17482378 11184545
0.75802767 0.065016709 0.17475972 11250084
0.75774193 0.074919917 0.17455186 11381669
0.75849998 0.083429724 0.17473228 11908011
0.76022232 0.088637888 0.17615615 11250340
0.76450002 0.092196383 0.17468648 12566459
0.77270001 0.09684819 0.17452428 11974322
0.77600002 0.10016602 0.17163649 11447976
0.78584611 0.10469745 0.17501467 11513770
0.79137504 0.10909875 0.1759626 11382440
0.79281247 -0.17484564 0.18463148 9934480
0.78806674 -0.16172618 0.18555813 10066065
0.79057151 -0.16710445 0.18437532 9671308
0.77609086 -0.15153871 0.18478681 11116443
0.78327274 -0.15660916 0.18466267 10525589
0.76816672 -0.14211628 0.18459165 14736340
0.77193338 -0.1462485 0.18537471 13222844
0.76409388 -0.13486405 0.18504664 14407375
0.7615515 -0.12510474 0.184701 11711150
0.75900006 -0.1116946 0.18742159 12959671
0.76039141 -0.11577037 0.18486273 12894136
0.7578572 -0.10519344 0.18523771 12301997
0.74879998 -0.091261752 0.18718114 11447720
0.75280005 -0.095561288 0.18458381 11447719
0.74586666 -0.085321121 0.1848736 10790050
0.73600006 -0.072623096 0.18530872 10921892
0.74186671 -0.078261368 0.1844047 11119274
0.72866672 -0.061742425 0.18874444 11579047
0.73189664 -0.065228358 0.18471394 11578535
0.72497231 -0.054362655 0.18537439 12235437
0.7306 -0.058599681 0.18228969 12760496
0.71899998 -0.042898897 0.18785384 12238525
0.72148269 -0.045080092 0.18371513 12434102
0.71899992 -0.034272537 0.18764345 12500666
0.72100002 -0.034367185 0.18309964 12763582
0.71900004 -0.028381364 0.18848504 11973552
0.72315383 -0.024025487 0.18461715 12697531
0.72738463 -0.017052444 0.18688072 12829115
0.73138469 -0.01279986 0.18441963 12763061
0.73485714 -0.0053479699 0.18550995 13026750
0.74120009 -0.0021884835 0.18181118 12434612
0.73750007 0.00023889021 0.18901795 13421766
0.74402952 0.0046525854 0.18489979 12828859
0.74772722 0.01313387 0.18495584 12631480
0.75130779 0.018239127 0.18464127 12236466
0.75583339 0.025021147 0.18486862 12302515
0.75847071 0.034662433 0.18525305 11841962
0.75900012 0.045555089 0.18475634 11645353
0.75899994 0.055223156 0.18339759 11119267
0.76000011 0.055622965 0.1878909 10856092
0.75888878 0.065090448 0.18295299 11381927
0.76000017 0.065186024 0.18766852 11645614
0.75884002 0.074856855 0.18471807 11447461
0.75899994 0.08250276 0.18423373 11776424
0.76146168 0.087733194 0.18604252 11908524
0.76719999 0.091845997 0.1849601 12369333
0.77389997 0.096094772 0.18693326 12040370
0.78626329 0.10382181 0.18538582 11382441
0.79012501 0.10869452 0.18423991 11448233
0.79182762 0.11531445 0.18456216 11448233
0.79303992 -0.17426008 0.19490021 10000273
0.78830779 -0.16271265 0.19472991 9934736
0.79049999 -0.16722155 0.19519992 9605515
0.77636361 -0.1514269 0.19493236 10920089
0.78350008 -0.15709639 0.19517459 10526615
0.76900005 -0.14125 0.1951116 14999510
0.77255559 -0.14594541 0.19528913 12104620
0.76503336 -0.13491623 0.19464172 14275532
0.76165509 -0.12444575 0.19505511 11709608
0.75878572 -0.11305898 0.19536133 13288382
0.76031262 -0.11733939 0.19408655 11183265
0.75544113 -0.10524736 0.19486001 12234918
0.74730426 -0.093622267 0.19605583 11446686
0.75124997 -0.097657435 0.19371165 11447201
0.73900002 -0.081071198 0.19805303 11709866
0.74376678 -0.08537104 0.19485694 10723483
0.73494452 -0.074707679 0.19490749 10856355
0.74100006 -0.079555921 0.19165027 10790822
0.72627276 -0.062986068 0.19571838 11382696
0.73083329 -0.067629375 0.19458012 11055786
0.71857142 -0.052556526 0.19638164 12039858
0.7211054 -0.056543376 0.19321048 11908270
0.71799999 -0.044311035 0.19494288 12040887
0.71757501 -0.034413755 0.19461718 13091260
0.71827251 -0.025549322 0.19583267 12827317
0.72039998 -0.022364495 0.19087562 13157311
0.71885717 -0.018999616 0.19782303 12630454
0.72323537 -0.014797407 0.19431728 12434104
0.73000002 -0.010017199 0.19222313 12762809
0.72690004 -0.0082696956 0.19804117 12631741
0.73165387 -0.0044380161 0.19410524 12632251
0.73558331 0.0027531078 0.19555317 12632505
0.74247056 0.0073994715 0.19381517 12829115
0.74636364 0.014489764 0.19533759 12368821
0.75060004 0.019220831 0.19219881 13026495
0.74900001 0.021283684 0.19985634 11382440
0.75380009 0.024954554 0.19495612 12369078
0.7576471 0.034834784 0.19506665 11908014
0.75895834 0.043776002 0.19451797 11842218
0.76000005 0.048283871 0.19478522 12565684
0.76027787 0.05453214 0.19485682 11644839
0.76088876 0.065261997 0.19501367 11381925
0.75900006 0.074872829 0.19008683 12303539
0.76031047 0.075002015 0.19501954 11316132
0.76148278 0.084035583 0.19470523 11381926
0.76800001 0.090143859 0.19683793 11645100
0.77414286 0.095445134 0.19500038 12237492
0.78665388 0.1050196 0.19474356 11382439
0.79000002 0.10937075 0.19877528 11382440
0.78900003 0.11107937 0.19205895 11448233
0.79076946 0.1149618 0.19484019 11382439
0.79343992 0.12470834 0.19499852 11514282
0.79348147 -0.17415082 0.20470771 10066324
0.78854555 -0.1633679 0.20453449 9539980
0.79055554 -0.16733611 0.20580353 9539981
0.77745456 -0.15180539 0.20513088 11183008
0.78441185 -0.1577806 0.20498337 10592410
0.76900005 -0.14016984 0.20519295 14867668
0.77252173 -0.14521776 0.20503189 11643301
0.76476926 -0.13430768 0.20447706 13880774
0.75900006 -0.12057877 0.20963199 11973289
0.76106435 -0.12504725 0.20520066 12499636
0.75777787 -0.11467129 0.20515378 11973293
0.76000005 -0.11895847 0.2027915 11118762
0.74850005 -0.10182651 0.20629212 11445918
0.75256521 -0.10638613 0.2042511 11774883
0.74555558 -0.094885387 0.20504349 11445916
0.73652184 -0.083051279 0.20589276 11182999
0.74183339 -0.08746127 0.20401959 11183001
0.72900003 -0.071441151 0.20987916 10262671
0.73263335 -0.075230949 0.20491941 11051929
0.71900004 -0.060782809 0.20742095 11378837
0.72421879 -0.065206379 0.20510724 11577503
0.73075002 -0.069901951 0.20268394 10329236
0.71742851 -0.054570444 0.20505737 12365991
0.72000003 -0.058760431 0.20054592 12564656
0.71452773 -0.045119476 0.20570642 12169900
0.71342862 -0.035677448 0.20538855 12762291
0.71448779 -0.025793662 0.20557129 12762294
0.71781081 -0.016023895 0.20533735 12303287
0.72033334 -0.012132707 0.2012006 12500668
0.71900004 -0.0093051903 0.2081223 12171957
0.72408825 -0.0056902952 0.20506933 12698045
0.7306 -0.002157738 0.2014453 12368567
0.72900003 0.0002361369 0.20902586 12632252
0.73313522 0.0048359944 0.20461774 12237493
0.73759997 0.011464104 0.20682701 12171955
0.74370003 0.015972618 0.20441571 12369076
0.74715 0.023594493 0.20635733 12369334
0.75123084 0.026624629 0.20302042 12040113
0.75510812 0.034697793 0.20487317 12171443
0.75834304 0.045391168 0.20513819 12104876
0.75900006 0.051774006 0.20785515 11644838
0.76025933 0.055486411 0.20490378 11908014
0.76099986 0.065271787 0.20483975 11316134
0.76099992 0.07507012 0.20483984 10987423
0.76399994 0.084315404 0.20493165 11776682
0.76900005 0.090261236 0.20159249 11053477
0.77377284 0.09404023 0.20497936 12171444
0.78000003 0.098856337 0.20630211 12237497
0.78685004 0.10414962 0.20498136 11316648
0.79033333 0.10910866 0.20595242 11382440
0.7926296 0.11537293 0.20517628 11448233
0.7881251 -0.16372162 0.21536881 9342860
0.79042858 -0.16760266 0.21381797 9474445
0.77690905 -0.15153314 0.21507382 11052959
0.78323531 -0.15732834 0.21513695 10856353
0.77248162 -0.14442675 0.21516357 12104362
0.76469553 -0.13487735 0.21501659 13617600
0.75885713 -0.12233291 0.21555611 11643036
0.76063156 -0.12768041 0.21411176 14144199
0.75634491 -0.11472765 0.21494056 11774882
0.74755555 -0.10340122 0.21522063 11578020
0.7513333 -0.1079294 0.21396108 12038312
0.73850006 -0.091821902 0.21823263 11051675
0.74335718 -0.095723979 0.2146318 11117981
0.73405421 -0.084808253 0.21518417 10986396
0.74000001 -0.08984267 0.21131368 10723224
0.72540909 -0.07333196 0.2165578 10920605
0.73100001 -0.076527365 0.21289881 10788760
0.71856523 -0.062740222 0.21550408 11511452
0.72140008 -0.06754598 0.213654 11249053
0.71460623 -0.054929372 0.21510777 12300198
0.70828575 -0.043592758 0.21694243 11909302
0.71100014 -0.046861712 0.21370988 12104880
0.70771438 -0.035391353 0.21676557 11908276
0.71033335 -0.035522714 0.21198769 12369335
0.70831245 -0.02640418 0.21718787 12434872
0.71085727 -0.024651079 0.21329172 12370105
0.71414626 -0.015705299 0.2152192 12369593
0.71830434 -0.0076620542 0.21557136 12895163
0.72137505 -0.0029308039 0.2139075 12829627
0.72636843 0.0018492318 0.21618472 12435127
0.73152381 0.0064364159 0.21411172 12369592
0.7359643 0.013534708 0.21569541 12237748
0.74181825 0.018396799 0.2135676 12566713
0.7455759 0.025157599 0.21528351 12237749
0.74857146 0.031786356 0.21626456 12368307
0.75281483 0.035822902 0.21412127 12236978
0.75760609 0.045233458 0.21504974 12237491
0.75900006 0.052070141 0.21555477 11119526
0.76035011 0.056583941 0.21489911 11645353
0.761222 0.065291502 0.21470077 11645353
0.76103318 0.07507357 0.21464749 10987679
0.76521438 0.08432319 0.21479991 11447973
0.77000004 0.088576026 0.21988046 10065807
0.77419055 0.093637772 0.2149484 12500664
0.78150004 0.099046446 0.21493338 12369337
0.78735 0.10430732 0.21478868 11316647
0.79066664 0.1091548 0.21529269 11448233
0.79257685 0.11543814 0.2149803 11448233
0.79318184 -0.17488326 0.22514872 10263447
0.78799999 -0.16454239 0.22471309 9407882
0.79000002 -0.16919577 0.22443578 9539724
0.77771431 -0.15138249 0.22442202 11775657
0.78321058 -0.15695046 0.22548528 11512744
0.77353853 -0.14455436 0.22506943 10854295
0.76486361 -0.13486579 0.22516522 13552066
0.75846165 -0.12349939 0.2248482 12827572
0.76040018 -0.12899007 0.224437 14144457
0.75482762 -0.11456006 0.22474523 11708835
0.74688464 -0.10413199 0.22491354 11380897
0.75000006 -0.1086144 0.22382599 12169642
0.73692316 -0.092257433 0.22529565 10921628
0.74252939 -0.097207651 0.22481714 11118237
0.72820008 -0.081932448 0.22771725 10592924
0.73207146 -0.085823707 0.22453378 10790043
0.71900004 -0.071022235 0.22691791 10461087
0.72309089 -0.075948536 0.22463724 10724254
0.7176317 -0.064494722 0.2248178 10723997
0.70810008 -0.052319933 0.22723357 12301225
0.71236008 -0.055939265 0.22449619 11973033
0.70650005 -0.045256682 0.22489877 12433584
0.70518422 -0.035265177 0.22500096 12828089
0.70616668 -0.025392868 0.22479218 12893622
0.70776004 -0.016802022 0.22642763 12762295
0.71156251 -0.013614146 0.22297148 13156797
0.70900005 -0.0097290324 0.22901788 12170931
0.71563411 -0.0056452337 0.22514552 12762809
0.72000003 -0.0014523113 0.22077231 13486789
0.71883339 0.00079390762 0.22686486 12764093
0.72403139 0.005009179 0.22502024 12500664
0.73100001 0.0083653843 0.22200611 12369333
0.72900003 0.010475749 0.22865176 12961215
0.7337839 0.015055193 0.22513245 12040115
0.74100006 0.019321661 0.22027273 12303287
0.73816663 0.021552123 0.22778088 12566205
0.74400008 0.02605526 0.22464496 12369078
0.74769568 0.034338504 0.22538248 12697529
0.75099999 0.038335785 0.22324225 12237749
0.75557905 0.045264252 0.22492602 12106161
0.75875002 0.054717954 0.22547436 11973550
0.76000005 0.057772797 0.22176933 11645103
0.75900006 0.061250445 0.22858489 12500146
0.76054543 0.065584391 0.22484085 11842734
0.76089984 0.075060487 0.22529699 11579048
0.76457697 0.084036298 0.2248676 11709609
0.77000004 0.088576026 0.22799209 12104366
0.77478957 0.093237557 0.22458582 13355458
0.78257143 0.098660529 0.22608659 12500410
0.78757149 0.10337394 0.22463496 11185061
0.79099995 0.10827567 0.2249527 11316647
0.79317391 -0.17501612 0.23473004 10394520
0.78799993 -0.16412079 0.23531139 9538953
0.79000002 -0.16896459 0.23483866 9670795
0.77812505 -0.15162501 0.23563486 13025466
0.7827 -0.15668842 0.2347745 11841193
0.77392864 -0.14489134 0.23491339 10393745
0.76486361 -0.13502871 0.23493138 13551036
0.75806683 -0.12398211 0.23510598 13683133
0.76000005 -0.1296335 0.2348166 14274759
0.74900001 -0.110223 0.23843162 13618629
0.75372422 -0.11457584 0.23463869 10656918
0.74630004 -0.10458958 0.23494957 10855837
0.73508334 -0.093122661 0.23521431 10724254
0.74177784 -0.09816312 0.23439527 10724253
0.72526091 -0.08325962 0.23588684 10789276
0.73091668 -0.087599605 0.23409981 10987426
0.7183103 -0.073294505 0.23579212 11249565
0.72081828 -0.078003764 0.2331401 10986910
0.70900005 -0.061182268 0.23897657 12301736
0.7147941 -0.065132998 0.23506516 11315356
0.70672721 -0.054521881 0.23560119 11906724
0.71100003 -0.059215162 0.23275237 11906978
0.70261902 -0.045008905 0.23517413 12302256
0.69900006 -0.036591943 0.23887871 11908785
0.70150006 -0.034907628 0.23428349 12171960
0.70211893 -0.025248088 0.23500729 12434613
0.70509517 -0.0154474 0.23517744 12238522
0.70785719 -0.0076604998 0.23630042 12369337
0.71200013 -0.0034972739 0.23395091 12368311
0.71686667 0.002978143 0.23569259 12565944
0.72158343 0.0075556585 0.2336418 12632250
0.72595012 0.011964235 0.23609884 12171699
0.73145461 0.016817408 0.23440056 12171700
0.73515999 0.023304181 0.23574166 12303285
0.74212503 0.02825696 0.23396 12829115
0.74623334 0.035184607 0.23492835 12565429
0.74849999 0.040544249 0.23739517 12894395
0.75334388 0.045774113 0.23462954 12434357
0.75780004 0.055242214 0.23502275 11908269
0.75900006 0.063948601 0.23602122 11645612
0.76000011 0.068645522 0.2338282 11974320
0.7604 0.075012334 0.2349402 11776940
0.76452374 0.083434932 0.23510604 11973804
0.77020007 0.088599034 0.23436293 12170669
0.77462506 0.092737667 0.23480104 13026236
0.78290904 0.098227546 0.23506223 13157825
0.78790915 0.1025428 0.2347196 11710380
0.79193753 0.10790369 0.23506612 11382440
0.79295462 -0.1750858 0.24491458 10197654
0.78788882 -0.16451891 0.24466389 9538697
0.79014289 -0.16912708 0.24518763 9605260
0.77707696 -0.15185863 0.24499027 12302773
0.78243744 -0.1573907 0.24506955 11973292
0.77278578 -0.14428954 0.24477446 11116953
0.76395822 -0.13478626 0.244978 13156535
0.7573846 -0.12414365 0.24505498 13814721
0.76000005 -0.1296335 0.24460208 12301484
0.7484445 -0.11169854 0.24506688 11973292
0.75256521 -0.11641985 0.24469587 10195595
0.73900002 -0.10096634 0.2473584 10855068
0.7444545 -0.10517703 0.24500979 11118498
0.72900003 -0.090782642 0.24742441 11511965
0.73362505 -0.095193677 0.24517776 10986138
0.74000001 -0.098504432 0.24076369 10855588
0.71899998 -0.081041224 0.24643493 11511453
0.72353572 -0.085733332 0.24508028 11183002
0.7158286 -0.074944645 0.24505277 11445660
0.70716673 -0.064061053 0.24585968 11316132
0.71207702 -0.068116084 0.24321637 11315872
0.69814289 -0.051840443 0.24885814 12564912
0.70317948 -0.055324286 0.24460517 11775917
0.69702786 -0.044150226 0.24536178 12564912
0.7001667 -0.047853813 0.24200898 11973036
0.69630939 -0.03482116 0.24447438 12433842
0.69675601 -0.025155457 0.2447504 12564913
0.70000005 -0.021076521 0.24085915 13157824
0.6976251 -0.016173149 0.24704851 12302770
0.7015714 -0.014003908 0.24296089 12632248
0.69850004 -0.0095849494 0.24933603 11909041
0.70514637 -0.0055238134 0.24523921 12238006
0.71000004 -0.0014321404 0.24097574 11645357
0.70788896 0.0011506192 0.24762252 12369337
0.7140286 0.0052535743 0.24462868 12434615
0.71836364 0.011393815 0.24686985 11974321
0.72358626 0.015660884 0.24476165 12303284
0.73033333 0.018473879 0.24160768 12961469
0.72775006 0.021106495 0.24870205 12631989
0.73327041 0.025623076 0.2446909 12237490
0.7378 0.031674646 0.247991 12303285
0.74417859 0.035337429 0.24448553 12632251
0.74794436 0.042461358 0.24558417 12368822
0.75175005 0.047674052 0.24414292 12368307
0.7557742 0.054982498 0.24520671 12236976
0.75831264 0.064821735 0.24527806 11908009
0.75900006 0.071319163 0.24783391 11381667
0.76074076 0.075178586 0.24441242 12170672
0.76635307 0.083200283 0.24469417 11446435
0.77099997 0.088090204 0.24543497 11973289
0.77516669 0.093005344 0.2451475 12960439
0.78236365 0.09832526 0.24488688 13552578
0.78778583 0.10326966 0.24524525 11973805
0.79100001 0.10802902 0.24476407 11316647
0.7883637 -0.16299468 0.25515601 9341573
0.79100001 -0.16732791 0.25550511 9539210
0.77670586 -0.15237987 0.25516427 12499119
0.78345454 -0.15831274 0.25539991 11907498
0.7725358 -0.14450108 0.2547715 11248794
0.75900006 -0.13123977 0.25938332 12367277
0.76333338 -0.13471845 0.25481889 12894136
0.74900001 -0.12074354 0.2594727 13946307
0.75590003 -0.12540227 0.25495589 13683138
0.74655169 -0.11450699 0.25530574 10525075
0.75140005 -0.11902024 0.25221032 11511713
0.73480004 -0.10352769 0.25571588 10985878
0.74261546 -0.10794707 0.25351223 11841188
0.72514826 -0.093890257 0.25641826 10723221
0.73149997 -0.097517334 0.2528379 11051670
0.71785188 -0.083172731 0.25602326 10658457
0.72150004 -0.087839566 0.25344115 10394514
0.70712501 -0.07240162 0.25623959 11513251
0.71309096 -0.076638363 0.2544615 11184802
0.69744444 -0.061455488 0.25775754 12367533
0.70343238 -0.065424867 0.25440675 11841190
0.69597429 -0.054087199 0.25534388 12170931
0.70033336 -0.058248658 0.25135705 12170413
0.69423819 -0.044470452 0.25512594 11908528
0.69321442 -0.034666378 0.25474888 12105909
0.69388098 -0.024952276 0.25499398 12236979
0.69485718 -0.01522698 0.25535294 12237237
0.69692856 -0.0063560228 0.25594047 12171701
0.70160007 -0.0031647177 0.25290343 12435389
0.70555258 0.0038855814 0.25558484 12171959
0.71133333 0.0080022039 0.25224963 12369335
0.708 0.010173978 0.25852877 12499894
0.71594739 0.014044533 0.25529107 12369078
0.72075003 0.018372256 0.25137231 12434871
0.71900004 0.020431202 0.25917909 11776941
0.72478575 0.023328746 0.25537872 12105906
0.73107147 0.028231706 0.25399253 12303540
0.73520845 0.033732753 0.25569347 12237747
0.74258333 0.037327334 0.25347999 12369077
0.74628955 0.044613454 0.25503469 12566201
0.75000006 0.049404323 0.25104031 11908527
0.748375 0.052144833 0.25728449 12106162
0.75228006 0.055615209 0.25426418 12434614
0.75697225 0.064932138 0.25484711 12302769
0.75900006 0.071319163 0.25405282 11447462
0.76190907 0.075974904 0.25502655 11973805
0.76758337 0.082459718 0.25438038 10723741
0.77106673 0.087015383 0.25556362 11447206
0.77545452 0.093746446 0.25501975 13091512
0.78183341 0.099088699 0.25528705 13749442
0.78711116 0.10354848 0.25506583 12236977
0.79033333 0.10859494 0.25487801 11119268
0.79285717 0.11513843 0.25484464 11382439
0.78716671 -0.16385728 0.26552579 9407367
0.79049999 -0.16783802 0.26397803 9473417
0.77604353 -0.15314759 0.26544181 12498093
0.78214294 -0.1587837 0.26415122 11050136
0.76860005 -0.14117615 0.26554069 10591894
0.77281821 -0.14563796 0.26468021 10657687
0.75790006 -0.13175982 0.26592484 12499376
0.76295233 -0.13669047 0.26472721 11841704
0.74753338 -0.1221416 0.26619571 13551292
0.75345016 -0.12666793 0.26409498 13814978
0.73816675 -0.11150978 0.26752785 11906984
0.74378586 -0.11530579 0.26462743 10393231
0.7274546 -0.10178933 0.26562968 10789014
0.73311114 -0.10655379 0.26454824 10854550
0.71873337 -0.092084609 0.2657007 11117725
0.72209531 -0.097009644 0.26455694 10789015
0.70814288 -0.081475817 0.26710528 11512480
0.7147333 -0.085665509 0.26438329 11052444
0.70435709 -0.074727058 0.2648854 11907239
0.71100003 -0.079663955 0.26128873 11250079
0.69690001 -0.064654797 0.26496938 11973291
0.70050007 -0.068238512 0.26193881 12170155
0.69409537 -0.05548783 0.26505578 12433842
0.68900001 -0.040100854 0.26933345 11842734
0.69153345 -0.044890542 0.2655704 12960955
0.68900007 -0.033729658 0.26715595 12434357
0.69072729 -0.035203099 0.26273042 12763064
0.68894458 -0.025761353 0.2673403 12170930
0.69087505 -0.024103681 0.26305583 12763065
0.69221067 -0.015337449 0.26521125 13092545
0.6946429 -0.0054642786 0.2650314 13158594
0.69716668 0.0019497251 0.26581368 12961215
0.70264006 0.0060869791 0.26419944 12961216
0.7068966 0.0129001 0.26593953 12434615
0.71355557 0.017031709 0.26333448 12171700
0.71705556 0.021777438 0.26630342 12500922
0.72361541 0.026692308 0.26448447 12369336
0.72840005 0.031270817 0.26734084 12435129
0.73312128 0.035765689 0.26483884 12237493
0.73879999 0.041402366 0.26631552 12632508
0.74387115 0.045523118 0.26471448 12632250
0.74762958 0.05411255 0.26541466 12500147
0.75020003 0.058549803 0.26375109 12039083
0.75579411 0.064834394 0.26478904 12171184
0.76210707 0.075184524 0.26490474 11184546
0.76771432 0.082409211 0.26531285 10395288
0.77078575 0.087249756 0.26444086 11315620
0.7750001 0.094196782 0.26545447 13223614
0.78000003 0.098856337 0.26290792 10987169
0.78669226 0.10488248 0.26516172 11776941
0.79000002 0.10937075 0.26257974 11316390
0.79217863 0.11530595 0.26495716 11316647
0.79275012 -0.17489308 0.27470276 9539724
0.78553861 -0.16476509 0.27523762 9341577
0.79000002 -0.16988929 0.27275145 9342345
0.77614284 -0.15506022 0.27501684 11710377
0.78000003 -0.15860882 0.27021191 11381154
0.7665 -0.14255771 0.27525097 11050904
0.77194118 -0.1477239 0.27475399 11249054
0.75633329 -0.13322848 0.27491051 13157306
0.7610001 -0.13811833 0.27431837 12038055
0.74650002 -0.1241565 0.27512792 13551550
0.75060004 -0.12873337 0.27478805 12697012
0.73643756 -0.11333331 0.27537525 11183517
0.74233329 -0.11828013 0.27488646 9011837
0.72735709 -0.10339123 0.27569291 10789272
0.73149997 -0.10786351 0.27449375 11052700
0.7184211 -0.092446581 0.2750797 10854810
0.72141176 -0.097820558 0.27475062 11183773
0.70809102 -0.081900351 0.2746878 10723739
0.71322232 -0.08659526 0.27518269 10394517
0.70335305 -0.074699901 0.27494353 10789531
0.69606245 -0.064806178 0.27489406 10920860
0.68842858 -0.052039903 0.27670637 11513252
0.69203234 -0.056064337 0.27417487 11052446
0.68760878 -0.044742938 0.27512008 11513254
0.69000006 -0.049850874 0.27133965 12303285
0.68857878 -0.034687512 0.27510667 11710377
0.68861091 -0.024763217 0.27482426 11578532
0.68900007 -0.017922638 0.27551645 11644582
0.69071436 -0.013692279 0.27462223 11841962
0.69311124 -0.0054511554 0.27499646 12039600
0.69594109 0.0036325052 0.27482548 12040115
0.70020002 0.0080949701 0.27305517 12171700
0.70420504 0.01426851 0.27484944 12500922
0.70757902 0.021851948 0.27563497 12895422
0.71465391 0.026101181 0.27439684 12961215
0.72100002 0.028927406 0.27171361 12500664
0.71799999 0.031048954 0.27814648 12961215
0.72468191 0.033319067 0.27533078 12895422
0.73147368 0.037640493 0.27421784 12435126
0.73544002 0.044111241 0.27577418 12501175
0.74254555 0.047808312 0.27319476 12895421
0.74554062 0.054918185 0.27529824 12368820
0.75000006 0.0599389 0.27123159 12828600
0.74825001 0.061550703 0.27760333 12105138
0.75476664 0.066040352 0.27483407 12434101
0.75900006 0.071674533 0.27679628 12500406
0.76171994 0.075786896 0.27457637 11315616
0.76668972 0.084361456 0.27525109 11578532
0.77000004 0.087975167 0.27095369 14144972
0.76850003 0.090202548 0.27792138 10986651
0.77328575 0.094649509 0.27499273 12565686
0.77750003 0.10035963 0.27753356 12434359
0.78580767 0.10526089 0.27476668 11382184
0.78900003 0.11107937 0.27887091 11053477
0.79171431 0.11543621 0.27519599 11185061
0.79314286 -0.17499079 0.28519851 9276808
0.78645456 -0.16528395 0.28458121 9210757
0.79000002 -0.16988929 0.28662196 9145221
0.77638894 -0.15444571 0.28460974 11316385
0.78133339 -0.15887995 0.28713661 9079427
0.76635712 -0.14315198 0.28380981 10853523
0.77209097 -0.14862162 0.28505322 10657684
0.75664288 -0.13361983 0.28451309 12959670
0.7610001 -0.13769463 0.28602532 12762549
0.74590003 -0.12417636 0.28458983 12169899
0.75050008 -0.12889154 0.28459004 12893877
0.73620003 -0.11328296 0.28445274 11381414
0.74145466 -0.11842411 0.28510463 8485753
0.72723073 -0.10309283 0.28427747 9933706
0.73164278 -0.10791503 0.28539103 9934221
0.71811116 -0.092230052 0.28491628 9078656
0.72144437 -0.097725824 0.28511202 9539206
0.70850009 -0.081319086 0.28303844 9473670
0.7131905 -0.086036399 0.28514916 9408134
0.7050001 -0.075123921 0.28348163 10066062
0.6960001 -0.064949661 0.2810306 10526616
0.70000005 -0.068599187 0.28182697 9671819
0.68833333 -0.052954044 0.28035262 12170670
0.69150007 -0.057244491 0.28083241 12433843
0.68700004 -0.044273198 0.28168592 8750207
0.68822229 -0.035398778 0.28102297 11053476
0.68900001 -0.024293832 0.28126937 11513771
0.69000006 -0.026025161 0.28143531 11579051
0.68899995 -0.017519394 0.28062415 12698554
0.69075 -0.013721697 0.28234768 11712175
0.69343752 -0.0055547706 0.28222874 11645096
0.69679993 0.0038182333 0.28363857 11053217
0.70014292 0.0081879226 0.28492913 10263959
0.7032904 0.013883043 0.28426483 10133145
0.70736367 0.022210436 0.28253278 10592672
0.71375006 0.026831212 0.28541377 10395806
0.71808338 0.031893309 0.28406572 12303544
0.72328579 0.036926288 0.28482777 12764094
0.73000002 0.039542153 0.28023371 12763836
0.72800004 0.041479398 0.28560081 12961215
0.73210716 0.045535337 0.28434375 12961471
0.73617399 0.052167632 0.28596887 12763836
0.74265212 0.057085767 0.28410283 12566200
0.74659085 0.063641183 0.2855655 12697529
0.75266671 0.068082407 0.28423133 12762553
0.75776464 0.072665818 0.28546271 10657177
0.76078576 0.077339657 0.28454465 10526875
0.76389295 0.084238246 0.28449276 11382182
0.76772732 0.090929501 0.28442371 12237492
0.77235299 0.096188255 0.28500485 11973551
0.77636373 0.10120556 0.28481174 12170929
0.78478956 0.10681613 0.28472504 11053218
0.78864706 0.11331107 0.28667369 11053475
0.79046154 0.11683694 0.28394133 11053476
0.79236662 0.12454013 0.28469595 11316648
0.78753346 -0.16383044 0.29494625 9145222
0.79016668 -0.16807534 0.29500672 9211015
0.777125 -0.15233992 0.29332289 11776680
0.78299999 -0.15752864 0.29578811 10461334
0.76900005 -0.14016984 0.29340488 8025711
0.77394122 -0.14491087 0.29507968 9210240
0.78100002 -0.14967048 0.29981166 8223601
0.75750005 -0.13142461 0.29212072 10789787
0.76350009 -0.13541843 0.2946997 10789530
0.77000004 -0.13854954 0.29739159 8946813
0.7470001 -0.12267118 0.29300553 12235951
0.75437504 -0.12713161 0.29555282 12302511
0.73800004 -0.11292342 0.29107928 9802382
0.74366671 -0.11582366 0.29433075 8748668
0.75200003 -0.11946671 0.29924178 8551033
0.72788888 -0.10257392 0.29343298 9473928
0.73214293 -0.10749983 0.2920728 9605515
0.74400002 -0.10948719 0.29954177 9539981
0.71840006 -0.091593727 0.29192621 9408648
0.72222221 -0.097456224 0.29302746 9342855
0.71550006 -0.087290123 0.29183704 9343111
0.72100002 0.028927403 0.29196963 8686469
0.73200005 0.029368738 0.29813772 9475215
0.72609097 0.035471134 0.29264146 9277840
0.73314285 0.035788175 0.29811391 9803666
0.72900003 0.041621238 0.29136938 12369338
0.73200005 0.045862086 0.29374906 12237493
0.7353158 0.054240916 0.29413986 12632251
0.74157143 0.058274049 0.29608822 12632508
0.74553847 0.064892046 0.29438707 12764095
0.75522232 0.072737113 0.29491934 10460569
0.76090014 0.077733226 0.29476768 9145223
0.76566672 0.08330062 0.29380763 10198167
0.77142859 0.087193288 0.29717079 9672341
0.77405006 0.094210774 0.294882 11382699
0.77649999 0.10023055 0.29172248 10198166
0.78516668 0.10574698 0.29558972 10921889
0.78864288 0.11366741 0.29377857 11053475
0.7902 0.11605839 0.29779395 11250854
0.79112017 0.12434455 0.29443777 11185061
0.78845459 -0.16250986 0.30334547 9211014
0.79084617 -0.16608503 0.30672571 9408394
0.7871111 -0.1545282 0.30492529 9474183
0.79000002 -0.15879287 0.30881482 9276807
0.77766675 -0.14235745 0.30278102 9539466
0.78470004 -0.14597401 0.30637714 9342342
0.76300001 -0.13103831 0.30093968 12500918
0.77300006 -0.13619934 0.30470127 9737357
0.75800002 -0.12352644 0.30162933 11578022
0.7622 -0.12572891 0.30437192 11381157
0.77000004 -0.12953663 0.30820706 9605004
0.75300002 -0.11698491 0.30140251 7827565
0.74800003 0.036139462 0.30640548 10395545
0.73900002 0.04002966 0.30098876 10197911
0.74425006 0.045093812 0.30269688 8947587
0.75100005 0.042437773 0.30763438 10461081
0.74700004 0.057950404 0.30249837 12895171
0.74766666 0.063255362 0.30101803 12698302
0.75512499 0.066755846 0.30490866 12895681
0.76000005 0.062517256 0.30954191 10395296
0.7568571 0.072892301 0.30294675 10856099
0.7628001 0.076501772 0.30478832 10461853
0.76800001 0.081154346 0.3020128 10264731
0.77406675 0.08518365 0.30463934 9869974
0.78100002 0.08801306 0.30895334 10330524
0.77800006 0.091317616 0.30230266 8356483
0.78500009 0.095933296 0.3057147 10330268
0.78825003 0.10382431 0.3030566 10856097
0.79128569 0.10690339 0.30667287 10987426
0.79209095 -0.15499964 0.31460866 9671565
0.78809094 -0.1434826 0.31444356 9803151
0.79090917 -0.14719433 0.31607172 9803151
0.77700001 -0.1331442 0.31222007 9934226
0.78390002 -0.13591443 0.31615913 9803152
0.77422225 -0.12480822 0.31352541 9868433
0.78100002 -0.12681748 0.31809503 9671824
0.77733332 -0.11803126 0.31660163 10263703
0.76200002 0.030572373 0.31392419 9540236
0.77399999 0.055509858 0.31705594 9277065
0.76300001 0.068122625 0.31076378 12698302
0.773 0.061775465 0.31664631 9145999
0.76533335 0.072513573 0.31111637 11645615
0.77380002 0.076697059 0.31552821 10263959
0.77700001 0.081195891 0.31555638 10527132
0.78488898 0.086822234 0.31620905 10592924
0.78824997 0.092675991 0.31382138 10592926
0.79075003 0.096363127 0.31635931 10790304
0.78820002 -0.134445 0.32139698 9869201
0.7930001 -0.13552819 0.32683086 10000787
0.78820008 -0.12521997 0.32287273 9869202
0.79230762 -0.12473031 0.32783711 9869203
0.78687501 -0.114407 0.3230226 9342858
0.79030776 -0.11530656 0.32772127 9803408
0.77566671 0.032933425 0.32137036 9145478
0.77675003 0.046624832 0.32136387 9277064
0.78516674 0.045289665 0.32683894 9342857
0.78699994 0.055023894 0.3253983 9343370
0.79175007 0.055862665 0.32988745 9606029
0.77766675 0.067610011 0.32037845 9606033
0.78571433 0.064372316 0.32474801 9672081
0.79100001 0.065067768 0.32920507 9671823
0.778 0.072195008 0.32051575 9869202
0.78577781 0.075674325 0.32494909 10329752
0.79099995 0.075253852 0.32957494 10263959
0.78745461 0.084385939 0.32290342 10527131
0.79074997 0.086566254 0.32692638 10527131
0.79186952 0.095043413 0.32469884 10790046
