# .PCD v0.7 - Point Cloud Data file format
VERSION 0.7
FIELDS x y z rgb
SIZE 4 4 4 4
TYPE F F F U
COUNT 1 1 1 1
WIDTH 676
HEIGHT 1
VIEWPOINT 0 0 0 1 0 0 0
POINTS 676
DATA ascii
0.82050002 0.21923758 -0.087434277 4998461
0.79291672 -0.12450149 0.12456223 11052188
0.7877143 -0.11407827 0.12597239 15328214
0.79049999 -0.11663839 0.1224095 12499374
0.77900004 -0.10369588 0.1294442 15459545
0.7853334 -0.10494567 0.12531134 15328987
0.7906 -0.1052386 0.12026687 14737362
0.77900004 -0.09822493 0.1294442 10919318
0.7855556 -0.0946218 0.12650591 11644326
0.79133338 -0.095146596 0.12130352 11776426
0.78716671 -0.085328087 0.12721413 13684421
0.79185718 -0.084751055 0.12217691 12435124
0.78833342 -0.075871035 0.12776469 12829625
0.79281825 -0.074572556 0.12313006 12106159
0.78900003 -0.065974839 0.12899494 12500662
0.79354548 -0.12531346 0.13506944 10525845
0.7851035 -0.11541852 0.13489139 14801873
0.77710736 -0.10507025 0.13517039 14604495
0.77786213 -0.095755197 0.13515599 11775137
0.78000003 -0.091960043 0.13143636 11445146
0.77900004 -0.088498779 0.13795458 14605009
0.78171879 -0.084325492 0.13423811 13091512
0.78403324 -0.074997202 0.13486265 12960438
0.78547221 -0.065022647 0.13510925 12828338
0.78573346 -0.054927729 0.13515255 12763316
0.78608346 -0.044830915 0.1352133 12894389
0.7863462 -0.034862809 0.13596827 12828339
0.79000002 -0.033958081 0.13127203 12171178
0.78741664 -0.025012719 0.13721444 12696241
0.79179996 -0.02359038 0.13206245 11907237
0.78807133 -0.014767041 0.13819787 12302250
0.78866673 -0.0056930627 0.13761468 12170920
0.7934286 -0.0051388172 0.13298428 11053211
0.78900003 0.0021026353 0.13849412 12237741
0.7931819 0.0051532709 0.13415575 11185055
0.78900003 -0.12165061 0.14680591 13419965
0.79305553 -0.12547855 0.14477345 10722452
0.77899998 -0.11125103 0.14559655 15262427
0.78495234 -0.11657078 0.14486922 14209738
0.77700019 -0.1054515 0.14507917 13750215
0.7782352 -0.095393136 0.14480437 11841447
0.78000003 -0.091047041 0.14969629 14210764
0.77900004 -0.087966889 0.14266568 14012872
0.78038472 -0.083924189 0.14555492 12631219
0.78147995 -0.074753456 0.14449251 11842217
0.78199977 -0.064735696 0.1445881 11907753
0.78215986 -0.054677889 0.14461723 12302769
0.78216654 -0.044607647 0.14461812 12170668
0.78231996 -0.034543205 0.14464615 12105131
0.78328019 -0.025416765 0.14482325 11710631
0.78422606 -0.015201903 0.14481793 11776423
0.78506678 -0.0052584102 0.14422925 11842215
0.78630567 0.0048582465 0.14445661 12105131
0.7864815 0.014984094 0.14499991 11842217
0.79000002 0.015051129 0.14051905 11710887
0.78644431 0.025109202 0.14448118 11382181
0.78682762 0.035125464 0.14471091 11579817
0.79000002 0.039093386 0.14051905 10395288
0.78740001 0.044569217 0.14587757 11447975
0.79016668 0.045268267 0.14085692 10592666
0.78860003 0.054162685 0.14765391 11974318
0.79160005 0.055575252 0.1431175 10790300
0.78900003 0.064902782 0.1495765 11908269
0.79247999 0.065189511 0.1446646 10987422
0.79303133 0.074865058 0.14592426 11119009
0.78855562 -0.122403 0.15544024 13880517
0.792077 -0.12654883 0.15457964 10854040
0.77890015 -0.11188807 0.15495519 15065561
0.78417653 -0.11713056 0.15481535 14143945
0.77858621 -0.10470872 0.15476856 12696501
0.78100002 -0.10030545 0.15902987 9276556
0.77900004 -0.097617052 0.15193592 10654861
0.78100008 -0.094403736 0.15579021 12104621
0.78193742 -0.084636718 0.15521728 12236975
0.78259987 -0.074861333 0.15477698 12170925
0.78275037 -0.064797431 0.15480578 11907496
0.78253359 -0.054703251 0.15476313 12039081
0.78222209 -0.044611394 0.15470183 11775910
0.78199977 -0.034529544 0.15465683 11907497
0.78243339 -0.025389833 0.15474203 11644326
0.78241676 -0.015315693 0.15473813 10921632
0.7820664 -0.0052394043 0.15466978 11184545
0.78216648 0.0048310244 0.15468882 11053474
0.7820999 0.014900384 0.15467571 11315360
0.78205526 0.024969207 0.15466779 10526360
0.78213328 0.035042282 0.15468241 10921888
0.78272223 0.045148347 0.15479688 11184804
0.78433353 0.055339225 0.15511245 11185061
0.78493762 0.064913467 0.15545945 11448233
0.78674191 0.07487683 0.15579674 11316645
0.79000002 0.077930875 0.15161547 12369333
0.78734988 0.084490255 0.1568169 11777198
0.79130769 0.085897774 0.15157977 11645095
0.7882942 0.095023461 0.15693189 12500148
0.79199994 0.094815575 0.15199651 11710887
0.78855562 0.10506879 0.15790145 12763318
0.79191667 0.10500148 0.15321518 11974059
0.78900003 0.11384995 0.15881181 13026231
0.79292607 0.11527601 0.15409482 11842729
0.78830773 -0.12268017 0.16548555 14473166
0.79116672 -0.12707989 0.16526784 11380897
0.77900004 -0.11159838 0.16105418 14867928
0.78273928 -0.11575215 0.16503838 14144716
0.7790001 -0.10697846 0.16208759 14340815
0.78104538 -0.10413213 0.1659376 12236207
0.78252023 -0.095004342 0.16483632 13025723
0.78300029 -0.084981672 0.1649362 11974062
0.78300017 -0.074900068 0.1649362 11579047
0.78313363 -0.064828895 0.16496471 11776168
0.78316015 -0.054748632 0.16497046 11776168
0.78266692 -0.044636123 0.16486715 11579045
0.78256005 -0.034554731 0.16484447 11578533
0.78211999 -0.025379963 0.16475035 11184034
0.78263342 -0.015319177 0.16485879 10920863
0.78264016 -0.0052431049 0.16486172 10920861
0.78246659 0.0048327213 0.16482511 10921372
0.78272009 0.014911961 0.16487807 11051419
0.78296691 0.024998099 0.16492936 10920346
0.7826001 0.03506304 0.16485335 10854552
0.78283364 0.045153838 0.16490193 10592663
0.78308022 0.055249505 0.16495341 10395541
0.78283352 0.065312259 0.16490139 11315875
0.7832002 0.075426772 0.16497749 10986908
0.78362989 0.084845386 0.16465828 11513510
0.7846669 0.09485738 0.16436508 11973290
0.78483361 0.10498083 0.16439749 12499120
0.78475761 0.11465755 0.16463017 12829111
0.7869333 0.1247905 0.16502231 12566198
0.79000002 0.12786478 0.16086249 12236460
0.78855562 0.13275939 0.16774699 12631993
0.7915715 0.13650455 0.16364935 11908525
0.78784209 -0.12419257 0.17566301 14538699
0.79037499 -0.1285702 0.17319584 11511455
0.78293097 -0.11509264 0.17484486 14209737
0.78255892 -0.10486855 0.17519002 11447205
0.78342897 -0.095311351 0.17478767 12829370
0.78413337 -0.085104726 0.17435558 12303282
0.78424001 -0.075018503 0.17437929 11908009
0.78436667 -0.064930089 0.17440695 11907496
0.78460014 -0.054849297 0.17445832 11907751
0.78340042 -0.044548579 0.1749763 12171438
0.78300029 -0.034573689 0.17501779 11644324
0.78256691 -0.02539479 0.17492203 11315103
0.78288919 -0.015324581 0.17499232 11249569
0.78300029 -0.0052454229 0.1750178 11119009
0.78316706 0.0048372657 0.17505595 11117724
0.78303367 0.0149184 0.17502542 10855324
0.78327817 0.025009204 0.17507933 10723486
0.78375018 0.034918409 0.17485894 10263702
0.78412926 0.045315728 0.17453121 11053476
0.78346699 0.055275656 0.17512225 10658460
0.78300041 0.065325737 0.1750178 10592667
0.78313363 0.075420015 0.17504838 11184545
0.78300029 0.08457242 0.17501782 11250338
0.78302819 0.094657458 0.17502381 11644583
0.78293365 0.10472637 0.17500305 11841960
0.78211093 0.11468659 0.17481938 12433840
0.78396446 0.12486021 0.17490402 12302769
0.78826678 0.13312121 0.17527232 11908270
0.79033333 0.13809514 0.17480713 11579817
0.78900003 -0.13088591 0.18467069 9998988
0.79300004 -0.13631721 0.18487807 10130831
0.7870689 -0.12491534 0.1849802 14077893
0.78326952 -0.11540832 0.18495098 14999766
0.78386682 -0.1052582 0.18530488 11906984
0.78499991 -0.0951019 0.18516377 13157565
0.78519434 -0.085219659 0.18469934 12104874
0.78543311 -0.075132139 0.18475607 11907239
0.78522211 -0.065002963 0.18470654 12236460
0.78496659 -0.054874532 0.18464525 11842475
0.78338742 -0.044827234 0.18501242 11447461
0.78300017 -0.034573693 0.18509938 11513512
0.78288019 -0.025405094 0.1850712 11513513
0.78306699 -0.01532793 0.1851154 11184033
0.78424013 -0.005253355 0.18539429 11249824
0.78463334 0.0048462208 0.18548679 11249823
0.78424001 0.014940175 0.18539402 10921630
0.78300029 0.024999356 0.18509939 10723479
0.78385204 0.035325222 0.18489142 11117981
0.78497136 0.045197662 0.18477766 10985883
0.78416008 0.055324111 0.1853752 11249567
0.78327608 0.065190896 0.18503891 11249826
0.7846154 0.075350866 0.18562394 11053215
0.78392023 0.084670283 0.18531835 11184288
0.78300029 0.094654009 0.18509944 11644840
0.78300017 0.10473561 0.18509935 11842730
0.78233337 0.11471789 0.18494183 11841703
0.78355563 0.12519611 0.18482207 12566195
0.78794116 0.13295831 0.18507352 11711145
0.79070002 0.13815963 0.18506928 11448487
0.78900003 -0.13088591 0.19482954 12301229
0.79234785 -0.13555954 0.19505072 10525076
0.78707689 -0.12518579 0.19506282 14012358
0.78325027 -0.11506792 0.19491601 14605010
0.78387892 -0.10550988 0.19498205 11315617
0.78507996 -0.095315702 0.19478036 13354688
0.78496659 -0.085195214 0.19475228 12237231
0.7850399 -0.075095028 0.1947704 12039853
0.78513324 -0.064995393 0.19479316 11908011
0.78412008 -0.054816581 0.1945412 12039852
0.7832191 -0.044895761 0.19466303 11973805
0.7837202 -0.034605581 0.19444458 11512483
0.78325027 -0.025221253 0.19491605 11381154
0.78336143 -0.015333535 0.19527017 11644584
0.78479993 -0.0052568256 0.19471107 11118496
0.78499991 0.0048485235 0.19476067 10856095
0.78483993 0.014952167 0.19472134 11184290
0.78340024 0.025011117 0.19436501 10592665
0.78336024 0.035097182 0.19435476 11250852
0.78483325 0.045269266 0.19471933 10855066
0.78495997 0.055382241 0.19475096 11052959
0.78424013 0.064511418 0.19457304 10856095
0.78499991 0.074681096 0.19476067 11053732
0.78443998 0.08472579 0.19462195 11316388
0.78300041 0.094654009 0.19518094 11842474
0.78293353 0.1047264 0.19516414 11710633
0.78188872 0.11465336 0.19490379 12104878
0.78325927 0.12474237 0.19473602 12105648
0.78846157 0.13287009 0.19476771 11382695
0.79128569 0.13760133 0.195658 11448231
0.78885716 -0.13138995 0.20574221 14275273
0.79195243 -0.13641086 0.20469475 10459540
0.78641379 -0.12481038 0.20507696 14209480
0.78392607 -0.11556812 0.20509747 14012617
0.78418195 -0.10505152 0.20507234 11973806
0.78489995 -0.095293485 0.20484152 12697016
0.78491664 -0.085189968 0.20484665 12368050
0.78483325 -0.07507544 0.20482498 12368306
0.78494436 -0.064979382 0.20485342 11973805
0.78466672 -0.054853391 0.20478252 11973546
0.78479409 -0.044541232 0.2050854 11710889
0.78423345 -0.034629475 0.20466737 11513767
0.78314835 -0.025617698 0.20489348 10987424
0.78300029 -0.015327018 0.20526263 11316133
0.78410017 -0.005251308 0.20463091 11250595
0.7849443 0.0048485063 0.20485318 11053991
0.78499991 0.014955873 0.20486797 11381668
0.78463888 0.02505081 0.20477501 10790045
0.78470004 0.0351565 0.20479073 10724251
0.78488886 0.045272335 0.20483966 11447459
0.78509992 0.055392459 0.20489457 11184545
0.7850666 0.064578921 0.20488565 11052444
0.78499991 0.074681088 0.20486791 11052701
0.78493327 0.084780917 0.20485087 11513253
0.78450012 0.094834372 0.20565754 12039852
0.78344023 0.10479324 0.20537888 11973547
0.78233337 0.11471867 0.20508882 12105132
0.78507411 0.12530358 0.20505811 12171439
0.78870004 0.13227062 0.20491116 11514024
0.79118752 0.13743539 0.20520966 11513769
0.78850007 -0.1317265 0.21501088 15393753
0.79140007 -0.13684443 0.21487501 10327697
0.78526932 -0.12489781 0.21483612 14077639
0.78377801 -0.11527207 0.21498026 13223616
0.78431046 -0.10516247 0.21466076 12630964
0.784154 -0.09506207 0.21495435 12960699
0.78466672 -0.085161537 0.21488322 12171441
0.78499991 -0.075091384 0.21497534 12105389
0.78499991 -0.064984038 0.21497536 12039853
0.78499991 -0.0548767 0.21497536 12302511
0.78479993 -0.044758964 0.21492019 11776684
0.78326702 -0.034586482 0.21541698 11513513
0.7826668 -0.025398888 0.21525308 11250850
0.7825557 -0.015317274 0.21522313 11645094
0.78316694 -0.0052459156 0.21538933 11381410
0.78416687 0.004844808 0.21566264 11316132
0.78470373 0.015153549 0.21530102 11249823
0.78456676 0.025048558 0.2148557 11184031
0.78491998 0.035167351 0.21495315 11184031
0.78563327 0.045315325 0.21514885 11053215
0.78519988 0.055398792 0.21502993 10988192
0.7850399 0.064576842 0.21498613 11250337
0.78499991 0.074681088 0.21497536 11447201
0.78499991 0.084788434 0.21497536 11118752
0.78499991 0.094895795 0.21497536 11580333
0.78359276 0.10501706 0.2149971 11907757
0.78308612 0.11469933 0.21523696 11841448
0.78696001 0.12553506 0.21514438 12039598
0.78900003 0.13139705 0.21237664 11514023
0.79233342 0.13556269 0.21492377 11447974
0.78824997 -0.13334671 0.22582884 14670030
0.79055554 -0.13751933 0.22287056 10327697
0.78480017 -0.12468013 0.22502492 14538959
0.78451443 -0.11439756 0.22507551 12171185
0.78513324 -0.10451309 0.2251218 12762550
0.78396565 -0.095308676 0.22494489 12302513
0.78391689 -0.085079692 0.22477105 12237233
0.78493327 -0.075084694 0.22506328 12434355
0.78447235 -0.064941496 0.22492994 12105133
0.78413349 -0.054815333 0.22483197 12039084
0.78405571 -0.04471691 0.2248103 11973293
0.78300017 -0.034573697 0.22542572 11908011
0.78272003 -0.025400368 0.22534448 11250079
0.78296697 -0.015326169 0.22541609 11577761
0.78284019 -0.0052445387 0.22537893 11447975
0.78293359 0.0048360717 0.22540624 11381409
0.7831074 0.014723161 0.2248667 11052701
0.78380585 0.025026022 0.22473985 10723993
0.78483325 0.035163872 0.22503503 10855581
0.78494436 0.045274563 0.2250656 10922146
0.78463346 0.055359229 0.22497603 11119012
0.78427285 0.065014407 0.22512363 11184545
0.78445464 0.075046428 0.22467428 10921629
0.7844668 0.084731057 0.22492819 11907752
0.78436124 0.094818085 0.22489813 11579303
0.78371447 0.1046335 0.22504184 11841704
0.78400016 0.11511388 0.22553751 11775913
0.78761125 0.12440763 0.22460267 11973289
0.79012501 0.12927237 0.22562793 11316131
0.78900003 -0.14012124 0.23546493 9735301
0.79241663 -0.14529301 0.23470406 10196110
0.78693098 -0.13435806 0.23500395 14801102
0.7834447 -0.12439475 0.2351293 14473166
0.78450012 -0.11452676 0.23503906 11512486
0.78507996 -0.1045055 0.23521358 13223357
0.7839601 -0.095181882 0.23487739 12368048
0.78330028 -0.085013404 0.23467974 12499376
0.78380007 -0.07497669 0.23482828 12170925
0.78320032 -0.064835437 0.23464996 12039340
0.78336024 -0.054760922 0.23469837 11973035
0.78336698 -0.044677489 0.23470023 12039343
0.78255188 -0.034428451 0.23521358 11579303
0.78209978 -0.025379719 0.2352362 11513508
0.78208321 -0.015308976 0.23523113 11381152
0.78206885 -0.0051132552 0.23506923 11315362
0.78251529 0.0045849932 0.23494481 11316130
0.78300017 0.014917766 0.23459087 11382436
0.7834003 0.025013454 0.23471084 11052701
0.78460008 0.035154041 0.23507017 10920859
0.78413355 0.045227136 0.23493025 11117980
0.78404015 0.055317696 0.23490261 11315617
0.78429639 0.06492459 0.23477641 10920860
0.78474998 0.074985169 0.23531301 11052703
0.7841202 0.084693104 0.23492697 11841192
0.7839669 0.09477099 0.23488055 11841705
0.7833463 0.1049221 0.23490492 11710374
0.78410715 0.11432761 0.23492071 11973804
0.78805566 0.12304205 0.23497778 11908525
0.79044443 0.12834845 0.23476502 11316645
0.78900003 -0.14170443 0.24535991 10525331
0.79131585 -0.14579979 0.24478351 10064780
0.7858215 -0.13535705 0.24522364 14999252
0.78218168 -0.12514988 0.24483222 14999767
0.78357607 -0.11480863 0.24493691 11183262
0.7844243 -0.10491843 0.24503404 13091772
0.78363359 -0.095141724 0.2448705 12630963
0.78300041 -0.084981672 0.2446724 12237232
0.78290021 -0.074890979 0.24464083 12236975
0.7825557 -0.0647811 0.244532 12105388
0.782767 -0.054720886 0.24459836 12301998
0.7826668 -0.044636801 0.24456681 11644583
0.78207678 -0.034674123 0.24508776 11381668
0.78199983 -0.025376163 0.24527529 11250596
0.78199977 -0.015307442 0.24527533 11447718
0.78230774 -0.0053815162 0.24515922 11250339
0.78263652 0.0050842375 0.24497373 11315617
0.78266698 0.014910867 0.24456699 11119265
0.78313929 0.02500454 0.24471553 11315359
0.78396696 0.03512473 0.24497373 11513509
0.78444457 0.045247298 0.24512362 11316129
0.78496659 0.055382822 0.24528718 11053214
0.78499991 0.064573742 0.2452974 11119011
0.78499991 0.074681088 0.24529737 11513255
0.78483325 0.0847698 0.24524592 11250080
0.78383356 0.094753347 0.24493217 11579046
0.78251731 0.10454334 0.24467845 11973806
0.78342855 0.1139672 0.24480517 11645095
0.7881251 0.12214301 0.24500535 11579818
0.79049999 0.12702101 0.24516542 11316389
0.78812504 -0.14377265 0.25561294 11972778
0.7906363 -0.14848919 0.25387174 9867917
0.78348392 -0.1355384 0.25526032 15130068
0.77900004 -0.12831521 0.25892356 15920097
0.78138226 -0.12483257 0.25487149 14998997
0.7839312 -0.11491745 0.25505507 11380641
0.78385198 -0.10474986 0.25523266 13289921
0.78310376 -0.094950125 0.25554425 12434099
0.78236103 -0.084912874 0.2554605 12105135
0.7820999 -0.074814215 0.2553761 12499891
0.78152776 -0.064697281 0.2551879 12236976
0.78103334 -0.054599244 0.25502536 12106158
0.78152925 -0.044839948 0.25497329 12170668
0.78190601 -0.034868073 0.25554174 11841448
0.78199977 -0.025376162 0.25534397 11315615
0.78147221 -0.015298313 0.25516984 11183772
0.78056675 -0.0052293548 0.25487432 11315616
0.78122216 0.004825775 0.2550886 11645094
0.78196645 0.014898237 0.25533289 11447204
0.78241658 0.024981614 0.2554788 10986908
0.78286237 0.035074782 0.2554667 11315874
0.78356677 0.045196369 0.25493696 11052959
0.78440005 0.055343196 0.25520736 11382437
0.78421438 0.065098383 0.25534341 11250082
0.78411138 0.075106047 0.25490949 11184544
0.78424019 0.084705688 0.25515619 11579817
0.78300017 0.094902284 0.25525257 11645095
0.78199977 0.10460185 0.25534397 11776679
0.78438473 0.11424833 0.25499356 12105905
0.78853339 0.12209026 0.25470883 11250852
0.79049999 0.12702101 0.25534359 11316644
0.79219455 0.15510957 0.25495967 11447976
0.78900003 -0.1512036 0.26963562 9210244
0.79225928 -0.15574792 0.26477134 9802638
0.78673339 -0.14506526 0.26498848 12433584
0.79000002 -0.14954583 0.26073033 9868174
0.77820021 -0.13364971 0.26639834 15130324
0.78172737 -0.13716817 0.26315621 15326931
0.77812099 -0.12494029 0.26492113 14210249
0.78000003 -0.12026295 0.26108193 10592416
0.77876925 -0.11614532 0.26852319 11906983
0.7814784 -0.11444462 0.26348248 12104879
0.77900004 -0.1073432 0.26986548 13223357
0.78177774 -0.1049802 0.26441899 13092030
0.78157687 -0.095031746 0.26505625 12500148
0.77900004 -0.08363571 0.26986548 11909038
0.78079325 -0.084900402 0.26487571 12302512
0.77891678 -0.075421683 0.2689248 11644838
0.78060001 -0.074670844 0.26402283 12368303
0.77876478 -0.065057874 0.26753122 12169898
0.78035724 -0.06551411 0.26263651 12696755
0.7789427 -0.055234507 0.26541683 12762549
0.77900016 -0.045886088 0.26685646 12434098
0.78020012 -0.044312537 0.26260969 12368047
0.77881819 -0.036377635 0.2688078 11907754
0.78072006 -0.034910791 0.2643187 12236203
0.77899998 -0.024497243 0.26934445 11710374
0.78113049 -0.025586929 0.26479772 11644066
0.77872735 -0.014331555 0.26703551 11579045
0.78028578 -0.016709765 0.26287332 11579045
0.77900016 -0.0059200311 0.26804185 11579047
0.77999997 -0.0046882685 0.2635524 11513254
0.77900004 0.0052673789 0.26940957 11579559
0.78044844 0.0046640877 0.26475912 11447717
0.77900004 0.014385643 0.26986548 11249826
0.78083998 0.01487652 0.26501706 11184544
0.78139991 0.02494921 0.26520744 10987421
0.78157687 0.035016924 0.26505622 11315873
0.78219438 0.045117475 0.26456103 11447202
0.7828669 0.055235047 0.26478976 11249822
0.78300041 0.065325737 0.26483554 11513252
0.78300029 0.075407341 0.26483563 11118750
0.78290945 0.085061885 0.26488805 11711657
0.78213322 0.094731361 0.26490813 11710888
0.78223991 0.10463487 0.26549464 11842474
0.78561532 0.11414535 0.26501349 11645354
0.78880006 0.121023 0.26421291 11250854
0.79111767 0.12576003 0.26534855 11185061
0.7919333 0.15505821 0.26507795 11316647
0.78900003 -0.1512036 0.27517679 9670795
0.79259092 -0.15636578 0.27508011 9671051
0.78524011 -0.14497575 0.27460006 13091258
0.77785009 -0.13377237 0.27438474 14077638
0.78075004 -0.1377425 0.2777833 11906470
0.77738476 -0.12510818 0.27490702 13420222
0.77868962 -0.11534483 0.27510157 13354684
0.7790001 -0.10551953 0.27616537 13223100
0.78045464 -0.10222823 0.27269375 13683908
0.77884632 -0.093858086 0.27724531 12895163
0.78047061 -0.095293641 0.2727384 12829627
0.77757156 -0.085043959 0.27573773 12435125
0.78000003 -0.088612378 0.27082059 11843246
0.77675033 -0.075212732 0.27544674 12369332
0.7760334 -0.065150268 0.27519289 12500147
0.77658343 -0.055196375 0.27538767 12565940
0.77680027 -0.045211647 0.27546468 12566197
0.77644467 -0.03519313 0.27533841 12039857
0.77633357 -0.025192905 0.27529868 11710377
0.77602792 -0.015190374 0.27519122 11710374
0.77676672 -0.0052026506 0.27545244 11381410
0.77785718 0.0047273207 0.27570876 11644838
0.78000003 0.0057306387 0.27021191 11119265
0.7785601 0.014833362 0.275179 11710375
0.78000003 0.016686603 0.27021191 10657690
0.77890015 0.023865914 0.27648598 11381926
0.78043753 0.02617416 0.27230403 10921630
0.77900004 0.03429386 0.27898374 11841960
0.78040743 0.035032168 0.27441156 11184545
0.78108829 0.044839632 0.27489069 11710890
0.78252 0.055210929 0.27474931 10986913
0.78266686 0.065298237 0.27480051 10921374
0.78300017 0.075407334 0.27491722 11512996
0.78300017 0.084572412 0.27491716 11579046
0.7827 0.094616771 0.27481276 11776683
0.78292012 0.10472659 0.27489027 11316646
0.78704 0.11449315 0.27486122 11382438
0.78900003 0.12031468 0.27332973 11185061
0.79226089 0.12501009 0.27550623 11053475
0.78763634 -0.1448268 0.28459236 10592410
0.79000002 -0.1490835 0.28708431 9474445
0.77900004 -0.13165857 0.28141528 14669004
0.78295004 -0.13575098 0.28553289 15393495
0.77894139 -0.12449723 0.28250262 10327695
0.7806924 -0.12515166 0.28760386 11511711
0.77900004 -0.11418191 0.28445467 12960184
0.78000003 -0.11661097 0.28847185 14670545
0.7779333 -0.10537671 0.28497532 12170925
0.77688915 -0.095232293 0.28459203 12170927
0.77573085 -0.08524169 0.28486669 12236976
0.77486646 -0.075029828 0.28475922 12500148
0.77406681 -0.064985238 0.28537112 12697527
0.77411121 -0.055021141 0.28538725 12960441
0.7742666 -0.045063738 0.28544357 13026490
0.77386123 -0.035076398 0.28529349 12434611
0.77350008 -0.025100565 0.28516063 12039596
0.77347243 -0.015140091 0.28515041 11842731
0.77386671 -0.0051837689 0.28529474 11776938
0.77432442 0.0048568663 0.2852906 11579559
0.77508575 0.014767583 0.28483477 12105134
0.77639478 0.024599371 0.28474253 11382438
0.77783334 0.034850322 0.28493509 11777195
0.77839136 0.043828145 0.28668696 11382182
0.78073335 0.047165487 0.28277126 11513766
0.77900004 0.052226447 0.28992566 11053475
0.78169996 0.055152971 0.28452224 11448229
0.78191668 0.065234929 0.28460255 11250081
0.77900004 0.077757582 0.28992566 11711406
0.78180015 0.075291768 0.2845594 11578533
0.77900004 0.084505096 0.28992566 11250599
0.78174275 0.085221276 0.28466913 11973291
0.78232259 0.095310897 0.28460231 12039853
0.78306681 0.10474631 0.28502208 11908268
0.78757691 0.11428683 0.28467804 11447975
0.79000002 0.11861777 0.28754666 11053472
0.78885716 -0.14194259 0.29412231 10000275
0.79100007 -0.14603324 0.29554957 9342345
0.787 -0.13512269 0.29506811 11775655
0.7842381 -0.12485141 0.29450226 10459538
0.78335011 -0.11500148 0.29494259 12500149
0.77883339 -0.10337016 0.29229474 12960700
0.78300011 -0.10532737 0.29679468 11842476
0.7778334 -0.094588727 0.29237542 12631479
0.7817778 -0.095322728 0.2974678 10657945
0.77694452 -0.084931463 0.29340723 11842476
0.78074998 -0.084736586 0.29880214 10855836
0.77610725 -0.074890271 0.29404345 11314591
0.78000003 -0.078265086 0.29942781 10919833
0.77504992 -0.065069087 0.29480809 11709862
0.77440006 -0.055042986 0.29546672 11645096
0.77356011 -0.04502378 0.29514477 12171183
0.77283347 -0.03503029 0.29486722 11841961
0.77226919 -0.024921464 0.29486015 11776938
0.77186096 -0.015109465 0.29539946 11776940
0.77116656 -0.0051666172 0.29513273 12105904
0.77113891 0.0047640493 0.29512191 12434356
0.77269232 0.01458353 0.29502136 12302513
0.77400011 0.024926972 0.29467079 11973803
0.77520001 0.034732662 0.29486063 11908009
0.77630585 0.044777423 0.2952815 11973290
0.77777779 0.054674711 0.29533443 11908268
0.78000003 0.056858469 0.29029784 10856607
0.77876008 0.065081887 0.29603401 11776169
0.78000009 0.064826444 0.29112783 11316132
0.77868003 0.0749911 0.29527408 11381668
0.78000003 0.073292427 0.29029784 11908784
0.77863324 0.085012347 0.29525626 12104881
0.78100002 0.08801306 0.29067001 10657692
0.77861124 0.094731539 0.29646346 12039344
0.78041673 0.095712483 0.29182258 11842735
0.77900004 0.10100917 0.29767621 12631737
0.78224999 0.10494421 0.29479697 12434871
0.78742862 0.11349468 0.29516929 11711146
0.79000002 0.11861777 0.29494429 10987679
0.78900003 -0.13273297 0.30103567 9407875
0.79217649 -0.13545056 0.30552405 10395543
0.78850001 -0.1252653 0.30176842 10131858
0.7912727 -0.12520097 0.30661914 10329752
0.78830761 -0.11487232 0.30219197 9934995
0.7911666 -0.11503807 0.30726621 9803923
0.78786671 -0.10438535 0.30441678 9803153
0.79040003 -0.10669432 0.30860132 9738388
0.78727269 -0.095079869 0.30515543 9934739
0.78540003 -0.085149676 0.30435568 10395289
0.78522229 -0.074807011 0.30572701 10460311
0.77840006 -0.063892223 0.30100057 11973289
0.7841177 -0.065615922 0.30651927 10789532
0.77686667 -0.054068092 0.30356124 10921630
0.78180009 -0.055751871 0.30853802 10526619
0.77527273 -0.044874661 0.30438244 12105646
0.77483362 -0.035121486 0.30470565 11776938
0.77399993 -0.025268434 0.30452648 10921889
0.77291673 -0.015131101 0.30485237 10724768
0.77238101 -0.00517473 0.30485696 10724510
0.77283329 0.0047747432 0.30482042 10855326
0.77354175 0.014888658 0.30434433 11512997
0.77406675 0.024714684 0.30439997 11447462
0.77467996 0.034709129 0.30464095 12039598
0.77550006 0.044731006 0.3049629 12105392
0.77617878 0.054958072 0.30464414 11645353
0.77675027 0.064803928 0.30454284 11908008
0.77663356 0.074794181 0.30449647 11908009
0.77647239 0.084776044 0.30443379 12039083
0.7761001 0.094728723 0.30428657 12170670
0.7776472 0.10209376 0.30516258 12631219
0.78299999 0.10718177 0.30455005 12828857
0.78795004 0.11351625 0.30487677 11250339
0.79066664 0.11840963 0.30599076 10921632
0.78900003 -0.090250522 0.31027099 9342859
0.79220003 -0.094918698 0.31487152 10067351
0.78900003 -0.084709331 0.31027099 9145222
0.79220009 -0.08505325 0.31616953 9869714
0.78900003 -0.076212846 0.31137925 9013893
0.79205 -0.075024612 0.31666511 9672592
0.78845459 -0.064181127 0.31290957 8750978
0.79110003 -0.065305367 0.31739458 9541006
0.7868824 -0.055009801 0.31496814 8948101
0.79000002 -0.055226225 0.31991127 9869201
0.78538096 -0.045184541 0.31568295 8882565
0.78499997 -0.034662627 0.31605357 8751233
0.77750003 -0.024322988 0.31120908 12303797
0.78345454 -0.025759615 0.31609651 9671822
0.77625006 -0.015197714 0.31161839 11712173
0.78227276 -0.014899165 0.31761611 7698804
0.77600008 -0.0051980605 0.31188196 10921886
0.78200001 -0.0052389838 0.31769076 9343626
0.77623081 0.0051450636 0.31182113 10132886
0.78209096 0.0044141742 0.31770894 11777710
0.77686679 0.014800446 0.31277737 10657174
0.78300005 0.014917766 0.31890962 11776425
0.77683342 0.024803316 0.31276378 10198423
0.78300005 0.02499936 0.31890962 11119522
0.7773335 0.034827065 0.31296447 9474441
0.78180009 0.035026252 0.31842086 10790812
0.7774446 0.044842497 0.31300914 9868430
0.78116673 0.045057774 0.31816292 9473668
0.77786672 0.054882433 0.31317842 10592669
0.78100002 0.055103034 0.31809503 8816515
0.77755558 0.064869814 0.31305328 11316390
0.78066677 0.065129504 0.31795922 8487037
0.77733338 0.074861906 0.31296417 11974319
0.78080004 0.0751964 0.31801358 11579564
0.77700007 0.085197024 0.31319419 11842475
0.78074998 0.083414637 0.31799319 11711406
0.77643472 0.095006645 0.31410575 12104879
0.78050005 0.092524037 0.31971854 11776433
0.77763635 0.10170247 0.31407866 12631478
0.78350002 0.10709786 0.31513762 12894393
0.78815389 0.1125226 0.3146221 11119008
0.79100001 0.11720251 0.31561649 10922143
0.78900003 -0.033915099 0.32135338 8817285
0.78837502 -0.024200076 0.3217912 8553856
0.79220009 -0.025337897 0.32673943 9277834
0.78790009 -0.01468399 0.32330468 8685698
0.7911666 -0.015178447 0.32748398 9211784
0.78800011 -0.0052789189 0.32371435 8553855
0.79085714 -0.0045044534 0.32819372 9342857
0.78766668 0.0053765075 0.32460272 8421755
0.79033333 0.0033387344 0.32898894 9079685
0.78735 0.015001109 0.32529289 8487034
0.78766662 0.025148354 0.3245005 8685181
0.79000002 0.025222851 0.32915828 8685697
0.78695005 0.035256758 0.32512832 9211781
0.78581816 0.04490659 0.32449433 9474697
0.78600001 0.054952383 0.32490399 10263956
0.78561902 0.064886533 0.32444802 10198935
0.78591305 0.07496725 0.32482034 9605515
0.78542846 0.085095569 0.32436967 9277839
0.78527784 0.09492825 0.3253566 10066071
0.78621054 0.10536232 0.32457963 12434359
0.79000002 0.10937075 0.32915828 12105908
0.78875005 0.11150593 0.32263684 10723996
0.78900003 0.038120367 0.3305887 9475467
0.79250008 0.034668379 0.33530563 9343369
0.78900003 0.044585086 0.3305887 9146248
0.79129416 0.04504206 0.33569312 9343628
0.78900003 0.054743942 0.3305887 8422527
0.79143482 0.054711081 0.33612278 9343627
0.78900003 0.064902782 0.3305887 7632757
0.79113334 0.065078415 0.33518857 9014662
0.78900003 0.075061634 0.3305887 9473928
0.79159093 0.075223997 0.33479375 8685185
0.78900003 0.085220478 0.3305887 10594212
0.79181826 0.085018143 0.33657476 9014923
0.78900003 0.09537933 0.3305887 10461343
0.79144454 0.094439954 0.3359386 9934742
0.78900003 0.10369112 0.3305887 10855839
0.79160005 0.10533114 0.33501598 10856096
