# .PCD v0.7 - Point Cloud Data file format
VERSION 0.7
FIELDS x y z rgb
SIZE 4 4 4 4
TYPE F F F U
COUNT 1 1 1 1
WIDTH 225
HEIGHT 1
VIEWPOINT 0 0 0 1 0 0 0
POINTS 225
DATA ascii
0.44533336 -0.040863361 -0.060833514 13551553
0.4357619 -0.03231439 -0.062633432 14143688
0.4419167 -0.037448335 -0.061400276 13288123
0.43358344 -0.024726978 -0.063461684 15722721
0.43625003 -0.015059086 -0.063706458 16118252
0.44000003 -0.010157955 -0.062852792 15328993
0.44292861 -0.0080012623 -0.062085237 14539734
0.44742864 -0.041455407 -0.05598224 12827829
0.45337504 -0.043767713 -0.055607352 13551552
0.43434092 -0.032894153 -0.054397579 13946052
0.44204766 -0.037656009 -0.056296807 13156793
0.42881814 -0.024182038 -0.05112591 16249064
0.43050715 -0.025084922 -0.056219224 15788770
0.42900002 -0.019612208 -0.050568972 16447215
0.43268028 -0.015030634 -0.055003427 16184045
0.43599999 -0.0084069986 -0.053352762 13815497
0.44128576 -0.0076760598 -0.058609586 13619147
0.49850002 -0.061105896 -0.043784328 12697527
0.50354552 -0.062207356 -0.041383419 12236976
0.49618757 -0.056322556 -0.043755978 12105390
0.50200003 -0.058988675 -0.040761843 12565941
0.42844445 -0.031400193 -0.041923828 14209481
0.43234435 -0.034563515 -0.045834512 13748930
0.42659307 -0.025133265 -0.04481402 15920612
0.43000001 -0.029053207 -0.049344663 14735310
0.42760003 -0.017416459 -0.044127125 16447214
0.43070841 -0.01286089 -0.045901012 15855336
0.43199998 -0.0093653034 -0.045438059 14078927
0.51800001 -0.070165753 -0.036402807 12171181
0.52441674 -0.072162718 -0.032450683 12236973
0.50833338 -0.061717808 -0.0385007 12368562
0.51450002 -0.063974492 -0.036149815 12039339
0.52278954 -0.06714379 -0.032291085 12171181
0.50504351 -0.055972591 -0.037645098 12302769
0.51441669 -0.058237869 -0.03353158 12171182
0.52149999 -0.059042443 -0.030544568 12302767
0.43000001 -0.040126223 -0.030218545 12564658
0.42661902 -0.032942347 -0.034074217 14143689
0.43281823 -0.036340207 -0.036682542 13485759
0.44000003 -0.038999297 -0.037101593 12762807
0.42363986 -0.025153801 -0.035234105 15920869
0.42649993 -0.015694179 -0.03494399 16184814
0.43000004 -0.010933729 -0.03625837 15000798
0.42900002 -0.0095692398 -0.030483037 14013903
0.43000001 -0.0087191267 -0.032533817 12895423
0.52794445 -0.072475463 -0.028104998 12170666
0.53044999 -0.073217928 -0.023864876 12302252
0.52584475 -0.064462878 -0.025255509 12368046
0.53000003 -0.069309741 -0.022357242 12433838
0.52344447 -0.058649823 -0.02820663 12499633
0.42900002 -0.040032905 -0.023620343 11841961
0.42999998 -0.040823128 -0.025262794 12302512
0.41900003 -0.030271763 -0.020617537 15130070
0.42449993 -0.034462485 -0.025353892 13880517
0.4185358 -0.024954202 -0.02164522 15986663
0.42081428 -0.025027763 -0.026422881 15920613
0.41900003 -0.019482009 -0.020617537 16645107
0.42322922 -0.015271905 -0.025197657 15987435
0.42642111 -0.0092662359 -0.02482431 13421768
0.53115797 -0.072013974 -0.017105158 12433838
0.52700001 -0.063842088 -0.016295152 12368558
0.5304001 -0.068700306 -0.014758158 12433838
0.43258825 -0.042515844 -0.012526765 12499118
0.41767651 -0.031817336 -0.014601953 14670289
0.42293188 -0.036238115 -0.015946267 13419965
0.41634011 -0.024719074 -0.015130769 15921126
0.41770366 -0.017064942 -0.014435544 16250863
0.42077792 -0.013270257 -0.016410805 15527399
0.42300001 -0.0088984333 -0.013765264 12829887
0.42742857 -0.041173492 -0.0015938011 12236461
0.43281251 -0.043116108 -0.0057238713 12302253
0.41547468 -0.033121008 -0.0045591826 14341580
0.42252013 -0.03785 -0.0050423401 13025975
0.41272467 -0.0249472 -0.0048160232 15789283
0.4155511 -0.015392888 -0.0045431629 15724520
0.42054549 -0.011408827 -0.0083430102 14869469
0.41766667 -0.0085018957 -0.0029564453 12632251
0.42130771 -0.0089666694 -0.0079125753 12764352
0.41900003 -0.041061513 0.0068472871 12170668
0.4228 -0.040839292 0.0031431571 12301997
0.40890905 -0.031196326 0.0080744363 14539216
0.41310304 -0.034790736 0.0052116974 13749443
0.42133334 -0.038661212 0.0012950676 12828085
0.40844962 -0.025130915 0.0066868099 15724259
0.41048574 -0.024879811 0.0020672462 15789540
0.4086923 -0.019296804 0.0076346942 16185581
0.41234767 -0.014561103 0.0051106284 15264226
0.41227958 -0.0054609706 0.0060252063 13487815
0.44577274 -0.051507507 0.01532333 11841958
0.41426671 -0.040920556 0.015814537 12630705
0.44553339 -0.047796138 0.0158139 11710373
0.40739226 -0.032222286 0.015684145 14144458
0.41220754 -0.0372683 0.014435672 12894391
0.40531808 -0.02501367 0.015154349 15724259
0.40727285 -0.017243112 0.015924724 15790568
0.41146669 -0.013508767 0.012148942 14869214
0.41145006 -0.006515448 0.011443632 13355717
0.4390001 -0.051164087 0.023301221 11776166
0.44000003 -0.051359873 0.020581093 11710372
0.40900001 -0.040081523 0.025354657 12696242
0.41228575 -0.040817883 0.021489991 12498863
0.4390001 -0.048019882 0.024318147 11512994
0.44000003 -0.047754705 0.020581093 11447202
0.40548387 -0.034489773 0.025073931 13618114
0.41088891 -0.038557172 0.021249078 12696242
0.40167567 -0.02496971 0.025444934 15658211
0.40306666 -0.01769083 0.025790898 15724264
0.40400001 -0.040852558 0.039388895 12498862
0.39825007 -0.031628665 0.038088232 14407887
0.40142497 -0.034949951 0.034489844 13618113
0.39772615 -0.0250585 0.036377694 15526882
0.40003699 -0.025156189 0.03175319 15461346
0.39900002 -0.01925263 0.038512215 15922155
0.40195456 -0.01599925 0.034665637 15066848
0.39900002 -0.040502638 0.049020458 12631219
0.40240747 -0.041320156 0.044912644 12433327
0.39642343 -0.033733841 0.045799375 14012872
0.40089998 -0.03781921 0.042963613 13091000
0.39521486 -0.024850531 0.045310963 15658212
0.39723408 -0.017774934 0.045464206 15724262
0.40025803 -0.014619971 0.042811606 14737626
0.39622223 -0.041148227 0.055840235 12499376
0.39361608 -0.034972854 0.055003505 14078409
0.39190054 -0.024641195 0.055021614 15658213
0.39414033 -0.017221861 0.054929435 15527142
0.39492315 -0.041620892 0.062911436 12564913
0.38857543 -0.034217965 0.06693387 14670802
0.39145103 -0.036516469 0.062815413 13946822
0.38838673 -0.025553275 0.065487772 15592162
0.39014286 -0.023162574 0.060653538 15724519
0.38869703 -0.018486248 0.066875555 15855849
0.39090478 -0.01778172 0.061903056 15592935
0.38707143 -0.040845107 0.07557299 13091259
0.38576531 -0.035100281 0.07529708 12433071
0.38551137 -0.025176326 0.07529448 12893626
0.38688883 -0.01795462 0.075486079 15592167
0.38310346 -0.041224986 0.085918732 10791073
0.37859267 -0.033031382 0.088217258 2634281
0.38156322 -0.035174888 0.084141992 2831149
0.37874076 -0.026902206 0.088482045 2830634
0.3814486 -0.024418324 0.084267668 3158831
0.38551858 -0.015943544 0.0852817 15000286
0.38290256 -0.043554462 0.09518382 11974063
0.37671405 -0.034661986 0.095400207 2699050
0.38020006 -0.039128229 0.092636354 2896431
0.37675992 -0.025294827 0.095258616 2765102
0.38042858 -0.020614514 0.091585517 3552824
0.37849998 -0.019016389 0.09824761 13686997
0.38422412 -0.014895893 0.094640262 14934492
0.38782364 -0.00865898 0.096138693 14342099
0.38300002 -0.050384965 0.10907024 12564402
0.37780774 -0.041175518 0.10614603 10526105
0.38241839 -0.046004444 0.10490299 12697014
0.36899999 -0.032077983 0.10929782 2501672
0.37258244 -0.034817688 0.10479087 2633259
0.36899999 -0.025939515 0.1095465 2369316
0.37226042 -0.024686284 0.10469403 2829868
0.37722221 -0.018172281 0.10528405 13618632
0.38229346 -0.013469367 0.10466681 15000027
0.38580826 -0.0073939618 0.10536271 14671320
0.38231033 -0.051601119 0.11490799 12301485
0.37691072 -0.042663157 0.11559936 10525845
0.38110295 -0.047452301 0.11465055 13091000
0.3675729 -0.033288818 0.11548749 2370086
0.37132502 -0.037891172 0.11389817 2764586
0.36746943 -0.025140492 0.1152658 2566435
0.37579998 -0.017230164 0.11675855 12433582
0.38105714 -0.012975601 0.11458454 14605268
0.38363457 -0.0061988216 0.11534754 14605783
0.37795845 -0.051012043 0.12643516 13419964
0.38050002 -0.051095881 0.12023506 13025207
0.37674144 -0.045324001 0.12504601 11906984
0.38000003 -0.049248978 0.12007707 13222586
0.36387593 -0.034320913 0.12501904 2698792
0.37090912 -0.039585434 0.12264898 2632228
0.36354172 -0.024994781 0.12483083 2830381
0.36682358 -0.01912572 0.12686691 13028038
0.37691861 -0.015172655 0.1248285 13750472
0.38016006 -0.011410495 0.12311693 14276559
0.37900001 -0.0096369386 0.12952077 14079180
0.38174558 -0.0058327029 0.12488772 14408403
0.38437504 0.00012450633 0.12594843 13421766
0.37612906 -0.051431756 0.13327779 13486015
0.36885715 -0.040465076 0.13468952 4868165
0.37389603 -0.045354806 0.13492197 11183518
0.3650142 -0.034957964 0.1338986 1646361
0.37042856 -0.032833848 0.13959925 988688
0.36444759 -0.02444521 0.13451844 1777436
0.37 -0.028897069 0.13943774 988688
0.36500004 -0.018927999 0.1347771 10986400
0.37743771 -0.013016825 0.13472924 13684423
0.37859261 -0.0076892581 0.13632204 13750475
0.3807162 -0.0035835542 0.13421351 14474196
0.38228571 0.00080595777 0.1354986 13552841
0.36315387 -0.040687207 0.14684881 5395794
0.37300003 -0.045586254 0.14046818 9145734
0.36391118 -0.035475459 0.14669405 1120274
0.37096438 -0.03388726 0.1426381 1120275
0.36427692 -0.024527108 0.14646688 1447697
0.37075001 -0.027817395 0.14351732 988431
0.36300004 -0.019427575 0.14442208 4133906
0.37766668 -0.012548816 0.14070584 12039857
0.3784 -0.0071387985 0.14047678 11250345
0.38071433 -0.0016581941 0.14067432 14277078
0.38200006 0.00042182664 0.14068106 13356233
0.35900006 -0.040916249 0.15689617 1316115
0.36068755 -0.041151799 0.15281431 2303523
0.35829866 -0.034593049 0.15665177 1579798
0.36086771 -0.035140358 0.15234309 1778203
0.35830599 -0.026861636 0.15706073 1580055
0.36075839 -0.024309119 0.15335484 1842967
0.36100003 -0.019151518 0.1548074 3551019
0.3437826 -0.041558865 0.16652824 1909789
0.35900003 -0.04106456 0.16050506 1709842
0.34562698 -0.034955841 0.16559291 1515545
0.34606358 -0.025824673 0.16581514 1514777
0.33721423 -0.041053895 0.17516637 1909279
0.33999997 -0.041847598 0.17077194 1843225
0.33748528 -0.035954386 0.17457642 1843741
0.34000006 -0.034392398 0.17145915 1909018
0.33817181 -0.025755417 0.17401288 1974813
0.34000003 -0.025957104 0.17167024 1974813
0.33218595 -0.041469857 0.18325339 1975072
0.33139691 -0.035777297 0.18559296 2172194
0.33110818 -0.026120629 0.18633014 2237729
