# .PCD v0.7 - Point Cloud Data file format
VERSION 0.7
FIELDS x y z rgb
SIZE 4 4 4 4
TYPE F F F U
COUNT 1 1 1 1
WIDTH 1114
HEIGHT 1
VIEWPOINT 0 0 0 1 0 0 0
POINTS 1114
DATA ascii
0.77666688 0.034998786 0.11491175 13816010
0.77660626 0.044545744 0.1158212 14144718
0.78175008 0.048295595 0.1111414 14671573
0.77654558 0.054540273 0.11680453 14473683
0.78315389 0.055677816 0.11151505 14737623
0.77654171 0.064787336 0.11721647 14539477
0.78431243 0.064862348 0.11207668 14737367
0.77641171 0.074451298 0.11767794 14671063
0.7852 0.075341791 0.1125461 14803160
0.77649999 0.084779821 0.11812002 14868700
0.78433335 0.084977172 0.11301088 14934490
0.77800006 0.092532992 0.11804504 15132386
0.7854284 0.09567105 0.113891 14540248
0.78800011 0.10356086 0.11617928 11711147
0.79066664 0.10776698 0.11364353 11842988
0.78866673 -0.17206453 0.12858851 10527131
0.77800006 -0.16184555 0.12867092 13881546
0.78611118 -0.16455328 0.12622276 12170928
0.79216671 -0.16602981 0.12220242 11051935
0.77607155 -0.15417555 0.12752703 14605267
0.7857368 -0.15483472 0.12348995 15723748
0.79000002 -0.15601876 0.1201756 14474198
0.77618182 -0.14544353 0.12781794 15460833
0.78509098 -0.14519241 0.12359658 15197918
0.79000002 -0.14307293 0.1201756 15461605
0.7762 -0.13457841 0.12752345 15592419
0.78559095 -0.13566898 0.12275688 14802903
0.77509528 -0.12477893 0.12585303 15460576
0.78300005 -0.12561589 0.1217574 15066073
0.77434397 -0.11463214 0.12469931 15263453
0.78066665 -0.11671141 0.12058336 15592930
0.7734617 -0.10490969 0.12469128 15197146
0.77400011 -0.094875067 0.1249897 15130583
0.77579999 -0.085106805 0.12528154 15064788
0.77713341 -0.075247817 0.12549806 15064788
0.77650028 -0.065330654 0.12518391 14735823
0.77456677 -0.055057287 0.12508073 13814721
0.7688334 -0.041747656 0.1274544 14012872
0.77117395 -0.045514155 0.12461076 13289148
0.76815629 -0.035097182 0.12483083 15328732
0.77000004 -0.032647736 0.12614611 15328476
0.77184612 -0.025182443 0.12485054 15328732
0.7742334 -0.015154202 0.12502693 14736595
0.77563995 -0.0051948065 0.12525409 14539473
0.77658844 0.0050122882 0.12476479 14276559
0.77760005 0.014815043 0.1246607 13749958
0.77797228 0.024837499 0.12472221 12960699
0.77742869 0.034635525 0.12495994 12829113
0.77653366 0.044788379 0.12540017 13223616
0.77556008 0.054718085 0.12524071 13486789
0.7744 0.064607613 0.12505284 13815754
0.77422225 0.074964806 0.12522575 14013133
0.77507126 0.084947929 0.12496751 14407891
0.77681506 0.094683513 0.12497076 15000028
0.78100002 0.098983079 0.12154785 14803421
0.77900004 0.10055325 0.1294442 15065823
0.78537053 0.1050603 0.12498226 14013390
0.79000002 0.10937075 0.1201756 11974574
0.78871435 0.1120946 0.12736528 14210769
0.79191309 0.11600622 0.12425174 12566199
0.78900003 -0.18075661 0.13757059 10394777
0.77800006 -0.17095132 0.13747394 14538968
0.78590477 -0.17496985 0.13505609 10591643
0.79033333 -0.17859542 0.13194388 10591898
0.77407408 -0.16432041 0.13540091 15394529
0.78100008 -0.16856252 0.13160253 13552325
0.77173352 -0.15512167 0.13455488 15460576
0.77288914 -0.14540021 0.13475908 15394784
0.77377796 -0.13470072 0.13491626 15197404
0.77333355 -0.12466626 0.13484052 14933975
0.77352798 -0.11473727 0.13487461 14868182
0.77433342 -0.10488639 0.13501613 14999767
0.775343 -0.095169477 0.13506219 15130840
0.7772001 -0.085259549 0.13460454 15130583
0.77896661 -0.075425848 0.13490953 15064790
0.77729642 -0.065057419 0.1350237 14406602
0.77411115 -0.05502608 0.13497323 13551292
0.76671427 -0.0433443 0.13560486 13880515
0.77074999 -0.048016857 0.13393551 13090999
0.76637506 -0.035294041 0.13552813 15394524
0.77000004 -0.030394508 0.13335644 15723490
0.76900005 -0.028554793 0.13858399 15526113
0.77217871 -0.024796931 0.13463598 15525855
0.77405566 -0.015150111 0.13496429 14802390
0.77558625 -0.0053195888 0.13507514 14342351
0.77676696 0.0048001288 0.1345299 14605267
0.77819997 0.014827345 0.13477875 14473681
0.77889991 0.024868105 0.13489828 13618629
0.77896005 0.034899849 0.13490839 13223871
0.77860707 0.045037974 0.13458791 13355457
0.78000003 0.043163516 0.13874033 13421250
0.77652001 0.054784417 0.13448723 13421251
0.7746945 0.06463141 0.13507846 13684424
0.77427268 0.075061359 0.13475686 13881547
0.77490896 0.085018136 0.13536148 14210511
0.77625018 0.094554164 0.13502312 14802649
0.77900004 0.10055325 0.13491516 14868443
0.78317386 0.1057993 0.13491832 15658473
0.78747994 0.11396535 0.13557044 15000801
0.79000002 0.1180013 0.13188849 13158851
0.78900003 0.12031468 0.13849412 11513775
0.79229647 0.12487432 0.13460441 11645612
0.78900003 -0.18075661 0.14311178 10328982
0.79313642 -0.1859301 0.14521213 10197908
0.77800006 -0.17095132 0.14202876 9998225
0.78517646 -0.17577755 0.14550081 9999249
0.77352005 -0.16425128 0.14490376 14341328
0.78000003 -0.16956478 0.14969629 9736077
0.76900005 -0.15337165 0.14398471 15460320
0.77011138 -0.15492882 0.1451949 15460064
0.77221882 -0.14549771 0.14492685 15131355
0.7744 -0.13480772 0.14499642 15065561
0.77511996 -0.1249535 0.14513172 14999768
0.77553344 -0.11503489 0.1452093 15065560
0.77592009 -0.10510205 0.14528076 15131097
0.77664542 -0.095052704 0.14524043 15328475
0.77793342 -0.085340783 0.14474776 15262939
0.77738899 -0.075275406 0.1446439 14735826
0.77575004 -0.065322891 0.14466178 14012101
0.76825005 -0.050558846 0.14789014 13156794
0.77246678 -0.055210996 0.14481241 13353915
0.76380628 -0.044518739 0.14513907 13814724
0.75900006 -0.034402385 0.1486274 15592419
0.7616207 -0.034672078 0.14401209 15394783
0.76482147 -0.025899593 0.14562275 15526626
0.77066666 -0.022602214 0.1418906 15460320
0.76900005 -0.019553578 0.14938544 15724005
0.77316141 -0.015216815 0.14493755 15000282
0.77615392 -0.005057388 0.14511436 14276559
0.77842414 0.0044509396 0.14448036 14276559
0.78000003 0.008773963 0.14908762 14276559
0.77900004 0.014385645 0.14464132 14144974
0.78000003 0.016686603 0.14634864 14079180
0.77900016 0.026391361 0.14484394 13618629
0.78027773 0.023389548 0.14528464 13881801
0.77899992 0.034964625 0.14503959 13486787
0.78000003 0.03312055 0.14239232 13487043
0.7787776 0.044917908 0.14490345 13487043
0.77789992 0.054883376 0.14474092 13421251
0.77673352 0.064801797 0.14543393 13750215
0.77592009 0.074724719 0.14528131 13816008
0.77506644 0.084622361 0.14512081 14013131
0.77577782 0.094893113 0.14484909 14736854
0.77837503 0.10092849 0.14573829 15329248
0.78240001 0.10566609 0.14475183 15263457
0.78707403 0.11470281 0.14511564 14605789
0.78900003 0.12031468 0.14495882 11513775
0.79140913 0.12514828 0.1449798 11777198
0.78700006 -0.17349869 0.15430021 9802639
0.79137504 -0.17782782 0.15628047 9737615
0.77540004 -0.1632424 0.1543818 14473172
0.78250003 -0.16827643 0.15628575 9867919
0.77232003 -0.15524071 0.15545711 15526114
0.77300018 -0.14520799 0.15495312 15723492
0.77452773 -0.13482958 0.15499236 15526113
0.77589679 -0.12520327 0.15510961 15328733
0.77683353 -0.11522853 0.15454505 15262940
0.77616012 -0.10513484 0.15441106 15328732
0.77700019 -0.095399082 0.15445395 15525855
0.78000003 -0.091047041 0.15882626 15723490
0.77873343 -0.085307434 0.15322129 15591134
0.78030008 -0.085784569 0.15779175 15525341
0.77672726 -0.074966162 0.15501861 14472653
0.77356684 -0.064944983 0.15479769 14012102
0.76638097 -0.054261468 0.15587696 13617089
0.77149999 -0.05826829 0.15293874 13617346
0.75872713 -0.042383321 0.15772355 14735827
0.76151991 -0.046393342 0.15406191 13748932
0.75817233 -0.035129536 0.15541953 15328991
0.76000005 -0.038895644 0.15119545 15262171
0.75874996 -0.029506227 0.15627463 15658212
0.76262969 -0.024410393 0.15455964 15460833
0.76800007 -0.019270973 0.15586741 15395040
0.77278578 -0.013960248 0.15464285 15329247
0.77614295 -0.0053913663 0.15499043 14868697
0.77880013 0.002075921 0.15493509 14868697
0.77999997 0.0075566326 0.15517426 14605268
0.7790001 0.015007344 0.15538983 14144973
0.78000003 0.01364328 0.15213095 14210766
0.77899992 0.024871647 0.15497535 13618629
0.7790001 0.03465306 0.154478 13618629
0.78000003 0.036772538 0.15882626 13487043
0.77879173 0.044919875 0.15402307 13684422
0.78016669 0.044998929 0.15886019 13618629
0.77880007 0.054948188 0.15493642 13618629
0.77753133 0.065094694 0.15502258 13618629
0.77570003 0.07470303 0.15522586 13881802
0.77491641 0.084606342 0.15507002 14078925
0.77540004 0.094644204 0.15516688 14671318
0.77743757 0.10205992 0.1550048 15000027
0.78150004 0.1072802 0.15455578 15065822
0.78577781 0.1141069 0.154891 14671580
0.78900003 0.12031468 0.15511768 11513518
0.79180956 0.1254247 0.15496373 11777198
0.78880006 -0.17184724 0.16283461 9868433
0.77825004 -0.16235268 0.16302496 14407380
0.78481257 -0.16659833 0.16612037 11249316
0.77455562 -0.15528849 0.16517378 15394530
0.77378589 -0.14524563 0.16461387 15723493
0.77516669 -0.13494085 0.16510203 15657186
0.77607715 -0.12496841 0.16508462 15459806
0.77655578 -0.11518693 0.16448578 15459807
0.77758086 -0.10508994 0.16449994 15460063
0.78000003 -0.10063351 0.16795623 15656929
0.77875006 -0.098192826 0.1608507 15526112
0.78163642 -0.094480582 0.16506726 15723234
0.78192854 -0.085260592 0.16471183 15262683
0.77641934 -0.075156927 0.16513202 13749187
0.76700002 -0.061999228 0.16634931 13748931
0.77189493 -0.066136681 0.16430795 14012102
0.75900006 -0.051726505 0.16743222 13880775
0.76229626 -0.055673577 0.16433641 13683139
0.75721878 -0.044573955 0.16542962 14341582
0.76033336 -0.048999369 0.16075461 13748676
0.75529999 -0.03511782 0.1652851 15263197
0.75780946 -0.02746137 0.16587874 15592419
0.76113331 -0.022797188 0.16365398 15460833
0.76533335 -0.017152658 0.16590126 15329247
0.77164716 -0.012606093 0.16413623 15395040
0.77471441 -0.0051215249 0.16480596 15131613
0.77770007 0.0042602806 0.16545595 15000028
0.78000003 0.0075566336 0.16156526 14802649
0.77899998 0.015102078 0.16435412 14210766
0.78013045 0.014784211 0.16544403 14342352
0.7790001 0.023230363 0.16154048 13816008
0.78071421 0.025492631 0.16593544 13684422
0.78127998 0.035004362 0.16457601 13684422
0.78138709 0.045215603 0.16477454 13750215
0.77843481 0.055950668 0.16468641 13750215
0.78000009 0.051641345 0.16586939 13684422
0.77647084 0.064565592 0.16473575 13684422
0.77511984 0.074647874 0.16509056 13881801
0.77513319 0.084630735 0.16509408 14013389
0.7763201 0.094757125 0.16534775 14736857
0.7785002 0.10242591 0.16444507 14737371
0.78100008 0.10679633 0.16567796 14803164
0.78542864 0.11445787 0.16485524 14474200
0.78900003 0.12031468 0.16527653 11579564
0.78900003 -0.17152131 0.17728245 9999504
0.79190481 -0.17533422 0.17475457 9802638
0.77900004 -0.16022913 0.17230004 15064538
0.784913 -0.1654484 0.17540178 12038574
0.77599996 -0.15396303 0.1747674 15394273
0.77546668 -0.14497863 0.17515102 15788773
0.7759726 -0.13508257 0.17526364 15722978
0.77566665 -0.12504354 0.17519405 15459549
0.77508312 -0.11496858 0.17506224 15393755
0.77693772 -0.10472383 0.17519619 15656927
0.78000003 -0.10017701 0.17160822 15591134
0.7821334 -0.094955228 0.17482275 15656928
0.77900004 -0.081812054 0.17685919 13485759
0.78234631 -0.086392529 0.17473012 14998999
0.77541184 -0.074875675 0.17486858 13354942
0.76495457 -0.063086979 0.17537697 13683651
0.77100003 -0.067822382 0.17426936 13946822
0.75870585 -0.052934736 0.1751769 13881288
0.76030773 -0.057395346 0.17494234 13749701
0.75547063 -0.044963997 0.1747399 14407376
0.75183332 -0.034957111 0.17508917 15131612
0.75583339 -0.025552148 0.17513372 15329247
0.76000005 -0.021103906 0.17076637 15460833
0.75883341 -0.01870279 0.17731346 15263454
0.76293546 -0.014148772 0.17453209 15329247
0.76787508 -0.0080648111 0.17680378 15197404
0.772174 -0.004227126 0.17397089 15263455
0.77557141 0.0046648434 0.17504159 15131614
0.77880007 0.011191377 0.17498966 15131614
0.78105003 0.015796538 0.17549649 14605269
0.78254288 0.025116496 0.17504765 13881801
0.78293365 0.035078209 0.17500328 13750215
0.78202862 0.044972841 0.17493065 13816008
0.77833337 0.056735732 0.17488666 13684166
0.78000009 0.052293487 0.17526022 13618630
0.77654856 0.064932182 0.17466106 13684423
0.77593344 0.074726515 0.17525472 13816009
0.7758531 0.084496491 0.17496996 14144974
0.77775002 0.094780482 0.17460473 14737113
0.78000003 0.098856337 0.17891219 14736856
0.77900004 0.10116114 0.1719961 14671835
0.78166676 0.10516933 0.17555863 14606042
0.78523088 0.11409031 0.17480925 14606042
0.78900003 0.12031468 0.17543539 11579564
0.79182619 0.12526299 0.17493276 11776941
0.78900003 -0.17244484 0.1846707 9802380
0.791125 -0.17765684 0.18482 9868174
0.78581482 -0.16538456 0.18501543 12236464
0.77752638 -0.15341455 0.1845708 15197149
0.78128576 -0.1580867 0.18600141 13618116
0.7760002 -0.14507905 0.18526123 15723493
0.77600032 -0.13508758 0.18526122 15722979
0.77656007 -0.12518686 0.18539621 15327963
0.77683359 -0.11522736 0.18546328 15327963
0.77811772 -0.10539836 0.18341033 15591135
0.78045464 -0.10305803 0.18682355 15591134
0.78224009 -0.094969034 0.18492113 15656669
0.77862501 -0.082228586 0.18588646 13419965
0.78210527 -0.086862229 0.18469515 14472140
0.77402937 -0.075222112 0.18484022 13288892
0.76431036 -0.064422406 0.1854286 13618114
0.77000004 -0.068248771 0.18112491 13552321
0.75811553 -0.054227848 0.18556306 14012874
0.76000005 -0.058466557 0.18322058 13881287
0.7531538 -0.044654779 0.18495411 14539218
0.74900001 -0.034475151 0.18810841 14802903
0.75015008 -0.035055116 0.18365529 14934233
0.74900001 -0.027812144 0.18933581 15198177
0.75205404 -0.025111901 0.18496288 15197918
0.75739133 -0.016634831 0.18567222 15131870
0.76115394 -0.011677152 0.18377011 15329249
0.76565009 -0.0065587349 0.18565324 15460835
0.77127272 -0.002539387 0.18396772 15526370
0.77509099 0.004710848 0.18520737 15197405
0.77885723 0.01145272 0.1843812 14934233
0.78174996 0.015811281 0.18526155 14671061
0.7834003 0.025013302 0.18519488 13947594
0.78292012 0.035076343 0.18508083 13881801
0.78179997 0.045091145 0.18481609 13947594
0.77900016 0.056497637 0.1847297 13618375
0.78009105 0.052382473 0.18590565 13684167
0.77802861 0.06477797 0.18496591 13684168
0.77608019 0.074739479 0.18528098 13683911
0.77628142 0.08498475 0.18498786 14013388
0.77871436 0.092834309 0.18408608 14671830
0.78028578 0.097066537 0.18563189 14671832
0.78220004 0.10463065 0.18491063 14539992
0.78641385 0.1145286 0.18514532 14474454
0.78900003 0.12113559 0.18426023 11777199
0.79111767 0.12608682 0.18505661 11645612
0.78900003 -0.17152131 0.19205894 9934221
0.79104555 -0.17558834 0.19491352 9802892
0.78651857 -0.16546513 0.19513549 12302257
0.77725011 -0.1524796 0.19499804 14933720
0.78133345 -0.15796618 0.19476473 12894394
0.77600026 -0.14528091 0.19474804 15591905
0.77633351 -0.1351442 0.19442807 15591905
0.77782768 -0.12463482 0.19492896 15196890
0.77885723 -0.11748152 0.19245537 15065562
0.78115797 -0.11418357 0.19640632 15262683
0.78275776 -0.1051947 0.19498345 15460062
0.78253359 -0.095007911 0.19506349 15459548
0.77691317 -0.084363922 0.19575696 13288892
0.78112507 -0.088207029 0.19219771 14012102
0.76900005 -0.071760617 0.19679184 13157565
0.7728802 -0.076252624 0.19486432 13091770
0.75875008 -0.060590848 0.19535208 13881288
0.76346439 -0.066145904 0.19464812 13618116
0.75576675 -0.054606803 0.19511086 14144716
0.74857885 -0.042923428 0.19605368 14736597
0.75131255 -0.047137663 0.19376579 14473682
0.74762487 -0.035090007 0.19533029 14737110
0.74826652 -0.025915457 0.19574648 14869211
0.75042862 -0.02133977 0.19295797 15132383
0.75558341 -0.014780362 0.1948282 15132383
0.75900006 -0.0086383093 0.19808258 15395043
0.76248276 -0.0047946018 0.19495454 15460578
0.77000004 -0.0015531663 0.19103912 15395810
0.76728576 0.0012762453 0.1975493 15592164
0.77336669 0.0055665695 0.19446591 15460835
0.7773751 0.012878966 0.19593693 15000026
0.78185719 0.017118957 0.19397874 14605268
0.78338921 0.025013141 0.1952766 14013387
0.78276676 0.035069022 0.19512209 13816008
0.7822777 0.045120887 0.19500241 14079181
0.78167993 0.055149607 0.19576904 13881801
0.7790001 0.067727491 0.19327202 13815753
0.78049994 0.063745908 0.19638589 13947594
0.7776401 0.074889064 0.19475718 13750215
0.77775854 0.084761769 0.19466127 14079181
0.78000003 0.089726366 0.19899812 13882317
0.77900004 0.091434985 0.19236022 14803416
0.78072011 0.095805191 0.19530755 14540248
0.78256667 0.10467982 0.19507279 14408664
0.78699994 0.11448724 0.1952569 14277077
0.78900003 0.12031468 0.19482954 11711148
0.79121745 0.12516527 0.19517437 11645612
0.79265004 -0.17510223 0.20500883 9867661
0.78604007 -0.164996 0.20480536 13157309
0.79000002 -0.16988929 0.2080223 9538950
0.77720851 -0.15379846 0.20495595 13749448
0.78060001 -0.15873083 0.20499626 13157311
0.77682787 -0.14485523 0.20502454 15460063
0.77814287 -0.13604501 0.2039263 15591391
0.78049999 -0.1326731 0.20780501 15525341
0.77892327 -0.1259878 0.20208994 15262169
0.78047055 -0.12388175 0.20621258 15262169
0.78207999 -0.11508881 0.20502239 15262169
0.78418767 -0.10507308 0.2052297 15327962
0.77900004 -0.090930313 0.2072534 13814467
0.78208697 -0.095273733 0.20486462 15130583
0.77588892 -0.085324667 0.20480897 13288636
0.76700008 -0.072293386 0.20555262 12960186
0.7721501 -0.077118076 0.20476639 12960186
0.75800002 -0.062528282 0.20514034 13815495
0.76177776 -0.067522332 0.20435184 13552323
0.74800003 -0.052096367 0.20795451 14473682
0.75289285 -0.055721674 0.20448019 14210510
0.7471379 -0.045114402 0.20562969 14736853
0.75000006 -0.048918441 0.20100106 14605268
0.74600011 -0.035560384 0.20516583 14802646
0.74644446 -0.02509407 0.2052874 14802904
0.74800009 -0.018435521 0.20746784 15000798
0.7540313 -0.014089298 0.20461468 15000798
0.75858825 -0.0064392621 0.20648775 15197920
0.76038468 -0.0033133053 0.20371507 15132128
0.76453841 0.003077219 0.20544346 15263457
0.77175003 0.0080801044 0.20381691 15394787
0.77588892 0.014586071 0.20514418 15197665
0.78050005 0.018524464 0.20186585 14605269
0.77900004 0.020312516 0.20968492 14408145
0.78253353 0.02498688 0.20513955 14144973
0.78344011 0.035100389 0.20538051 13881801
0.78416669 0.045231588 0.20557208 14079180
0.78376007 0.055295601 0.20546387 14079180
0.77900004 0.068943255 0.20755734 13947594
0.78100014 0.064580426 0.20460279 14013387
0.77833343 0.074956432 0.20494832 13816008
0.77872008 0.083381698 0.20486864 14078925
0.78050005 0.088870883 0.20552111 14408146
0.78219992 0.095473804 0.20505436 14540247
0.78320009 0.10476442 0.2053168 14342360
0.78678572 0.11425809 0.2050043 14342614
0.78900003 0.12134082 0.20601456 11645612
0.79050004 0.12646618 0.20491421 11579819
0.78572726 -0.16437791 0.21517357 14407633
0.79000002 -0.16988929 0.21449523 9473157
0.77709526 -0.15334326 0.21488987 13551811
0.78059995 -0.15873083 0.21559921 13025465
0.77667767 -0.14496841 0.21504049 15394270
0.77861553 -0.13785544 0.21603036 15591136
0.78061116 -0.13325046 0.21427973 15525343
0.78133333 -0.1250395 0.21488506 15393757
0.78213316 -0.11509836 0.21510528 15262170
0.78275013 -0.10511119 0.21527338 15196377
0.77900004 -0.090930313 0.21515588 13880002
0.78174996 -0.095828019 0.21499906 14669775
0.77568966 -0.084975354 0.21499281 13222587
0.76544446 -0.073225826 0.21469232 13091259
0.77181822 -0.078266673 0.21547075 13025209
0.74900001 -0.061127171 0.21914399 14012874
0.7552917 -0.064151682 0.21486336 13947081
0.76050001 -0.069187082 0.21449538 13552066
0.74659997 -0.05449244 0.21534176 14473425
0.75066668 -0.058920611 0.21143027 14012874
0.74473345 -0.045088995 0.21527793 14868183
0.74400008 -0.035464603 0.21506678 14736597
0.74444443 -0.025027288 0.21519582 14473681
0.74706453 -0.015325783 0.21535914 15000282
0.7514286 -0.011315207 0.21181048 15263711
0.7486667 -0.007936229 0.21846199 15526369
0.75422585 -0.0048786709 0.21473962 15328991
0.75784618 0.0017480541 0.2165436 15065820
0.76304173 0.0061325803 0.21431638 15197663
0.77050006 0.0092683509 0.21190576 15198177
0.76720011 0.011384733 0.21835895 15197661
0.77414823 0.015156542 0.214618 15263712
0.77790004 0.021195192 0.21630606 14737111
0.7826401 0.026274301 0.21454874 14210510
0.78600001 0.035217423 0.21525069 14013387
0.78748161 0.04490931 0.21545179 14013387
0.78639299 0.054888736 0.2155561 14079180
0.77900004 0.069551148 0.2124204 14013387
0.78227597 0.064914577 0.21543004 14210766
0.77831835 0.075369529 0.21455525 14013387
0.78033334 0.072105631 0.21856904 14210766
0.77875012 0.08229088 0.21387203 14144717
0.78117645 0.086958982 0.21597198 14407890
0.78331059 0.095040753 0.21520872 14276562
0.78472 0.10496663 0.21489963 14408663
0.7868889 0.11467484 0.21508272 13882319
0.78884202 0.12252652 0.21427841 11514026
0.79023081 0.12804475 0.21527007 11448233
0.78675014 -0.16459087 0.22512288 14802649
0.79000002 -0.16988929 0.22466695 9473416
0.77757901 -0.15313669 0.22463167 13288127
0.7815001 -0.15822852 0.22567952 13749448
0.77603871 -0.14494632 0.22502838 15525857
0.77766687 -0.13537496 0.22479892 15920358
0.77885729 -0.12538248 0.22718473 15722722
0.7802667 -0.12383478 0.22269005 15459550
0.77900004 -0.11682619 0.22901566 15130585
0.78121734 -0.11472403 0.22459348 15196378
0.7821331 -0.10502777 0.2251765 15196378
0.77850002 -0.091783792 0.22504085 13485758
0.78133339 -0.096691445 0.22494547 14077896
0.77507406 -0.08503335 0.22495702 13156793
0.75900006 -0.070827454 0.22740032 13486530
0.76415002 -0.07408718 0.22500476 13091258
0.77125001 -0.078741983 0.22429848 12827828
0.74784619 -0.06224601 0.22580872 14210253
0.75468421 -0.066803403 0.22396179 13749702
0.7446667 -0.054675885 0.22513741 14605011
0.74263346 -0.04496162 0.22510323 15065306
0.74347222 -0.035437785 0.22535984 14605011
0.74408334 -0.02501622 0.2255438 14144716
0.74554312 -0.01451702 0.22466283 14736854
0.74728566 -0.0052548186 0.22501259 15000282
0.75066668 -0.001514169 0.2213874 15131868
0.74849999 0.0002424533 0.22863449 14934489
0.75526476 0.0042573563 0.22502628 15066075
0.76025003 0.0087002609 0.22199015 14934489
0.75900006 0.010906851 0.22828874 15000282
0.76386958 0.014014754 0.22574478 15000282
0.77160001 0.017049784 0.22286379 15131868
0.77564001 0.02306278 0.22548133 14802903
0.78225011 0.028334484 0.22398667 14342352
0.78556663 0.035198443 0.22524214 14210766
0.78682369 0.045112077 0.2258181 14079180
0.78637499 0.055135429 0.22524363 14013387
0.78381276 0.06516023 0.2253149 14210766
0.78124011 0.075236052 0.22492026 14342352
0.78163999 0.084427685 0.22503486 14473682
0.78309131 0.094915286 0.22495137 14407633
0.78366685 0.10482612 0.22469862 14342612
0.78681481 0.11425533 0.22509098 13816526
0.78900003 0.12077644 0.22299726 11711405
0.79109097 0.1249292 0.22523078 11579562
0.79240918 -0.17521796 0.23504648 9670540
0.78751856 -0.16553599 0.23519258 13947084
0.79000002 -0.16988929 0.23113987 9605004
0.77822232 -0.15177025 0.23457806 13157053
0.78193754 -0.15694593 0.23518784 14407634
0.77640772 -0.14495414 0.2348378 14604499
0.77690345 -0.13533233 0.23475872 15657699
0.77769244 -0.12515751 0.23467952 15525856
0.77807134 -0.11541124 0.23519398 15196378
0.78033334 -0.11178913 0.230747 15196378
0.77900004 -0.10592481 0.23805285 14867413
0.78155553 -0.1045087 0.23381716 14998999
0.77750009 -0.092982054 0.23617633 13288637
0.78100014 -0.096954472 0.23322867 13617857
0.76800001 -0.080656812 0.23908626 12762037
0.77417243 -0.085059643 0.23481745 13025465
0.75733346 -0.072092615 0.23635308 13617859
0.76349998 -0.076514535 0.23460187 12959416
0.77000004 -0.079064272 0.23069596 12696244
0.7470001 -0.063350938 0.23548907 13815494
0.75230008 -0.067914113 0.23366518 13617346
0.74409389 -0.05485037 0.23480043 14868183
0.74296004 -0.044980504 0.23476943 15131355
0.7439667 -0.035462424 0.23508781 14736341
0.74400002 -0.025013905 0.23509823 13881545
0.74422872 -0.014443202 0.23442261 14210767
0.74486697 -0.0049887924 0.23449813 14736856
0.74700004 0.0017735783 0.2356067 15131613
0.75409102 0.006829761 0.23451018 15000026
0.75862509 0.01134567 0.23616685 14934489
0.76275003 0.015608947 0.2347714 15000282
0.77429032 0.024293363 0.23513556 15000282
0.78033334 0.029481158 0.23196431 14408145
0.78314823 0.034886703 0.23504049 14342352
0.78323543 0.045229483 0.23530592 14144973
0.78253335 0.055211056 0.23536475 13947594
0.78224987 0.065262347 0.23528075 14079180
0.78133333 0.075246125 0.2350066 14342352
0.78186208 0.084325202 0.23500758 14671316
0.78266686 0.09486229 0.23498982 14210767
0.78213328 0.10462062 0.23524432 14277076
0.78696305 0.11455044 0.23502557 13619148
0.79214817 0.1247149 0.23506382 11514026
0.7913183 -0.17463857 0.24499713 9605518
0.78744453 -0.16565713 0.24513838 13487048
0.77900004 -0.15111086 0.24342251 13091517
0.78234786 -0.15630338 0.24506509 14605782
0.77717876 -0.14549617 0.24499826 14012363
0.77640033 -0.13507856 0.24455635 15657442
0.77700025 -0.12525733 0.24461646 15460063
0.77680588 -0.11522461 0.24455574 15130585
0.77725822 -0.10510642 0.24454942 14538704
0.77540004 -0.094923384 0.24486068 13354431
0.76494443 -0.083224334 0.24499345 12828087
0.77225012 -0.086828701 0.24326849 13091515
0.75535721 -0.075042807 0.24493439 13420223
0.76066667 -0.079292811 0.24214475 12762037
0.74605721 -0.065083914 0.24517654 14473425
0.75000006 -0.069987603 0.24226151 14144458
0.7426154 -0.054323833 0.24468713 14868183
0.74208814 -0.045029689 0.24476112 14933976
0.74305576 -0.035418414 0.24436511 14802391
0.74336118 -0.024992269 0.24446593 13947337
0.74341655 -0.014552282 0.24448416 13881544
0.74383336 -0.0049824151 0.24462177 14276046
0.74622226 0.0033518013 0.24511451 14736855
0.75279999 0.0085280063 0.24439521 14934490
0.75753844 0.011978384 0.2457851 15065819
0.76321054 0.016802654 0.24502179 14934489
0.76900005 0.020051764 0.24389818 15197661
0.7744 0.025638407 0.24488044 15000282
0.77814293 0.032261796 0.24770811 14539731
0.78175014 0.035789099 0.24412708 14408145
0.7821874 0.045058839 0.24499033 14342352
0.78199983 0.055173591 0.2452753 14079180
0.78216654 0.065257035 0.24532799 13947339
0.78244013 0.075353585 0.24541472 14210767
0.78265393 0.084676579 0.24526988 14671063
0.78221226 0.094306111 0.24484189 14276306
0.77900004 0.10237691 0.24615799 14013135
0.7807917 0.10451815 0.2448203 14276821
0.78614289 0.11429917 0.24492942 13684684
0.78900003 0.12031468 0.24470025 11579819
0.79140913 0.12514828 0.24502577 11448233
0.78900003 -0.17152131 0.25485912 9276813
0.79164708 -0.17591453 0.25505891 9606031
0.78722227 -0.16554126 0.25503433 13684426
0.78288466 -0.1553933 0.25492886 14934488
0.77835011 -0.14479128 0.2545172 13552066
0.78039998 -0.14882511 0.25792766 13749443
0.77617186 -0.13498862 0.25512773 15591649
0.77712137 -0.12461115 0.25515604 15328477
0.7787084 -0.11474716 0.25502989 15065048
0.78000003 -0.11113297 0.25925595 15394527
0.7779566 -0.10514143 0.2546199 14143945
0.78000003 -0.10839398 0.25925595 14539218
0.77538717 -0.095022291 0.25485438 13222587
0.76541662 -0.08307787 0.25470448 12827830
0.77149999 -0.08734601 0.25598124 13025209
0.74900001 -0.071647704 0.2594727 15526111
0.75495005 -0.074698351 0.25463754 13617091
0.76025003 -0.079398103 0.25402641 12367025
0.73900002 -0.061176062 0.25946847 15394525
0.74400002 -0.065198362 0.25495872 15197147
0.73900002 -0.055121016 0.25946847 15526111
0.74115634 -0.054794773 0.25442183 15460318
0.73900002 -0.048200965 0.25946847 15460318
0.74096543 -0.044858892 0.2552526 15460318
0.74191689 -0.035364613 0.25441217 15065560
0.73900002 -0.022250785 0.25946847 14341837
0.74183804 -0.024965635 0.25454861 14473680
0.73877776 -0.014173564 0.25881374 14407632
0.74151492 -0.014593281 0.25387892 14144715
0.73900002 -0.0066806735 0.25946847 14670804
0.74203134 -0.0048079006 0.25482807 14078924
0.74491894 0.0045833755 0.25499111 14145232
0.75000006 0.0090217572 0.25104031 15000028
0.74849999 0.010755965 0.25842279 14277075
0.75530005 0.013069337 0.25519517 14408404
0.76237512 0.018320633 0.25428778 14408147
0.76775002 0.022041522 0.25563025 14473939
0.77286971 0.026607057 0.2548376 15000282
0.77707142 0.034624122 0.25522658 14539730
0.78000003 0.037685536 0.25012597 14539731
0.7790001 0.043522649 0.25776303 14276558
0.78092003 0.045664769 0.25349021 14342352
0.7790001 0.055144299 0.25764698 14079179
0.78060001 0.054983038 0.25324076 14210765
0.77894461 0.064581923 0.25687879 14144972
0.78111106 0.06557548 0.25251269 14079180
0.77866679 0.074585527 0.25800225 14276558
0.78157145 0.075444765 0.25359035 14145229
0.78241944 0.084687755 0.25562668 14474453
0.78240007 0.094710775 0.25534326 14276820
0.78178579 0.10437904 0.25494784 14211285
0.78679174 0.11430437 0.25475875 13684941
0.79000002 0.11861777 0.25888091 11118760
0.78900003 0.12031468 0.25116497 11711405
0.79204178 0.12464547 0.2552242 11448234
0.78872734 -0.17230156 0.26534516 9539729
0.79120004 -0.17694096 0.26532459 9671569
0.78671426 -0.16556908 0.26497203 13487048
0.78379321 -0.1558394 0.26526099 14868954
0.77850008 -0.14281328 0.26513606 13223102
0.78093332 -0.14783111 0.26505101 14276046
0.77606469 -0.13524707 0.26503846 14933976
0.77614832 -0.12491728 0.26483873 15262684
0.77767664 -0.1156183 0.26506689 15065305
0.78000003 -0.11113297 0.26199493 14933976
0.77900016 -0.10447745 0.26491556 13552065
0.78000003 -0.1052336 0.26557666 13749700
0.77681476 -0.094518937 0.26506752 13222586
0.76610005 -0.081536248 0.26449674 12893623
0.77352947 -0.086778291 0.26551968 13091000
0.74710006 -0.072166398 0.2656334 13419967
0.75546163 -0.07580632 0.26524609 12498865
0.76050013 -0.078682646 0.26434734 12104108
0.7369048 -0.062934786 0.26488993 15065817
0.74273342 -0.067804843 0.26437196 14867670
0.73497432 -0.055349223 0.26519427 15394782
0.73597574 -0.045523033 0.26541516 15526368
0.74050003 -0.041364711 0.26086131 15460318
0.7363947 -0.034920476 0.26598561 15197147
0.74059999 -0.035995089 0.26072317 15328732
0.73561907 -0.024733748 0.26515985 14670802
0.74100006 -0.028382434 0.2601707 14999767
0.73461926 -0.014380921 0.26480052 14342094
0.73548585 -0.0049256468 0.26511323 14737113
0.73728573 0.0018432542 0.26699993 14606040
0.74285716 0.0057116686 0.26417455 14342868
0.7470001 0.011530143 0.26529577 14343125
0.7554118 0.015541454 0.26512265 14211282
0.76110011 0.019133633 0.2638405 14210767
0.76575011 0.022658022 0.26526889 14605524
0.77217644 0.027474098 0.26505378 15197660
0.77564293 0.034819722 0.26487526 14737109
0.77852762 0.044906896 0.26514527 14342351
0.77899992 0.054961924 0.26530632 14144716
0.77736121 0.064852253 0.26474717 14013386
0.776667 0.07479918 0.26451027 14144973
0.77866679 0.08152242 0.26564795 14473682
0.78125 0.087037176 0.26488343 14473939
0.78199983 0.095448464 0.26541269 14211026
0.7828846 0.10479338 0.26514897 14211284
0.78736365 0.11378507 0.26488692 13948112
0.79000002 0.11861777 0.26535383 11250601
0.78850007 -0.17233613 0.27500242 9408142
0.7913751 -0.17759766 0.27507806 9605520
0.78525013 -0.16519594 0.27478507 13816270
0.7822963 -0.15534565 0.27507523 14934491
0.77890015 -0.14288619 0.27530158 13486273
0.78094125 -0.14772499 0.27483922 14802647
0.77603048 -0.13501222 0.274782 14736597
0.77582157 -0.12487201 0.27479637 15328220
0.77660638 -0.11544006 0.2749854 15130585
0.7780357 -0.10499915 0.27525231 13354943
0.78000003 -0.102916 0.27021191 13223356
0.77551436 -0.094935916 0.27513951 13025721
0.76572728 -0.083028361 0.27471539 12696757
0.77225018 -0.087130882 0.27490696 12894136
0.7470001 -0.071894459 0.27451822 12367279
0.75484622 -0.076018117 0.27576575 12038570
0.76033336 -0.07985165 0.27496859 12433584
0.73489481 -0.063420869 0.27522683 14078923
0.74309999 -0.068475664 0.27482632 13222845
0.72753334 -0.054041304 0.27814922 14868437
0.73103571 -0.055810858 0.2736004 14802901
0.72630435 -0.045006942 0.27807057 15394525
0.73148012 -0.044970177 0.27326503 15460574
0.72645831 -0.034628883 0.27801841 15130840
0.73175001 -0.034880295 0.2731947 15262425
0.72604173 -0.02441038 0.27785859 14670802
0.73120832 -0.024584671 0.27299294 14736338
0.72741181 -0.01488694 0.27793536 14473936
0.73096156 -0.014045147 0.27322987 14539216
0.72900003 -0.0082968734 0.27984983 15066073
0.73183352 -0.0049010892 0.27493897 14802648
0.73472732 0.0038402514 0.27532095 14474197
0.74142867 0.0084233573 0.27346095 14013904
0.74563164 0.012371694 0.27520552 14079953
0.75531256 0.017157929 0.27536106 14013903
0.76000005 0.01981709 0.27306885 14079695
0.76461112 0.023522856 0.27471828 14540501
0.77154541 0.028165281 0.27499837 14934745
0.77503467 0.034852259 0.27499709 14868695
0.77806449 0.044733718 0.27518022 14408144
0.77768016 0.054868326 0.27486813 14144973
0.77743345 0.064862117 0.27478328 14078925
0.77824014 0.074950039 0.27506995 14210768
0.77900004 0.081100948 0.27229699 14473684
0.78103346 0.085885331 0.27550581 14473684
0.77900004 0.09508229 0.27898374 14145491
0.78113794 0.095343783 0.27501768 14211284
0.78376925 0.1049841 0.27497622 14539995
0.78785002 0.11368642 0.27477652 13947855
0.79000002 0.11861776 0.27552557 11250854
0.78860003 -0.17291199 0.28574511 9408398
0.7915715 -0.1780387 0.28454459 9539984
0.784069 -0.16488478 0.28484821 14079444
0.7812857 -0.15527846 0.2847009 14803164
0.77900004 -0.14178997 0.28567049 13420994
0.78080004 -0.14716554 0.2850202 15197661
0.77651739 -0.13527459 0.2849268 14012874
0.77569562 -0.12480938 0.2853798 15131354
0.77624267 -0.11489224 0.2847684 15064790
0.77579319 -0.10514892 0.28472194 13288638
0.77383345 -0.094858922 0.28528383 12893880
0.76631254 -0.083735511 0.28542721 12762037
0.77112502 -0.087755226 0.28383496 12762550
0.74720001 -0.071475528 0.28508633 11577763
0.75583339 -0.075401857 0.28483713 12038314
0.76050013 -0.078979559 0.28570974 12498865
0.72800004 -0.061117589 0.2871328 13420737
0.73331583 -0.064189009 0.2852082 12828600
0.74345458 -0.068587452 0.28413218 11972777
0.71899998 -0.051735654 0.28800377 14604240
0.72281092 -0.055290706 0.28396168 14209995
0.71883327 -0.044361796 0.28688461 15262169
0.72100008 -0.044495117 0.28184092 15328475
0.71862972 -0.0339747 0.28633547 14933461
0.72066671 -0.03485889 0.28137377 14933719
0.71855003 -0.024999093 0.28677109 14671060
0.72094452 -0.024238044 0.28181934 14671317
0.71899992 -0.017300351 0.28807393 14539732
0.72212899 -0.014597343 0.28369424 14605525
0.72511429 -0.0065021701 0.28596327 14671317
0.73063636 -0.0033393442 0.28234336 14737108
0.72800004 0.00091751741 0.28832668 14605523
0.73244458 0.0050524012 0.2846449 14211023
0.73720008 0.010593584 0.28644553 13948110
0.74431586 0.013543748 0.28499246 13947853
0.75493336 0.018393511 0.28484848 14211024
0.75900006 0.021567848 0.28958946 14539731
0.76394743 0.023974046 0.28507289 14737367
0.77109993 0.028411284 0.28427714 14869209
0.77400011 0.034555189 0.28518963 15000281
0.77654308 0.044922307 0.28459597 14539473
0.77706689 0.054825444 0.28465927 14144972
0.77702808 0.064828269 0.2846421 14078924
0.77817851 0.074683651 0.28532293 14144718
0.78000003 0.078770399 0.28208086 14407891
0.77883339 0.082299501 0.28834394 14342353
0.78044456 0.085581951 0.28430429 14079183
0.77900004 0.094170466 0.2844547 14013648
0.78055561 0.095680408 0.28532749 14013648
0.78429627 0.10471036 0.28496084 14671838
0.78849995 0.11295839 0.28464258 14145238
0.79055554 0.11787923 0.28538483 11316393
0.78864288 -0.17315879 0.29562458 9539214
0.79084611 -0.17818972 0.29504529 9605261
0.78488475 -0.16518995 0.29522473 13947088
0.78188449 -0.15519096 0.29487103 14802394
0.7790001 -0.14168864 0.29600447 14341584
0.78063637 -0.1470264 0.29468709 15197407
0.77639294 -0.13405547 0.29499131 13552325
0.77499986 -0.12493537 0.2947852 14933976
0.77502763 -0.11496033 0.29479608 14867926
0.77482742 -0.10508022 0.29487783 13222587
0.77326936 -0.095485277 0.29524213 12827829
0.76611763 -0.083101846 0.29409757 12696244
0.77069229 -0.088573262 0.29516017 12762036
0.74600005 -0.071997277 0.29542238 11643300
0.75538468 -0.075799145 0.29528224 12169900
0.76050001 -0.078979567 0.29550397 12433072
0.7272858 -0.061301421 0.29524443 12827831
0.73280007 -0.065558471 0.29520133 11774887
0.74175 -0.069217734 0.29255456 11511971
0.71804762 -0.052599169 0.2950947 13617604
0.72178572 -0.057701208 0.2945812 12959930
0.70820004 -0.042545214 0.29905459 14605266
0.71439028 -0.045045767 0.29462388 14867412
0.70816678 -0.035413194 0.29920635 14605523
0.71357501 -0.035473954 0.29417253 14999510
0.70833331 -0.029066056 0.29955277 14342350
0.71427655 -0.025596935 0.29496258 14408144
0.71669763 -0.016033892 0.29548562 14540245
0.71891665 -0.0084624505 0.29687595 14408661
0.7210691 -0.0043627382 0.29414824 14342610
0.72620845 0.0025068007 0.2949248 14079696
0.7316153 0.0074849557 0.29455617 13684681
0.73566675 0.01057155 0.29532638 13750731
0.74481827 0.015070013 0.29503301 14145487
0.75414288 0.01941354 0.29378709 14408403
0.75812495 0.021987192 0.29590964 14474195
0.76386356 0.026182186 0.29501751 14868695
0.77033335 0.029103354 0.29210946 15066075
0.76900005 0.030853223 0.29880559 14934487
0.77314812 0.034710657 0.29498529 14934487
0.77696961 0.044572182 0.29512149 14671315
0.77840006 0.054917902 0.2951687 14210765
0.77602804 0.064742565 0.29517677 13947592
0.77613336 0.074747816 0.29521638 14144972
0.77843994 0.084372796 0.29576623 14210767
0.78000009 0.087697476 0.29171804 13948108
0.77900016 0.094653189 0.29636207 14145233
0.78025007 0.095844708 0.29267392 14013905
0.78453577 0.10488167 0.29513168 14672093
0.78850007 0.1119325 0.29530722 14737632
0.79111773 0.11682656 0.2950891 11579821
0.78856254 -0.17315768 0.30490699 9473166
0.79049999 -0.17832497 0.30530912 9604749
0.7851482 -0.16517451 0.30507931 14605018
0.78203446 -0.15548903 0.30494332 14605529
0.7790001 -0.14166102 0.30352017 14802906
0.78042108 -0.14677162 0.30564812 14868956
0.77677774 -0.13451974 0.30506092 13289154
0.77420694 -0.12468298 0.30520335 14999255
0.77400011 -0.11480772 0.30527762 14670032
0.77423328 -0.10487425 0.30536881 13091514
0.77315634 -0.095340647 0.30483148 12762291
0.76527774 -0.08376006 0.30571496 12499120
0.77054542 -0.088140227 0.30481768 12696499
0.74572736 -0.072288297 0.30499929 12104364
0.75449997 -0.07725808 0.30530885 12433071
0.76000005 -0.079816639 0.30153561 12564657
0.72833341 -0.061145574 0.30346605 12170929
0.73341173 -0.064911447 0.30456486 11249314
0.74133331 -0.069178857 0.30714789 11183775
0.71746665 -0.053180739 0.30431241 12104110
0.72266674 -0.057571307 0.3053315 12302002
0.70749998 -0.043388154 0.3042604 13684168
0.71190912 -0.048557494 0.30343938 13880777
0.70690471 -0.035861265 0.30336094 13947855
0.70817399 -0.025069788 0.30349731 13750732
0.71000004 -0.022208676 0.30164322 14473936
0.70875007 -0.018643416 0.30525985 13355721
0.71203333 -0.01421141 0.30411175 13618633
0.71770841 -0.0073253997 0.30491593 13618375
0.72063643 -0.0022197461 0.30485868 13553095
0.726143 0.0027503569 0.304492 14013903
0.73208332 0.0078077917 0.30502692 14079696
0.73560011 0.010570591 0.3047711 14145232
0.74517399 0.015190708 0.3053948 14408147
0.75400001 0.019660637 0.30445045 14737109
0.75815386 0.022910416 0.30523989 14474194
0.76117659 0.027291516 0.30477706 15000281
0.76638895 0.032545581 0.30586019 14868696
0.77170599 0.036594827 0.30378547 14868694
0.7748422 0.045029301 0.30498561 14671059
0.77584386 0.054569215 0.30458272 14407630
0.77477765 0.064638771 0.30558294 14210251
0.77489281 0.074433438 0.30530494 14276045
0.77675033 0.084808394 0.30454332 14013645
0.77776682 0.094934016 0.30494186 14211285
0.78459275 0.10502435 0.30520228 14540767
0.78860009 0.11194658 0.30457577 14080474
0.79181254 0.11715464 0.30546796 11316650
0.78861547 -0.17285851 0.31452158 9276299
0.79064286 -0.17756459 0.31541231 9408139
0.78542304 -0.16516121 0.31494573 14473946
0.77900004 -0.15202269 0.31910411 15263971
0.78176939 -0.15531047 0.31495798 14540250
0.77820015 -0.14415517 0.31755975 15262943
0.78071433 -0.14561327 0.31310457 15000029
0.77627283 -0.1347252 0.31550661 13749192
0.77392316 -0.12490205 0.31500265 14472656
0.77293354 -0.11483119 0.31498963 14604239
0.76900005 -0.10056451 0.31860825 12631219
0.77156264 -0.1051337 0.3152633 12959671
0.76794738 -0.094561614 0.3173185 12433840
0.77093756 -0.095968761 0.31252855 12499633
0.76451731 -0.085667066 0.31526354 12499376
0.77000004 -0.089879774 0.31091094 12499633
0.74750006 -0.071942583 0.31276312 12302256
0.75612497 -0.076762423 0.31570119 12499378
0.76000005 -0.079816639 0.31843778 12565428
0.73571432 -0.062996604 0.31318361 11052448
0.74416667 -0.067704067 0.31572601 11117727
0.71799999 -0.051315084 0.31148607 8947846
0.72400004 -0.056271419 0.31181744 10986913
0.73200005 -0.057451036 0.31527629 10723484
0.72100008 -0.002297095 0.31053627 11119011
0.72666669 0.0019404226 0.31070688 11842735
0.73383337 0.00625685 0.31262347 12763837
0.74200004 0.0089255245 0.31610695 13421766
0.74477786 0.013225835 0.31322086 14079438
0.75388885 0.01848489 0.31529096 14342353
0.75791669 0.023017174 0.31327748 14737110
0.7608462 0.027101712 0.31591627 15263453
0.76565391 0.034311797 0.31453177 15066074
0.7704286 0.039670963 0.31404689 15131867
0.77303857 0.045355245 0.31505993 14736852
0.77367759 0.055287343 0.31475985 14473936
0.77316141 0.065175325 0.31542549 14473423
0.77400005 0.074744165 0.3148402 14473424
0.77687508 0.084596477 0.31493747 13816011
0.77795464 0.094459884 0.31528264 14211030
0.78000003 0.098856337 0.31403574 14474204
0.78455555 0.10481606 0.31518516 14540255
0.78900003 0.11169505 0.31581217 14211548
0.79089999 0.11625539 0.31499767 11645361
0.78833342 -0.17245363 0.32554093 9013386
0.79087502 -0.17771588 0.32489306 9276556
0.78454834 -0.16504981 0.3250443 14605787
0.77734792 -0.15364103 0.32562527 14869215
0.78111118 -0.15781955 0.3228119 13947859
0.7753793 -0.14502701 0.32450297 15328738
0.77454829 -0.13468988 0.32470825 14341072
0.7735002 -0.12469453 0.32499978 13880776
0.76900005 -0.11136596 0.32760948 14605009
0.77113336 -0.11540821 0.32478443 14604753
0.76887113 -0.1044964 0.32540634 13551809
0.77020007 -0.10865514 0.32199007 13814723
0.76692009 -0.094908066 0.32492927 12367791
0.76411539 -0.085206032 0.32491118 12368048
0.75710005 -0.07366702 0.32342544 12104878
0.76100004 -0.076844074 0.32598454 12170927
0.74680007 -0.063397273 0.32234833 10132118
0.75599998 -0.066301361 0.32738155 10461083
0.74400002 -0.057815474 0.32276782 10197655
0.75100005 -0.059532292 0.32697356 11645357
0.74600005 0.0019880428 0.3230502 11909554
0.75800002 0.0073434971 0.32824671 11580589
0.76100004 0.0091540758 0.32954586 11646382
0.75800008 0.016215956 0.32292324 12369335
0.76211119 0.017295975 0.32626319 11842991
0.76485723 0.024680456 0.32405767 13224386
0.77033335 0.026699906 0.32877836 11711405
0.76800007 0.032912605 0.3220894 15000794
0.77170593 0.035744347 0.32610834 13224384
0.77340651 0.044835862 0.32518813 13881544
0.77325028 0.055460714 0.32489574 13881287
0.7722308 0.065191418 0.3251622 14078666
0.77326673 0.074472301 0.32490119 14276046
0.7769413 0.085045889 0.32489249 13683912
0.77760005 0.094911717 0.32490063 14211288
0.77816677 0.10166087 0.32604799 14540254
0.78338099 0.10636217 0.32412514 14474462
0.7881428 0.11342044 0.32539505 12961222
0.79014289 0.11837502 0.32419634 11119269
0.79162973 0.12421886 0.32468876 11053475
0.78743476 -0.17406945 0.33473942 8947850
0.79000002 -0.17913631 0.33470649 9079177
0.77900004 -0.16022913 0.33278149 14605789
0.78239137 -0.16546997 0.33482563 14737376
0.7769168 -0.15419526 0.33446941 14671323
0.78000003 -0.15860882 0.33959967 12960966
0.77579165 -0.14519168 0.33428845 15262946
0.77558607 -0.13517286 0.33417359 14801881
0.77399999 -0.12477567 0.33517677 13091774
0.77191311 -0.11540307 0.33490273 14210254
0.76900005 -0.10326487 0.33120999 13748931
0.77126312 -0.10551526 0.33532333 14144204
0.76860011 -0.095115677 0.3310377 12235948
0.77162498 -0.095149755 0.33606866 11644070
0.76777786 -0.086026914 0.33188239 11446947
0.77118188 -0.08509478 0.33658206 11710122
0.76662505 -0.075802863 0.33310512 11381157
0.77183336 -0.074736305 0.3378509 13289666
0.76300001 -0.068522595 0.33219814 12829631
0.77300006 -0.064894527 0.33836159 13290179
0.77300006 -0.054942623 0.33836159 11053220
0.77500004 0.0084165074 0.33742276 12633279
0.76633334 0.014011075 0.33125535 12040370
0.77383333 0.01474078 0.33601081 12303800
0.77428579 0.025111303 0.33478549 12303543
0.77555001 0.034747992 0.33494252 12237750
0.77664 0.044977374 0.33523163 12106164
0.77609998 0.054755796 0.33517927 12237492
0.77438456 0.064884908 0.33478692 12500151
0.7744 0.074580625 0.33444411 13815498
0.77663344 0.084796093 0.33449888 13947086
0.77704024 0.094843246 0.33467296 14540252
0.77841669 0.10199728 0.33405173 14540253
0.78215379 0.10659699 0.33588907 13421771
0.78747606 0.11367729 0.33477819 11250858
0.79020005 0.11864779 0.33479217 10922146
0.78824997 -0.17378137 0.34423116 9079432
0.79022223 -0.17774801 0.34631193 9276809
0.78570002 -0.16529059 0.34484431 11447469
0.77866673 -0.15286987 0.34084204 15394788
0.78343755 -0.15495175 0.34591398 14737115
0.77833343 -0.14460304 0.34069613 15394531
0.7827273 -0.14500153 0.34528697 15460581
0.778 -0.13452789 0.34055021 15131360
0.78310001 -0.13540998 0.34553447 15394788
0.77771431 -0.12407254 0.34276685 13026239
0.78355557 -0.12570259 0.3476716 14474198
0.77600008 -0.11469284 0.34231904 12697273
0.78340006 -0.11528672 0.34841579 13882576
0.77590001 -0.10509869 0.34235713 12763066
0.78300005 -0.10514486 0.3482379 14211284
0.77608341 -0.095132999 0.34243795 13553609
0.78260005 -0.095016107 0.34805998 13619404
0.77566671 -0.084941693 0.34270951 13487816
0.78049999 -0.084712677 0.34712604 13553610
0.77560008 -0.075825766 0.34204319 13553096
0.78314292 -0.074126482 0.34777907 13421253
0.77720004 -0.065246657 0.3420195 13487044
0.78333336 -0.064844124 0.34655234 13684168
0.77800006 -0.055300351 0.34237155 12829628
0.78362501 -0.05409202 0.3473711 13027265
0.77885723 -0.044549447 0.34222803 12304057
0.7828334 -0.044646572 0.34724846 12961986
0.77883339 -0.035301935 0.34091499 11514289
0.78285724 -0.035481725 0.34608367 12764355
0.78900003 -0.0015914912 0.3453652 12105906
0.7908572 -0.0045071291 0.34855822 12435128
0.78742856 0.0056494372 0.34652254 12698557
0.79000002 0.001180598 0.3495017 12566457
0.77900004 0.018488863 0.34098795 13224646
0.78484625 0.014529034 0.345671 12632509
0.77900004 0.022136169 0.34098795 13158855
0.78366673 0.025568677 0.34523588 12698563
0.78340012 0.035099033 0.34475175 13028299
0.78333342 0.045181766 0.34472239 13094863
0.77900004 0.057697408 0.34098795 12961216
0.78323078 0.054838322 0.34495863 11974839
0.77828568 0.065063186 0.34145686 12170930
0.78378576 0.064473689 0.3470175 10920862
0.77766675 0.074590929 0.34070826 11973039
0.78326666 0.075187363 0.34677103 10526364
0.77900004 0.085964032 0.34144387 14539480
0.78187501 0.084906965 0.34613836 11973554
0.77854556 0.094529875 0.34211525 14671837
0.78144455 0.095990881 0.34653106 14145237
0.78438103 0.10492468 0.34518212 13092806
0.78828573 0.11269343 0.34478968 10724767
0.79046154 0.11754896 0.34543532 10725023
0.78862506 -0.16336328 0.35143223 10197911
0.79100007 -0.16489615 0.35631138 10132375
0.78825003 -0.15521109 0.35288069 12763070
0.79079998 -0.15525134 0.35818732 10197913
0.78799999 -0.14547746 0.35204417 13684172
0.79099995 -0.14502203 0.35718381 10263450
0.78809094 -0.13492894 0.3513414 14737371
0.79100001 -0.13492118 0.35642642 10000021
0.7881667 -0.12490451 0.3526887 12369082
0.79119998 -0.12532295 0.3567017 10000277
0.78810006 -0.11431672 0.35308987 11316649
0.7915715 -0.11595641 0.35708088 9934485
0.78800011 -0.10489392 0.35322991 10724512
0.79200006 -0.10542637 0.3578029 10066325
0.78772736 -0.095135145 0.35319147 10066581
0.79099995 -0.094184838 0.35781434 10132116
0.78687501 -0.084825598 0.3535338 9934481
0.79020005 -0.084839106 0.35883957 9869201
0.78783339 -0.075822033 0.35361651 10131347
0.79049999 -0.07395117 0.3578659 10000018
0.78846157 -0.064914942 0.35180357 11249829
0.79077774 -0.06494797 0.35642874 9934226
0.78820002 -0.055101026 0.35350403 10328982
0.79071426 -0.056070771 0.35854474 9934737
0.78738892 -0.04490592 0.35387865 10526619
0.79000002 -0.04505451 0.3587487 9869201
0.78900003 0.0085673565 0.35090637 8947844
0.78883338 0.015643811 0.35114011 8684414
0.79142863 0.014814146 0.35582653 9079686
0.78850007 0.025174962 0.35160756 8750469
0.7914167 0.025267793 0.35661426 9145480
0.78850007 0.035327371 0.35160756 8882569
0.79079998 0.035429716 0.35633603 9277066
0.78813338 0.045150086 0.35212108 8883082
0.79100001 0.044698339 0.3579078 9277323
0.78811759 0.054953724 0.35246885 9079687
0.79074997 0.054866236 0.35816464 9408908
0.78850007 0.064861655 0.3534534 8947588
0.79079998 0.06505014 0.35818735 9408651
