# .PCD v0.7 - Point Cloud Data file format
VERSION 0.7
FIELDS x y z rgb
SIZE 4 4 4 4
TYPE F F F U
COUNT 1 1 1 1
WIDTH 986
HEIGHT 1
VIEWPOINT 0 0 0 1 0 0 0
POINTS 986
DATA ascii
0.7877692 -0.15281284 0.11699624 11117982
0.79093337 -0.15651399 0.1135283 11381413
0.77733332 -0.1419908 0.1182464 11315616
0.78576916 -0.14527783 0.11400369 13355202
0.77650005 -0.13543421 0.11863967 11708318
0.78569567 -0.1349746 0.11415542 13947082
0.79033333 -0.13295649 0.11097538 11380384
0.77740002 -0.12532133 0.11916719 11707293
0.78604746 -0.12513766 0.11509856 13947593
0.79099995 -0.12473658 0.11106899 11512996
0.77691674 -0.11524089 0.11909368 11446177
0.78527266 -0.11505938 0.11468601 13816006
0.79000002 -0.11440716 0.11092858 12170666
0.77840006 -0.10689437 0.11877432 11315621
0.78516674 -0.1047451 0.11537302 13552578
0.79040003 -0.10521197 0.11098476 12565426
0.78579164 -0.095170714 0.11623225 13158075
0.79190904 -0.094120555 0.11169954 12105130
0.78622723 -0.08491189 0.11700211 13684420
0.79315388 -0.085298829 0.11165308 11908779
0.78650004 -0.075234875 0.11687551 13619398
0.79158336 -0.074796237 0.11207619 11842987
0.78616011 -0.064896628 0.11664039 13553606
0.79100001 -0.064966366 0.11189096 11908266
0.78619993 -0.054959644 0.11683081 13093054
0.7918182 -0.054843415 0.1118551 11974572
0.78705561 -0.044885091 0.11788195 13093056
0.79339135 -0.045044351 0.11244774 11777451
0.78693753 -0.034517553 0.11763399 12236720
0.79327774 -0.035441354 0.11231106 11777194
0.78721052 -0.02525311 0.11742011 11710375
0.79305261 -0.023973638 0.1124267 11645092
0.78768754 -0.014841932 0.11809292 11842471
0.78786671 -0.0052775573 0.11800478 11711397
0.78838468 0.004515125 0.1187934 12104616
0.78840005 0.012805576 0.11919339 11381671
0.78822231 -0.16192132 0.12646469 10986398
0.79185003 -0.16584036 0.12397616 10657689
0.77742863 -0.15210699 0.12762193 12039083
0.78466672 -0.15562519 0.1240809 12630964
0.77563995 -0.14486922 0.12517825 13947853
0.78050005 -0.14866167 0.12147178 12302514
0.7741335 -0.13476317 0.12500955 13947337
0.77408004 -0.12478624 0.12500063 13618629
0.77429998 -0.11485238 0.12503676 13682879
0.77510351 -0.10486628 0.12441294 12894134
0.77561116 -0.095073782 0.1243364 12895165
0.77588463 -0.085257687 0.12508112 13026748
0.78040004 -0.083785549 0.12054217 10788499
0.7760002 -0.07513807 0.12530936 13223870
0.78039998 -0.074652769 0.12054217 11512992
0.77634621 -0.065245889 0.12515512 12171443
0.78000003 -0.064022332 0.12048038 13290436
0.77636659 -0.055182192 0.12536821 11842993
0.78039998 -0.054553725 0.12054217 14738139
0.77616012 -0.045173045 0.12533405 11184286
0.78183341 -0.04458778 0.12076356 15000793
0.77639985 -0.035191059 0.12537232 11578530
0.78200006 -0.034529544 0.12078931 14474450
0.77618182 -0.025435723 0.12583414 10986909
0.78150004 -0.024674311 0.12139682 13882572
0.77666664 -0.015202069 0.12632625 10723223
0.78275007 -0.015320465 0.12182011 14211537
0.7769475 -0.0053965924 0.12651567 11380895
0.78318179 -0.0049133645 0.1221364 14277069
0.77733344 0.0048011714 0.12734514 11182491
0.78416663 0.0048456532 0.12295622 14144712
0.77750003 0.014813447 0.12828407 10459540
0.78463644 0.01520145 0.1235255 12631480
0.77800012 0.024839722 0.12836622 10460050
0.78556669 0.025081579 0.1231701 12040110
0.77850008 0.034272626 0.12905717 9800065
0.7853449 0.035312828 0.12389391 12235689
0.77900004 0.040372699 0.1294442 9667969
0.78479433 0.044994365 0.12569417 12433841
0.79025 0.045581594 0.12021363 9537410
0.78540611 0.055068251 0.12567119 12565942
0.79066664 0.054858014 0.12027701 9408141
0.78586209 0.064645469 0.1257541 12695985
0.79000002 0.064985044 0.1201756 12302259
0.7868275 0.075013593 0.12508614 12565942
0.79049999 0.075206093 0.12025166 13422022
0.78704995 0.085010447 0.12617142 12368303
0.79079998 0.085415602 0.121222 13750726
0.78789479 0.094713554 0.12694028 11841964
0.79184622 0.095082127 0.12202256 12829372
0.78900003 0.10245974 0.12864311 10592926
0.79227602 0.10527349 0.12473798 12040113
0.78718758 -0.16364379 0.13483402 9999761
0.79100001 -0.16825259 0.13514169 10197140
0.77585721 -0.1530994 0.13506146 12498607
0.78214294 -0.15878372 0.13415049 12828088
0.77338737 -0.14476641 0.13499191 13683391
0.7724849 -0.13488697 0.13444164 13288631
0.7719394 -0.124934 0.13483813 13288118
0.77215141 -0.11494371 0.13438183 12827826
0.77209103 -0.10507577 0.13486357 12498346
0.773 -0.094753377 0.13477753 12168611
0.77333337 -0.084837705 0.1348362 11643808
0.77333361 -0.07488057 0.13483617 12104872
0.7735334 -0.064939849 0.13487077 12236459
0.77380574 -0.055000033 0.13491891 11974574
0.77320015 -0.045001891 0.13481313 12236975
0.77283359 -0.035029389 0.1347477 12564914
0.77330011 -0.025093142 0.13482887 12499118
0.77388895 -0.015147567 0.13493256 11513510
0.77453339 -0.0051883142 0.13504443 11579305
0.77444476 0.0047826781 0.13502833 11709860
0.77463335 0.014759065 0.13506146 11051927
0.77550018 0.024760878 0.13521399 11052186
0.77586681 0.034761354 0.13527758 11643554
0.77641678 0.04478436 0.13537078 11906725
0.77751994 0.054421142 0.13632827 12103849
0.78040004 0.057253294 0.13223416 11445146
0.77800006 0.063336916 0.13838267 11973547
0.78116012 0.065868579 0.13367715 11182491
0.77890015 0.075012706 0.13763283 12566711
0.78205001 0.075316548 0.1326949 10921118
0.77900004 0.083735116 0.13775194 12959929
0.78207994 0.085497007 0.13346788 12104877
0.78396887 0.095349602 0.1346247 12894910
0.7884286 0.10348492 0.1344385 12040114
0.7911818 0.10835704 0.1355101 11579818
0.78747052 -0.16392629 0.14494811 9933710
0.79119998 -0.16829513 0.14443785 9933711
0.77464706 -0.15389618 0.14503901 11709090
0.78049999 -0.15871048 0.1452218 12235947
0.76641178 -0.1436047 0.14708254 12499890
0.77116668 -0.14618334 0.14298487 11578534
0.76496881 -0.13495778 0.14590612 12433838
0.77000004 -0.13494436 0.14056678 12761521
0.76456398 -0.12504052 0.14493039 12499375
0.76374978 -0.11485145 0.14500135 12170667
0.76453835 -0.10479696 0.14465131 12762548
0.76565534 -0.095610783 0.14600758 12959926
0.77033335 -0.094726749 0.14092807 12038822
0.7665 -0.084985249 0.14620352 12564914
0.7705 -0.085428752 0.14155936 12565682
0.76660001 -0.07512556 0.14622293 12434355
0.7705 -0.074606232 0.14155936 12501174
0.76619244 -0.064946562 0.14648838 12828854
0.7705 -0.064685583 0.14155935 12630961
0.7656669 -0.054918077 0.14673795 12828597
0.77108335 -0.054806102 0.14166604 12959667
0.76462501 -0.04489461 0.14623232 12960183
0.77083331 -0.045466106 0.14101934 13551549
0.76397228 -0.034626942 0.14571621 13025464
0.77000004 -0.034900967 0.14056678 13551036
0.7661739 -0.025251513 0.14594537 12565684
0.77037501 -0.024322079 0.14131121 12894133
0.76709098 -0.015341428 0.14656299 11908269
0.77107149 -0.014576739 0.14205061 12171438
0.76733333 -0.0051404699 0.14726298 11184289
0.77179992 -0.0051705488 0.14270017 12302509
0.76613045 0.0052370764 0.14656135 11841702
0.77100003 0.0042451904 0.14203739 12368303
0.76477772 0.015034117 0.14709853 11381667
0.77145457 0.015027246 0.14198028 11776681
0.76615393 0.024392713 0.14772524 11447718
0.77222747 0.024984164 0.1434352 11446945
0.76480013 0.035785679 0.14793675 10987166
0.77205265 0.034589246 0.14341165 10985882
0.75900006 0.049108755 0.14921968 11382436
0.76400012 0.044961728 0.14661559 11579301
0.77207696 0.04432372 0.14205685 10459282
0.75900006 0.055327673 0.14921968 11710373
0.76437497 0.05482462 0.14579453 11841445
0.77245462 0.054994281 0.14200023 9997958
0.75900006 0.06421183 0.14921968 11579304
0.76243758 0.064609893 0.14665434 11644839
0.77509099 0.065083005 0.14132887 10196107
0.76428574 0.074503325 0.14833753 12697783
0.77508694 0.075668082 0.14306584 11445404
0.76800001 0.082054473 0.14919117 12169898
0.77525014 0.085248403 0.14453976 12366762
0.77723086 0.092767164 0.14608134 12104105
0.78306258 0.097072005 0.14421114 13618115
0.78838468 0.10290109 0.14520007 12368819
0.7913751 0.10771067 0.14481577 11645866
0.78609091 -0.16252615 0.15504609 10131089
0.79154551 -0.16752799 0.15511374 9867918
0.76733333 -0.15064411 0.1562447 12235436
0.77463162 -0.15523237 0.15458076 11577504
0.7584545 -0.14325169 0.15766631 12961214
0.76195002 -0.14548774 0.15354197 12171182
0.75817406 -0.13534078 0.15715849 12895163
0.76040012 -0.13504253 0.15216461 12302769
0.75855583 -0.1246515 0.15662879 12762805
0.76000011 -0.12607516 0.15178852 13617341
0.75880015 -0.11521734 0.15628509 12763063
0.76000005 -0.11451053 0.15119545 13553092
0.75899994 -0.10790403 0.15703773 13092030
0.76027793 -0.1037744 0.15411727 13026234
0.76096958 -0.094816349 0.15446261 12763318
0.76137507 -0.08497338 0.15391603 13158079
0.76108831 -0.075214118 0.15429017 12762807
0.75900006 -0.061054878 0.15988068 13419964
0.76094109 -0.064984404 0.15431333 13157306
0.75882351 -0.054301295 0.15754421 13486014
0.76053852 -0.055631954 0.15294524 13223355
0.75832003 -0.04491578 0.15689564 13355454
0.76036376 -0.045387808 0.1520765 12960183
0.75872231 -0.035573497 0.15745321 13684678
0.76015389 -0.034522392 0.15245777 13223615
0.759 -0.027117372 0.15881458 13025977
0.7610715 -0.024759477 0.15375981 12894393
0.76186109 -0.014912481 0.15423664 12236721
0.76199991 -0.0051047415 0.15426479 11908268
0.76139992 0.0045745722 0.15427233 11907753
0.75900006 0.019791014 0.15899226 11908527
0.76041371 0.015223823 0.15471396 11776684
0.75899994 0.025121514 0.15810385 10855837
0.76105267 0.025377842 0.1524338 11250080
0.75899994 0.035249464 0.15774849 11118752
0.76047069 0.034280054 0.15264919 10526356
0.75900024 0.045764126 0.15569986 11250595
0.76000005 0.042056762 0.15119545 10527129
0.75879997 0.055312466 0.15539692 10855067
0.75791663 0.065006517 0.15521508 11579048
0.75726664 0.075054713 0.15578839 10854296
0.76099998 0.077298768 0.15094784 11248282
0.75747371 0.08480183 0.15703642 11577763
0.76316667 0.085013121 0.15231651 12235180
0.75820005 0.09218955 0.1590019 14604238
0.76437503 0.094081588 0.15597458 14736853
0.77305889 0.09585014 0.15293893 13684422
0.78200006 0.099109821 0.15008013 10723224
0.77622229 0.1022137 0.15663916 13355459
0.78599995 0.10565218 0.1543207 11776940
0.79100007 0.10950919 0.15180582 11842988
0.78900003 0.11107937 0.15881181 11711405
0.78545469 -0.16256297 0.16494949 9933456
0.79190004 -0.16751887 0.16495569 9736588
0.76850009 -0.15267223 0.16457984 11709095
0.77450007 -0.15658563 0.16495882 10590873
0.75789481 -0.1442171 0.16478366 12302515
0.76200002 -0.14934288 0.16560766 11512486
0.75713336 -0.13534769 0.16480544 12566199
0.75806653 -0.12486593 0.16500892 13222071
0.75886959 -0.11545971 0.16487427 12893877
0.76000005 -0.11139697 0.1685424 12367533
0.75900006 -0.10873321 0.16284205 13092029
0.76000017 -0.10413203 0.16535468 12565942
0.76005572 -0.09494669 0.1645516 12368818
0.76000017 -0.085154153 0.1645392 12565424
0.75899994 -0.074000373 0.16648033 12234921
0.76000017 -0.076177426 0.16316444 12761522
0.75890023 -0.064600535 0.16518904 12367021
0.76000005 -0.066472843 0.16009133 12959412
0.75735718 -0.054529317 0.16542037 12499378
0.75538892 -0.04484937 0.16530477 12565680
0.75643343 -0.035169587 0.16553409 12960439
0.75826687 -0.025491614 0.16505036 12565940
0.76000005 -0.021103906 0.16009133 12236459
0.759 -0.01787784 0.16645496 11974316
0.76011556 -0.013715167 0.16374248 12303024
0.76026684 -0.0050934413 0.16459574 11974061
0.76000017 0.004694113 0.16453926 11776168
0.76000017 0.015242071 0.16466634 11645097
0.75899994 0.026078271 0.16343436 10723994
0.76000017 0.024116762 0.16735625 11514023
0.75900012 0.035147928 0.16495731 11118239
0.76000005 0.031381719 0.16898718 11381665
0.75836658 0.045515478 0.16507344 11118496
0.75742304 0.055347595 0.16507122 11118497
0.75538892 0.064787649 0.16530634 11908526
0.75375003 0.075235613 0.16494867 9276035
0.75356668 0.084922068 0.16490811 13486014
0.75623339 0.094196014 0.1658441 14407886
0.76060003 0.098178186 0.16235319 15132381
0.75900006 0.10152532 0.16876484 15066591
0.76360005 0.10214039 0.16531232 12895422
0.774077 0.10577735 0.16417235 11579818
0.7833333 0.10844779 0.1613349 11514026
0.78750008 0.11179172 0.16434683 11579819
0.79294449 0.11700043 0.16403756 11711404
0.78492326 -0.16272455 0.17537577 9933455
0.79170001 -0.16766176 0.17436799 9736588
0.76733333 -0.15154423 0.17510314 11446951
0.77385718 -0.15606913 0.17530081 10525849
0.75874996 -0.14263123 0.17448293 11907756
0.76107699 -0.1469513 0.17607628 11710378
0.75846893 -0.13530906 0.17447455 12104878
0.76000005 -0.13141267 0.17966223 10855839
0.75894111 -0.12610827 0.17251433 11972520
0.76021057 -0.12423617 0.17746449 12105392
0.75900006 -0.11880194 0.17054167 11840933
0.76062846 -0.11447788 0.17548802 12236978
0.76076663 -0.10483071 0.17539223 11908525
0.76058334 -0.095014155 0.17534907 12104875
0.75900006 -0.08237686 0.1767606 12038053
0.76000017 -0.086124621 0.17456731 12301738
0.75880009 -0.075123668 0.17506385 12367020
0.76000005 -0.079816639 0.17076637 12170150
0.75757575 -0.064891659 0.17441173 12367020
0.75533319 -0.055280924 0.17484373 12695471
0.75314301 -0.044590477 0.17527018 12828850
0.75381482 -0.035243399 0.17506178 12894907
0.75688887 -0.025444638 0.17449503 12697273
0.75864542 -0.015450786 0.17538783 12171441
0.76000005 -0.011140534 0.1721897 11842991
0.75900006 -0.0074537531 0.1782413 11842478
0.76000017 -0.0044982843 0.17439885 11711148
0.76000017 0.004694113 0.17521429 11380641
0.7608332 0.015386916 0.17540629 11446432
0.76093322 0.025185268 0.17542985 10395287
0.75900006 0.03844776 0.17054167 10987680
0.76050001 0.034752812 0.17559268 10657945
0.75885189 0.046697069 0.17432502 10920089
0.76000011 0.042155601 0.17709231 11446436
0.75734484 0.055083022 0.17475614 10657945
0.75510001 0.064763196 0.17497011 11645096
0.75379997 0.07524126 0.17466846 9868172
0.75340003 0.084902555 0.17457585 13421248
0.75383872 0.094803281 0.17450567 13289663
0.75766665 0.10134697 0.17467791 13553350
0.76060003 0.10351992 0.17446187 11513768
0.77400005 0.10896759 0.17210011 11711405
0.78614289 0.11409836 0.17427771 11711403
0.79063642 0.11787226 0.17445123 11645610
0.79293108 0.12450275 0.17521611 11645610
0.77850008 -0.1601263 0.18676813 10262675
0.78573334 -0.16419405 0.18476433 9933710
0.79020005 -0.16845231 0.18495062 9736588
0.76722217 -0.15142241 0.18536176 11447207
0.77338463 -0.15587378 0.1846381 10657433
0.75900006 -0.14012393 0.18120266 13158076
0.76095837 -0.144199 0.18538237 12500403
0.75900006 -0.13657026 0.18120266 13223871
0.7604546 -0.13480839 0.18559688 12500150
0.76116651 -0.12537685 0.18528461 12631479
0.76153308 -0.11474156 0.18537442 12434353
0.76139987 -0.10491846 0.18534178 12169642
0.76086652 -0.095049046 0.18521087 12169385
0.75900006 -0.082154766 0.18542266 12235178
0.76000017 -0.086514704 0.18468575 11971749
0.75808579 -0.075054556 0.18529323 12103334
0.75623351 -0.065259606 0.18496761 11708835
0.75438875 -0.055387583 0.18451621 12037798
0.75306469 -0.044853516 0.18490347 12433837
0.75332147 -0.034836974 0.18456955 12565425
0.75427777 -0.02535776 0.18448597 12302770
0.75663882 -0.014807527 0.18506369 12303028
0.75879174 -0.005748779 0.18537086 12303287
0.76000005 -0.0015329953 0.18322058 11316647
0.75900006 0.00024585446 0.18831 13290439
0.76000017 0.0048474902 0.18487705 11842733
0.76053333 0.01538158 0.1851292 11710631
0.76099992 0.025187705 0.18524314 10922143
0.76099986 0.034986038 0.18524317 10658203
0.75900006 0.049997173 0.18120266 10591638
0.76044005 0.044750858 0.1851081 10986657
0.75857145 0.055887479 0.18423019 10921118
0.76000011 0.051175028 0.18655653 11118239
0.75694448 0.064922184 0.18514352 11775912
0.75491661 0.075351544 0.18464747 10986138
0.75456661 0.085035846 0.18456203 13882057
0.75639397 0.094578587 0.18476851 14407886
0.76000005 0.099879913 0.18677892 14473425
0.76050007 0.1008352 0.1851238 12302769
0.77900004 0.10967152 0.18780109 11580073
0.787 0.11379255 0.18558583 11645867
0.79049999 0.11776767 0.1850232 11645867
0.79188466 0.12460776 0.18513292 11580074
0.79261917 -0.1749624 0.19506051 9671052
0.78619999 -0.16594976 0.19505465 9670796
0.79000002 -0.16988929 0.19415176 9670796
0.76691669 -0.15146205 0.1947621 12106161
0.77383333 -0.15705602 0.19591509 9999762
0.76126653 -0.14410774 0.19510983 12500918
0.76099986 -0.13514861 0.19504158 12500407
0.76158309 -0.12544513 0.19519037 12171696
0.76232338 -0.11506907 0.19511807 12433069
0.76264006 -0.10508921 0.19457011 12365993
0.76116639 -0.095087901 0.19508426 12431273
0.75880945 -0.083752386 0.19486007 12432044
0.76000011 -0.088119447 0.19389562 12102822
0.7572813 -0.075101987 0.19497363 12037028
0.75563335 -0.065207765 0.19543418 12037800
0.75372207 -0.055338837 0.19493911 12367277
0.74900001 -0.040962812 0.19985634 12236976
0.75175011 -0.044634525 0.1944267 12631734
0.74900001 -0.034436181 0.19907705 12959929
0.75092316 -0.035050943 0.19353804 12434612
0.74900001 -0.026810188 0.19935536 12105392
0.75102937 -0.02504289 0.19398205 12303285
0.75375009 -0.014749352 0.19494447 12106678
0.75772417 -0.0051346216 0.19508623 11909303
0.75894111 0.0031723836 0.19655162 11974066
0.76000017 0.0060519036 0.1929592 11579566
0.76033336 0.015377392 0.19487046 11579560
0.76099986 0.025187708 0.19504149 10922402
0.76111096 0.034990754 0.1950698 11250338
0.76099986 0.044784378 0.19504152 11382182
0.75899994 0.057104502 0.19452891 10789786
0.76005572 0.051845875 0.19479926 10921888
0.75790006 0.06500344 0.19513509 11184544
0.75603348 0.075463757 0.19465509 11250083
0.75616014 0.085215747 0.19468716 13947594
0.75759089 0.093760878 0.19481297 14408144
0.7610001 0.098229818 0.19771534 12763579
0.76400006 0.1004056 0.19402593 11579304
0.78685719 0.11130542 0.19443418 11645609
0.79138887 0.11635731 0.1951118 11645609
0.77866673 -0.16016059 0.20595022 9408137
0.78566664 -0.16491666 0.20497636 9736844
0.79000002 -0.16927283 0.20463173 9605515
0.76666671 -0.15081327 0.20397104 11117730
0.77353346 -0.15621202 0.20470755 10591900
0.76123983 -0.14410272 0.20490457 12369077
0.76099992 -0.13514861 0.2048398 12763063
0.76099986 -0.12535031 0.20483975 12696241
0.76162487 -0.11453144 0.20467186 12563885
0.7621001 -0.10501469 0.20424077 12563629
0.75900006 -0.090372615 0.20963199 11577248
0.76075745 -0.094955266 0.20525908 12234924
0.75842851 -0.084726177 0.20528834 12169386
0.76000005 -0.088712506 0.20190191 12497837
0.7562778 -0.075002514 0.20474631 12169128
0.75330001 -0.065007806 0.20540868 11380638
0.74811757 -0.053329941 0.20734598 11908781
0.75131822 -0.056041311 0.2031108 12038825
0.74751616 -0.044804864 0.20549724 12302257
0.75000006 -0.046811525 0.20047434 11907498
0.74726462 -0.035361797 0.20571934 12434357
0.74783325 -0.025142064 0.20566945 11974579
0.75000006 -0.020826222 0.20012319 11513771
0.74833328 -0.01742175 0.20726822 11910841
0.75123084 -0.013687701 0.20383121 11910071
0.755 -0.004998663 0.20515087 12172731
0.75791669 0.0046831635 0.20489447 12434099
0.75883341 0.014383793 0.20655064 12368044
0.76008344 0.017298765 0.20266527 11842215
0.7604 0.02516816 0.20556681 11119010
0.76080543 0.034977268 0.20567688 10789786
0.76087987 0.044776741 0.2048078 11447715
0.759 0.057400644 0.20356111 11184032
0.76000017 0.053157259 0.20611778 11315877
0.75887519 0.065311052 0.20460147 11513251
0.76000005 0.06340684 0.20990819 12433585
0.75782347 0.075381197 0.20466515 10855578
0.75746876 0.085028827 0.20499927 13684420
0.75794458 0.09251257 0.20490551 14671574
0.76060009 0.096397601 0.20473357 14606042
0.7856667 0.10815942 0.20626752 11579819
0.78866673 0.11103243 0.20305629 11579818
0.79187995 0.11586159 0.20529173 11514025
0.78600013 -0.16362897 0.21547686 10065810
0.79120004 -0.16829513 0.21482477 9539722
0.76700002 -0.15057863 0.21453488 12105133
0.77405888 -0.15569921 0.21496223 10789274
0.76139992 -0.14413378 0.21475098 12368561
0.76096654 -0.13514279 0.21462865 12630449
0.76099986 -0.12535028 0.21463819 12301227
0.76091653 -0.11464892 0.21461423 12498348
0.75900006 -0.10221817 0.2173316 12038569
0.76045829 -0.10538178 0.21366799 12498351
0.75838476 -0.093919821 0.21587899 12301231
0.76025009 -0.097640783 0.21175639 11905958
0.75683337 -0.084801391 0.21523263 12038057
0.75364864 -0.074671812 0.21477853 11906984
0.7485624 -0.062954187 0.21583894 11514792
0.7507143 -0.066665635 0.21386909 11382180
0.74661106 -0.054817542 0.21494594 11646636
0.74493343 -0.045101028 0.2153361 12237750
0.74457145 -0.035516202 0.21525519 12566205
0.74516696 -0.025052093 0.21540281 11779513
0.7468611 -0.014762638 0.2150175 11780026
0.75000006 -0.010291643 0.21065776 11385012
0.7482307 -0.0059544891 0.21716641 11910584
0.75133342 -0.0041511101 0.21317965 12106936
0.75402564 0.0044588558 0.21490474 12565427
0.75754291 0.01519492 0.21530752 12301996
0.75890905 0.02487663 0.21542101 12038828
0.76000005 0.026933784 0.21168737 12829113
0.759 0.033036496 0.21706238 11841708
0.76000017 0.036016934 0.21402839 11184547
0.76076657 0.044771265 0.21457165 11052960
0.76045167 0.054398447 0.21520099 11119013
0.75900006 0.069246195 0.21555479 10657171
0.76000017 0.064148165 0.2150975 11775911
0.75896001 0.074868701 0.21495131 11380896
0.75872427 0.084461786 0.21476299 13552835
0.76000005 0.089204863 0.21880406 14998999
0.75900006 0.092048876 0.21259338 14474709
0.76260006 0.09487205 0.21597818 13750730
0.77100009 0.099520616 0.21655774 11053219
0.78650004 0.10735282 0.21446417 11514026
0.79000002 0.10937075 0.21541992 11448233
0.79255998 0.11529277 0.21519232 11514026
0.77900004 -0.16022913 0.2297451 8617078
0.78562498 -0.16343655 0.22525735 10328980
0.79216671 -0.16850078 0.22528215 9539466
0.76671439 -0.15077975 0.22560874 12235948
0.77312505 -0.15540473 0.22473063 10986396
0.76131022 -0.14399353 0.22526503 12761778
0.76099986 -0.13514861 0.22532718 13090999
0.76096863 -0.12489994 0.22531787 12762802
0.75900006 -0.1116946 0.22917716 13223354
0.76025009 -0.11504967 0.22471519 12762542
0.75871885 -0.10493814 0.22503978 12105642
0.76000005 -0.10828342 0.22058322 11973289
0.75714713 -0.094793737 0.22444554 12170414
0.7546128 -0.084723949 0.22534148 12039082
0.74883336 -0.072800718 0.22844446 11711657
0.75160724 -0.076046132 0.22448947 11579042
0.74730289 -0.065019913 0.22511347 11449513
0.75000006 -0.069402345 0.2217776 11711657
0.74491912 -0.054716509 0.22506461 11317418
0.74309999 -0.044990811 0.22524355 11645614
0.73900002 -0.034360871 0.22832824 11512999
0.74168581 -0.035379078 0.22468959 11711409
0.74236107 -0.024957277 0.22501796 11843765
0.74407685 -0.01436195 0.22506897 11910326
0.74612498 -0.0051599955 0.22479416 12304056
0.74799997 0.0026396173 0.22622302 12763061
0.75135005 0.0069293254 0.22387438 12696754
0.75502771 0.015273709 0.22502793 12499119
0.75743335 0.025070207 0.22426917 11973806
0.75833344 0.034864679 0.22453581 11907500
0.75877786 0.045245614 0.22595122 11446945
0.76000011 0.045488026 0.22109155 12500146
0.75882351 0.055628777 0.22692895 11710892
0.76000017 0.054333057 0.22200659 11711405
0.75890642 0.065314427 0.22526197 11381670
0.76000005 0.06340684 0.22058322 12368305
0.75900012 0.074872836 0.22473502 11512739
0.75899994 0.081980161 0.22405571 13947592
0.76038903 0.087075576 0.22554228 14078923
0.76409096 0.092777729 0.22453637 14802645
0.77187508 0.097828336 0.22515821 13092800
0.77700007 0.10138835 0.22770008 11448233
0.78600007 0.10628956 0.22582477 11448233
0.79033333 0.10941689 0.22476017 11448233
0.7859413 -0.16534173 0.23579317 9868429
0.79000002 -0.16865635 0.23360573 9539977
0.76750004 -0.15157697 0.23515713 12695988
0.77416676 -0.15732601 0.23486294 10722455
0.76115388 -0.14422531 0.23496678 12893364
0.7602402 -0.13501383 0.23488978 13157047
0.75900006 -0.12200024 0.23912743 12434350
0.76010722 -0.12545776 0.23459505 12565936
0.75891668 -0.11464372 0.23618418 12566193
0.76000005 -0.11777235 0.23244439 12631728
0.75791663 -0.10532686 0.23505895 12369073
0.75590324 -0.095201537 0.23463288 12170668
0.7486667 -0.0809635 0.23744839 11646121
0.75235492 -0.085778818 0.23461194 11908265
0.74727583 -0.074863046 0.23540723 11580329
0.75000006 -0.07876642 0.23172691 10921884
0.74544454 -0.065201312 0.2346798 11514539
0.74355894 -0.054696225 0.23495579 11711149
0.73837507 -0.043083265 0.23655972 12301999
0.7411176 -0.04640004 0.23377669 12039598
0.73780966 -0.035168789 0.23486474 12236973
0.73827302 -0.025161261 0.23600949 12565171
0.74037504 -0.02402395 0.23091969 12762809
0.73874998 -0.016334137 0.23704176 12564658
0.74129158 -0.013569449 0.23373435 12565175
0.74334377 -0.0049227718 0.23504922 12434101
0.74633342 0.0046134065 0.23495905 12434097
0.7484445 0.01172903 0.23728013 12828341
0.75200009 0.016149947 0.2341606 12631732
0.754875 0.024821552 0.23449899 11909296
0.75686115 0.03479683 0.23473102 11842734
0.75758332 0.045470417 0.23495515 11381411
0.75796664 0.0552525 0.23507534 11513769
0.75838882 0.065048933 0.23520724 11315621
0.75890011 0.074863426 0.23536542 11907755
0.75899994 0.081296764 0.23573777 13355454
0.76138091 0.086823493 0.23498912 14342092
0.7675001 0.092181951 0.23443897 14539730
0.7730667 0.09641178 0.23511413 13289921
0.77700007 0.10029509 0.234615 11316390
0.78525001 0.10515655 0.23549175 11382440
0.79000002 0.10937075 0.23483868 11514026
0.78900003 -0.17152131 0.24377672 9342600
0.79116678 -0.17593068 0.24490927 9474186
0.78563648 -0.16628352 0.24499112 9671566
0.76736361 -0.15146835 0.24476646 12434098
0.77387506 -0.15725331 0.24487738 10460054
0.76120687 -0.14397539 0.24483711 12565681
0.76003349 -0.13497712 0.24461299 12829107
0.75899994 -0.12277368 0.24506412 12434606
0.76000017 -0.12807673 0.24460208 12434606
0.75852013 -0.11517678 0.2450133 12368813
0.7568056 -0.10517344 0.24534382 12434351
0.75365627 -0.094977729 0.24503669 11908268
0.74799997 -0.082727395 0.24553281 11842987
0.75100005 -0.08778026 0.24410601 11974827
0.74553353 -0.074808903 0.24518016 11645096
0.74330771 -0.064814977 0.24491437 11972774
0.73785722 -0.053556923 0.24734373 12957868
0.74157155 -0.056306295 0.24333854 12695983
0.73556411 -0.045463391 0.24487777 12694702
0.74000001 -0.049998544 0.24076369 11642529
0.73477769 -0.03502319 0.2450818 12039082
0.73548651 -0.024610659 0.2451549 11841963
0.73602402 -0.014405991 0.24463288 12367022
0.73765224 -0.0059165126 0.24622755 12630194
0.74127287 -0.0030711514 0.24259621 12762295
0.73900002 0.00023937608 0.24908841 13091518
0.74413526 0.0045303544 0.24488321 12631737
0.74757141 0.014182831 0.24553728 12369077
0.75037503 0.018468766 0.24260151 11777196
0.74900001 0.022160396 0.24895218 11974578
0.75212908 0.025236642 0.2447045 11909298
0.75465786 0.034512084 0.24497145 12236978
0.75672233 0.045419488 0.24531825 11645099
0.75709999 0.055189867 0.24544001 11909299
0.75780559 0.064998478 0.2456678 11446433
0.75808007 0.074782066 0.24487109 11973549
0.75899994 0.081853233 0.2452956 13815752
0.76177788 0.087336794 0.24487731 14407374
0.76900005 0.092061482 0.24299806 15065817
0.7737779 0.095757812 0.24531116 13092286
0.77900004 0.10055325 0.24251068 11184804
0.78626096 0.10582004 0.2453271 11382440
0.78900003 0.11107937 0.24562378 11448233
0.79029644 0.11537372 0.24499796 11382440
0.79133368 0.12499408 0.24510878 11448233
0.79250002 -0.17506868 0.25506204 9408393
0.78528577 -0.1659957 0.25487936 9737101
0.76766664 -0.15160966 0.25515503 12040110
0.77411771 -0.15752232 0.25484821 10131603
0.7615 -0.14409129 0.25507939 12369583
0.759 -0.1330166 0.25760648 12698030
0.76000017 -0.13586059 0.25394273 13092791
0.75891203 -0.12479774 0.25512013 12763827
0.76000005 -0.12874392 0.25171876 13026743
0.75766671 -0.11504715 0.25449175 12500144
0.75466669 -0.10487804 0.25524902 12104875
0.74821424 -0.092842698 0.25669712 11448998
0.7511667 -0.096182823 0.25367481 11580072
0.74664712 -0.085100144 0.25474632 11579300
0.73900002 -0.071556136 0.25946847 12170666
0.7434572 -0.075347848 0.25506279 11841442
0.7371853 -0.063999355 0.25607809 12039078
0.74138463 -0.066915378 0.25216061 11840928
0.73441654 -0.055354457 0.25498691 12564653
0.73252791 -0.045207601 0.25462157 12828085
0.73244452 -0.03491275 0.25459263 12433069
0.73274994 -0.024635511 0.25469837 12039596
0.73272216 -0.014341932 0.2546891 11711402
0.73462498 -0.004757701 0.25497147 12040113
0.73700005 0.0029732322 0.25646135 12106935
0.74173683 0.0065479516 0.25320637 12106680
0.74485368 0.01513129 0.25496763 12369595
0.7471562 0.024622105 0.2551133 12631736
0.75000006 0.028335158 0.25104031 13026238
0.74853843 0.03272859 0.25715548 12301741
0.75165391 0.035844591 0.25375584 12170414
0.75464863 0.045178577 0.25540915 11580075
0.75590026 0.055101693 0.25566813 11975349
0.75636375 0.064687192 0.25542191 11841966
0.75726664 0.074702859 0.25435728 12631993
0.75884616 0.081280507 0.25523055 14408404
0.76204544 0.086855255 0.2550692 14736853
0.76900005 0.092061482 0.25920027 15525343
0.77442861 0.095482133 0.25489834 13486273
0.78637505 0.10381185 0.25447002 11185061
0.79087508 0.10879807 0.25616121 11316647
0.7915715 0.11497074 0.25498697 11382440
0.7915715 0.12467794 0.25463369 11382440
0.78900003 -0.17152131 0.26871207 9211270
0.79266667 -0.17541578 0.26461387 9342854
0.77900004 -0.1620528 0.26530635 10327951
0.78627783 -0.16725203 0.26471347 9802378
0.76744443 -0.15186504 0.26466322 11710121
0.77364713 -0.15721387 0.26502627 9604231
0.75900006 -0.14123446 0.26626852 12565681
0.76134783 -0.14590742 0.26452455 12302767
0.75861305 -0.13489686 0.26560846 12697521
0.75788891 -0.12483932 0.26521215 12434347
0.75593561 -0.11467104 0.26472631 12302510
0.74857146 -0.10264994 0.26833612 11711404
0.75230777 -0.10583611 0.26447704 11841963
0.74660003 -0.09464252 0.26512983 11711144
0.75033337 -0.09987995 0.26169038 11448232
0.74390632 -0.085258581 0.26516032 11972773
0.73670018 -0.073522002 0.26584178 11710117
0.74161541 -0.07815326 0.26332241 11644577
0.7330938 -0.065141089 0.26473823 11973035
0.73133355 -0.05520916 0.26493931 12171189
0.72900003 -0.042428914 0.26961023 12698301
0.73074389 -0.045294117 0.26472637 12369333
0.72900003 -0.034749206 0.2696102 12105911
0.73066694 -0.034828648 0.26423833 12302257
0.72900003 -0.024509594 0.2696102 11710124
0.7308057 -0.024570329 0.26428878 12039856
0.72900003 -0.014269982 0.2696102 11644840
0.73088908 -0.014306497 0.26431844 11777711
0.73148501 -0.0050548236 0.26507717 12237492
0.73369229 0.0047336719 0.26486593 12500409
0.73653859 0.013703754 0.2666232 12434359
0.74183339 0.016547825 0.26296961 12172470
0.7385 0.022282239 0.26923347 12631479
0.74387181 0.025784703 0.2647891 12368046
0.74606061 0.03501578 0.26511776 12434611
0.74795234 0.043850981 0.26702911 12041398
0.75140005 0.046420205 0.26302791 12107191
0.74900001 0.051091868 0.26999325 12303544
0.75300008 0.054892488 0.26526114 12435129
0.754421 0.064754888 0.2651583 11513255
0.75576472 0.075180925 0.26467633 13355458
0.75844455 0.083104707 0.26501295 14671575
0.76099998 0.08822719 0.26431447 15395042
0.76716661 0.091841996 0.26486444 15460578
0.77473336 0.096258916 0.26523936 12434358
0.78671438 0.10313122 0.2651709 11382183
0.79169232 0.10789645 0.26499504 11316647
0.79242867 -0.17500986 0.27522334 9342601
0.7786001 -0.16196957 0.27519459 9933197
0.78613341 -0.16722178 0.27478847 9539465
0.76642853 -0.15251788 0.27525002 10920350
0.77287501 -0.1572772 0.27486631 9933199
0.75844455 -0.14337593 0.27487594 12827827
0.76076925 -0.14826037 0.27478281 12433585
0.75722218 -0.13536523 0.27561414 12893876
0.75575006 -0.12503996 0.27485487 12499633
0.74879998 -0.11124562 0.27763385 12302774
0.75242424 -0.11537339 0.27437204 12105137
0.74699992 -0.10456403 0.27554128 11973807
0.75033337 -0.10807741 0.27105913 12369081
0.74422234 -0.094859809 0.27470368 11709346
0.73712516 -0.084032513 0.2762787 11446432
0.74130768 -0.086131737 0.27269316 11248538
0.73336118 -0.075019345 0.27479506 11381674
0.72883338 -0.062325284 0.27864811 11514025
0.73106682 -0.065597534 0.27453789 11645105
0.72730315 -0.054560207 0.27589104 12302256
0.73049998 -0.057693914 0.27144697 12039862
0.72652388 -0.04483635 0.27548838 13025720
0.72604764 -0.034609754 0.275307 12631479
0.72479534 -0.024369378 0.2751368 12170672
0.7248612 -0.014895007 0.27471337 12433328
0.72586489 -0.0059165037 0.27588218 12762548
0.73033333 -0.0026128404 0.27152741 12433841
0.72807693 0.002728302 0.27778956 12236718
0.73110723 0.0051889918 0.2737501 12762291
0.73276931 0.015019328 0.27482677 12630453
0.735421 0.02488932 0.27515057 12171445
0.74100006 0.028429978 0.27101254 13026491
0.73800004 0.032077901 0.27762613 12500667
0.74265385 0.035617039 0.27432171 12369078
0.74577785 0.044764027 0.27493972 12236722
0.74774069 0.054249402 0.27602053 12696760
0.75033337 0.057233315 0.27261984 12960702
0.75138235 0.06496495 0.27483115 11776170
0.75387496 0.075079165 0.27501032 13553351
0.75814998 0.084019735 0.27559736 15001054
0.76090014 0.088598832 0.27446079 15592680
0.76616669 0.091722287 0.27528393 15197921
0.77384621 0.096270591 0.27546269 12105907
0.78566664 0.10325851 0.27462444 11316646
0.79090905 0.10865596 0.27533567 11250596
0.7856667 -0.16579653 0.28473961 9736076
0.79000002 -0.16988929 0.28569728 9341573
0.76660001 -0.15229475 0.28531206 11381416
0.77356255 -0.1573036 0.28518429 9341833
0.75805885 -0.14360534 0.28505442 12367022
0.7608183 -0.14839458 0.28542557 12104620
0.75544119 -0.13484159 0.2853165 12433585
0.75243765 -0.1246585 0.28482491 12039085
0.74834764 -0.11393677 0.28506744 11644072
0.75040007 -0.11833465 0.28314435 11512743
0.74531442 -0.10519782 0.28536275 11841705
0.73813337 -0.092957772 0.28657922 11512738
0.74220008 -0.096713558 0.2836974 11511968
0.73462498 -0.084810123 0.2848857 11447203
0.7316668 -0.075129822 0.28515446 11644066
0.72679317 -0.064012848 0.28586221 11973803
0.7305454 -0.068639092 0.28308567 11776168
0.71900004 -0.050823923 0.28891549 11053218
0.72237515 -0.054984368 0.28436032 11974317
0.7189523 -0.044008236 0.28729326 12302770
0.72090477 -0.0448507 0.28228548 12367020
0.71870375 -0.033978228 0.286365 12630965
0.72066677 -0.034858886 0.28137371 12499119
0.71848005 -0.024997078 0.28590167 12237492
0.7204445 -0.024690153 0.28087506 11973033
0.71866673 -0.015749808 0.28597629 12237494
0.72045463 -0.015405694 0.28086194 11973548
0.7189523 -0.0064190649 0.28713295 12500154
0.72090483 -0.0049086981 0.28244659 11974063
0.71900004 0.00023289771 0.28947654 12105906
0.7235682 0.0043973462 0.28483796 12171447
0.73000002 0.0087811761 0.28023371 13289410
0.72760004 0.012672107 0.28663266 12171961
0.73085719 0.016206605 0.28341335 11712178
0.73225653 0.02529341 0.2849206 11647411
0.73558331 0.034874219 0.28562325 12040885
0.74175 0.038008496 0.28127027 11974065
0.73900002 0.040894665 0.28714865 12434611
0.74313885 0.044847321 0.28454781 12499631
0.74605268 0.055444408 0.28519794 13222843
0.74831998 0.064640239 0.28537235 11578017
0.75000006 0.067313112 0.28159061 9802382
0.74820822 0.074100211 0.28619981 13947338
0.75107145 0.076480038 0.28204137 14474196
0.74879998 0.082281187 0.28850228 15263967
0.75431252 0.085394256 0.2848649 15461347
0.76000005 0.089204863 0.28107512 15592935
0.75900006 0.090864323 0.28870106 15198434
0.76240003 0.091271356 0.28374189 15198178
0.773 0.095762365 0.2834647 11645357
0.78656256 0.10349061 0.28399172 11250596
0.79039997 0.10831624 0.2856577 11250597
0.79239285 0.11546838 0.28503698 11185061
0.78516656 -0.16528243 0.29548246 9079177
0.79000002 -0.16988929 0.29771841 9211016
0.7665 -0.15227489 0.29514319 10197913
0.77323526 -0.15723738 0.29501876 8947847
0.75716674 -0.14333194 0.29509315 11578789
0.76109099 -0.14860986 0.29524592 12039598
0.75400001 -0.13491797 0.29489076 11908010
0.74858332 -0.12228348 0.29715118 11908009
0.75095242 -0.12599881 0.29413444 11908267
0.74680644 -0.11503452 0.29474768 11841444
0.74338907 -0.10505169 0.29494408 12038570
0.73692602 -0.094457723 0.29464746 11184802
0.74000001 -0.098504432 0.29533279 11842220
0.73291427 -0.084868029 0.29507598 11183772
0.72850007 -0.072671913 0.29628414 11513252
0.73078948 -0.076209724 0.29404235 11249563
0.72447371 -0.065158464 0.29475468 11249827
0.71899992 -0.05129867 0.29556197 11644070
0.72058338 -0.056349199 0.29482237 11776171
0.71800011 -0.044432513 0.29483587 12105394
0.71674174 -0.035166364 0.29457295 12565945
0.71641648 -0.025763841 0.29430491 12302772
0.71655536 -0.015703009 0.29436165 12368048
0.71802783 -0.0056482484 0.29496723 12302254
0.71899992 0.0031083503 0.29627946 12367787
0.72046673 0.007092712 0.29332635 12302508
0.72388381 0.014547843 0.29498002 11973545
0.73000002 0.019034835 0.29048735 13356232
0.72829413 0.022601992 0.29662642 11973801
0.73072726 0.026519092 0.2938861 12171953
0.73239493 0.035478801 0.29513711 11974321
0.73603135 0.044771016 0.29503477 11842996
0.74120003 0.048130296 0.29112548 11907239
0.73777783 0.051863104 0.29837811 11974324
0.74276477 0.055425685 0.29453886 12763323
0.74522245 0.064936921 0.29493958 11841707
0.74600029 0.074570745 0.2949765 13947338
0.74775755 0.084746785 0.2951653 15132383
0.75000006 0.08978688 0.29493442 11316392
0.75542861 0.091195248 0.29453951 11448234
0.76600003 0.095288768 0.29763991 10592667
0.78760004 0.10203274 0.29497015 10987682
0.79223526 0.10706364 0.29496336 11053475
0.79137051 -0.17595053 0.30523407 9211016
0.77900004 -0.16022913 0.30816218 9276809
0.78629422 -0.16617487 0.30454803 9079431
0.79000002 -0.16988929 0.30789012 9211016
0.7676 -0.15177613 0.30544621 10131862
0.7741428 -0.15690346 0.30507359 9210760
0.75746161 -0.14311534 0.30455315 11711144
0.76155561 -0.14772855 0.30522212 12040111
0.75369567 -0.13561817 0.30413768 11448489
0.74820006 -0.12271798 0.30298454 11381411
0.75146157 -0.12776832 0.30458128 11645868
0.74692857 -0.11541488 0.30259484 11577247
0.75449997 -0.11544793 0.30906808 11577507
0.74466676 -0.10523102 0.30242631 10855067
0.75200003 -0.10538642 0.30804402 11250599
0.73900002 -0.091451272 0.30271879 10328979
0.7453751 -0.096604712 0.30446082 10922147
0.7318182 -0.083715253 0.30195507 10920343
0.7280001 -0.074399464 0.30396336 10132632
0.73000002 -0.078374922 0.30074102 10460048
0.723625 -0.064991452 0.30326542 10197909
0.71900004 -0.051104456 0.3029421 10260621
0.72056258 -0.056488004 0.3037056 10130317
0.71741676 -0.044766564 0.30388376 10591127
0.71577764 -0.03579485 0.30409759 10855066
0.71594423 -0.025746958 0.30416879 10788503
0.71578109 -0.015896223 0.30357555 11051674
0.71730769 -0.005901027 0.30339113 10920347
0.71899992 0.0042004217 0.3043848 10591900
0.71900004 0.01033205 0.30378368 10394779
0.72142869 0.015076408 0.30203298 11446433
0.72737503 0.024931399 0.30370238 11578532
0.73000002 0.029288495 0.30159551 11447202
0.72900003 0.030954976 0.30544886 11251624
0.73150021 0.035630409 0.304555 11382956
0.73371416 0.04495855 0.30454126 11843768
0.73602861 0.054544341 0.30455026 12632253
0.74100006 0.059219632 0.30006868 12961215
0.73844457 0.064299196 0.30748513 11185323
0.74145824 0.065911874 0.30300036 10987687
0.7433334 0.075069949 0.30536011 13947854
0.74610525 0.084773548 0.30507526 15131870
0.75416666 0.092051215 0.30451676 10592155
0.76000005 0.094542384 0.30687314 10657948
0.78833342 0.10237291 0.30447075 10987425
0.78676927 -0.16381449 0.31435239 9210760
0.79066676 -0.16756523 0.3167879 9211017
0.76900005 -0.15097131 0.3114073 11513771
0.77475005 -0.15452233 0.31448993 9539727
0.7816667 -0.15833829 0.31836656 9539982
0.75900006 -0.14101234 0.31091145 10986911
0.76360005 -0.14419207 0.31351164 10855068
0.77100003 -0.14820592 0.31763256 10328982
0.75780004 -0.13457985 0.31077528 11776941
0.76330006 -0.13537775 0.31553477 10525847
0.75900006 -0.12946294 0.31268829 10131346
0.76433343 -0.12410418 0.31608173 10525590
0.76340014 -0.1150193 0.31539851 11117728
0.75883341 -0.1054535 0.31261963 11579564
0.76575005 -0.10641459 0.31726176 9474446
0.75766665 -0.097309478 0.31213894 10921636
0.73400003 0.04835036 0.31098047 10132124
0.74350005 0.044623025 0.31326491 10002849
0.73800009 0.054663036 0.31209889 11907762
0.74444455 0.056978311 0.3167631 10723490
0.73890901 0.065499909 0.31211692 11514289
0.74266672 0.064710446 0.31697288 9606036
0.73900002 0.071169883 0.31136885 12961215
0.74279165 0.074796654 0.31478301 12961216
0.74564999 0.084294505 0.31356102 14605784
0.75250006 0.087446675 0.31881854 15263714
0.75533342 0.091604464 0.31412426 12236722
0.7871111 0.10446902 0.3150548 10921633
0.79136366 0.10838073 0.31456771 10921632
0.78857148 -0.16167045 0.32434422 9737360
0.7920714 -0.16636406 0.32578328 9671567
0.77800006 -0.15274055 0.32172921 9868944
0.78510004 -0.15542082 0.32619852 9868688
0.77537507 -0.14428358 0.32374683 9802124
0.78233337 -0.14381753 0.3290174 9539723
0.77450001 -0.13518685 0.32378986 10130833
0.78225005 -0.13617471 0.32959172 9342087
0.77542865 -0.12630092 0.32386795 10000018
0.78100008 -0.12224626 0.32723671 9935512
0.77612513 -0.11330669 0.32428902 9934996
0.78000003 -0.11843696 0.32681772 10461857
0.77537513 -0.1057118 0.32374859 9934740
0.78299999 -0.1023922 0.32807469 10131859
0.77600002 -0.098753795 0.3233251 9671053
0.75766677 0.044588983 0.32159904 9738132
0.75000006 0.058183137 0.32127085 12368829
0.76100004 0.057254974 0.32776436 8488837
0.74750006 0.065862037 0.32194987 11382185
0.755 0.064373404 0.32644296 8684160
0.74833339 0.07382372 0.3217243 12105908
0.75477773 0.075636715 0.32606843 12171957
0.7561667 0.084036984 0.3236182 13552584
0.76000005 0.084756926 0.32644409 13749963
0.76100004 0.092885263 0.3206383 10789278
0.78700006 0.10369348 0.32474729 10856097
0.79135722 0.10797109 0.32535809 10856098
0.78850007 -0.15418428 0.3316102 10066323
0.79212499 -0.15539508 0.33676827 10132373
0.78712505 -0.14600715 0.33279902 10066324
0.79136366 -0.14475141 0.33797982 10066582
0.78712505 -0.13426228 0.33302933 9539724
0.79128581 -0.13576385 0.33763406 9803410
0.78757149 -0.12590738 0.33236161 9145480
0.78783339 -0.11501575 0.33194423 9211273
0.77800006 0.042142186 0.33144367 10986655
0.76800001 0.055983726 0.33077925 8225669
0.77366668 0.056695282 0.33472753 9146512
0.78440011 0.052398384 0.33784088 8423302
0.75900006 0.069542333 0.33045661 9803927
0.76400006 0.068211913 0.33353245 10066840
0.77325004 0.064506732 0.33847103 9869203
0.7651667 0.073984064 0.33404043 10001046
0.77233338 0.077997722 0.33806977 10526876
0.76800001 0.081154346 0.33437505 10066580
0.77460003 0.085480817 0.33724862 10198167
0.778 0.092227094 0.33599812 10329754
0.78660005 0.097488046 0.3387889 10658976
0.78825009 0.102209 0.33304268 10921633
0.78709102 0.055026475 0.34302211 9146253
0.7766667 0.067521513 0.34178481 9869973
0.78600001 0.063634023 0.34671348 9804180
0.77560008 0.074697003 0.34131539 10198168
0.78550005 0.074731193 0.3475109 10000789
0.778 0.082208708 0.34146205 10527131
0.78610003 0.085824691 0.3457565 10527388
0.79050004 0.088158943 0.34972292 10527901
0.78800011 0.094029807 0.34308276 10725282
0.79180008 0.095904619 0.347148 10593695
0.79152006 0.075411879 0.35499424 10133145
