# .PCD v0.7 - Point Cloud Data file format
VERSION 0.7
FIELDS x y z rgb
SIZE 4 4 4 4
TYPE F F F U
COUNT 1 1 1 1
WIDTH 259
HEIGHT 1
VIEWPOINT 0 0 0 1 0 0 0
POINTS 259
DATA ascii
0.44011116 -0.031911958 -0.061609194 12960186
0.4382295 -0.024533302 -0.063376553 14670034
0.44000003 -0.02310713 -0.068370908 14933720
0.43806818 -0.01593738 -0.062742561 15921389
0.44041377 -0.014788999 -0.066325761 15855595
0.44307154 -0.006966236 -0.063108183 14539995
0.43680948 -0.032478366 -0.053104084 13091001
0.44041181 -0.033215061 -0.057998925 12893623
0.43528885 -0.0248328 -0.055052679 14604754
0.43559781 -0.014547241 -0.05497919 15921389
0.43881825 -0.0078889327 -0.052878834 14671581
0.44045451 -0.0063713179 -0.055794634 13948372
0.44700003 -0.040666174 -0.040831149 12499635
0.43512112 -0.033584651 -0.046056271 13025209
0.4434616 -0.037553769 -0.041544281 12170670
0.42899993 -0.02323376 -0.040647738 15263455
0.43154213 -0.025108373 -0.04566884 14736083
0.42899999 -0.019143537 -0.040592954 15724521
0.43213525 -0.014845711 -0.045117583 15790315
0.43718919 -0.0067988094 -0.045609236 13816785
0.44814286 -0.041719817 -0.035645179 12762807
0.42825001 -0.031441614 -0.03109869 13222588
0.43377781 -0.032058112 -0.035758778 13025722
0.44548649 -0.037827574 -0.035820667 12170670
0.42657149 -0.024686038 -0.034638807 15065561
0.43014288 -0.028775251 -0.037709475 14012617
0.42782146 -0.017135127 -0.034325521 15921645
0.43090701 -0.012384267 -0.035962034 15527148
0.43374366 -0.007849277 -0.034289017 13685201
0.44551429 -0.042471979 -0.024690432 12170924
0.42636368 -0.031485751 -0.024794243 12959929
0.43388468 -0.034988504 -0.025960771 12499378
0.44159999 -0.038660269 -0.025103789 12170668
0.42284009 -0.025109719 -0.025269665 14934233
0.42459565 -0.015439497 -0.025099026 15593193
0.43000001 -0.01093373 -0.029211909 14869220
0.42758331 -0.0094538191 -0.024047323 13356495
0.43044445 -0.0085925683 -0.028458901 13487825
0.42147234 -0.032041091 -0.014577432 13157306
0.44400004 -0.039353836 -0.019768875 12236461
0.41786346 -0.024217589 -0.013761712 15066331
0.42030311 -0.026014376 -0.018088307 14736853
0.41826665 -0.017716806 -0.013272246 15856365
0.4219375 -0.014238971 -0.016519535 15263973
0.42583334 -0.0093318718 -0.015223749 13092806
0.42466667 -0.040622685 -0.004990716 11776424
0.41718748 -0.031667817 -0.0037460304 13354942
0.42208961 -0.03617809 -0.0054056365 12302512
0.41457519 -0.024758454 -0.0047784857 15066332
0.41660932 -0.01593348 -0.004529065 15395557
0.42055002 -0.011578934 -0.0071574547 14079956
0.42160001 -0.0091401879 -0.0046579973 12500925
0.41344684 -0.032780096 0.0053446046 13026234
0.42080003 -0.037791464 0.0022464034 11776423
0.40886679 -0.024849735 0.0084361266 15132382
0.4111138 -0.024915367 0.0039979429 15000796
0.40900001 -0.01997452 0.0095562972 15790825
0.41434887 -0.014897624 0.0055914028 15001058
0.41860002 -0.0092720222 0.0074278777 12895428
0.42128578 -0.0076105241 0.0046767257 12699074
0.4081715 -0.031565104 0.015784109 13421249
0.41180438 -0.035729576 0.015284183 12434354
0.40663692 -0.025094816 0.015203858 15001053
0.40795749 -0.018174917 0.015989508 15527657
0.41280007 -0.013423333 0.014017043 14606557
0.41611111 -0.0092813093 0.01329094 12369597
0.40533796 -0.033378366 0.02543522 13223357
0.41337499 -0.037674706 0.021512996 12104877
0.40297937 -0.025232151 0.024969038 15001052
0.40623641 -0.016045908 0.024027994 15001827
0.41100001 -0.011892679 0.020186769 14080472
0.40800002 -0.0094191944 0.029590774 11908533
0.39842859 -0.0311844 0.038755622 14013387
0.40134242 -0.034017019 0.034712363 13157822
0.39816403 -0.025617195 0.037554014 15000797
0.40031332 -0.024795081 0.032570533 15066591
0.40314016 -0.015541856 0.034841325 14672349
0.40560001 -0.0087949205 0.037192635 11975096
0.40025002 -0.040512767 0.04776825 11973291
0.39697701 -0.033728212 0.045439385 13486786
0.40000007 -0.037872959 0.044305209 12368049
0.39561298 -0.024784818 0.045221034 15197920
0.39775515 -0.017332286 0.04613708 15198179
0.40084904 -0.013996169 0.043286055 14211288
0.40420002 -0.0091418438 0.042748876 12040889
0.39564282 -0.041022092 0.056940611 11973805
0.39393705 -0.034992069 0.055042483 13486530
0.39195842 -0.024644442 0.055030674 15132641
0.39543203 -0.016331781 0.054655999 14803938
0.40000001 -0.012043726 0.05179647 13618896
0.38900003 -0.041157067 0.066156775 12236720
0.39146155 -0.040971205 0.062859192 12302769
0.38855565 -0.034350976 0.066561647 14276302
0.39092505 -0.036367856 0.062211387 13617859
0.38825881 -0.02575409 0.065498158 15066335
0.39036837 -0.021949105 0.061402798 15461351
0.3888889 -0.018081514 0.067856967 15198438
0.39095351 -0.016964316 0.063470103 14935010
0.38781491 -0.041704983 0.076343812 12499636
0.39000002 -0.044610523 0.079413131 12171183
0.3855769 -0.03502107 0.075266145 12104879
0.38516915 -0.025181197 0.07518968 12499895
0.38754052 -0.017330429 0.074798629 14869217
0.40400001 -0.060398493 0.089357138 11973291
0.39753851 -0.051702444 0.088606507 12170672
0.40310344 -0.054391295 0.086072609 12170413
0.38622648 -0.042376835 0.085549124 11777454
0.39317957 -0.047104295 0.086053908 12105391
0.40033332 -0.049541265 0.084328026 12039341
0.37801927 -0.033659615 0.08694414 2501930
0.38152054 -0.035533715 0.082967892 2896432
0.37823346 -0.02640984 0.087065823 2633259
0.38153166 -0.023909215 0.083336718 3027246
0.38493574 -0.015834631 0.085387491 14211286
0.3862904 -0.0082737664 0.086557694 12698049
0.39000002 -0.0053516538 0.085804112 12961993
0.40178949 -0.061801113 0.096709646 12170414
0.39647225 -0.05367234 0.095500797 12368051
0.40024999 -0.058510706 0.095632017 12499635
0.38508144 -0.043693542 0.095491111 11447977
0.39200002 -0.048339926 0.093753599 12170672
0.37651637 -0.03452776 0.095149457 2567465
0.38000005 -0.039399985 0.094660297 2567981
0.37626326 -0.025196427 0.095044307 2633003
0.38025001 -0.020350788 0.091224596 3882038
0.37833333 -0.019362522 0.09784957 12699847
0.38363847 -0.014907286 0.094710596 14277336
0.38516676 -0.0086663458 0.094784409 12632771
0.48183337 -0.091774531 0.1086401 12170670
0.48179314 -0.086533785 0.10700861 12104875
0.39800009 -0.061106522 0.10717868 12564915
0.40121734 -0.064072207 0.10409997 12236465
0.38808697 -0.051660772 0.10714531 12302257
0.39494288 -0.056045227 0.10404097 12565173
0.40000001 -0.059800487 0.10064571 12565174
0.37805882 -0.041110855 0.10681006 10987683
0.38393804 -0.045791797 0.10469101 12236721
0.36872223 -0.03229833 0.10884006 2239013
0.37337789 -0.035148229 0.10456445 2435881
0.36865526 -0.025414392 0.10881351 2238754
0.37243083 -0.024698293 0.10420746 2501417
0.3777242 -0.018170362 0.10511693 13092546
0.38198954 -0.013548356 0.10467879 14474456
0.38389364 -0.0084601119 0.10489497 13750737
0.47683334 -0.10161077 0.11867394 12236463
0.46383333 -0.092873223 0.11923832 12105390
0.47641671 -0.09631864 0.11726486 12368049
0.48085713 -0.094112553 0.11380141 12236461
0.42500001 -0.080451876 0.11937273 11380900
0.48099998 -0.08880055 0.11196706 12236461
0.40638891 -0.071326762 0.11704776 12236209
0.41200003 -0.072204001 0.11331008 12236719
0.42500001 -0.07945694 0.1183778 11775912
0.39677274 -0.062382147 0.11555815 12433586
0.40265995 -0.067141391 0.11503424 12302258
0.38743106 -0.052530698 0.11568163 12302256
0.39220342 -0.05753433 0.11452966 12499379
0.37659377 -0.04167565 0.11423009 10131860
0.38279733 -0.046699297 0.11493969 12302769
0.36724779 -0.033704136 0.11523552 2238499
0.37149999 -0.038448207 0.11383952 2566439
0.36718935 -0.025154406 0.11517408 2369828
0.37594333 -0.016382713 0.11719251 12039600
0.38077956 -0.01280856 0.11403689 14211027
0.38202539 -0.0069844746 0.11539138 13948115
0.45611107 -0.10416375 0.12786585 12236718
0.4645294 -0.10245069 0.12477566 12236463
0.47351855 -0.10339124 0.12215644 12236463
0.43542862 -0.092767939 0.12884502 12105389
0.44615391 -0.09545619 0.12795123 12302511
0.45525926 -0.096839957 0.12624624 12170669
0.46491316 -0.097186491 0.12309784 12236463
0.47200003 -0.099073499 0.12107768 12302256
0.41900003 -0.081277862 0.12798679 12039343
0.4230909 -0.08450637 0.12621497 12039342
0.40668184 -0.072660618 0.12335786 12236207
0.41390908 -0.077653386 0.12656696 12039598
0.42200002 -0.079883985 0.12050591 12170416
0.39571929 -0.062904716 0.1252027 12367792
0.40136585 -0.067983598 0.12471839 12301744
0.3863667 -0.053580433 0.12512887 12302512
0.39107698 -0.058749478 0.1243853 12302512
0.37624246 -0.04218607 0.12507972 11184289
0.38166666 -0.046808071 0.12499113 12302512
0.36377528 -0.034336664 0.12501116 2435880
0.37142858 -0.039629839 0.12208772 2303009
0.36374658 -0.025038177 0.12490035 2435624
0.36771432 -0.019228175 0.12676558 10264475
0.375624 -0.014501491 0.1248683 12829374
0.38000003 -0.010551953 0.12007707 13750480
0.37840393 -0.0072704088 0.12631689 14079699
0.38049999 -0.0061363061 0.12218838 14079186
0.45825008 -0.1107052 0.13515104 12105647
0.46000001 -0.11238374 0.13997211 11974320
0.44707695 -0.10169991 0.13377908 12039597
0.45378795 -0.10644467 0.13386481 12105646
0.42799997 -0.091039345 0.13614295 11447721
0.43405715 -0.093991399 0.13314418 11776684
0.44216669 -0.098625891 0.13256027 12105391
0.41850001 -0.080201149 0.13175349 11579563
0.42358834 -0.085185498 0.13591588 11316391
0.40669236 -0.070908979 0.13378611 11447977
0.41548574 -0.076100729 0.13506368 11447977
0.42045459 -0.079144508 0.1375137 11184806
0.39451522 -0.062823877 0.13254714 11711147
0.40161535 -0.068216294 0.13261963 11645612
0.38505712 -0.053327806 0.13209836 11710635
0.39057142 -0.058848757 0.1330169 11645098
0.36783338 -0.040496346 0.13553476 5921367
0.37626317 -0.043835536 0.13305478 11447206
0.38094112 -0.047929447 0.13277903 11776429
0.36506844 -0.035336338 0.13392602 1448984
0.37046665 -0.033182696 0.13926712 923152
0.36384776 -0.024137592 0.13394882 1908250
0.37066671 -0.028516049 0.13968898 857100
0.3660714 -0.018732384 0.13495545 7893620
0.37466246 -0.013203831 0.13439384 11711152
0.37712198 -0.0068845102 0.13428935 13224905
0.45900002 -0.11052763 0.14074235 12105906
0.46031252 -0.11225896 0.1429626 11776942
0.45680949 -0.10685015 0.14368555 11513771
0.46000001 -0.10969155 0.14535645 11316392
0.42376477 -0.084717624 0.14137465 10329754
0.41650003 -0.076405838 0.14038609 10724512
0.42033336 -0.078912996 0.14102189 10790305
0.36331582 -0.040747374 0.14601865 5262924
0.36365274 -0.035608064 0.14656939 1054224
0.37114075 -0.034100447 0.14286719 988946
0.36383194 -0.024589792 0.14637129 1316110
0.37102938 -0.0279312 0.14373302 791565
0.36233339 -0.018969342 0.14641899 4857112
0.37400001 -0.013887506 0.14006963 9804178
0.35885003 -0.041089542 0.15615371 1317651
0.36058831 -0.041196521 0.15252335 2172962
0.35835689 -0.034699917 0.15686056 1317652
0.36075005 -0.034930922 0.15241829 1515032
0.35853186 -0.026777085 0.15718719 1252117
0.36059237 -0.024002297 0.1537572 1580054
0.36100003 -0.018636405 0.15310913 3744287
0.34330001 -0.041274805 0.16734292 1712667
0.35524997 -0.040630929 0.16404285 922639
0.36000001 -0.041178945 0.16095215 1251089
0.34357062 -0.034916032 0.16713546 1515544
0.35521054 -0.035048172 0.16317511 1252118
0.3448239 -0.025256595 0.16694149 1580569
0.35601613 -0.027395798 0.1625171 1515291
0.36133334 -0.022861609 0.16479175 989461
0.34300002 -0.01969547 0.16914336 1842717
0.33731699 -0.041146152 0.17595054 1580826
0.33999994 -0.041351423 0.17125779 1515033
0.33738953 -0.035381034 0.1749967 1515288
0.34002391 -0.035539266 0.17123869 1515288
0.33758172 -0.025646679 0.17426269 1581083
0.3404783 -0.024076855 0.17107488 1712155
0.33700001 -0.01935094 0.17644055 2239273
0.34250003 -0.019733282 0.17056632 1842716
0.33265778 -0.04135124 0.18376707 1646365
0.33142465 -0.035268698 0.18584174 1974815
0.33073181 -0.026499853 0.18570928 1974814
