# .PCD v0.7 - Point Cloud Data file format
VERSION 0.7
FIELDS x y z rgb
SIZE 4 4 4 4
TYPE F F F U
COUNT 1 1 1 1
WIDTH 341
HEIGHT 1
VIEWPOINT 0 0 0 1 0 0 0
POINTS 341
DATA ascii
0.44323078 -0.01310659 -0.071056776 15789543
0.44342861 -0.0078643188 -0.07105387 15526886
0.43847066 -0.022259722 -0.061789211 13091002
0.44000003 -0.020458436 -0.065942936 14011591
0.43864712 -0.015350632 -0.061965615 15261914
0.4413045 -0.01348921 -0.066726461 15722722
0.43900001 -0.0091071613 -0.060654528 16447728
0.44238475 -0.0056375768 -0.064598605 15987179
0.44300002 0.00014349609 -0.060688652 14803421
0.44780001 -0.030255875 -0.05348485 12762035
0.43728569 -0.023023609 -0.055359941 13354173
0.4407143 -0.026977269 -0.056026079 12498862
0.4351334 -0.014628794 -0.05503501 15459808
0.43740734 -0.00614902 -0.05427618 16118767
0.44024995 -0.0026916151 -0.056816399 15329252
0.4412941 0.00062959985 -0.054957286 13816528
0.43050003 -0.030094799 -0.040836256 12762035
0.43330669 -0.023910858 -0.044825334 13551552
0.44000003 -0.028183794 -0.047917098 12696242
0.42899993 -0.015427639 -0.040621649 15723494
0.43081012 -0.015091356 -0.045497891 15657187
0.43345004 -0.0062667886 -0.044978563 15790061
0.44000003 -0.00088752358 -0.049462166 14276824
0.43900001 0.0001422004 -0.045238927 13816530
0.44125003 0.00066029414 -0.049086489 13816273
0.42900002 -0.033002831 -0.038182646 11840933
0.43197295 -0.031591691 -0.034801338 12235949
0.42778793 -0.022471979 -0.033920735 14077896
0.43053716 -0.026721336 -0.03544113 13157050
0.42676646 -0.015345463 -0.034993425 15855336
0.42820007 -0.007912918 -0.032800607 15987441
0.43106672 -0.0052359714 -0.036799613 15132645
0.42600003 -0.030777497 -0.02295653 12433842
0.43500003 -0.031088278 -0.029212138 12170668
0.42395771 -0.024035858 -0.024560628 13946823
0.43060002 -0.027683049 -0.028446892 13025464
0.42329007 -0.015218372 -0.025296543 15987179
0.42639726 -0.0064198733 -0.024839971 15066597
0.43000001 -0.00086735259 -0.025185358 12829631
0.42825001 -0.030940052 -0.016304042 12434353
0.43150002 -0.032185007 -0.015676212 12236974
0.41808569 -0.022796785 -0.012940163 14605011
0.42166671 -0.025517853 -0.017095422 13683908
0.41789368 -0.016431523 -0.013238402 15855850
0.42060378 -0.013869937 -0.017019335 16053229
0.42301512 -0.0068330052 -0.015829131 14935267
0.41800007 -0.030877871 -0.0019768646 12565170
0.42000002 -0.032310463 -0.0024770326 12630451
0.41568226 -0.024571585 -0.0047647133 14341581
0.41561109 -0.015021365 -0.0049547157 15922156
0.4183529 -0.0079573179 -0.0033620694 14672351
0.4202354 -0.0058238343 -0.0062696305 14014165
0.41400003 -0.031655207 0.0066243354 12631219
0.42000002 -0.033293691 0.00096426392 12367277
0.4088333 -0.022731641 0.0083821528 15065818
0.41179305 -0.025411293 0.004597276 14210508
0.40888888 -0.01890523 0.0088089965 15790569
0.41235104 -0.0145866 0.0050497102 15921901
0.4159492 -0.0071561495 0.0050058765 14145751
0.4086667 -0.030801058 0.01879631 12894647
0.41476467 -0.033000011 0.013601659 12499633
0.42142862 -0.036649577 0.0154852 12302510
0.407235 -0.024686875 0.01559833 14605524
0.41100001 -0.029053314 0.012328558 13354685
0.4078677 -0.016648324 0.015496784 15987692
0.41090626 -0.011769439 0.013838005 15592938
0.41235715 -0.0083811302 0.014770095 14146008
0.40747845 -0.03307892 0.025457166 12762805
0.40377989 -0.02492238 0.025024813 14737367
0.40624532 -0.015360243 0.025161674 15724780
0.41020003 -0.010718216 0.02245127 15132390
0.40885711 -0.0090286359 0.028421897 14277595
0.41166672 -0.0085391486 0.022787804 14277337
0.39900002 -0.030694941 0.039212763 13618114
0.40246165 -0.033296339 0.035047878 13025720
0.39811537 -0.024390273 0.038048055 15132126
0.4006134 -0.025343666 0.033003796 14803160
0.39888889 -0.018131515 0.038682919 15790573
0.40306395 -0.015233816 0.033880726 15593193
0.40766668 -0.0094114989 0.032905277 14014680
0.40233335 -0.040370066 0.045190793 12039084
0.39742589 -0.032868914 0.046170775 13552323
0.40069762 -0.036500003 0.04365436 12565428
0.39564222 -0.024948912 0.045269661 15197662
0.3971667 -0.016848801 0.045214437 15724523
0.40053847 -0.012742796 0.043692775 14606045
0.39676923 -0.041312538 0.056925364 12170413
0.3947317 -0.034769889 0.055132098 13552578
0.39207429 -0.024654062 0.055046532 15395042
0.39589709 -0.015330095 0.054751121 15198439
0.40000001 -0.010405012 0.051250231 13225165
0.39417648 -0.041235488 0.063595369 12039085
0.38861704 -0.033535868 0.067709558 14802390
0.39150003 -0.035722006 0.063230604 13881544
0.38839436 -0.025332352 0.066134311 15394787
0.39014813 -0.024532434 0.060973264 15460836
0.38883331 -0.019292794 0.066886008 15855854
0.39423984 -0.014714423 0.06483376 14935268
0.40000001 -0.0092345038 0.068339668 13093579
0.38813639 -0.041341472 0.075930201 12631222
0.39237499 -0.044315662 0.076110139 12236463
0.40066668 -0.048957467 0.079396255 12302256
0.38575974 -0.034988284 0.075325996 12564916
0.38518333 -0.02515531 0.075230397 12762554
0.38770309 -0.017740805 0.075351119 15461355
0.39344126 -0.013622595 0.072899915 14211546
0.40000001 -0.011107318 0.079108343 12106684
0.40133333 -0.0092652859 0.072798856 12698820
0.49739999 -0.081115291 0.08917173 12301483
0.4979524 -0.076719955 0.087792769 12499631
0.50229412 -0.07356669 0.084084317 12368045
0.39685187 -0.05407292 0.087545432 12893622
0.40080765 -0.052558027 0.083307013 12762294
0.38645318 -0.042869411 0.085728474 12828858
0.39346668 -0.047465913 0.084796064 12762551
0.40020004 -0.049150199 0.08130233 12499378
0.37845242 -0.033122148 0.087248787 2633516
0.38157648 -0.035633273 0.083526395 3027760
0.37834382 -0.026046403 0.087113254 2830639
0.38128373 -0.023973798 0.083134107 3093041
0.38583037 -0.015781548 0.085276403 14211800
0.39422223 -0.011554765 0.081389807 12896201
0.40000001 -0.010170911 0.080512956 12764614
0.38899997 -0.0091206571 0.087405413 12633026
0.39033338 -0.008251287 0.086787321 12699076
0.48199999 -0.092519775 0.098070167 12630705
0.47572729 -0.083481327 0.099093407 12696242
0.48361528 -0.086358003 0.097244926 12893621
0.49264711 -0.083213307 0.093659915 12696242
0.42533335 -0.075537197 0.099552095 12301484
0.49489474 -0.078070737 0.092292868 12630705
0.39702863 -0.061907638 0.096457496 12827574
0.389 -0.051174283 0.09742263 13223102
0.39339164 -0.055167519 0.094652057 13288382
0.3857778 -0.045060724 0.09508495 12565431
0.39000002 -0.049175512 0.090825595 12893368
0.37654227 -0.034358468 0.095361717 2698796
0.38040006 -0.038941037 0.093366966 3684408
0.37654278 -0.025120411 0.0950692 2699055
0.38000003 -0.020337408 0.090720698 2568500
0.37849998 -0.019193605 0.097361289 12897224
0.38456789 -0.01487846 0.09480153 14540766
0.38861534 -0.0096712802 0.093681879 12238012
0.39000002 -0.0080906451 0.090825595 12633026
0.4687368 -0.1044388 0.1088443 13156793
0.47033337 -0.10132805 0.10678069 12959414
0.43433335 -0.090692371 0.10945419 12564658
0.46795836 -0.094522111 0.10870571 12893621
0.47424075 -0.095358789 0.10537308 12959413
0.48075998 -0.094788559 0.1016298 12827827
0.42900002 -0.080706924 0.10317211 12367277
0.43043914 -0.083721265 0.1073103 12367278
0.46789998 -0.085992746 0.10605848 12433071
0.47302699 -0.086133905 0.10259697 12630449
0.48000002 -0.089739606 0.10111031 13025205
0.40471426 -0.0723546 0.10667102 12762550
0.41000003 -0.078572221 0.10940067 12697014
0.42606673 -0.076402664 0.10198624 12433071
0.43000001 -0.079385094 0.10769082 12433072
0.39614996 -0.062986396 0.10503373 13288382
0.40123677 -0.068095356 0.10495854 12893881
0.38809094 -0.052603979 0.10583092 13157566
0.39198467 -0.057236727 0.10417947 13289151
0.3784 -0.040980786 0.10743354 12302259
0.38391736 -0.045640443 0.1048279 12697016
0.36900005 -0.030978555 0.10969047 2369575
0.37282041 -0.03452044 0.10512172 2567467
0.36899999 -0.026659381 0.10969048 2107173
0.37221646 -0.024671752 0.10487581 2698282
0.3774474 -0.018220847 0.10501045 13157567
0.38233691 -0.013529787 0.10462114 14934750
0.38408339 -0.0096912822 0.10555437 14474459
0.46480554 -0.11231465 0.1167884 13156794
0.44600004 -0.10060944 0.11900423 13288379
0.45581821 -0.10413726 0.11861393 13288379
0.46531659 -0.10541172 0.11452233 13222586
0.42700005 -0.090492643 0.11893252 12038826
0.43597436 -0.092792682 0.11575056 12499377
0.44217655 -0.097223833 0.11646429 12893621
0.45450002 -0.099332005 0.11594649 13156793
0.46642861 -0.096375316 0.11235069 12959414
0.40860003 -0.080408491 0.11840054 12828600
0.41373342 -0.083168998 0.11698064 12697014
0.42473331 -0.087690383 0.11703657 12367791
0.43264711 -0.08744368 0.11258315 12301742
0.46500003 -0.089112394 0.11101349 12235691
0.40454745 -0.07465142 0.11520123 12894393
0.41100001 -0.079245523 0.11159182 12631221
0.395098 -0.064459138 0.11520174 12960187
0.40000001 -0.068977281 0.11160167 13025979
0.38716841 -0.053863555 0.11546876 13025722
0.39065224 -0.058642384 0.11361946 13222844
0.37733337 -0.04128677 0.11433467 10921632
0.38262972 -0.046383806 0.11499833 12631221
0.36774993 -0.033222724 0.11588052 2304293
0.37171426 -0.037239619 0.11324662 2567466
0.36764839 -0.025151633 0.11535893 2303780
0.37 -0.020668389 0.1108539 2827292
0.36900002 -0.019748693 0.11919266 9802122
0.37525806 -0.017402476 0.11712534 11315361
0.38145941 -0.013075508 0.11475454 14671320
0.38406783 -0.0078433473 0.11547501 14276821
0.45740911 -0.122948 0.12652639 12959671
0.46100003 -0.12179758 0.12322067 12697012
0.43900001 -0.11085015 0.12947124 12631219
0.444525 -0.11315665 0.126873 13091000
0.45518184 -0.11483363 0.12338023 13091257
0.46085715 -0.11744841 0.12127435 13091000
0.43611994 -0.10410636 0.12657298 13025464
0.44402635 -0.10558005 0.12317566 13025465
0.45407143 -0.108124 0.12137751 13222586
0.41762501 -0.091154769 0.12841992 12434099
0.42486802 -0.094130442 0.12529238 12565428
0.43258068 -0.097926028 0.1234805 12893879
0.44000003 -0.099772125 0.12049574 13025977
0.40852001 -0.080967009 0.1246904 12631478
0.41283926 -0.085613586 0.1254779 12631221
0.42083335 -0.089186788 0.12132103 12762807
0.39900002 -0.070859782 0.12514685 12894649
0.40345564 -0.075154759 0.12473712 12697271
0.3939718 -0.065087326 0.12485503 12828857
0.38587496 -0.054713916 0.12511262 12828601
0.37807149 -0.0424257 0.12363917 12105392
0.38153169 -0.046336062 0.12516063 12630965
0.36373588 -0.034213599 0.124942 2501930
0.37125 -0.03920709 0.12209308 2172452
0.36385787 -0.025015773 0.12494057 2436396
0.36785188 -0.019048231 0.12596388 9738646
0.37605688 -0.014397264 0.12536369 13750474
0.38028577 -0.011513183 0.12156577 14605526
0.37900004 -0.0096369386 0.12863353 14474455
0.38135141 -0.0071973428 0.12485398 14408408
0.45566669 -0.12335905 0.13166118 12762805
0.4390001 -0.11173102 0.13277461 12236722
0.4401539 -0.11328264 0.13496321 11974064
0.4370302 -0.10602169 0.13476782 11908015
0.44000003 -0.10904256 0.13903661 11316392
0.41627273 -0.091382146 0.13215806 11711148
0.42600003 -0.097263969 0.13211328 12039599
0.43050003 -0.099633567 0.13301475 12105136
0.40900001 -0.080295525 0.13067704 12302772
0.41222388 -0.084607206 0.13404609 11579306
0.405415 -0.075077593 0.13397591 11842477
0.41000003 -0.079532035 0.13627556 11316391
0.38900003 -0.060887951 0.13384888 11710635
0.39347622 -0.065070219 0.13242003 12105393
0.38539129 -0.055227507 0.13297832 12105393
0.36833337 -0.040503595 0.13650997 6384231
0.37659091 -0.043765455 0.13416125 11842478
0.38104081 -0.047464833 0.13291058 12433845
0.36510935 -0.035886254 0.13361004 1516060
0.37 -0.037125748 0.13943774 1712924
0.36301929 -0.024686672 0.13196979 1712671
0.36608335 -0.019163016 0.13239066 11646900
0.3758463 -0.013324768 0.1341466 13421511
0.37842861 -0.0073438473 0.1355406 14145748
0.38044 -0.0055042948 0.13168623 14013652
0.44000003 -0.1100726 0.14006665 11776943
0.36411768 -0.040792719 0.14626539 5726302
0.36402249 -0.035362627 0.14642209 1054737
0.36999997 -0.037039127 0.14177641 1383960
0.36345211 -0.024752643 0.14671662 1382160
0.36100003 -0.018686708 0.14935645 5576989
0.359 -0.04106456 0.15570262 1383446
0.36055553 -0.041180067 0.15416317 1844512
0.3585856 -0.034063846 0.15697284 1514517
0.3608796 -0.035365041 0.1530972 1515288
0.35841647 -0.025287438 0.15681642 1317654
0.3605659 -0.024573585 0.15250681 1842711
0.36064711 -0.018606227 0.15239955 4334114
0.34459993 -0.041259859 0.16723615 1778459
0.35492858 -0.040832944 0.16460487 659468
0.36053851 -0.041111425 0.16184153 1777691
0.34476975 -0.034864902 0.16686621 1581080
0.35520515 -0.034924403 0.16299202 1383702
0.36000001 -0.038966686 0.16105749 1383447
0.34513676 -0.025099616 0.1667158 1646619
0.35556465 -0.026211139 0.16240083 1581082
0.34514284 -0.019508943 0.16653077 1711901
0.33688104 -0.041257109 0.17597038 1711900
0.34041178 -0.041516617 0.1713188 1646618
0.3366136 -0.035434306 0.17604348 1646362
0.34056929 -0.035047062 0.17162979 1646617
0.33744162 -0.025536688 0.17541741 1777946
0.34035003 -0.02447064 0.17136751 1778203
0.33779997 -0.019265549 0.17601106 2172705
0.34023076 -0.019311957 0.17190181 1711900
0.3328822 -0.04135552 0.18327186 1778205
0.33221835 -0.034890719 0.18391016 1909791
0.3327612 -0.025439521 0.18374522 1975328
0.33500001 -0.018713271 0.1803603 1776662
0.79200006 0.097596079 0.29847214 10856096
0.79153574 0.12500164 0.30551383 11053475
0.79025 0.07934317 0.31862426 10592925
0.79177278 0.085605092 0.31515062 10724510
0.79000002 0.07821539 0.32503268 10592668
0.79123342 0.085463189 0.32504076 10790047
0.79000002 0.078393228 0.33516884 10527131
0.79084009 0.085420705 0.33506152 10790046
0.79029417 0.078068808 0.34484488 10461337
0.79050016 0.085184261 0.34476778 10658716
0.79106683 0.094703764 0.34534332 10790303
0.792 0.10508493 0.34524721 10856096
0.79204541 0.095072366 0.35546437 10724510
0.79066688 0.10483532 0.35534886 10725280
0.79171431 0.115368 0.35522404 10856352
0.79182345 0.12510546 0.35516006 10856609
0.79075009 0.13504289 0.35422719 10922402
0.78900003 0.14386472 0.35737109 10987683
0.79057705 0.14468607 0.35381186 10856866
0.79221427 0.15399277 0.35478467 10922659
0.79151613 0.18459217 0.35495347 11184805
0.79100007 0.19476381 0.35492799 11053475
0.79183334 0.10498833 0.36514524 10790303
0.79152006 0.11514016 0.36499816 10790303
0.79079449 0.12543252 0.36531481 10921889
0.79010373 0.13515277 0.36510995 10921890
0.79064012 0.14462686 0.36459401 10921891
0.792 0.18450338 0.36487117 11119012
0.79188013 0.19490951 0.36479431 11119268
0.79078573 0.087661736 0.373914 10592924
0.78900009 0.12837459 0.37475026 10856350
0.79065007 0.12315615 0.37505415 10921888
0.78900003 0.13242319 0.37594435 10856864
0.79005879 0.13690458 0.37455058 10856609
0.79200006 0.14467178 0.37490132 10921890
0.80585724 0.21236195 0.37430376 2826526
0.78900003 0.085220478 0.38415352 10396315
0.79000002 0.08773271 0.38575009 10396315
0.78900003 0.12893431 0.38107505 10856096
0.7906431 0.12459484 0.38508517 10856096
0.78900003 0.13278235 0.38092119 10856609
0.79042864 0.13577713 0.38546708 10790816
0.79210711 0.14509572 0.38507089 10790817
0.80575001 0.21223257 0.38405475 2958109
0.79036367 0.08805909 0.39541587 10396315
0.79096562 0.094756417 0.3951351 10461852
0.79095656 0.095013902 0.40531379 10462108
0.79144454 0.095984884 0.41529679 10462108
0.79161543 0.097050123 0.42462796 10462108
0.7911669 0.10552062 0.43435007 10462109
