# .PCD v0.7 - Point Cloud Data file format
VERSION 0.7
FIELDS x y z rgb
SIZE 4 4 4 4
TYPE F F F U
COUNT 1 1 1 1
WIDTH 307
HEIGHT 1
VIEWPOINT 0 0 0 1 0 0 0
POINTS 307
DATA ascii
0.44166672 -0.032486048 -0.061595481 12959416
0.43859982 -0.024194036 -0.063023947 14604498
0.44016662 -0.02441548 -0.067042045 14735827
0.4384501 -0.016151052 -0.062658772 15986923
0.44054833 -0.014928243 -0.06629321 15921387
0.44295242 -0.0069639613 -0.062732421 14474713
0.43661109 -0.032846376 -0.05220829 12959672
0.44170004 -0.033261143 -0.057564974 12827830
0.43575865 -0.024711957 -0.05498337 14604754
0.44000003 -0.029728865 -0.058732599 13486530
0.43585718 -0.01460615 -0.05496525 15921387
0.44000003 -0.010157955 -0.059762646 16053486
0.43892315 -0.0084731299 -0.05258216 14737630
0.44109088 -0.0064881616 -0.05540663 14145238
0.44800001 -0.040757149 -0.040922493 13091772
0.43527859 -0.033237625 -0.045920838 12894138
0.44369233 -0.037255123 -0.041643519 12104878
0.42873329 -0.023012856 -0.041036639 15329248
0.43151888 -0.025233626 -0.045829322 14670547
0.42883334 -0.019269694 -0.040845152 15790315
0.43240809 -0.014652184 -0.045092922 15790316
0.43675756 -0.0076641911 -0.044983938 14342874
0.44000003 -0.0039776675 -0.048432119 12237494
0.44884211 -0.041774116 -0.036300376 12828599
0.42850003 -0.030958116 -0.030615281 13157310
0.43336669 -0.032023497 -0.034620985 13091515
0.44571057 -0.037427358 -0.036375452 12170926
0.42661339 -0.024620105 -0.034512162 15065819
0.43033338 -0.028516488 -0.037854441 13881030
0.42736632 -0.016301513 -0.034362767 15790572
0.43034783 -0.01203695 -0.036508165 15395816
0.43278268 -0.008006149 -0.03495862 13816530
0.44613045 -0.041815799 -0.024673913 12368047
0.42670593 -0.031417191 -0.024056565 12894394
0.43381819 -0.034892384 -0.025808949 12499635
0.44240004 -0.038695823 -0.023941433 12039084
0.42316163 -0.025084231 -0.025244102 14868441
0.42437622 -0.015504364 -0.025301982 15593194
0.42733335 -0.009448438 -0.024951724 13684942
0.43000004 -0.0084171351 -0.028876364 13619151
0.41900003 -0.030271763 -0.010808671 13748930
0.42185199 -0.031978652 -0.014989599 13157563
0.44400004 -0.039353836 -0.019768875 12170670
0.41781238 -0.023966983 -0.013791843 15132127
0.42032364 -0.02628837 -0.017789235 14605268
0.41812122 -0.017660273 -0.013487324 15856365
0.42101616 -0.014072734 -0.016203713 15066852
0.42428571 -0.009511238 -0.016055465 12895427
0.4172619 -0.032148153 -0.0040230951 13289150
0.4213779 -0.036497004 -0.0049961857 12237231
0.41460517 -0.024804708 -0.0047624852 15000797
0.41653025 -0.01611837 -0.0045929872 15395815
0.42055005 -0.011677372 -0.0064681419 14145752
0.42245454 -0.0088511771 -0.004509998 12369854
0.41311115 -0.032624058 0.0051255529 13091771
0.42050004 -0.0377637 0.0014581962 11842217
0.40899998 -0.025480011 0.0089339362 14934490
0.41135547 -0.024743248 0.0044498062 15066332
0.41500005 -0.014973929 0.0056920508 15001315
0.42000002 -0.010679457 0.0019474914 13948886
0.41866669 -0.0093392655 0.0088012721 12962249
0.42176932 -0.0079868035 0.0045347763 12698817
0.40796971 -0.031617511 0.016270667 13552579
0.41157499 -0.035062015 0.014676397 12631220
0.40684569 -0.025106523 0.015211276 15066334
0.40814906 -0.017796801 0.01658776 15461607
0.41246885 -0.013725585 0.013751063 14672351
0.41633335 -0.0092857881 0.012483018 12172987
0.405 -0.033253681 0.025310716 13223613
0.41175002 -0.037581887 0.021187812 12104876
0.40290108 -0.025417052 0.024807684 15001053
0.40639126 -0.016118031 0.022584537 15067364
0.39844447 -0.031170867 0.038327623 14079179
0.40134737 -0.034152381 0.034686726 13157821
0.39803395 -0.025849897 0.037630424 15000798
0.40027943 -0.024578139 0.032832917 15066848
0.40291589 -0.015525475 0.034919985 14672093
0.40533337 -0.0090415934 0.036659207 11843763
0.40075001 -0.040759001 0.047357872 11906984
0.39689749 -0.03343353 0.045671217 13552579
0.40014282 -0.03737383 0.043640412 12499378
0.39536598 -0.024790972 0.045236621 15132385
0.3976177 -0.018322075 0.045779999 15395816
0.40115008 -0.014312269 0.044116359 14343130
0.40440002 -0.0089568384 0.042203873 11975606
0.39510003 -0.040754154 0.057232458 11973546
0.40000001 -0.040135942 0.050547928 11973289
0.39375201 -0.034901787 0.055079076 13486787
0.39198342 -0.024646426 0.055034209 15198179
0.39450768 -0.01694713 0.055270042 14935524
0.40042859 -0.012993372 0.051271282 14211033
0.38875002 -0.041964993 0.066301741 11973549
0.391 -0.040896919 0.063137271 12368050
0.38848108 -0.03459537 0.06687551 14210511
0.39084452 -0.036068399 0.062300202 13552581
0.38833353 -0.025754768 0.065463565 15131872
0.39038891 -0.0217553 0.061467394 15461354
0.38895234 -0.018084679 0.068142973 15263973
0.39117017 -0.017114889 0.063787565 14935267
0.38756001 -0.041647021 0.076410547 12631221
0.39100003 -0.044724911 0.079616755 12170670
0.38533843 -0.035000075 0.075218737 12170414
0.38490105 -0.025135553 0.075174615 12499125
0.38740909 -0.01670119 0.074239954 14540252
0.40500003 -0.060548 0.089104272 11775912
0.39785716 -0.05096418 0.088461481 12170669
0.40318632 -0.054344449 0.086683467 12105132
0.38615257 -0.04250668 0.085533559 11645869
0.3933236 -0.047081977 0.085531652 12105390
0.40100002 -0.049311627 0.083525807 12039339
0.37848574 -0.033091631 0.087674566 2567720
0.38140419 -0.035434227 0.083766118 2765101
0.37839219 -0.026259964 0.087574072 2698795
0.38125581 -0.024117015 0.08352308 3027248
0.38486585 -0.015725238 0.085239597 14145751
0.3871136 -0.007904618 0.085901983 12633028
0.39052382 -0.004965215 0.083612889 12764357
0.40151215 -0.06252382 0.095938936 12170156
0.39624691 -0.054186955 0.095718898 12434098
0.40072003 -0.05773193 0.093073882 12236463
0.38477778 -0.043644972 0.095086016 11382183
0.3916364 -0.048632707 0.093495779 12171184
0.37681186 -0.034391664 0.095320389 2567466
0.38038465 -0.039058227 0.093619034 2370345
0.37638637 -0.025143974 0.095058687 2633261
0.38000003 -0.020337408 0.091165498 3947575
0.37854546 -0.019050959 0.09794493 13160397
0.38344517 -0.014718456 0.094738394 14343130
0.38529038 -0.0087491646 0.094543934 12567491
0.3984139 -0.061333168 0.10566358 12368048
0.40073317 -0.064708315 0.1050138 12236463
0.38837501 -0.051775053 0.10703818 12302257
0.39465079 -0.056034114 0.10360978 12565428
0.37828574 -0.040993597 0.10669102 11382440
0.38397983 -0.045704748 0.10483966 12236719
0.36878571 -0.032318022 0.10913316 2173737
0.37340453 -0.035075307 0.10471444 2370602
0.3688519 -0.025560364 0.10894257 2238501
0.37240162 -0.024600672 0.10416906 2501674
0.3776111 -0.018069411 0.10460766 12961216
0.38162792 -0.013366501 0.10490064 14539993
0.37866667 -0.0028324879 0.10724523 12304064
0.38327286 -0.0080667762 0.1048871 13553358
0.47066668 -0.10207277 0.11909858 12302254
0.45900002 -0.090111606 0.11817727 11907498
0.46478572 -0.094481774 0.11791415 12236461
0.4738 -0.096612617 0.11604381 12302255
0.48092306 -0.094502926 0.11377518 12368047
0.45900002 -0.088822179 0.11731765 11775912
0.4605 -0.088789612 0.11532936 11907496
0.40647063 -0.070899233 0.11623247 12236465
0.41220003 -0.073206827 0.11442299 12170928
0.42200002 -0.078896075 0.11754218 11841961
0.39707151 -0.062020808 0.11577486 12433587
0.40273774 -0.066660866 0.11503182 12302001
0.3874737 -0.052457448 0.11559092 12302513
0.39194739 -0.057280622 0.11468963 12433842
0.37686366 -0.041627005 0.11358897 10395545
0.38267538 -0.046467397 0.11500878 12236976
0.36724335 -0.033768289 0.11521019 2173220
0.37156519 -0.038456053 0.11381255 2501672
0.36736503 -0.025165694 0.11522929 2238243
0.37579376 -0.016138576 0.11682572 12697271
0.38060769 -0.012594407 0.11369838 14277077
0.37831584 -0.0016494837 0.11362516 12106683
0.38141868 -0.0066575096 0.11524849 13750736
0.377 0.00056339923 0.11339242 12238269
0.44900003 -0.1007618 0.12926714 12433842
0.45644447 -0.10284809 0.12879211 12302256
0.46556816 -0.10390601 0.12530579 12302254
0.47000003 -0.10481433 0.12188964 12236718
0.43628573 -0.09280479 0.12837008 12171183
0.44500005 -0.095698699 0.12824725 12302256
0.45523083 -0.096897639 0.12645294 12170669
0.46353132 -0.096837506 0.12283349 12236461
0.41900003 -0.081277862 0.12847723 12105134
0.42385015 -0.084479928 0.12605843 11973804
0.43150002 -0.088247702 0.12372322 11973804
0.44000003 -0.089471646 0.12255584 12170668
0.40687996 -0.072339743 0.12403265 12170671
0.4141154 -0.077354819 0.1272403 12039342
0.42100003 -0.079694688 0.12120593 12039597
0.39620006 -0.062886193 0.12541884 12236720
0.40159085 -0.067691915 0.12437661 12236463
0.3856824 -0.053461615 0.12476347 12302512
0.39111114 -0.058727153 0.12312717 12434099
0.37641457 -0.042437945 0.12551574 11249825
0.38169014 -0.047111109 0.12494845 12237233
0.36385286 -0.034344211 0.12503769 2435880
0.37133336 -0.039578311 0.12197328 2434080
0.36386928 -0.02505606 0.12491331 2501417
0.36765218 -0.019151762 0.12657273 10592926
0.37561786 -0.014439598 0.1248734 12895165
0.37865305 -0.0072936462 0.12670538 13948368
0.38041022 -0.0061786775 0.12280847 14013907
0.45787504 -0.11106145 0.13584003 12171440
0.44807145 -0.10197776 0.13424234 12039855
0.45406979 -0.10652626 0.1342573 12105648
0.46000001 -0.10969155 0.1302803 12433840
0.42816666 -0.090573423 0.13429345 11447977
0.43407145 -0.093644336 0.1331273 11776684
0.44266671 -0.09851367 0.13283107 11974319
0.41859999 -0.080612674 0.1316863 11841964
0.4230423 -0.084918119 0.13515176 11382184
0.40729415 -0.071213074 0.13341153 11644585
0.41493753 -0.07614737 0.13518047 11513256
0.42000002 -0.079505384 0.13812451 11119013
0.39497146 -0.062993392 0.13248746 11776172
0.40235713 -0.068094127 0.13286035 11710635
0.38446152 -0.053545292 0.13186119 11907756
0.39084613 -0.058925577 0.13286485 11710634
0.36715385 -0.040477019 0.13485883 5197646
0.37657779 -0.04471153 0.13280405 11644584
0.38057151 -0.048623521 0.13200788 12105135
0.36376566 -0.03549812 0.13305096 1514779
0.36340016 -0.024746818 0.13250265 1777437
0.36661112 -0.018663757 0.13363217 9672085
0.37458113 -0.013085552 0.13410947 11776944
0.37707806 -0.0068333871 0.13363832 13553612
0.45886362 -0.11195994 0.1431914 11579563
0.45717862 -0.10722419 0.14420196 11447977
0.4237273 -0.084364779 0.14110722 10855841
0.417 -0.077474356 0.14055462 10592925
0.42000002 -0.079505384 0.1410742 10592926
0.36359999 -0.040863149 0.14632237 5197899
0.36462516 -0.035730779 0.14610596 988689
0.37033334 -0.033207815 0.14380269 1054484
0.36361399 -0.024908999 0.14707957 1316366
0.37042856 -0.028249472 0.14517355 988688
0.36100003 -0.018644452 0.14922969 5512221
0.36054289 -0.041216832 0.15472825 1777433
0.35876191 -0.032799281 0.15887842 1514773
0.36110651 -0.035092704 0.15438277 1514261
0.3588334 -0.026997568 0.15893684 1383445
0.36082947 -0.024732901 0.15448439 1514516
0.36100003 -0.018823415 0.15319672 3679265
0.34303707 -0.041140564 0.16736454 1909532
0.35477781 -0.040715817 0.1645491 791053
0.3601667 -0.040776625 0.16130719 1382674
0.3438668 -0.034892291 0.16697067 1581081
0.35529017 -0.034951162 0.16322079 1317909
0.36000001 -0.038819201 0.16044648 1053710
0.34454793 -0.025573889 0.16695723 1515290
0.35634485 -0.027336 0.16252603 1515546
0.36066672 -0.023242632 0.1646283 1383451
0.34300002 -0.01969547 0.16914336 1712155
0.33721432 -0.041109569 0.17602995 1646362
0.33999994 -0.041677039 0.17111306 1515032
0.33742869 -0.035598107 0.17497671 1515289
0.34017652 -0.035397809 0.17106056 1515032
0.33771765 -0.025765875 0.1738674 1646620
0.34041861 -0.024221949 0.17100744 1777947
0.33700001 -0.019613916 0.17591463 1908769
0.34250003 -0.019733282 0.17056632 1777175
0.33269221 -0.041390672 0.18368581 1580827
0.33155081 -0.035861801 0.18553931 1843742
0.3307097 -0.026664006 0.18609132 1843745
0.78900003 0.085220478 0.37214762 10198938
0.79022223 0.088435866 0.37467572 10264732
0.78900003 0.085220478 0.38415352 10264729
0.79000002 0.08773271 0.38575009 10133144
0.79045451 0.087901421 0.3937791 10133145
0.79079998 0.088747106 0.40391213 10198938
0.79148149 0.095097877 0.40498713 10264731
0.79123348 0.16511019 0.40468869 10593694
0.79136372 0.17490542 0.40500745 10593696
0.79055005 0.095845342 0.41535082 10330010
0.79100019 0.15498213 0.41508061 10527646
0.79070389 0.16499971 0.41501057 10593439
0.78900003 0.17942071 0.41555357 10725025
0.79015183 0.17463738 0.41515028 10659232
0.78899992 0.18397678 0.415923 10593184
0.79000002 0.18618268 0.41386098 10658979
0.79074097 0.19462815 0.4146179 10527650
0.78900003 0.098457761 0.42725167 10133915
0.79014289 0.096706882 0.4227612 10264988
0.78899997 0.10540624 0.42676789 10199708
0.79070008 0.10474817 0.42237091 10264731
0.78900003 0.1147735 0.42755947 10199708
0.79075003 0.11502806 0.42295226 10331037
0.78900003 0.12427266 0.42821914 10331294
0.7884286 0.13525638 0.42830357 10396317
0.78818172 0.14543557 0.42736569 10396317
0.78870004 0.1531345 0.42739612 10396317
0.79022735 0.15539712 0.42368287 10527390
0.79078591 0.16501768 0.42515469 10593439
0.79080796 0.1747044 0.42526466 10593182
0.79140002 0.18506277 0.42515716 10658719
0.78900003 0.099073455 0.4303301 10068122
0.78872216 0.10621906 0.43284491 10264988
0.7889998 0.11491558 0.43423727 10396060
0.78844434 0.12484325 0.43464124 10330781
0.78711545 0.13497947 0.43476036 10265501
0.78648269 0.14494646 0.4345465 10331294
0.78866649 0.15495948 0.43514904 10331037
0.79000002 0.15930465 0.43395784 10462109
0.79044008 0.16494608 0.43481609 10527646
0.79029417 0.11594097 0.44376984 10330524
0.78884983 0.12555429 0.44363695 10330781
0.79000002 0.12185422 0.44705778 10462110
0.78850007 0.13469838 0.44359484 10330781
0.79000002 0.13803652 0.44752014 10330524
0.78892314 0.14488094 0.4425061 10396574
0.7906667 0.14504236 0.44707578 10396317
0.78900003 0.15448534 0.44256687 10264987
0.7902 0.15564428 0.44566071 10462110
0.7907601 0.16501351 0.44424888 10527646
