# .PCD v0.7 - Point Cloud Data file format
VERSION 0.7
FIELDS x y z rgb
SIZE 4 4 4 4
TYPE F F F U
COUNT 1 1 1 1
WIDTH 344
HEIGHT 1
VIEWPOINT 0 0 0 1 0 0 0
POINTS 344
DATA ascii
0.44300005 -0.013338426 -0.070540838 15526113
0.44350004 -0.0076419828 -0.070620447 16250864
0.43861538 -0.022052936 -0.061549492 13222075
0.43851432 -0.0150505 -0.061937712 15393757
0.44138625 -0.013549003 -0.066882722 15657185
0.43900001 -0.0091071613 -0.060654528 16776439
0.44310969 -0.0053794747 -0.064662896 15855596
0.44400004 0.00014382001 -0.061345357 15131874
0.43739578 -0.023156812 -0.055341754 13354172
0.44000003 -0.026638722 -0.056672502 12695729
0.43473345 -0.014616099 -0.054477103 15525602
0.43700004 -0.0054520173 -0.052989356 15921903
0.44084615 -0.0035077492 -0.057498734 15526888
0.44107148 0.00088129524 -0.053790923 13750735
0.43385515 -0.023852836 -0.04500943 13617088
0.42893326 -0.014454499 -0.040720619 15921386
0.43097401 -0.015218148 -0.045596488 15525858
0.43392038 -0.005722418 -0.044986103 15724268
0.43866667 0.00014209242 -0.044179991 13224394
0.44033337 0.00065843662 -0.048469201 13290443
0.43429995 -0.031683587 -0.034067921 12301741
0.4276818 -0.022026118 -0.033471819 14209483
0.43122226 -0.026272653 -0.035332795 13288380
0.42666301 -0.015292993 -0.03493977 15855337
0.43000001 -0.019993469 -0.039278284 14669521
0.42800006 -0.0082313325 -0.03353915 16184561
0.43139628 -0.004370389 -0.035616647 14935010
0.43533337 0.00014101272 -0.037727993 12961222
0.42900002 -0.030994238 -0.020105304 12564656
0.43573686 -0.031748202 -0.025705449 12236206
0.44 -0.033643048 -0.02824318 12170670
0.42491055 -0.023922652 -0.02449058 14012360
0.43237498 -0.028015371 -0.027478933 12828600
0.42296997 -0.015208388 -0.025278194 16052716
0.42602751 -0.0065372032 -0.025065852 15263717
0.43100002 -0.00086936972 -0.029279845 12961221
0.42900002 -0.030994238 -0.016088119 12499633
0.43200004 -0.032477275 -0.017208233 12236204
0.41796878 -0.02292086 -0.012587946 14605011
0.42221048 -0.025381157 -0.017033955 13749700
0.41803324 -0.015715666 -0.013476922 15922156
0.42037511 -0.014082941 -0.017856663 15987693
0.42188141 -0.0072246562 -0.015561385 15066853
0.41871431 -0.030531377 -0.0015599643 12762548
0.42055559 -0.032463752 -0.0014402467 12433584
0.41583019 -0.024547892 -0.0047276677 14341838
0.41572484 -0.01498445 -0.0049286173 15922158
0.41839999 -0.0079281097 -0.0030249923 14737890
0.42054564 -0.006485879 -0.0071505811 14408926
0.41660005 -0.032269489 0.0055333236 12499633
0.42054549 -0.034948185 0.0026653081 12170668
0.40888888 -0.021990173 0.0088089965 15395039
0.41226891 -0.02513271 0.0049581658 14211021
0.40889996 -0.018629169 0.0088837268 16119020
0.41236675 -0.014694249 0.0048674494 15922157
0.41620374 -0.0072244345 0.0049746837 14212315
0.40875003 -0.03120622 0.018879998 13025977
0.41462499 -0.033093862 0.013858368 12565426
0.40719181 -0.024604045 0.015784087 14736854
0.41125003 -0.028510313 0.012074985 13618114
0.407594 -0.016084662 0.015561461 15921902
0.41080952 -0.011498224 0.012984695 15658987
0.41219231 -0.008511412 0.014076298 14277337
0.40746987 -0.032926202 0.025359267 12762805
0.41000003 -0.037300069 0.027816193 12170668
0.40346989 -0.024903856 0.025005488 14802904
0.40560362 -0.015056507 0.025067572 15724524
0.40885711 -0.0093021998 0.027464421 14474975
0.41108337 -0.008445113 0.021712134 14408925
0.40297019 -0.033326179 0.035127718 12960185
0.39811376 -0.024061423 0.038276348 15198176
0.40062198 -0.02541214 0.033307463 14934489
0.39885715 -0.01881198 0.038398094 16053743
0.40245843 -0.01525532 0.033978943 15593452
0.40800002 -0.0094191944 0.031501044 14014938
0.39732084 -0.032868437 0.046414953 13618371
0.40065849 -0.03617781 0.043858126 12828599
0.39550808 -0.024961691 0.045207761 15132382
0.39742646 -0.016929919 0.045334369 15790572
0.40040737 -0.013269593 0.042613767 15001059
0.39600003 -0.04108322 0.056611981 12367277
0.39434972 -0.034795415 0.055175506 13618114
0.39204094 -0.02465206 0.055043064 15395299
0.39527765 -0.015431191 0.05469818 15263974
0.39423078 -0.041262217 0.063944936 12104364
0.38859269 -0.033584181 0.067365833 14736856
0.39128131 -0.03585957 0.06311287 13881288
0.38851491 -0.025663964 0.066212282 15329251
0.39018756 -0.023621483 0.061382152 15592679
0.389 -0.019388054 0.068281636 15790063
0.39362726 -0.015486818 0.065026626 15263976
0.40000001 -0.010405012 0.068573765 13158859
0.40300003 -0.0083603328 0.069795646 13422544
0.38823998 -0.041465238 0.075632565 12630452
0.39133334 -0.044152815 0.076629601 12630708
0.40133333 -0.049039185 0.079528891 11907498
0.38560769 -0.035009868 0.07526464 12696502
0.38551533 -0.025142215 0.075268976 12828347
0.38777784 -0.017826729 0.075395569 15527402
0.39303342 -0.014185833 0.073003374 14671840
0.40081823 -0.010702909 0.074028306 12830407
0.40327272 -0.0090523353 0.074482568 12567492
0.49900001 -0.075185195 0.086421899 12893619
0.50199997 -0.073282734 0.084881961 12696240
0.40000001 -0.060736902 0.08894062 12630451
0.3971509 -0.054312874 0.087688446 12762550
0.4008621 -0.052840449 0.083432913 12762550
0.38625398 -0.04276821 0.085651219 12697016
0.39345106 -0.0473198 0.084438317 12762807
0.40024999 -0.049296848 0.081265584 12368049
0.37845457 -0.033322897 0.087269455 2699307
0.38153571 -0.035608318 0.083480462 3093551
0.37837109 -0.026192294 0.087101743 2895663
0.3812764 -0.02391441 0.083269976 3158320
0.38572079 -0.015783032 0.085378297 14343129
0.39100003 -0.013603419 0.080532096 12567235
0.40114287 -0.010467516 0.081545964 12764614
0.38850003 -0.009423404 0.087292835 12895172
0.48183331 -0.093089141 0.098048948 12433327
0.4773334 -0.084526509 0.098933786 12762292
0.4823125 -0.087769181 0.097284973 12762805
0.42715147 -0.074072756 0.098399788 12301741
0.43000001 -0.07535854 0.096617803 11710117
0.39662501 -0.061308619 0.096389204 12827574
0.42600003 -0.069671169 0.099209495 12367278
0.38900003 -0.050870731 0.098788619 13025725
0.39380908 -0.054913301 0.0947714 13288638
0.38546839 -0.044603404 0.09526936 12368308
0.39033338 -0.048811764 0.092070222 12762551
0.37619147 -0.034391038 0.095225379 2699309
0.38040003 -0.039059807 0.09286271 3553333
0.37629125 -0.02510331 0.095005386 2633519
0.38000003 -0.020337408 0.090720698 2502707
0.37850001 -0.0190755 0.097597502 13291725
0.38447872 -0.014898109 0.094799526 14606559
0.38843751 -0.0094784973 0.093581326 12434878
0.46899998 -0.10554951 0.10937332 12893622
0.4712382 -0.10259508 0.10682322 12893880
0.43450004 -0.09089677 0.109835 12564915
0.46827272 -0.094726376 0.10875468 12828343
0.47436002 -0.095141366 0.10570667 12959671
0.48081475 -0.095352598 0.10169797 12762035
0.42889994 -0.080587797 0.10641197 12302000
0.43037504 -0.084746197 0.10753381 12236463
0.46616673 -0.088972725 0.10856122 12368049
0.47566676 -0.086841382 0.10260585 12696498
0.48050004 -0.089833088 0.10065262 13091000
0.40589747 -0.073627934 0.10745391 12762807
0.42613956 -0.07575465 0.10303836 12433072
0.39630643 -0.062978797 0.10502372 13354175
0.40109673 -0.067993619 0.10596421 13091002
0.42500001 -0.069507621 0.10046901 12564656
0.38803777 -0.052563597 0.10593615 13157567
0.39226151 -0.057093836 0.10416829 13354689
0.37817651 -0.040966909 0.10600913 12236980
0.38373473 -0.045875151 0.10491572 12697016
0.37227902 -0.034370493 0.10511767 2567467
0.36899999 -0.025039688 0.10936651 2566953
0.37199986 -0.024737053 0.10446866 2632745
0.37726319 -0.01811821 0.10500737 13552322
0.38242221 -0.013388925 0.10475098 15000543
0.38410002 -0.0096767228 0.105902 14474458
0.4654749 -0.11273344 0.11713191 13156793
0.44550005 -0.1010181 0.11887024 13091771
0.45675004 -0.10330553 0.11768439 13354172
0.46627632 -0.10564055 0.1145487 13288378
0.42733335 -0.090563543 0.11902615 12368049
0.43623084 -0.093004689 0.11587582 12565427
0.44240004 -0.097574189 0.11659209 12894136
0.45266667 -0.098759823 0.11513267 13222329
0.46681246 -0.095983788 0.11209167 12959415
0.40872726 -0.080590159 0.11723676 12960186
0.41277421 -0.083380751 0.11637414 12762807
0.42225003 -0.088827766 0.11908959 12499635
0.43192858 -0.086967871 0.11185608 12236463
0.39900002 -0.070859782 0.11907542 12828346
0.40434021 -0.074788317 0.11478834 12894393
0.39490557 -0.064616531 0.11526463 13025723
0.40016666 -0.068881251 0.11161649 13025723
0.38713685 -0.053840343 0.11532578 13025723
0.39054549 -0.058761597 0.1138481 13157565
0.37740627 -0.041432865 0.11450234 11250340
0.38248113 -0.046454031 0.11509846 12697014
0.36750579 -0.033332225 0.11639415 2369574
0.37147066 -0.036426216 0.11306392 2567723
0.36772218 -0.025188254 0.11535236 2369318
0.37 -0.020668389 0.11561787 2762017
0.37442499 -0.017566452 0.1169057 12631735
0.3814559 -0.012901141 0.11467776 14671834
0.38419652 -0.0079034884 0.11548915 14211543
0.45695648 -0.12315453 0.12704067 12959927
0.46000001 -0.12530616 0.12651125 12828598
0.44565964 -0.11351287 0.12665184 13091256
0.45496079 -0.1149593 0.12284854 13157049
0.46000001 -0.11687067 0.12094743 12959414
0.4364 -0.10419252 0.12687849 12960184
0.44370732 -0.10578387 0.12327629 13156794
0.45388889 -0.10846867 0.12110301 13223100
0.41775003 -0.091181941 0.12845883 12368563
0.42473477 -0.094121553 0.12547469 12565685
0.43326667 -0.097501323 0.12316786 12893880
0.44000003 -0.099772125 0.12049574 13617346
0.40845171 -0.08126837 0.12450295 12631478
0.41304544 -0.086042799 0.12570196 12631478
0.421 -0.089550376 0.12186063 12828600
0.39899999 -0.070859782 0.12354559 12894394
0.40357748 -0.075436637 0.12507614 12697271
0.39381644 -0.064897679 0.12494432 12894393
0.38606027 -0.054643784 0.12504755 12894136
0.37799999 -0.042228077 0.12487774 12039344
0.38148057 -0.046342064 0.1251359 12696758
0.36375785 -0.034203745 0.124977 2633001
0.37 -0.038858097 0.12124803 2435113
0.36406511 -0.025038762 0.12497812 2436395
0.36778262 -0.019158846 0.12620641 9541781
0.37584469 -0.014665679 0.12522162 13618889
0.38038465 -0.01138415 0.12163634 14606040
0.37900001 -0.0096369386 0.12952077 13750990
0.38173255 -0.0069177249 0.12488802 14145748
0.4552857 -0.1238929 0.13344692 12565941
0.43900004 -0.11085015 0.13409592 12105393
0.44355553 -0.11472397 0.13403279 12303027
0.45000002 -0.11942173 0.1327154 12500149
0.43671867 -0.10597081 0.13477509 11908270
0.41699997 -0.09155485 0.13214228 11842478
0.42399999 -0.096221142 0.13255921 11842478
0.43000001 -0.099517845 0.13134681 12105390
0.40900001 -0.080534898 0.13091642 12170927
0.4124698 -0.0848618 0.13416731 11579562
0.40501702 -0.075175464 0.13382715 11842734
0.38900003 -0.060887951 0.1343042 12499894
0.39331114 -0.064832926 0.13245822 12170928
0.38502815 -0.055130892 0.13315775 12105392
0.36781818 -0.040508155 0.13579479 6844526
0.37691668 -0.044408802 0.13413666 12039600
0.38073164 -0.047681808 0.13256727 12565429
0.36514586 -0.03505009 0.13488786 1383703
0.36384472 -0.024708472 0.13496986 1448985
0.36658973 -0.018516537 0.13586272 10130835
0.37520409 -0.013498127 0.13498031 13289925
0.37826934 -0.0076598707 0.13635303 14211032
0.38074356 -0.0054512932 0.13230932 13816530
0.43700001 -0.10318395 0.14013468 11316392
0.36377779 -0.040707182 0.14605099 5659996
0.36485142 -0.035073906 0.14524545 989202
0.36367941 -0.025024535 0.14545491 1447952
0.36400005 -0.017693533 0.14494175 5646888
0.37436369 -0.012374452 0.14091727 11577767
0.37780005 -0.0080135968 0.14155179 13487566
0.35900003 -0.04112459 0.15558256 1515032
0.36050007 -0.041109607 0.15345056 2172706
0.35860792 -0.034283258 0.15684579 1448981
0.36089891 -0.035216086 0.15298763 1581081
0.35852537 -0.025915671 0.15724714 1252115
0.36057311 -0.024306543 0.15303972 1842967
0.36100003 -0.018686706 0.15196221 4925478
0.34457576 -0.041197922 0.16689841 1843741
0.35569236 -0.040684402 0.16458596 462859
0.36054552 -0.040934876 0.16203941 1909532
0.34458306 -0.034898162 0.16683391 1712153
0.35530433 -0.034783378 0.16308101 1383703
0.36000004 -0.03873492 0.1611207 1514519
0.34475896 -0.025211168 0.16667642 1777946
0.35602564 -0.026559075 0.16244178 1712412
0.34200001 -0.019904923 0.16971771 2105119
0.33686107 -0.041117057 0.17582744 1712154
0.34040004 -0.041327637 0.17131297 1842971
0.33705184 -0.035690431 0.17552716 1646618
0.34037098 -0.035142384 0.17122139 1777690
0.33789131 -0.025407517 0.17472558 1777691
0.34024137 -0.024554191 0.1712198 1974300
0.33837503 -0.019297726 0.17514323 2040865
0.34028572 -0.019236282 0.1717675 2039839
0.33279404 -0.041367464 0.18324515 1909279
0.33216706 -0.034884237 0.18388125 1909534
0.33269769 -0.025610477 0.18392526 1975330
0.79182762 0.15487951 0.31496543 11185060
0.79158336 0.15498951 0.35483205 10856866
0.79150009 0.16516699 0.35479325 10988452
0.79123336 0.15491986 0.3648676 10921889
0.79032016 0.16491972 0.36444569 10987682
0.79113811 0.17511746 0.36494905 11053475
0.78900003 -0.16782717 0.37861237 10922659
0.79033333 0.088756621 0.37554944 10592924
0.79128581 0.094533041 0.37474558 10724510
0.79093349 0.16504677 0.37490952 10987682
0.79081839 0.17478566 0.37471545 11053475
0.79177278 -0.17498977 0.38500053 10725282
0.79100007 -0.16514246 0.38493219 10791074
0.79115385 0.095072277 0.38470361 10593437
0.79170591 0.15479392 0.38481525 10921889
0.78900003 0.16833833 0.3804594 11119268
0.79008347 0.16471584 0.38483548 11053475
0.78900003 0.17018539 0.3804594 11119268
0.79075003 0.17442144 0.38516077 10987682
0.79107147 -0.11456551 0.39528042 10856098
0.79132009 0.094734766 0.39454526 10527901
0.78900003 -0.11135981 0.40552667 10659487
0.79078948 -0.11579019 0.40470609 10659487
0.79126924 0.094871715 0.40499252 10462109
0.80366677 0.2122317 0.40383694 2958366
0.78900003 -0.11149175 0.41093594 10659488
0.79100007 -0.11508306 0.41528469 10659488
0.79136008 0.16513553 0.41494399 10921889
0.79079437 0.17541705 0.41529864 10921889
0.79030025 0.18526681 0.4153119 10921890
0.78900003 -0.13273297 0.42742756 10659487
0.78900009 -0.12652011 0.42680389 10593695
0.79096007 -0.12380464 0.42362007 10593696
0.792 -0.11469643 0.42455044 10659488
0.79113346 0.16508827 0.42501009 10790304
0.79028159 0.1748545 0.4251309 10856096
0.79045844 0.18515034 0.42542091 10856353
0.78900003 0.20897371 0.42848301 2893337
0.78800005 0.21055359 0.42978469 2893337
0.78899986 -0.14323206 0.43655181 10593696
0.7910589 -0.14626133 0.43286639 10593695
0.78899986 -0.13501982 0.43340856 10527902
0.79000002 -0.13243885 0.43781075 10527903
0.78900003 -0.1275612 0.43106896 10527902
0.79168189 -0.12450386 0.43566921 10593695
0.78900003 0.15762536 0.43697953 10790305
0.79048163 0.15391751 0.43387827 10724512
0.78900003 0.16525988 0.43617913 10790305
0.79000002 0.16428383 0.43258268 10856098
0.78899986 0.17535716 0.43679485 10790305
0.79000002 0.17476042 0.43219653 10790305
0.78872216 0.18458894 0.43694788 10790561
0.7903077 0.18598102 0.43218106 10790818
0.78892314 0.19432069 0.43824384 10922404
0.79096311 0.19563991 0.43338674 10922402
0.78865373 0.20554353 0.43539545 3090463
0.79066664 0.20231795 0.43123832 6051665
0.78650004 0.21015278 0.43172783 3222302
0.78900003 -0.14344594 0.44289011 10593696
0.79004759 -0.14559186 0.44464096 10527903
0.79176933 -0.13476263 0.44474638 10527903
0.79061562 0.15479973 0.44445279 10790305
0.79024023 0.16490287 0.44395721 10724512
0.78870583 0.17631175 0.44407174 10790305
0.79000002 0.17122304 0.44361585 10790305
0.78710008 0.18451603 0.44311175 10724512
0.7881667 0.1949165 0.44371292 10987684
0.78833342 0.20402926 0.44273093 3287845
