# .PCD v0.7 - Point Cloud Data file format
VERSION 0.7
FIELDS x y z rgb
SIZE 4 4 4 4
TYPE F F F U
COUNT 1 1 1 1
WIDTH 824
HEIGHT 1
VIEWPOINT 0 0 0 1 0 0 0
POINTS 824
DATA ascii
0.78657144 -0.14416611 0.1278038 13288894
0.79238886 -0.1452571 0.12311085 12236462
0.77900004 -0.13287435 0.1294442 14606292
0.7856819 -0.13509646 0.12661766 13288381
0.79250002 -0.13564055 0.12194432 12433584
0.77900004 -0.12922704 0.1294442 14606292
0.78523088 -0.12495654 0.12686402 13288894
0.79258341 -0.12498578 0.12149445 12368047
0.7865237 -0.11521517 0.12753256 12960183
0.79262501 -0.11513305 0.12254253 12236716
0.78781819 -0.10520384 0.12789021 12762289
0.79371434 -0.10494468 0.12321219 12302509
0.78850007 -0.094808072 0.12825336 11380378
0.7935909 -0.094998002 0.12367184 12171437
0.78778583 -0.084315933 0.12734555 11447459
0.79212505 -0.085278355 0.12258192 12171695
0.78793335 -0.075371198 0.12723777 10921630
0.79121059 -0.074515201 0.12240494 12040622
0.78872734 -0.065543503 0.12837455 10987684
0.79204768 -0.064550623 0.12348527 11843243
0.78844452 -0.055117488 0.12834686 10526358
0.79340899 -0.055209484 0.12355886 12039852
0.78850007 -0.045707203 0.12843806 11447717
0.79400015 -0.044797853 0.1240483 11908779
0.78900003 -0.034838628 0.12925881 11382183
0.79394108 0.025074024 0.12563543 10986650
0.78900003 -0.16043893 0.13849412 10196110
0.77775002 -0.1513243 0.13833836 10920602
0.78620011 -0.15471794 0.13603634 11577505
0.79212499 -0.15690444 0.13255014 11051420
0.77508348 -0.14430445 0.13597095 14013132
0.78371429 -0.14756939 0.13205823 14604755
0.7740835 -0.13475417 0.1349649 13354686
0.7743668 -0.12483204 0.13501473 13420222
0.77526486 -0.11520838 0.13543788 13157307
0.78150004 -0.11226144 0.13077262 15131609
0.77596009 -0.10510681 0.13620164 12565172
0.78284615 -0.10476952 0.13120933 14868438
0.77679187 -0.095217921 0.13725801 12302517
0.78413326 -0.095200233 0.13212927 13750472
0.77690005 -0.085229442 0.13727662 11447973
0.78300011 -0.084983483 0.13193877 14145486
0.77699995 -0.075433008 0.13741291 11514279
0.78287506 -0.074658111 0.1321466 14409429
0.77726674 -0.06525398 0.13825198 11315878
0.7840001 -0.064900286 0.13302135 13686219
0.77668184 -0.054873753 0.13748603 11447466
0.78418756 -0.055048883 0.13236645 14079949
0.77595007 -0.045160897 0.13710894 11512736
0.78405547 -0.044713605 0.13211559 13355713
0.77636379 -0.035520233 0.13742931 11972004
0.7849412 -0.034336485 0.13269518 12763065
0.77638465 -0.025612803 0.13837512 10919061
0.78554159 -0.024800295 0.13366456 12697016
0.79000002 -0.020087549 0.13127203 10328725
0.7770834 -0.015209931 0.13912986 9932681
0.78554541 -0.014956418 0.13528933 13026492
0.79000002 -0.014539337 0.13127203 10592664
0.77775002 -0.0049837586 0.13902135 9539971
0.78589994 -0.0052648503 0.13518336 13224381
0.79000002 -0.0052923169 0.13127203 10985363
0.77733332 0.0040947041 0.13887155 10000271
0.78533345 0.004849412 0.13508557 13157817
0.79000002 0.0048794062 0.13127203 10918796
0.77866673 0.013013114 0.13850318 11973802
0.78513628 0.015208637 0.1354679 13222838
0.79000002 0.015051129 0.13127203 11050122
0.78563327 0.025085267 0.13605469 13419705
0.79016668 0.025229149 0.13129972 11180172
0.78645456 0.034985136 0.13670175 12894648
0.79037499 0.036105491 0.13202786 11248282
0.78663635 0.044952717 0.13732105 12830141
0.79049999 0.044669848 0.13227983 11053217
0.78735721 0.054958109 0.1361592 12170666
0.79099995 0.054882705 0.1314382 12829370
0.78690904 0.064813368 0.13711739 12235948
0.79055554 0.06544172 0.13218631 13158591
0.78686947 0.075058453 0.13707425 12039854
0.79049999 0.075204335 0.13227983 13092287
0.78705001 0.085010566 0.13722633 12366506
0.79049999 0.085382491 0.13227983 12565170
0.78826314 0.094466656 0.1372948 13091514
0.79009092 0.09492223 0.13246404 11776427
0.78723818 -0.16403285 0.14502732 10131346
0.79016668 -0.16838358 0.14363103 10460312
0.77557904 -0.15369929 0.14464115 11775143
0.78171438 -0.1584347 0.14400721 14473167
0.77224255 -0.14487098 0.14557679 13025466
0.77224249 -0.13467799 0.14508413 12696242
0.77308005 -0.12462503 0.14474893 12498864
0.77400011 -0.11480761 0.14492111 12367788
0.77475989 -0.10494446 0.14506383 11972262
0.77516651 -0.095018812 0.14513941 12235695
0.77523994 -0.085047439 0.14515309 11841448
0.77503318 -0.07504499 0.1451142 12696754
0.77568001 -0.065120444 0.14523546 12763063
0.77503312 -0.055087339 0.1451142 12041142
0.77459997 -0.045083374 0.14503339 11842734
0.77420008 -0.035091572 0.14495769 12433840
0.77424002 -0.025124442 0.14496477 11973288
0.77469993 -0.015163415 0.14505084 12038309
0.77533329 -0.0052614319 0.14476545 12170411
0.77545458 0.0049828072 0.1446961 12630964
0.77593333 0.014783832 0.14437126 11973806
0.77622199 0.024784001 0.14442377 12038827
0.77632004 0.034490541 0.14527802 11907239
0.78100002 0.036454953 0.14111173 9605003
0.77645826 0.044786554 0.14628702 11974058
0.78125 0.045062486 0.14170517 9671568
0.77760011 0.054864436 0.14650255 11775400
0.78160006 0.05514583 0.14176884 11051419
0.7782501 0.064929157 0.14717302 12038315
0.7816875 0.065216452 0.1424695 12236465
0.77821064 0.074754111 0.14676198 10526618
0.78172737 0.075616971 0.14204066 13685193
0.77846169 0.083101869 0.14757775 10592155
0.78174996 0.085901707 0.1440821 12697785
0.78600001 0.095587358 0.14461254 13355199
0.78888893 0.10244539 0.14586131 12237235
0.79135001 0.10705908 0.14474127 11579819
0.78700006 -0.16395079 0.15449579 9736333
0.79025 -0.16809306 0.15628929 9736590
0.77550006 -0.15343069 0.15536878 11644072
0.78180009 -0.15897486 0.1555333 12697275
0.77310723 -0.14511968 0.15522648 12631736
0.77340025 -0.13463426 0.15531138 12631997
0.77383339 -0.12474599 0.1548548 12697017
0.77483326 -0.1149301 0.15505536 12434100
0.77572423 -0.10520045 0.15507604 12104107
0.77626687 -0.095153838 0.15443256 12235174
0.77628005 -0.085161239 0.15443559 12366504
0.77583349 -0.075122833 0.15434644 12039596
0.77596688 -0.065144666 0.15528008 11645869
0.77569443 -0.055133898 0.15522689 11841962
0.77579999 -0.045152746 0.15433967 11906470
0.77563345 -0.035156112 0.1543071 11316390
0.77551997 -0.025166636 0.154285 10857637
0.77573329 -0.015184462 0.15432777 10857124
0.77579993 -0.0051971893 0.15434106 11185062
0.77559376 0.0050170305 0.15463974 11447205
0.77539992 0.014773201 0.15516837 11446433
0.77577811 0.024769289 0.1552434 11315104
0.77540004 0.03473983 0.15516812 10920088
0.77516639 0.044710729 0.15512106 10854039
0.77633357 0.054573134 0.1548484 11380895
0.77700025 0.064825147 0.15457746 11577760
0.77696019 0.074825466 0.15456931 11381152
0.77718771 0.08463081 0.15495491 12302768
0.77900004 0.091434985 0.15497532 14473938
0.78360713 0.095651574 0.15477638 12763062
0.78849995 0.1034943 0.15528277 12171183
0.79091668 0.10841864 0.15472177 11645610
0.78773332 -0.16350232 0.16445856 9736331
0.79114288 -0.16775458 0.16559298 9802381
0.77693766 -0.15275963 0.16513793 11971235
0.78300005 -0.1584055 0.16534561 14011589
0.77500015 -0.14489236 0.16506734 12170413
0.7749666 -0.1349075 0.16506019 11910325
0.77536005 -0.12499256 0.16514349 12303799
0.7760002 -0.11510395 0.16527888 12630451
0.77665418 -0.10506083 0.1652084 12498605
0.77736127 -0.095287815 0.16465956 12498863
0.77803326 -0.085352689 0.16480248 12038828
0.77805573 -0.075338677 0.16480845 11973292
0.77724016 -0.065252259 0.16554426 12170922
0.77703351 -0.05522934 0.16549917 13156272
0.77713358 -0.045229804 0.16461036 12235433
0.77829415 -0.035544124 0.16464385 11053475
0.78000003 -0.030789241 0.16886923 11250854
0.77806675 -0.025248677 0.16207711 9410196
0.78050011 -0.025783399 0.16760761 12698300
0.77833349 -0.015234889 0.1612208 8489609
0.78100002 -0.01528787 0.16634481 12040115
0.77836376 -0.0048836414 0.16147551 8752262
0.78060001 -0.005230282 0.1666245 11513767
0.77787095 0.0049501634 0.16468076 10856097
0.78000003 0.0008613214 0.16917355 12830140
0.77696013 0.01480241 0.16548526 10791077
0.77766675 0.024830567 0.16563606 10067869
0.77772021 0.034844019 0.16564818 9803665
0.77696687 0.044814352 0.16548699 10723225
0.77817863 0.055100612 0.16515872 11448233
0.77878124 0.064745627 0.16478935 11579047
0.78000003 0.066901438 0.16658674 8815226
0.77806681 0.07493075 0.16480988 11775910
0.77720606 0.085071385 0.16489333 12105390
0.77900004 0.091434985 0.16500543 12762550
0.78350013 0.09655381 0.16504012 12631221
0.78843749 0.10338718 0.16469759 12039856
0.79100001 0.10833166 0.16510713 11514026
0.78850007 -0.16310668 0.1753242 9473417
0.79108334 -0.16734564 0.17497236 9736589
0.77759999 -0.15175018 0.17472306 12170672
0.78312504 -0.15741478 0.17504454 12960187
0.77628022 -0.14513157 0.17442547 12368052
0.77646691 -0.13516825 0.17446761 12169389
0.77672011 -0.12521209 0.17452487 12301487
0.77700025 -0.11525297 0.17458613 12565945
0.77700019 -0.10524862 0.17458612 12566973
0.77750009 -0.095304139 0.17469786 12041657
0.77844 -0.085396506 0.1749095 11909298
0.77899992 -0.075429276 0.17503549 12630964
0.77840006 -0.06535022 0.17490071 12499892
0.77776664 -0.05528209 0.17475843 13091774
0.77708024 -0.045227431 0.1746044 13354944
0.7783103 -0.03543226 0.17500576 13025723
0.78000003 -0.030789241 0.17160822 8946308
0.77900004 -0.028926115 0.177771 14474708
0.78142297 -0.024862858 0.17473505 11907498
0.78255576 -0.015317667 0.17491876 11511197
0.78182739 -0.0053646294 0.17491336 11183258
0.77900016 0.0071178498 0.17503549 10264217
0.78000003 0.0017977285 0.17526022 11052447
0.77900004 0.014841557 0.17503549 10856096
0.7790001 0.024457186 0.17412366 10131604
0.78000009 0.026044823 0.17777094 10329239
0.77899998 0.034120176 0.17190926 11579565
0.78011107 0.035255726 0.1765026 9146510
0.77900004 0.045551874 0.17459781 10660003
0.78000003 0.04188532 0.1774514 9014411
0.77900004 0.054961924 0.17503552 11184803
0.77873075 0.065249354 0.17511405 11251110
0.78000003 0.063249454 0.17434722 13356227
0.77750015 0.075070269 0.17528078 11645097
0.77637178 0.084635668 0.17522265 11644326
0.7782222 0.092154205 0.1752647 12630966
0.78372222 0.097191393 0.17476919 12302258
0.78850007 0.10270305 0.1753242 12040113
0.79100013 0.10765912 0.17495355 11514025
0.78781259 -0.16365719 0.18531351 9670796
0.79033333 -0.16780256 0.18436514 9802382
0.7782501 -0.15256064 0.18466081 11907501
0.78292316 -0.15793727 0.1850774 12566201
0.77710027 -0.14528513 0.18461458 12959671
0.77747244 -0.13534369 0.18470441 12629165
0.77826661 -0.12546121 0.18489267 12498864
0.77750015 -0.11532845 0.18471016 12171187
0.77736676 -0.10529768 0.18467893 12565685
0.77805549 -0.09537296 0.18484218 13092028
0.77859998 -0.085414551 0.1849715 12500407
0.77899981 -0.075429291 0.18506558 11843763
0.77859992 -0.065366536 0.18497153 11778484
0.77811116 -0.05530604 0.18485603 12105394
0.77813357 -0.045288321 0.18486278 12039600
0.77877766 -0.035297792 0.18501383 12170416
0.77900016 -0.026760526 0.18654734 12435388
0.78071433 -0.023636699 0.18377414 11249826
0.78162497 -0.015527327 0.18511555 11117467
0.78167993 -0.0052377968 0.18478708 10721423
0.77900016 0.0074253678 0.1857343 11314332
0.77999991 0.0030829476 0.18457279 11116183
0.77900016 0.015015237 0.18667218 10657171
0.78000009 0.014454833 0.18154974 12236459
0.77900004 0.02449172 0.18658532 10065553
0.78000003 0.025664406 0.18225986 12369589
0.77900016 0.03477148 0.18793137 10590096
0.77999997 0.035060667 0.18279243 12698299
0.77879995 0.045649134 0.18556421 10526356
0.78000003 0.04133752 0.18256418 12697527
0.77836651 0.054916304 0.18491441 10856609
0.77680588 0.064807326 0.18454345 11185573
0.77633357 0.074563168 0.1849376 11777455
0.77645195 0.084920675 0.18519408 12105394
0.7778126 0.09289027 0.18523815 12435129
0.78207147 0.097813249 0.18448374 12237749
0.78746158 0.10483941 0.18572648 11777198
0.79025 0.10894301 0.18265034 11514026
0.78900003 0.11107937 0.18836482 11514026
0.79175872 0.11530402 0.18422545 11579819
0.79375005 -0.1749592 0.19483858 9868174
0.78730434 -0.16482644 0.19549003 9736589
0.79000002 -0.16942695 0.19461411 9802381
0.77866679 -0.1528699 0.19501223 12499378
0.78216678 -0.15813448 0.19497168 12499635
0.77704024 -0.14527364 0.19460461 13026497
0.77756673 -0.13535894 0.194736 12171701
0.77871424 -0.12494643 0.19521935 12893878
0.77874064 -0.11500441 0.19482929 12762033
0.77889991 -0.10459392 0.19507115 13157562
0.77900016 -0.095307097 0.19454864 13223617
0.78040004 -0.091824129 0.19763891 14803160
0.77900004 -0.087283015 0.19144839 10459798
0.78103709 -0.084463589 0.19601442 12959157
0.77900004 -0.073605612 0.19144839 10460824
0.78066671 -0.074851781 0.1962105 12959925
0.77900004 -0.065399177 0.19144839 9933197
0.78004348 -0.064772367 0.19638932 12631222
0.77900004 -0.054685224 0.19441183 10856098
0.78000003 -0.056353163 0.19899814 13948364
0.7790001 -0.045576863 0.19541289 11712174
0.78000003 -0.042658202 0.19169416 11646383
0.77900004 -0.035126537 0.19582519 11842991
0.78000003 -0.036267221 0.19169416 13028552
0.77900004 -0.025278809 0.19509569 11974322
0.78064716 -0.015064208 0.19486243 11907757
0.78153324 -0.0052364552 0.19481495 12039083
0.77900016 0.007546945 0.19509572 10919834
0.780375 0.0019646476 0.19509724 11249567
0.77864003 0.014834792 0.1950049 10525847
0.77899992 0.024871647 0.19509576 11248796
0.77896005 0.03489976 0.1950857 11577762
0.77856654 0.044906177 0.19498812 11249054
0.77823997 0.054908205 0.19490615 11643553
0.77770007 0.064882345 0.19477206 11842733
0.77708018 0.074836925 0.19461523 11579562
0.77703357 0.084837675 0.19460328 10856613
0.77838475 0.092905484 0.19452217 11514286
0.78130782 0.097757205 0.19567384 11842737
0.78608 0.10515387 0.19502898 11711148
0.78900009 0.11191893 0.19440976 11382440
0.79052943 0.1165212 0.19493543 11514026
0.79290479 -0.17511472 0.20485333 9802381
0.78687996 -0.16531904 0.20487875 9933711
0.79000002 -0.16988929 0.20894699 9736588
0.7786001 -0.15249223 0.20447341 12432556
0.7814616 -0.15735969 0.20570311 12367277
0.77703363 -0.14527234 0.20460793 12762550
0.77747226 -0.135342 0.20472366 12434359
0.77863872 -0.12460861 0.20503035 12171700
0.77900004 -0.1152214 0.20538113 12171442
0.78000003 -0.11186337 0.20411091 12302769
0.77899998 -0.10460771 0.20526609 12761781
0.78000009 -0.10474201 0.20502391 13024951
0.77900004 -0.096806534 0.20259294 11708322
0.78038889 -0.093933664 0.20599943 13420478
0.78161275 -0.084683113 0.20507491 11578529
0.78093344 -0.07470277 0.20563269 12038824
0.7808485 -0.064890079 0.20519684 11906982
0.77900004 -0.05080995 0.20147848 13026235
0.78039128 -0.054872487 0.20481819 11644065
0.77900016 -0.045017172 0.20281941 12959413
0.78000009 -0.046081942 0.20744334 12433582
0.77899987 -0.03480887 0.2045081 12499636
0.78000003 -0.038458414 0.2092237 12765120
0.7790001 -0.025120234 0.20548259 12105652
0.78000009 -0.025832972 0.20421526 12236980
0.78025025 -0.015272308 0.2054541 11317163
0.78126919 -0.005374379 0.20501867 10922917
0.7790001 0.008541665 0.20471135 10658463
0.78050005 0.00332466 0.20510501 10593439
0.77883327 0.014837991 0.2050821 10724255
0.77900016 0.022616079 0.20488581 10790562
0.78041178 0.027442887 0.20576623 11120042
0.77900004 0.038549047 0.20056666 10327183
0.78041387 0.034838591 0.20565575 11512998
0.77900016 0.046552859 0.20340344 11577503
0.78005552 0.043369278 0.20712836 11446433
0.77859992 0.054933388 0.2050211 11315360
0.77897203 0.064989537 0.20511864 12170156
0.77813345 0.074937545 0.20490009 11446690
0.77805549 0.08495038 0.20487927 11579045
0.77900004 0.091434985 0.20512581 13553862
0.78218192 0.095974199 0.20513234 12106160
0.78731996 0.10502288 0.20462643 11579819
0.79000002 0.10937075 0.20894699 11316901
0.78900003 0.11107937 0.20129426 11514026
0.79212505 0.11538717 0.20518303 11514026
0.78742105 -0.16448681 0.21476492 10130831
0.79000002 -0.16914952 0.21449523 9736587
0.77790004 -0.15180907 0.21485159 13420737
0.78182364 -0.15725939 0.21528929 11775399
0.77696174 -0.14539853 0.21480249 12764350
0.77760011 -0.13536358 0.21476921 12107192
0.77886653 -0.1246459 0.21511932 12697529
0.77900004 -0.11463783 0.21515588 12434359
0.77900004 -0.10673531 0.21576376 12828345
0.78051865 -0.10457355 0.21550834 12564918
0.78107154 -0.09463314 0.21514034 12106164
0.78060019 -0.084853254 0.21481428 11908012
0.77900016 -0.073551983 0.2157995 12170154
0.78000009 -0.076667339 0.21406257 11117725
0.77900004 -0.068681754 0.21661481 12959157
0.78050011 -0.063565925 0.21472129 12235945
0.78186643 -0.05465766 0.21503249 12038310
0.78120005 -0.045467813 0.21484831 12696242
0.77900004 -0.032573421 0.21150859 14080207
0.78077781 -0.035694379 0.2160539 12038056
0.77900004 -0.026190637 0.21150859 13619656
0.7808696 -0.025260085 0.21599235 11774884
0.78046685 -0.015277819 0.21556251 11315618
0.78079325 -0.005103738 0.21489476 11250597
0.77900004 0.009370598 0.21150859 12962242
0.78100008 0.0044233571 0.21530856 10988197
0.7790001 0.015753385 0.21296751 12040882
0.78006667 0.014252902 0.21691161 10724509
0.7790001 0.024324553 0.21406169 11249827
0.77999991 0.025177473 0.21597989 12368563
0.7790001 0.035357658 0.21743543 10989481
0.78007698 0.034528427 0.21334623 11645614
0.77899998 0.045422811 0.21564689 11646383
0.78000003 0.041794021 0.21223658 9539214
0.77844012 0.054922603 0.21500245 11513767
0.77892846 0.064725868 0.21513633 11578533
0.78000003 0.068727434 0.21543208 11249310
0.77880007 0.075002089 0.21510008 11182489
0.77867848 0.08469256 0.214871 11972263
0.78000003 0.089726366 0.21817107 12497065
0.78350008 0.095567532 0.21512991 12303025
0.7881667 0.10399297 0.21451065 11382441
0.79075003 0.10878105 0.21539384 11448232
0.79299998 -0.17475668 0.22467546 9736588
0.78724992 -0.16441759 0.22489837 9933967
0.79000002 -0.16927283 0.22466695 9670795
0.77744454 -0.15263134 0.22473629 12762551
0.78220004 -0.15814155 0.22519541 11512741
0.7763105 -0.14501081 0.22456449 13157565
0.77736121 -0.13532332 0.22471207 13091256
0.778611 -0.12460425 0.2250727 12696758
0.7790001 -0.1149694 0.22518598 12500920
0.78000009 -0.11387196 0.22547504 11186089
0.7790001 -0.10435903 0.22825304 14473934
0.78048003 -0.10491528 0.22426102 11843247
0.7790001 -0.094246052 0.22858462 14013387
0.78057897 -0.094962776 0.22367071 11645359
0.77900016 -0.0859804 0.22766097 12435386
0.78011107 -0.084566422 0.22327478 11841195
0.77899998 -0.074855149 0.22596265 11645609
0.78000009 -0.07643909 0.22325778 12172209
0.77896547 -0.065521888 0.22533299 12039857
0.78000003 -0.060613811 0.22151874 14408916
0.77900016 -0.055976972 0.22771886 11315876
0.78037506 -0.054210566 0.22318494 12894904
0.77900004 -0.047162641 0.22792146 11184552
0.77999991 -0.044820562 0.22369714 13419707
0.78066665 -0.035382025 0.22475423 12629936
0.78199983 -0.025376163 0.22513789 11906729
0.78189981 -0.015305993 0.22510926 11645099
0.78096008 -0.0052319425 0.2248383 11119012
0.77900004 0.0057232925 0.2297451 9800581
0.78063357 0.004821592 0.22474344 11710376
0.77899998 0.015623122 0.22922409 9341830
0.7801739 0.014624936 0.22429435 11578788
0.77900004 0.026075263 0.22558711 11382696
0.78000009 0.021799386 0.22401425 11975087
0.7784332 0.034875099 0.22502251 10658973
0.77758342 0.044849437 0.22477511 11054246
0.77766687 0.054868709 0.2247982 10856096
0.77871865 0.064513035 0.22555946 11315876
0.78000003 0.068727434 0.22182307 11512995
0.77816665 0.074940838 0.22494262 11052702
0.77833337 0.083158791 0.22499239 11315360
0.78120011 0.088950709 0.22490868 12433329
0.78573078 0.095910035 0.22529195 12829114
0.78887504 0.10252057 0.22457834 11382440
0.79105002 0.10729565 0.22533616 11317160
0.79288459 -0.17451024 0.23448232 9605002
0.78744441 -0.16411965 0.23540881 10064784
0.79000002 -0.16865635 0.23514688 9670283
0.77766669 -0.15267481 0.23481409 12236723
0.78218192 -0.15805459 0.23484434 11249314
0.77600032 -0.14507905 0.23521854 13026750
0.77671909 -0.13543893 0.23486719 12696497
0.77823335 -0.12454353 0.23498444 12234149
0.77900004 -0.11463783 0.23521613 11774881
0.77896547 -0.10476041 0.23507974 12235433
0.77823073 -0.094695285 0.23512353 12104876
0.77815986 -0.085366748 0.23496205 11381155
0.77893329 -0.075423211 0.23519604 11577764
0.77840006 -0.06534899 0.23503605 11776171
0.77836663 -0.055323102 0.2350239 12369338
0.77900016 -0.047443207 0.23563693 11909813
0.78000003 -0.043049484 0.23434417 12699330
0.7811389 -0.03540257 0.23494774 12172471
0.78166664 -0.025366049 0.23510519 11645097
0.77900004 -0.012513239 0.23886339 10721685
0.78115147 -0.015541111 0.23453407 12367276
0.7790001 -0.0036989152 0.23673582 11841958
0.78066671 -0.006245662 0.23318046 12499114
0.77846664 0.004806845 0.2350536 11645355
0.78000003 0.00025265676 0.23004003 11181204
0.77808017 0.014824403 0.23493561 10986912
0.77869982 0.02486242 0.23512425 11644068
0.78000003 0.025816573 0.23004003 8815235
0.77792013 0.03485129 0.23488878 10987423
0.77660024 0.044792149 0.23449095 10527132
0.7768802 0.054813005 0.23457552 10461594
0.77786678 0.064897448 0.23487233 11054244
0.77723336 0.074851736 0.23558976 11185061
0.77760607 0.084487811 0.23578514 11776685
0.78075004 0.089356139 0.23163131 12564916
0.77900004 0.091434985 0.23886338 8487040
0.7847144 0.095918633 0.23490264 12631992
0.78875005 0.10227355 0.23585093 11448232
0.79083335 0.10701945 0.23477763 11382439
0.78768754 -0.16409309 0.24486974 10393746
0.79016668 -0.16838358 0.24506305 9736073
0.77808332 -0.1518447 0.24495846 13486018
0.78224999 -0.15735301 0.24501032 11577764
0.77648026 -0.14516953 0.24536262 12828086
0.77697086 -0.13504234 0.24487484 13024947
0.77779996 -0.12538612 0.24486823 12432811
0.77775002 -0.11536452 0.24485138 12564655
0.77756679 -0.10532586 0.24479346 12696240
0.77708364 -0.095254794 0.24464226 13091254
0.77776664 -0.085323125 0.24485768 12630446
0.77890319 -0.076037027 0.24471557 12170415
0.78000003 -0.071569771 0.24769129 10129810
0.77900016 -0.06539917 0.24251066 13422278
0.78018188 -0.065001033 0.24752785 10326926
0.77873516 -0.055083022 0.24494921 12828085
0.77900016 -0.04768369 0.24472509 11906726
0.78000003 -0.043290276 0.24506937 12828598
0.7790001 -0.034093134 0.2485895 11775401
0.78025007 -0.035973828 0.24396455 12631477
0.77900016 -0.02581518 0.24744523 12434615
0.78015387 -0.024614487 0.24272904 11513513
0.77900016 -0.01360743 0.24615793 11054504
0.77999997 -0.017322537 0.24441972 11646384
0.77867848 -0.005022001 0.24533938 11514795
0.78000003 -0.0079643168 0.24282198 10657691
0.7771669 0.0047985157 0.24466732 10987167
0.77630019 0.014789724 0.24439475 11053476
0.77630585 0.024785785 0.24439639 11250337
0.77643359 0.034787059 0.2444365 11775138
0.7762782 0.044774543 0.24438789 11446428
0.77653366 0.054788038 0.24446788 11184032
0.77622229 0.064759284 0.24436924 11579301
0.7753461 0.074878924 0.24514154 11183775
0.77529991 0.084951505 0.24468447 12566200
0.77781814 0.092124991 0.24528696 12237490
0.78383332 0.097205207 0.24452373 12105904
0.78854555 0.10279287 0.24497852 11251109
0.79093748 0.10753495 0.24472269 11382439
0.78800005 -0.16335851 0.25496051 11184033
0.79062498 -0.16747931 0.2553834 9407881
0.77844453 -0.15181363 0.25549948 12960698
0.7827059 -0.15700763 0.25487271 11907240
0.77708018 -0.1452813 0.25464687 12500150
0.77706689 -0.13527311 0.2546427 11644586
0.7767933 -0.12509893 0.2553044 11710634
0.77666688 -0.11520353 0.25541914 12170928
0.77653366 -0.10518558 0.25537518 12368821
0.77687526 -0.095455758 0.25492021 12829374
0.77756006 -0.085300073 0.2548039 12960182
0.77890021 -0.077242658 0.25524312 12761003
0.78016669 -0.071889274 0.25474614 12431783
0.78088903 -0.064644091 0.25498179 12301226
0.77899998 -0.053154647 0.2524105 11842218
0.78055555 -0.055074524 0.2569032 12500406
0.77900016 -0.044497307 0.25513595 12169899
0.77999997 -0.045762397 0.25463006 11907498
0.77883327 -0.03530233 0.25522169 13024950
0.77831995 -0.025255805 0.25505361 13157304
0.77889991 -0.015247109 0.25524306 12631729
0.77816004 -0.0052147782 0.25500041 11383210
0.77644145 0.0050078314 0.25507885 11250853
0.77596688 0.014783607 0.25519061 11053989
0.77572232 0.02476719 0.25510967 10791074
0.77553326 0.034746345 0.25504634 11381923
0.77511096 0.044706747 0.25490797 11184287
0.7748664 0.054669749 0.2548275 11709090
0.77400005 0.064573638 0.25454199 11775910
0.77355576 0.075403556 0.25439608 11512226
0.77400011 0.085412815 0.25454322 12894394
0.77636361 0.091952562 0.2549063 12631224
0.78406262 0.097425535 0.25486633 11907756
0.78866673 0.10210887 0.25413689 11185316
0.79218757 0.10654689 0.25496164 11316646
0.78900003 -0.17152131 0.26778853 9407882
0.7921924 -0.17599781 0.26465973 9408395
0.77900004 -0.16022913 0.26986548 13092281
0.78658611 -0.16516048 0.2650584 10198166
0.79000002 -0.16988929 0.26165503 9408395
0.77739137 -0.15357028 0.26542884 12565425
0.78211117 -0.158225 0.26320982 11711144
0.77578151 -0.14498182 0.26460412 13092799
0.77613914 -0.13511135 0.26433027 12763063
0.77603871 -0.12524223 0.26499614 12172729
0.77600032 -0.11510465 0.2651929 12106421
0.77596009 -0.10510758 0.26517904 12893621
0.77641207 -0.094957016 0.26469129 12895165
0.77693355 -0.085231774 0.26460114 12369848
0.7782647 -0.075624779 0.26526818 11646639
0.78000003 -0.07096111 0.26199493 11185319
0.77884632 -0.065806568 0.26826909 11645355
0.78038096 -0.064209938 0.26355737 12434356
0.77900004 -0.057192739 0.26940957 10789274
0.78052008 -0.054564085 0.26490957 13025975
0.77889997 -0.045333635 0.26527193 12104874
0.7777223 -0.035251178 0.2648688 12237234
0.7777335 -0.025237707 0.26487273 12565424
0.77705574 -0.015211893 0.26464093 11775137
0.77636683 -0.0052014533 0.26440632 11183517
0.77581263 0.004563821 0.2647863 10921374
0.77523065 0.014908315 0.26513839 10790046
0.77480537 0.024737565 0.26569062 11447717
0.77433336 0.034692351 0.26552823 10987938
0.77408344 0.044647951 0.2654435 11053989
0.77376485 0.055230752 0.26554719 10855583
0.77315646 0.065069355 0.26489916 11973805
0.7730003 0.075349085 0.26507255 11644581
0.77360016 0.085369222 0.26527759 12303283
0.776375 0.092719935 0.26554716 12829628
0.78478575 0.098154567 0.26438558 12500922
0.78871435 0.10207105 0.26558033 11184805
0.78855562 -0.17224559 0.27461082 9408395
0.79158336 -0.17640793 0.2751511 9539980
0.77820003 -0.16152212 0.2750532 11448234
0.78447366 -0.16638571 0.27407846 9868946
0.77508831 -0.1548911 0.27485976 11315875
0.77400011 -0.14495465 0.27494255 12500148
0.77466661 -0.13485399 0.2747103 13354432
0.77539992 -0.124999 0.27497008 12960445
0.77522206 -0.11498991 0.27490762 12959928
0.77513325 -0.1049953 0.27487642 13092028
0.77549988 -0.095060408 0.27500531 13750215
0.77526665 -0.085049875 0.27492169 13881027
0.77516669 -0.075058356 0.274885 13684420
0.77556676 -0.065110236 0.2750259 13487301
0.77683342 -0.055214167 0.27547428 12698813
0.78000003 -0.054527164 0.27021191 10262413
0.77650011 -0.045194414 0.27535743 12632506
0.7754724 -0.035149813 0.27499402 12763578
0.77493328 -0.025147391 0.27480265 12828596
0.77413893 -0.015154504 0.27452114 12498348
0.7737667 -0.0051834895 0.2743898 12367535
0.77383345 0.004779554 0.27441344 12104876
0.77379316 0.014617233 0.27455556 11775652
0.7735002 0.024695855 0.27520183 11841193
0.77340013 0.03465084 0.27516624 12499117
0.77350014 0.044614252 0.27520183 11513252
0.77278131 0.055652343 0.27528453 11843249
0.77186668 0.065299891 0.27552265 11843250
0.77223527 0.075062886 0.27538905 11447718
0.77312011 0.085316278 0.2750673 12566457
0.77585721 0.093664721 0.27534828 12303288
0.78266668 0.098787755 0.27418527 12040117
0.78733337 0.10367952 0.27571908 11119267
0.7913 0.10806932 0.27431005 11185061
0.78900003 -0.17152131 0.28164151 9342601
0.79305887 -0.17546625 0.28543836 9276809
0.77875006 -0.16108954 0.28527409 13881290
0.78531587 -0.1665667 0.28521106 9802638
0.77478582 -0.15457244 0.28511745 14012872
0.77375013 -0.14499703 0.28502917 13223357
0.77443326 -0.1348134 0.2846007 13092543
0.77499986 -0.1249349 0.28480828 13816263
0.77478105 -0.11481053 0.28506726 13552578
0.77499986 -0.10497772 0.2848084 12763064
0.77416682 -0.09489768 0.28540766 12960958
0.77333349 -0.084838264 0.28509977 12960955
0.77277792 -0.074827626 0.28489491 12500918
0.77289999 -0.064886369 0.28493926 12435894
0.7735002 -0.054977629 0.28516051 12369590
0.77396673 -0.04504589 0.28533331 11908785
0.77394462 -0.035080083 0.28532645 11249569
0.77306688 -0.025086509 0.28500235 11250336
0.77233332 -0.015119195 0.28473106 11579304
0.77186674 -0.0051707611 0.28455749 11447460
0.77141672 0.0047635543 0.28439155 11511968
0.77106678 0.014690722 0.28426209 11315873
0.77169448 0.024639018 0.28449395 11841960
0.77169698 0.035066433 0.28474137 11973033
0.77127272 0.044895314 0.2840915 12106163
0.76900005 0.058114041 0.28851852 10725027
0.77063352 0.054611571 0.28386277 12500920
0.76900005 0.065057829 0.28800413 10855324
0.77013338 0.06515418 0.28301957 13619402
0.7686429 0.074410088 0.2883839 11380896
0.77070838 0.075727575 0.28353021 12565688
0.76900005 0.081860103 0.2892043 13815753
0.77179319 0.085295141 0.2843751 13224130
0.77529627 0.094367422 0.28498238 12565943
0.78100002 0.098983079 0.28152832 11119270
0.78668189 0.10448036 0.28499779 11119012
0.79000002 0.10937075 0.28477257 10987681
0.79140741 0.11533228 0.28486741 11250597
0.78900003 -0.17152131 0.29918861 9408395
0.77900004 -0.16022913 0.2917493 10196626
0.78524995 -0.16550641 0.29515836 9736588
0.77631813 -0.15431032 0.29454699 10525591
0.78100002 -0.15881217 0.29981166 9013892
0.77526087 -0.1447036 0.29547966 10591894
0.77533317 -0.13497151 0.29491529 11907757
0.77523327 -0.12497275 0.2948769 12105133
0.77514684 -0.11508483 0.29511088 12170671
0.77523053 -0.10514872 0.29417786 12302263
0.77486193 -0.094826937 0.29551843 11118249
0.77380013 -0.08488965 0.29523817 11052968
0.7735002 -0.074897066 0.29512456 10725028
0.77348018 -0.064935476 0.29511702 11250854
0.7737667 -0.054996446 0.29522568 12038055
0.77439994 -0.045070991 0.29546693 12893365
0.77426666 -0.035094511 0.2954154 12236465
0.77364016 -0.025105627 0.29517686 11317160
0.77300006 -0.015132285 0.29493263 11251110
0.77216005 -0.0051738345 0.2946125 11446946
0.77146655 0.0047639995 0.29434881 10921114
0.77084005 0.014685625 0.29410958 10658200
0.77113324 0.024621269 0.29422033 10987424
0.77096665 0.035443112 0.29415622 11251366
0.77029049 0.045155901 0.29494575 11052701
0.76900005 0.057856862 0.29250476 12238005
0.77000022 0.054326937 0.29558897 10855582
0.76893336 0.065531939 0.29349959 11053472
0.7701 0.064429626 0.29815143 10856099
0.76827258 0.07456053 0.2937822 11380639
0.770625 0.076020472 0.29898635 13093057
0.76900005 0.082460187 0.29280481 11183774
0.77123529 0.086277135 0.29489651 12566199
0.77527779 0.093623668 0.2944895 13421769
0.78120005 0.099008426 0.29440579 11184804
0.78749996 0.10441817 0.29493237 11119010
0.79037499 0.10872914 0.2955471 11053217
0.79219991 0.1152402 0.29483998 11119011
0.78766668 -0.16500022 0.30474314 10000789
0.79000002 -0.16896459 0.30789012 10066327
0.77850008 -0.15192571 0.3006745 11973545
0.78411764 -0.15534522 0.30587146 10198165
0.778 -0.14623351 0.30178294 12171183
0.78163642 -0.14480311 0.30637845 9736329
0.77700001 -0.13526164 0.3019141 12566455
0.78150004 -0.13513027 0.3064087 12236721
0.77800012 -0.12492159 0.3032974 12105133
0.78250003 -0.12522979 0.30771488 12764091
0.77714288 -0.1156631 0.30223012 11907755
0.7817778 -0.11463924 0.30661905 12435382
0.77820003 -0.10450028 0.30165276 10855584
0.78325003 -0.10517814 0.30709451 12830397
0.77750009 -0.095306955 0.30180523 11842733
0.78210008 -0.094955869 0.30664366 12829883
0.77750003 -0.085294798 0.30302024 12763835
0.78233337 -0.084909312 0.30764934 13158080
0.77759999 -0.075839862 0.30287671 12040113
0.78214294 -0.074296363 0.30705276 10592153
0.77750003 -0.064590253 0.30279225 11447720
0.78200001 -0.065649867 0.30706179 10394517
0.77766681 -0.05527373 0.30308497 11840932
0.78228575 -0.053901374 0.30815434 9406081
0.77770001 -0.045264028 0.30309793 11643806
0.78209096 -0.045018971 0.30855384 10392713
0.77714288 -0.03470435 0.30327088 10657170
0.78111118 -0.035707619 0.30818576 9406333
0.77676475 -0.02488583 0.30407184 9473925
0.78066665 -0.027161228 0.30882147 8946556
0.77623087 -0.014915662 0.30469471 9211011
0.7758801 -0.0051988484 0.30511731 9276548
0.77569985 0.0047919806 0.30504736 9472901
0.77564013 0.014777354 0.30502427 9539206
0.77543324 0.024757342 0.30494252 8750461
0.77500015 0.034721404 0.30477095 8948095
0.77412516 0.044648845 0.30533096 9341056
0.77340913 0.055060674 0.30488357 9603976
0.77368182 0.064959757 0.30532071 9013639
0.77445 0.074675098 0.30518824 9079429
0.77560019 0.084258512 0.30343086 11908014
0.78166676 0.086258292 0.30860761 9802900
0.77850008 0.092286959 0.3015863 12368307
0.78569233 0.095903806 0.30585888 11776429
0.78850007 0.10270303 0.30269158 11119009
0.79150009 0.10599081 0.30546403 10987680
0.78900003 -0.16136247 0.31119454 9408910
0.78818184 -0.15389965 0.31313726 9605774
0.79088891 -0.15629834 0.31739199 10461338
0.78718746 -0.14498235 0.31336185 10066066
0.79000002 -0.14492233 0.31806183 10197909
0.78747064 -0.13496873 0.3132506 9999760
0.79000002 -0.1347506 0.31806183 9802893
0.78746676 -0.12510128 0.31335777 9671310
0.7906 -0.12560031 0.31830341 9868428
0.78775001 -0.11546413 0.31323901 9737102
0.79049999 -0.11447927 0.31780082 9408135
0.78790009 -0.10488109 0.31260622 9606286
0.79059994 -0.10524025 0.31737873 9342342
0.78782362 -0.094997667 0.31360751 9145994
0.79083329 -0.095088817 0.31839737 9737615
0.78737503 -0.084879868 0.31320611 9474190
0.79100001 -0.084924057 0.31846446 9408398
0.78773338 -0.075352855 0.31346327 9802639
0.79049999 -0.07469397 0.31826314 9408395
0.78744996 -0.064818911 0.31371999 9736587
0.79000002 -0.064473249 0.31898654 10000530
0.78711104 -0.055330299 0.31444621 9538952
0.79000002 -0.055226229 0.31991127 10197909
0.78736836 -0.044662438 0.31535614 9473671
0.79000002 -0.045979206 0.31991127 10132373
0.78645003 -0.034726974 0.31571761 9211271
0.78528565 -0.025220254 0.31538194 9014150
0.78366673 -0.015471443 0.3147307 8883078
0.78300005 -0.0052458909 0.31524664 9080457
0.78433341 0.0048470078 0.31578392 9079686
0.78499997 0.014955869 0.31605345 9014150
0.78438896 0.02504286 0.31580698 9014149
0.78373337 0.035113182 0.31554365 9211528
0.77850002 0.046724305 0.31160939 9474186
0.78385729 0.044688761 0.31611624 9342858
0.77700001 0.054820813 0.31100896 9211272
0.7822001 0.055186063 0.31583911 9343116
0.77733332 0.064854525 0.31114236 9342859
0.78209096 0.064835854 0.31571141 9474702
0.77900004 0.071374804 0.31180951 9474445
0.78462505 0.075678967 0.31590295 9934994
0.78671426 0.084581137 0.31450599 10132118
0.79075003 0.086337127 0.31882617 10592924
0.78840005 0.092908658 0.31188071 10658462
0.79230773 0.095567778 0.31571192 10921889
0.79290909 -0.064964123 0.32531208 10395288
0.79270011 -0.055414744 0.32564759 10329495
0.79229164 -0.04518662 0.32547957 10197909
0.78900003 -0.032068033 0.32135338 9803151
0.79111117 -0.035241123 0.32530218 10066323
0.78888893 -0.023753427 0.32192385 9474701
0.7909444 -0.024740539 0.32677597 9803408
0.78838468 -0.014084264 0.32266524 9474702
0.79099995 -0.015020679 0.3281875 9737615
0.78799993 -0.0052789184 0.32279241 9409165
0.79079998 -0.005296974 0.32856691 9803408
0.78845459 0.0037803301 0.32213846 9343629
0.79114294 0.0054160366 0.32672554 9606031
0.78900003 0.015032077 0.32135338 9080457
0.79166675 0.015082884 0.32614848 9408908
0.78862506 0.0256394 0.3216624 9277836
0.79106247 0.025024356 0.32613039 9277579
0.78862506 0.035333261 0.3218933 9343629
0.79099995 0.035439964 0.32633576 9343629
0.78860009 0.044561077 0.32119045 9408909
0.79133338 0.044716939 0.32601112 9409422
0.78833342 0.054696903 0.32200539 9409422
0.79100007 0.054880563 0.32679811 9475214
0.78810012 0.064829215 0.32191032 9672594
0.79100001 0.065067299 0.32772478 9738385
0.78866673 0.074107558 0.32183331 10066582
0.79106253 0.075489253 0.32647732 10132374
0.79282612 0.085879333 0.32509261 10724253
