# .PCD v0.7 - Point Cloud Data file format
VERSION 0.7
FIELDS x y z rgb
SIZE 4 4 4 4
TYPE F F F U
COUNT 1 1 1 1
WIDTH 577
HEIGHT 1
VIEWPOINT 0 0 0 1 0 0 0
POINTS 577
DATA ascii
0.79536843 -0.40496626 -0.38448787 12039863
0.7941249 -0.3948704 -0.38471153 12039864
0.79312509 -0.61466265 -0.37509644 11644337
0.7924667 -0.60452998 -0.37478489 11512496
0.79219997 -0.59505135 -0.37465945 11381424
0.79352635 -0.58538616 -0.3753857 11578801
0.79339993 -0.57515085 -0.37497979 11776180
0.79260004 -0.56504929 -0.37484804 11907766
0.79236841 -0.55476022 -0.375521 11776180
0.78900003 -0.542781 -0.37129533 12302266
0.79229409 -0.54558957 -0.3761225 11907509
0.78900003 -0.53539276 -0.37129533 12302266
0.79156256 -0.5350458 -0.37609419 11842230
0.78900003 -0.52523392 -0.37129533 12368831
0.792 -0.52475554 -0.37641823 11842487
0.79211116 -0.51535225 -0.37482342 12105659
0.79282361 -0.50512248 -0.37506282 12105402
0.79287505 -0.49509674 -0.37486219 12170680
0.79394126 -0.4853873 -0.37559217 12170679
0.7946316 -0.4748849 -0.37561461 12170935
0.79450017 -0.46472198 -0.37482035 12302266
0.7944001 -0.45490098 -0.37477371 12368059
0.79447377 -0.44473958 -0.37524748 12170937
0.7933889 -0.43528721 -0.3742938 12433595
0.79229409 -0.42470399 -0.37514031 12170422
0.78900003 -0.41441011 -0.37129533 13025474
0.79152948 -0.41481185 -0.37608501 11973556
0.78900003 -0.4044565 -0.37191105 12697022
0.79090905 -0.405229 -0.37623474 12105398
0.78870004 -0.39486578 -0.37207773 11775409
0.79045451 -0.39523935 -0.37669057 12105400
0.78900003 -0.38709995 -0.37208694 13090756
0.79088897 -0.38392407 -0.3757855 12368316
0.78900003 -0.63144004 -0.3611365 11446194
0.79114288 -0.63500851 -0.36555693 11249072
0.78821045 -0.62498206 -0.36500141 12039357
0.79000002 -0.62669212 -0.36991653 11447478
0.78727269 -0.61531097 -0.36571121 12170684
0.78715998 -0.60475641 -0.36542138 12170684
0.7871201 -0.59514326 -0.36510813 12105405
0.78695452 -0.58474863 -0.3655636 12368318
0.78729993 -0.57506174 -0.36552244 12236474
0.79000002 -0.57305938 -0.36991653 12039096
0.78707999 -0.56467539 -0.36486885 12236988
0.78720832 -0.55521411 -0.36554208 12105402
0.78685713 -0.54481447 -0.36555403 12171194
0.78652382 -0.53485137 -0.36557356 12368573
0.78660721 -0.52475685 -0.36471465 12368831
0.7876209 -0.51493573 -0.36499056 12368831
0.79000002 -0.51017964 -0.3699165 12500417
0.7881428 -0.50502628 -0.36456761 12368831
0.79000002 -0.5046314 -0.3699165 12105659
0.78800005 -0.49505216 -0.36436978 12434624
0.79000002 -0.4953844 -0.3699165 12499902
0.78780955 -0.48505235 -0.36415038 12368831
0.79000002 -0.48521268 -0.36991647 12368829
0.78813028 -0.47503918 -0.36455062 12697025
0.79000002 -0.475041 -0.3699165 12499389
0.78814995 -0.46516427 -0.36416289 12959169
0.79000002 -0.46209514 -0.36806712 12695741
0.78811109 -0.45514774 -0.36411393 12893634
0.79000002 -0.45654693 -0.36806712 12696511
0.78795648 -0.44501984 -0.3642295 12762817
0.79000002 -0.44545051 -0.36991653 12828355
0.78823799 -0.43496704 -0.36461216 12763330
0.79000002 -0.43065527 -0.3699165 12697022
0.78743476 -0.42468783 -0.36471185 12762816
0.79000002 -0.42788118 -0.3699165 12696509
0.78677773 -0.41491386 -0.36465991 13025475
0.78637499 -0.40497604 -0.36500123 13684172
0.78668189 -0.39477453 -0.36560279 11117738
0.78731036 -0.38495132 -0.36484709 15065059
0.79000002 -0.38072136 -0.3699165 15394024
0.78871435 -0.37825471 -0.36272019 15986669
0.7937097 -0.37386522 -0.36577708 13355721
0.78900003 -0.63144004 -0.35744235 11117485
0.79181248 -0.63577843 -0.35454354 10394021
0.78685713 -0.62551814 -0.35467157 11907257
0.78223819 -0.61478013 -0.35494658 12236477
0.77900004 -0.60793597 -0.35291204 12302014
0.78137934 -0.60458642 -0.3545292 12433857
0.78278267 -0.59483266 -0.35442743 12368064
0.78302896 -0.58528614 -0.35460654 12499649
0.78246677 -0.57486087 -0.35478839 12499649
0.78239119 -0.56531018 -0.35480809 12368319
0.78256011 -0.55483782 -0.35492983 12236734
0.78253835 -0.54509968 -0.35550344 12237245
0.78267753 -0.53494263 -0.35508168 12237246
0.78396893 -0.52543694 -0.35453242 12500161
0.78657907 -0.51489609 -0.35474542 12697796
0.78766668 -0.50498515 -0.35499293 12828867
0.7875002 -0.49531466 -0.3546868 12500159
0.78693765 -0.4851743 -0.35477921 12368574
0.78651613 -0.47526211 -0.3547433 12631488
0.78700012 -0.46529576 -0.35561502 12960196
0.78633356 -0.4548372 -0.35511044 13091782
0.78623068 -0.44495323 -0.35541013 13157575
0.78611529 -0.43533292 -0.35528722 12960453
0.78453857 -0.42492405 -0.35450399 13025989
0.78374088 -0.41480729 -0.35394084 13025990
0.78319252 -0.40487263 -0.35445988 13354694
0.78285706 -0.39501643 -0.35577449 12959942
0.78355181 -0.38418773 -0.35437438 14933469
0.78776199 -0.37691805 -0.35481793 15789546
0.79362494 -0.37177774 -0.35488769 11118504
0.79282349 -0.63483095 -0.34514293 10393251
0.78800011 -0.62438989 -0.34551004 11973047
0.79000002 -0.62854153 -0.34217545 11906744
0.7838462 -0.61440206 -0.3447997 11710388
0.78212124 -0.60446227 -0.34541905 11776698
0.78286701 -0.59519112 -0.34494919 11908028
0.78402865 -0.58540273 -0.34420094 12039099
0.78387511 -0.57509625 -0.34427896 12104635
0.78314734 -0.56528425 -0.34551361 12039098
0.78274202 -0.55514526 -0.34559083 11973818
0.78275025 -0.54484248 -0.34488598 11973816
0.78375012 -0.53499222 -0.34492257 12171195
0.7855832 -0.52479714 -0.34485829 12368829
0.78740638 -0.51518434 -0.34508339 12565437
0.78800005 -0.50519872 -0.3449986 12433337
0.78803343 -0.4950735 -0.34501314 12368314
0.78796005 -0.48488289 -0.34498036 12237243
0.78746444 -0.47483325 -0.34476233 12236987
0.78706479 -0.46495438 -0.34535971 12434622
0.78640616 -0.45481527 -0.34544981 12434108
0.78606647 -0.4450731 -0.34507188 12500158
0.7858063 -0.4355503 -0.3448092 12105659
0.78426677 -0.42538935 -0.34434187 12302524
0.7833004 -0.41477719 -0.34471223 12697283
0.7835359 -0.40518683 -0.34467918 13158342
0.78281265 -0.39524028 -0.34524515 12565439
0.78297383 -0.38451836 -0.34520826 14736088
0.78742874 -0.37684572 -0.34501132 14869211
0.79295462 -0.37184373 -0.34522581 10197918
0.79347062 -0.63491094 -0.33504558 10196127
0.78861111 -0.62374496 -0.33511198 11776179
0.79000002 -0.62854153 -0.33477783 11643571
0.78561902 -0.6148116 -0.33502242 11842230
0.78390336 -0.60516244 -0.33479607 11776440
0.78430563 -0.59524411 -0.33511651 12039355
0.78551716 -0.58527905 -0.33484259 12038841
0.78562957 -0.57499832 -0.33455941 12235962
0.78503126 -0.56457329 -0.33536971 11908025
0.78506458 -0.55495387 -0.33558881 12237245
0.78523535 -0.5450027 -0.33524343 12303038
0.78560007 -0.53492409 -0.33475158 12237243
0.78599989 -0.52507681 -0.33492285 12632001
0.78740638 -0.51472414 -0.33517626 12632000
0.78800005 -0.50519872 -0.33485267 12631745
0.78800005 -0.49505267 -0.3348527 12434880
0.78866655 -0.48531684 -0.33513555 12434880
0.78874981 -0.47521257 -0.33517006 12237244
0.78839993 -0.46485144 -0.3350215 12368831
0.7877242 -0.45535988 -0.33489373 12237244
0.78700012 -0.44483903 -0.33522186 12763331
0.7860769 -0.43425 -0.33509719 12434366
0.7852307 -0.42423868 -0.33480611 12566210
0.78486198 -0.41511941 -0.33519733 12500160
0.78457576 -0.40465674 -0.33481652 12829379
0.78390342 -0.39447773 -0.33509421 13157834
0.78360015 -0.38418776 -0.33468467 15394020
0.78754556 -0.37660262 -0.33507806 15198178
0.79396296 -0.3716071 -0.33472937 10790310
0.79356253 -0.6352101 -0.32479194 10261920
0.78853327 -0.62368339 -0.32492694 12039352
0.79000002 -0.62854153 -0.32553083 11577780
0.78617239 -0.61458147 -0.32471493 12236217
0.78581244 -0.60497379 -0.32472289 12236218
0.78619993 -0.59501725 -0.32501477 12170169
0.78636646 -0.58515149 -0.32495266 12039098
0.78608304 -0.57481837 -0.32483649 12105148
0.78649974 -0.5649966 -0.32500753 12170685
0.78686136 -0.55512476 -0.32515764 12368064
0.78599989 -0.54439718 -0.32480252 12302784
0.78603214 -0.53504074 -0.32466725 12039612
0.78654295 -0.52530682 -0.32515699 12303037
0.78761774 -0.51531047 -0.32519865 12368574
0.78800005 -0.50519866 -0.32470667 12632260
0.78800005 -0.4950527 -0.32470676 12434881
0.78875983 -0.4853735 -0.3250193 12566467
0.7888332 -0.4752633 -0.32505074 12172735
0.78820002 -0.46473324 -0.32478988 12303549
0.78753853 -0.45498389 -0.32472959 12368314
0.78700012 -0.4456014 -0.32521588 12565693
0.78619421 -0.43502229 -0.32488191 12434108
0.78599989 -0.42479464 -0.32480249 12369089
0.78563315 -0.41540101 -0.3246496 12040635
0.78463334 -0.40476939 -0.32515538 12763586
0.78463995 -0.39466995 -0.32515821 13552077
0.78539997 -0.38480681 -0.32468429 15394023
0.78789473 -0.37756947 -0.32553542 15001058
0.7938149 -0.37257037 -0.32496628 12369342
0.79381257 -0.63529438 -0.31502056 10458527
0.78837502 -0.62367368 -0.3152869 11973304
0.79000002 -0.62854153 -0.31535909 11708852
0.78619993 -0.61447603 -0.31476244 12302266
0.78666669 -0.60470951 -0.3149496 12433595
0.78700006 -0.59483427 -0.31508273 12104886
0.78700012 -0.58470124 -0.3150827 12236732
0.78683996 -0.57445097 -0.31501812 12368062
0.78700006 -0.56535619 -0.31508279 12171197
0.78665388 -0.55568796 -0.31508657 12302526
0.78565508 -0.54491979 -0.31441784 12237246
0.78663349 -0.53470552 -0.31493527 12368832
0.78784007 -0.52538335 -0.31541839 12434879
0.78800005 -0.51534462 -0.31548309 12434880
0.78800005 -0.50519866 -0.31548309 12500929
0.7887271 -0.49525648 -0.3152703 12500928
0.78899974 -0.48552209 -0.31495994 12500414
0.78846866 -0.47527564 -0.31532422 12434364
0.78800005 -0.46461475 -0.31548306 12697020
0.78768003 -0.45520705 -0.31535417 12564922
0.78716683 -0.44477502 -0.31514883 12697279
0.78696007 -0.4345251 -0.3150667 12434364
0.78604007 -0.42481652 -0.31469822 12631999
0.78533322 -0.41483361 -0.31421185 12698306
0.78529406 -0.40483993 -0.31553426 12566207
0.78506655 -0.39488485 -0.31522739 13223626
0.78590328 -0.38533166 -0.31482136 15263462
0.78870583 -0.37814197 -0.31511378 15263461
0.79296303 -0.37299863 -0.31492421 14868957
0.79343748 -0.6348781 -0.30500668 10459041
0.78858811 -0.6236183 -0.30529305 11776438
0.79000002 -0.62854153 -0.30518734 12038073
0.78687108 -0.61482173 -0.30474848 12105403
0.78702879 -0.60485649 -0.30509049 12170424
0.78754562 -0.59474331 -0.30490792 12170679
0.78727281 -0.58448541 -0.30530545 11973557
0.78700012 -0.57456791 -0.30494964 12105145
0.78696567 -0.56545866 -0.30509526 11974330
0.78603995 -0.55546665 -0.30549827 12105402
0.78523332 -0.54478461 -0.30518422 12105659
0.78691179 -0.53467762 -0.30518609 12171196
0.78800005 -0.52549052 -0.30533707 12303037
0.78800005 -0.51534456 -0.30533707 12303551
0.78800005 -0.5051986 -0.30533713 12434880
0.78806061 -0.49534202 -0.30494162 12171964
0.78840005 -0.48515242 -0.30457059 12632001
0.78882331 -0.47503948 -0.30538422 12303036
0.78876656 -0.46506679 -0.30563298 12500413
0.78863621 -0.45525542 -0.30533034 12631741
0.7881819 -0.44492862 -0.30565813 12631997
0.78763336 -0.43489695 -0.30519339 12368828
0.7870968 -0.42520976 -0.30483574 12631485
0.78642863 -0.41476879 -0.30485728 12960708
0.78599995 -0.40469727 -0.30526865 12698048
0.78519994 -0.39495179 -0.30517036 13158087
0.78624249 -0.38509777 -0.30507332 15263459
0.788625 -0.3783271 -0.30500206 15394275
0.7930001 -0.37280881 -0.30482966 14868956
0.79258823 -0.63475174 -0.29450831 10459554
0.78870583 -0.62414575 -0.29480365 12039353
0.79000002 -0.62854153 -0.29594034 11907258
0.78800005 -0.61495966 -0.29519111 12170682
0.78800005 -0.60481358 -0.29519114 12039351
0.78800005 -0.59466755 -0.29519111 12105400
0.78764009 -0.58425587 -0.29505673 12040121
0.78700006 -0.57456797 -0.29481661 12303295
0.78630769 -0.56471837 -0.29476997 12303039
0.78539979 -0.55501419 -0.29513779 12040123
0.78558314 -0.54502678 -0.29520476 12303040
0.78678131 -0.53503734 -0.29507935 12237502
0.78700006 -0.52482373 -0.29481652 12500416
0.7871334 -0.51477748 -0.29486713 12500415
0.78772008 -0.50501806 -0.29508644 12500927
0.78800005 -0.4950527 -0.29519114 12435136
0.78800005 -0.48490673 -0.29519117 12632257
0.78885692 -0.47514448 -0.29472056 12500156
0.78900009 -0.46789101 -0.29422244 12434363
0.79000014 -0.46327877 -0.29520053 12763329
0.78900003 -0.45181316 -0.29879811 12566207
0.7900002 -0.45505318 -0.29437542 12632257
0.7889998 -0.44413099 -0.2957336 12763585
0.79000002 -0.4475311 -0.29201037 12632257
0.78899974 -0.43472782 -0.2946423 12565950
0.78873318 -0.42442587 -0.29454142 12500158
0.78811544 -0.41501042 -0.29502097 13092295
0.78710365 -0.40499645 -0.29561573 12764097
0.78678799 -0.39524749 -0.29540443 13026760
0.78755891 -0.38512689 -0.2951858 15131103
0.78862506 -0.37890434 -0.29611704 15920103
0.79347372 -0.3737793 -0.29474348 14868697
0.79180956 -0.63466316 -0.28478914 10525604
0.78845447 -0.62437654 -0.28478977 12039865
0.78800005 -0.6149596 -0.28504521 12171193
0.78800005 -0.60481364 -0.28504518 12105400
0.78800005 -0.59524417 -0.28527567 12171451
0.78702962 -0.58445215 -0.2844775 12040122
0.78686225 -0.57459491 -0.28479263 12040380
0.78596002 -0.56460959 -0.28522709 12106174
0.78574073 -0.55491292 -0.28473699 12039867
0.78645712 -0.54550183 -0.28461698 12171451
0.78700024 -0.53495675 -0.28468341 12105914
0.78706676 -0.52486789 -0.28470725 12368829
0.78780562 -0.51521707 -0.28497389 12368829
0.78800005 -0.50519866 -0.28504518 12171193
0.78800005 -0.49505267 -0.28504512 12302522
0.78800005 -0.4849067 -0.28504518 12236472
0.78825802 -0.47506383 -0.2843948 12368311
0.78895813 -0.46533355 -0.2843146 12565948
0.79000002 -0.46070808 -0.28715569 12433851
0.78900003 -0.45658472 -0.28109708 12171447
0.79000002 -0.45452142 -0.28554848 12565694
0.78900003 -0.44119254 -0.28448334 12895173
0.79000014 -0.44560465 -0.28484389 12303035
0.7889998 -0.43415949 -0.28490964 12566208
0.79000002 -0.4389776 -0.2820698 12698051
0.78883988 -0.42448345 -0.28442618 12303037
0.78806901 -0.41471666 -0.28491125 12763588
0.78800005 -0.4046613 -0.28504518 12369596
0.7881667 -0.39459816 -0.28510481 13487308
0.78870958 -0.38539979 -0.2852709 15131616
0.79000002 -0.38072136 -0.28299451 15394786
0.79406977 -0.37449744 -0.28505519 14736855
0.79195243 -0.63442475 -0.27512857 10854571
0.78847373 -0.62441373 -0.27525887 12039610
0.79000002 -0.62854153 -0.27097338 11644084
0.78792864 -0.61523342 -0.27507225 12368316
0.78762978 -0.60493886 -0.27456638 12170424
0.78748012 -0.5951975 -0.27471909 12171194
0.78700012 -0.58470124 -0.27455032 12171451
0.78696162 -0.57439834 -0.27474922 12171707
0.78683352 -0.56523639 -0.2754122 11974071
0.78688246 -0.5553565 -0.2751587 12170935
0.78724158 -0.5444932 -0.27450708 12170679
0.78749996 -0.53458774 -0.27486521 12500156
0.78724009 -0.5249846 -0.2746335 12434364
0.78746688 -0.51499492 -0.27471432 12368830
0.78792006 -0.5051471 -0.27487168 12369086
0.787889 -0.49549562 -0.27506584 12566464
0.7877143 -0.48532245 -0.27460262 12368828
0.78800005 -0.4747608 -0.27489921 12369083
0.78832 -0.46480283 -0.27501184 12632253
0.78865504 -0.45500544 -0.2752564 12500410
0.78891641 -0.44530091 -0.27475762 12434362
0.79000002 -0.44267642 -0.27929568 12171707
0.78899974 -0.43456858 -0.27512062 12369086
0.79000002 -0.43990231 -0.27929568 11513777
0.78812003 -0.42409593 -0.27494153 12040634
0.78800005 -0.41480729 -0.27489924 12303549
0.78800005 -0.4046613 -0.27489918 12039863
0.78839993 -0.39471412 -0.27503872 13486539
0.78899986 -0.38670418 -0.27524799 14933979
0.79000002 -0.38164607 -0.27467215 15724008
0.79356754 -0.3750003 -0.27498338 14934234
0.79325008 -0.63496023 -0.26523924 10986670
0.78833336 -0.6235252 -0.26486525 12038838
0.79000002 -0.62854153 -0.26450047 11775926
0.78723091 -0.61542374 -0.26520342 12367805
0.78700012 -0.60496718 -0.26533848 12302781
0.78700006 -0.59483427 -0.26533845 12433853
0.78677791 -0.5850482 -0.26546893 12236731
0.78685725 -0.575055 -0.26509327 12368832
0.78783345 -0.56503171 -0.26469678 12105402
0.78770006 -0.55479532 -0.26465112 12170938
0.7875002 -0.54451334 -0.26458433 12170937
0.78800005 -0.53484142 -0.26491222 12368061
0.78736007 -0.52506506 -0.26545998 12237245
0.78722876 -0.51497197 -0.26462454 12434367
0.78712004 -0.5046342 -0.26537943 12368314
0.78700006 -0.49534568 -0.26533845 12697279
0.78768587 -0.48550218 -0.2647787 12368830
0.78802788 -0.47477737 -0.26476231 12500671
0.78800005 -0.46461475 -0.26475319 12500414
0.78800005 -0.45539123 -0.26475325 12763584
0.78808337 -0.44529188 -0.26478165 12762814
0.78888214 -0.43493402 -0.26483271 12894400
0.78800005 -0.42437679 -0.26498377 12434875
0.78800005 -0.41480732 -0.26475319 12566976
0.78800005 -0.4046613 -0.26475319 12105399
0.78820008 -0.39461461 -0.26482081 13749711
0.78899974 -0.385221 -0.26472536 15197152
0.79000002 -0.38072136 -0.26819927 15592937
0.79286849 -0.37432647 -0.26472536 14803419
0.79247057 -0.63443899 -0.25485078 11183793
0.78841174 -0.62402189 -0.25441432 12105146
0.79000002 -0.62854153 -0.25710285 11512755
0.78722602 -0.61480147 -0.25489143 12499648
0.78717673 -0.60483187 -0.25547832 12170942
0.78703344 -0.59485954 -0.25521594 12236990
0.78609997 -0.58495307 -0.25491315 11974332
0.78647208 -0.57510149 -0.2550346 12040381
0.78800005 -0.56515211 -0.25460726 12303040
0.78800005 -0.55500609 -0.25460729 11908282
0.78800005 -0.54486012 -0.25460723 12171454
0.78788465 -0.53449458 -0.25478229 12105660
0.78730005 -0.52502352 -0.25530142 12105914
0.7879678 -0.51517498 -0.25477511 12500413
0.78713346 -0.50464368 -0.25524828 12236982
0.78725731 -0.49471644 -0.25515667 12565948
0.7879616 -0.48509556 -0.25480741 12237499
0.78843325 -0.47502011 -0.25474724 12434622
0.78832 -0.46480468 -0.25471032 12697794
0.78800005 -0.45539117 -0.25460723 12632001
0.78800005 -0.44524521 -0.25460723 12369085
0.78837037 -0.43489286 -0.25493318 12500668
0.78800005 -0.42462388 -0.25440958 12631483
0.7880401 -0.4148283 -0.25461999 12894656
0.78800005 -0.4046613 -0.25460723 12303032
0.7880401 -0.39453515 -0.25461999 14013397
0.78899974 -0.38501635 -0.25505772 15460325
0.79000002 -0.38072136 -0.25155464 15789546
0.79413348 -0.37476602 -0.25484842 14146005
0.79227281 -0.63499188 -0.2448578 10921132
0.78809518 -0.62439221 -0.24514964 12170939
0.78692007 -0.61503816 -0.24504764 12434622
0.78730005 -0.60519689 -0.2451665 12368829
0.78724009 -0.59501636 -0.24514732 12237244
0.78655577 -0.58488292 -0.24472812 12303038
0.78664285 -0.57489771 -0.24515715 12237502
0.78793335 -0.56510383 -0.24536276 12172222
0.78763998 -0.55475336 -0.24527255 12303808
0.78776675 -0.54469812 -0.24531178 12500930
0.78800005 -0.53471422 -0.24538365 12237758
0.78768015 -0.52527809 -0.24528481 12302778
0.78746676 -0.51499492 -0.24521868 12499643
0.78720009 -0.50468516 -0.2451338 12368570
0.78793341 -0.49501082 -0.24536248 12566205
0.78800005 -0.4849067 -0.24538359 12434875
0.78837496 -0.4749276 -0.24515362 12698048
0.78812003 -0.46468595 -0.24542119 12566720
0.78800005 -0.4553912 -0.24538362 12632512
0.78800005 -0.44524524 -0.24538365 12566465
0.78800005 -0.43509918 -0.24538356 12566464
0.78800005 -0.42495331 -0.24538361 12697280
0.78800005 -0.41480723 -0.24538361 13092296
0.78800005 -0.4046613 -0.24538358 12236468
0.78823996 -0.39463443 -0.24545842 14079188
0.78899986 -0.38709998 -0.24516729 15461097
0.79033339 -0.3823615 -0.24462993 15921902
0.79152942 -0.63455749 -0.23547386 10921132
0.78796005 -0.62441182 -0.23474585 12302780
0.78610337 -0.61452711 -0.23476708 12368316
0.78652787 -0.60490966 -0.23479941 12105400
0.78755563 -0.59463817 -0.23490092 12105658
0.78780639 -0.58455646 -0.23532756 12105915
0.78786671 -0.57520038 -0.23519713 12039865
0.78800005 -0.56515205 -0.23523766 12105657
0.78730011 -0.55451435 -0.23502831 12105657
0.78703243 -0.54493362 -0.23509751 12368828
0.78737164 -0.53507727 -0.23491979 12237502
0.78706682 -0.52486843 -0.23495939 12171193
0.78716683 -0.51479864 -0.23498917 12368572
0.78800005 -0.50519866 -0.2352377 12171706
0.78800005 -0.49505275 -0.23523767 12171449
0.7882334 -0.48504937 -0.23530692 12500926
0.78885269 -0.47532862 -0.23521984 12303290
0.78829992 -0.46479276 -0.23532705 12566465
0.78800005 -0.4553912 -0.23523769 12632001
0.78800005 -0.44524515 -0.2352377 12565950
0.78800005 -0.43509918 -0.23523763 12631741
0.78772742 -0.42522523 -0.23540872 12763071
0.78736377 -0.41497511 -0.23479815 13223367
0.78690326 -0.4048405 -0.23506135 12893885
0.78745723 -0.39503166 -0.23494516 13881552
0.78870583 -0.38704804 -0.23419981 15593708
0.79038465 -0.38247156 -0.23545115 15922159
0.79085004 -0.635144 -0.22479507 10394789
0.78800005 -0.62510782 -0.22509113 11908281
0.78616005 -0.61444443 -0.22456552 12434367
0.78611112 -0.60479444 -0.224757 12236732
0.78660733 -0.59512806 -0.22449741 12171452
0.78720009 -0.58484936 -0.22486399 12303038
0.78751999 -0.57494712 -0.22495589 12105916
0.78790009 -0.56508011 -0.22506358 12105915
0.78736007 -0.55455649 -0.22490861 12171451
0.78704 -0.54511774 -0.22481728 12500161
0.78700012 -0.53511566 -0.22480603 12434367
0.78669238 -0.52483088 -0.22471842 12368830
0.78726679 -0.51486379 -0.22488163 12829381
0.78800005 -0.50519866 -0.22509167 12631740
0.78800005 -0.49505267 -0.22509162 12303289
0.78800005 -0.4849067 -0.22509168 12632254
0.78813338 -0.47484106 -0.22513066 12500410
0.78796005 -0.46459138 -0.22508045 12697789
0.78780007 -0.45527557 -0.22503547 12763326
0.78759998 -0.44501922 -0.22497879 13025985
0.78748018 -0.43481237 -0.22494458 12763328
0.78675985 -0.42520627 -0.22473861 12697793
0.78592581 -0.41514751 -0.22470453 13092038
0.78522223 -0.40490258 -0.22423132 12631740
0.78571427 -0.39474776 -0.22463846 14079187
0.78791666 -0.38616988 -0.2246083 15723751
0.79022223 -0.3814449 -0.22572725 15789802
0.788423 -0.62487441 -0.21534489 11842744
0.78735501 -0.61519998 -0.21461913 12039865
0.78690892 -0.6050365 -0.21467404 12236729
0.78693753 -0.59513175 -0.21476962 11974072
0.78700024 -0.58483267 -0.21464597 12105913
0.78741956 -0.57505161 -0.21481553 12237243
0.78791672 -0.56509185 -0.21492271 12105914
0.78786677 -0.55491245 -0.21490894 12170937
0.78800005 -0.54486012 -0.21494573 12565437
0.78810006 -0.53478229 -0.21497165 12434108
0.78763354 -0.52524644 -0.21484415 12368317
0.78775007 -0.51518041 -0.21487656 12565950
0.78800005 -0.50519866 -0.21494573 12631485
0.78800005 -0.4950527 -0.21494573 12171191
0.78730023 -0.48447695 -0.21475503 12368313
0.78673077 -0.47505909 -0.21530873 12500411
0.78634644 -0.46526819 -0.21555789 12566718
0.78555989 -0.45545322 -0.21520139 12567232
0.78440744 -0.44522193 -0.21495478 12697534
0.78489637 -0.4352209 -0.21502095 12960706
0.7853927 -0.42505774 -0.21495858 12960447
0.78464013 -0.41487652 -0.21494947 13355464
0.78344023 -0.40507114 -0.21462063 12302521
0.7827 -0.39479259 -0.21472327 14013651
0.7862286 -0.38494235 -0.21470016 15658217
0.79000002 -0.38072136 -0.21641596 14802651
0.78877765 -0.62377375 -0.20520645 11514291
0.78842843 -0.61496395 -0.20510752 11580083
0.78859258 -0.6048581 -0.20474723 11711410
0.78821433 -0.59449995 -0.20505217 11579569
0.78832 -0.58475876 -0.20488173 11710898
0.7887035 -0.57540113 -0.20491308 11842484
0.79000002 -0.57120997 -0.20162071 11778489
0.78833336 -0.56487882 -0.2050903 11776434
0.78808004 -0.55506289 -0.20481941 11841970
0.78813338 -0.54495186 -0.20483351 12170932
0.78899986 -0.53556871 -0.20576325 12039604
0.79044443 -0.53411096 -0.20091115 12105909
0.78873903 -0.52534151 -0.20539235 12040375
0.79049999 -0.52715772 -0.20082247 11842740
0.7883572 -0.5152483 -0.20508896 12435135
0.78823084 -0.50513357 -0.20471674 12567235
0.78817242 -0.49500176 -0.20497099 12106684
0.78776008 -0.48476002 -0.20473644 12237498
0.78670013 -0.47459126 -0.20507316 12106428
0.78678143 -0.46510458 -0.20528631 12106940
0.78564292 -0.45527843 -0.20523573 12106941
0.78412521 -0.44517764 -0.20459175 12172217
0.78438246 -0.43526047 -0.20488182 12369340
0.78474289 -0.42490324 -0.20500152 12368824
0.78410023 -0.41459081 -0.20470186 12763838
0.7833336 -0.40501624 -0.20450135 11513003
0.78253341 -0.39538157 -0.20435365 13618380
0.78473169 -0.38444293 -0.2049333 15198179
0.78900003 -0.62128121 -0.19951846 8356996
0.79391193 -0.60485768 -0.19588293 8553865
0.79384375 -0.59482849 -0.19620143 8553864
0.79420012 -0.58502257 -0.19550742 9079952
0.79371071 -0.57471639 -0.19497591 9145487
0.79348582 -0.56496608 -0.19570543 8685194
0.78900003 -0.55293983 -0.19951846 11842483
0.79421425 -0.55512387 -0.19544788 8027779
0.78900003 -0.54739869 -0.19951846 12039862
0.79438722 -0.54497862 -0.19582984 8422279
0.79466665 -0.5351994 -0.19591872 8684935
0.79465526 -0.524472 -0.19516353 8751240
0.78900003 -0.51230448 -0.19951846 12436932
0.79234487 -0.51508182 -0.19498278 8488840
0.78900003 -0.50417739 -0.19877963 10989229
0.79114288 -0.50509679 -0.1937959 7830910
0.78900003 -0.49475741 -0.19859493 10922922
0.7906667 -0.49509683 -0.19341582 7896188
0.78900003 -0.48552203 -0.19859493 10923437
0.79180771 -0.48489067 -0.193379 8225153
0.78877783 -0.47615182 -0.19884658 10989743
0.79403049 -0.4750922 -0.19385056 8422533
0.78900003 -0.46458864 -0.1992106 11581367
0.79344839 -0.46506795 -0.19397151 8554375
0.7884286 -0.45484802 -0.19765916 10593702
0.79309529 -0.45488447 -0.19241367 8224897
0.78794116 -0.4449403 -0.19751313 10658723
0.7924211 -0.44495648 -0.19217677 8092797
0.78806245 -0.43478739 -0.19731964 10592673
0.7932173 -0.4353908 -0.19218171 7830395
0.7879374 -0.42491886 -0.19740361 11053994
0.79323816 -0.4252544 -0.19227166 7896446
0.78761113 -0.4146024 -0.19701365 11514544
0.79130769 -0.41555098 -0.1924053 8752012
0.78759098 -0.40486965 -0.19622599 10263192
0.7911818 -0.40486392 -0.19165017 7764603
0.78695643 -0.39455357 -0.19667383 12566205
0.79543346 -0.50499803 -0.18531202 10988460
0.79508835 -0.49479446 -0.18506503 10987945
