# .PCD v0.7 - Point Cloud Data file format
VERSION 0.7
FIELDS x y z rgb
SIZE 4 4 4 4
TYPE F F F U
COUNT 1 1 1 1
WIDTH 1001
HEIGHT 1
VIEWPOINT 0 0 0 1 0 0 0
POINTS 1001
DATA ascii
0.79356265 -0.14499435 0.095861167 14407885
0.78900003 -0.13273297 0.099705793 16709869
0.79379338 -0.1352037 0.094919473 14209991
0.78880006 -0.12531389 0.099680513 16381673
0.79311138 -0.12489565 0.094716005 13881027
0.78890002 -0.11517069 0.098954335 16052964
0.7941305 -0.11484114 0.094121717 13355453
0.78900003 -0.10502703 0.099705793 16184552
0.79412001 -0.10526059 0.094989441 13421248
0.78900003 -0.096715242 0.099705793 16315881
0.79354173 -0.094716787 0.096169166 13684163
0.7924999 -0.064679235 0.095502272 13617856
0.79193324 -0.055360992 0.095437363 13354942
0.79409099 -0.045537207 0.095273919 12566197
0.79203326 -0.014577304 0.095448926 11316641
0.79224133 -0.0054341508 0.095316082 11382179
0.78900003 -0.1512036 0.10894111 13815241
0.79213798 -0.15564518 0.10457651 10855070
0.78833324 -0.14466169 0.10559592 14933717
0.79020005 -0.14847407 0.10281694 14341838
0.78610003 -0.13494547 0.10522237 15327960
0.78459382 -0.12498885 0.10580025 14999253
0.78532273 -0.11479547 0.10492927 14933717
0.78600007 -0.10462768 0.10484213 14868694
0.78660721 -0.094907068 0.10472546 15132123
0.78776002 -0.085237972 0.1055952 15131352
0.79000002 -0.08204259 0.10168156 16578281
0.78849995 -0.075426191 0.10610206 15657182
0.79000002 -0.074644975 0.10168157 16446439
0.78820688 -0.065091133 0.10526625 15592158
0.7881428 -0.055271983 0.10583351 15920866
0.79000002 -0.054301526 0.10168156 16052453
0.78831828 -0.045294691 0.10632887 15525851
0.79072726 -0.043664131 0.10160577 15526623
0.78811097 -0.034799643 0.10635629 15328730
0.79150003 -0.034948431 0.10140974 15263194
0.78696144 -0.024687378 0.10610245 15066072
0.791125 -0.026369017 0.10113079 14671055
0.78633326 -0.014971772 0.1060534 14934743
0.78757143 -0.0058014393 0.10610586 15329243
0.79033333 -0.0034435848 0.10172369 13947847
0.78833324 0.0043162419 0.10737172 14934230
0.79166669 0.005288844 0.10242303 13092026
0.78900003 0.014240479 0.10841338 14934487
0.79334795 0.015358277 0.10363984 12697524
0.79387903 0.024923462 0.10520951 13092539
0.79241675 -0.15541966 0.11482499 10986142
0.78728569 -0.14515254 0.11482617 14539473
0.78451622 -0.13523729 0.11531568 14342093
0.78466678 -0.12506244 0.11549026 14407887
0.78614277 -0.11463635 0.11512365 14342094
0.78606659 -0.10463726 0.11498161 14144458
0.78584367 -0.095062561 0.11517932 14210251
0.78697062 -0.085139088 0.11489455 13881287
0.78783345 -0.07536304 0.11523467 14144202
0.78583336 -0.065055959 0.11494125 13749700
0.78516656 -0.054887813 0.11484351 14276044
0.78563887 -0.044806145 0.11491164 14276043
0.78366685 -0.034605082 0.11462174 14012872
0.77854556 -0.023608321 0.11644454 14144971
0.78162497 -0.026851853 0.11340839 14012872
0.77781832 -0.015555986 0.1158378 14473937
0.78050005 -0.014365083 0.11187829 14473424
0.77890003 -0.0059469501 0.11739286 14736854
0.78200006 -0.0046598758 0.11278858 14802646
0.77900004 0.00025233286 0.11850227 15065562
0.78357142 0.0049746432 0.11447459 14868183
0.78683341 0.014992982 0.1150855 14078924
0.78822869 0.025034664 0.11542363 13552580
0.79000002 0.029846365 0.11092858 14737106
0.78835988 0.035321288 0.11623369 13749701
0.79000002 0.035394575 0.11092858 14473934
0.78839993 0.044551183 0.11623949 13223356
0.79000002 0.044641595 0.11092858 14802899
0.7884444 0.054397941 0.11665635 13289663
0.79055554 0.055778258 0.11162305 14474707
0.7884376 0.064625911 0.11786055 12829114
0.79128581 0.065356173 0.11282725 14343122
0.78833336 0.074998207 0.11807577 13749960
0.79141188 0.075017452 0.11308625 13619143
0.78826314 0.085335068 0.11728725 14342096
0.79116672 0.084681772 0.1121714 12960699
0.78849995 0.094396435 0.11836456 14473681
0.79147065 0.09507931 0.11342127 13158079
0.78900003 0.10184405 0.11817642 14868181
0.79221445 0.10523991 0.11461174 13223870
0.79329056 0.11497757 0.11407754 12829370
0.79400003 -0.15478618 0.12500824 11644329
0.7884286 -0.14476724 0.12521031 14999767
0.79000002 -0.14954583 0.12479911 15065562
0.78756678 -0.13525762 0.12533823 15131353
0.78808004 -0.12519774 0.12541957 15065560
0.78859985 -0.11512748 0.12550244 15065559
0.78865206 -0.10522135 0.12518941 15197144
0.79000002 -0.10238604 0.12942263 15328730
0.78859258 -0.094511554 0.12509085 14934230
0.79000002 -0.097762525 0.12942263 15262938
0.78836 -0.084641457 0.12546365 14671058
0.78796005 -0.075374722 0.12539937 14671315
0.7863999 -0.065102354 0.12515205 14539729
0.78527993 -0.054896273 0.12497377 14802901
0.78496659 -0.044768739 0.12492304 14210251
0.7819286 -0.03433384 0.12502632 13749700
0.77796429 -0.024987692 0.12491418 13881544
0.78000003 -0.028963247 0.12230638 13618115
0.77697247 -0.015209188 0.12455985 14342095
0.77723348 -0.0052066357 0.12460046 14671061
0.77826327 0.0023630762 0.12538932 14868439
0.78123528 0.0075702528 0.1245442 14934233
0.78540009 0.014968357 0.12499119 14473938
0.78800005 0.025158998 0.12540552 13749959
0.78816009 0.03531279 0.12543145 13552580
0.78887987 0.044577833 0.12554604 13881802
0.78839988 0.054701686 0.12547044 13092029
0.78800005 0.064820521 0.12540552 12565686
0.78783339 0.074949838 0.12537949 12500150
0.78688014 0.084990084 0.12522887 12894650
0.78680646 0.095263198 0.12503551 13354943
0.78730017 0.10531093 0.12436834 13815494
0.78757143 0.11436887 0.12474096 14736339
0.79000002 0.11769307 0.1201756 15328733
0.78842866 0.1210188 0.1267914 12038827
0.79282606 0.12550311 0.12455704 11908524
0.79316682 -0.15533444 0.13527729 11381415
0.78840905 -0.14505118 0.13495058 15197146
0.79000002 -0.14954583 0.13312143 15262940
0.78800005 -0.13533185 0.13462916 15262939
0.78887975 -0.12532513 0.13477956 15262939
0.78899992 -0.11691749 0.1334147 15196889
0.79000002 -0.11335037 0.13655601 15262425
0.79020017 -0.10518622 0.13500568 15196889
0.78900003 -0.090250522 0.13110587 14999769
0.79020715 -0.095173553 0.13513431 15131096
0.78895813 -0.084551133 0.13463885 14802389
0.79000002 -0.088515505 0.13866964 14802388
0.78800005 -0.075378366 0.13462915 14802389
0.78728139 -0.064944901 0.13485259 14276044
0.78609997 -0.054954216 0.13522597 14736595
0.78483325 -0.044763613 0.13500626 14210252
0.78188896 -0.034730993 0.13500813 13486272
0.77813649 -0.024756299 0.13451731 13815751
0.78000003 -0.028963247 0.13691434 13881544
0.77636135 -0.015197618 0.13536543 14342352
0.77685738 -0.005397907 0.13512768 14737110
0.77866673 0.0016199647 0.1344015 14802647
0.78144449 0.0069633927 0.13564377 14934233
0.78543347 0.014967558 0.13511024 14803160
0.78784382 0.024924185 0.13494751 14408146
0.78843999 0.035326086 0.13470441 13816009
0.7889998 0.04458509 0.13479996 13947595
0.78899974 0.054743938 0.13479997 13552836
0.7889598 0.064899303 0.13479324 13552836
0.78879982 0.075042225 0.13476665 13355200
0.78824008 0.085137174 0.13467129 13486785
0.78703237 0.09528774 0.13464348 13881029
0.7858333 0.10511383 0.13517955 14143688
0.78563327 0.11428476 0.13514474 14275789
0.78805 0.12275465 0.13537546 11776941
0.79049999 0.12794599 0.13459274 11777452
0.78900003 -0.1512036 0.1468059 15459552
0.79200011 -0.15587737 0.14481345 11314851
0.78853327 -0.14557745 0.14487383 15328477
0.78827775 -0.13537875 0.14482728 15328477
0.7889998 -0.12593578 0.14433081 15262682
0.79000002 -0.12254455 0.14828655 15262426
0.78900003 -0.11980354 0.14034118 15196376
0.79051542 -0.1154896 0.14509806 15328219
0.79203856 -0.10521629 0.14473587 15328476
0.79158634 -0.095021427 0.1443819 15131353
0.78900003 -0.082708351 0.14295784 14868181
0.79017645 -0.086032867 0.14631802 15065560
0.78843325 -0.07542067 0.14485592 14802388
0.78800005 -0.065449417 0.1450464 14539216
0.78751999 -0.055053994 0.14560974 15131097
0.7844668 -0.044744711 0.14504404 14209996
0.77890927 -0.03273562 0.1474975 13552323
0.78110522 -0.035454165 0.14384419 13552322
0.77763343 -0.025237117 0.1446891 13749958
0.77556688 -0.015182411 0.14521359 14342352
0.77637058 -0.0049975156 0.14496031 14802903
0.77833343 0.0018323042 0.1456102 14802903
0.78130001 0.0068398826 0.14454916 14802903
0.78440011 0.014947528 0.14503017 14737110
0.78688234 0.025342403 0.14483836 14605268
0.78806674 0.035308819 0.14478652 14342096
0.7889331 0.044581637 0.14494628 14276560
0.78899986 0.053292673 0.1435076 14013130
0.79000002 0.056847673 0.14717691 13881801
0.78900003 0.065364547 0.14172645 13486530
0.79000002 0.064676799 0.1473002 13618372
0.78899986 0.075110249 0.14238268 13815494
0.79000002 0.075102381 0.14802545 13552580
0.78896409 0.085480317 0.14468864 13815495
0.79000002 0.081629679 0.14884137 13881288
0.78817147 0.095146269 0.14493904 14144202
0.78648001 0.10519968 0.14541654 14210251
0.78667992 0.11443722 0.1454547 13947594
0.78839391 0.12469842 0.14498769 11711404
0.79000002 0.12971419 0.14514256 11777197
0.79144454 0.13530771 0.14489305 11711405
0.78900003 -0.1512036 0.15142356 15656416
0.79165399 -0.15577963 0.15535381 12235439
0.7889998 -0.14429422 0.15477565 15459549
0.79000002 -0.14892937 0.15839662 15130584
0.7889998 -0.13458005 0.15511766 15525341
0.7889998 -0.1257645 0.15553746 15393755
0.79000002 -0.12242126 0.15223195 15328219
0.79093766 -0.1152336 0.1551502 15328475
0.7940715 -0.094352089 0.15485382 15328732
0.7912308 -0.085094437 0.15534204 15065560
0.78886342 -0.074957862 0.15534264 15065304
0.79000002 -0.079268485 0.15346487 14933974
0.78806674 -0.065238297 0.15493411 14604753
0.78772008 -0.055067688 0.15486567 14670033
0.78362858 -0.044565618 0.15484765 14078153
0.77845001 -0.033462599 0.15486626 13486529
0.7802 -0.038102984 0.15521498 13486528
0.77639306 -0.025000826 0.15504038 13749958
0.77530533 -0.015177149 0.1551483 14408144
0.77629656 -0.0054013217 0.15484156 14802903
0.77832144 0.004484423 0.15503548 14868696
0.78100008 0.0093946559 0.15171498 14934489
0.77900004 0.011802136 0.15740688 14934489
0.78181487 0.01523602 0.15424497 14802647
0.78517652 0.024856364 0.15501313 14473938
0.78776008 0.035295244 0.15487373 14473938
0.7886799 0.044568218 0.15505449 14473938
0.78900003 0.050126273 0.15696473 14408145
0.7900002 0.055327039 0.15510876 14079180
0.79008019 0.064991713 0.15533035 13816008
0.79003358 0.075159758 0.15532075 13684422
0.78899986 0.085924126 0.15494177 13881288
0.79000002 0.081629679 0.15623897 13618116
0.78806663 0.095264465 0.15493348 14209740
0.78616005 0.10515762 0.15455885 14144460
0.78764009 0.11457762 0.15485042 14144715
0.78881818 0.12196612 0.15373927 11645352
0.79075003 0.12636723 0.15604171 11777195
0.7938695 0.13495882 0.15478422 11645610
0.79272008 -0.15563162 0.16512966 12695990
0.78900003 -0.14135261 0.16189024 15591134
0.79025012 -0.14581712 0.16523062 15525341
0.78899986 -0.13447744 0.16312163 15525341
0.79000002 -0.1350148 0.16773172 15525341
0.78899986 -0.12565258 0.1631216 15394525
0.79000002 -0.12471099 0.16773172 15526111
0.78900003 -0.11980354 0.16250594 15460318
0.79014826 -0.11483897 0.16479702 15394526
0.79200017 -0.10484791 0.16426915 15328476
0.78900003 -0.091728173 0.16915539 15065563
0.79155183 -0.095400259 0.16436911 15328475
0.78874999 -0.084129311 0.16688552 15131353
0.7902 -0.085948512 0.1621978 15065303
0.78820008 -0.075398199 0.16510768 14999767
0.78747243 -0.065189391 0.16495498 15328732
0.78666663 -0.054994382 0.16478738 15394012
0.78360009 -0.045061491 0.16487764 14143945
0.77803564 -0.034161113 0.16525421 13551552
0.78059995 -0.038853385 0.16442969 13486015
0.77592611 -0.025382809 0.16485681 13749189
0.77586681 -0.015186919 0.16524948 14407632
0.77739304 -0.0050108801 0.16499045 14802903
0.77884614 0.0037591283 0.16399156 14868696
0.78030008 0.0075600082 0.16783869 14934489
0.77900004 0.011194251 0.16135812 14868696
0.78130424 0.015205264 0.16481881 14802904
0.78456259 0.025283273 0.16491997 14671062
0.78723335 0.035272177 0.16490504 14802647
0.78829998 0.044546779 0.1651291 14868440
0.78892314 0.051400129 0.1661835 14736854
0.79009998 0.056577783 0.16421235 14276559
0.79044014 0.065020576 0.16465248 13947338
0.78899992 0.076723985 0.16767773 13749958
0.79000002 0.074139602 0.16345164 13750215
0.78889978 0.085209198 0.16525544 13815752
0.78747231 0.09519247 0.16495661 14144462
0.78599995 0.10513664 0.16464832 14144717
0.78773326 0.11459281 0.1650115 13881803
0.78900003 0.12031468 0.16065887 11316644
0.79287511 0.12477928 0.1653171 11711147
0.79396296 -0.15546195 0.17488691 12960445
0.79154837 -0.1446394 0.17450936 15394013
0.79113334 -0.13494347 0.17498665 15328220
0.79161114 -0.12483243 0.17509121 15328220
0.79146665 -0.11462002 0.17505947 15394013
0.79050022 -0.10522828 0.17484458 15394270
0.7889998 -0.093440898 0.17568727 14604755
0.79000002 -0.098603159 0.17364021 15262428
0.78836006 -0.08464174 0.17529336 14736342
0.78770834 -0.075274676 0.17499495 14473424
0.78720009 -0.065166399 0.17503603 14736340
0.78664011 -0.054992661 0.17491084 14867668
0.77900004 -0.041691687 0.17685919 13156793
0.78296012 -0.046013422 0.1746785 14341838
0.77565724 -0.035031233 0.1750602 13354430
0.77423328 -0.025124365 0.17486954 13552323
0.7747221 -0.015163551 0.17497933 14473426
0.77623355 -0.005198766 0.17532106 14868440
0.7782858 0.0032905205 0.17530811 14934489
0.7804445 0.0083732717 0.17434435 15000282
0.78233337 0.014906627 0.17486843 14868696
0.78430563 0.025042247 0.17530836 14671317
0.78430015 0.03513936 0.17530425 14934233
0.78583878 0.044646814 0.1756181 15131357
0.78843474 0.054344814 0.17538919 15131358
0.79000002 0.058203895 0.17134245 14736855
0.78900003 0.062686309 0.17839067 15065308
0.79000014 0.065428898 0.17395626 14276047
0.78899986 0.075985156 0.17451185 13881288
0.79000002 0.07305517 0.17683464 14012874
0.78895813 0.085292749 0.17527241 13881288
0.79000002 0.083479084 0.17935653 13881288
0.7880668 0.095264949 0.17522886 14012874
0.78728014 0.10530745 0.17505482 14078924
0.7882778 0.11343939 0.17496799 14276560
0.79028571 0.11813227 0.17651488 11513512
0.79399997 -0.15495288 0.18491215 13486274
0.79281473 -0.14471792 0.18515141 15394268
0.79199988 -0.13509177 0.18537289 15262939
0.79173332 -0.12485338 0.18530993 15262683
0.79104006 -0.11455823 0.18514606 15262940
0.78900003 -0.10194859 0.18774913 15459548
0.79031825 -0.10562367 0.18455797 15394012
0.78899974 -0.094708942 0.18479808 15196376
0.79000002 -0.099611931 0.18120594 15459548
0.7889598 -0.084705226 0.18466152 14999255
0.78806901 -0.075257972 0.18521644 14341839
0.78800005 -0.065232381 0.185359 14538961
0.78716683 -0.05502934 0.18516283 14801619
0.77900004 -0.041691687 0.18050648 13354172
0.78343999 -0.045896593 0.18512958 14209482
0.77606446 -0.035328012 0.18510184 13288894
0.77396166 -0.024976114 0.18498339 13420738
0.77413344 -0.015152751 0.18481517 14408145
0.77556008 -0.0051941769 0.18515596 14934233
0.77697247 0.0048014452 0.18458204 14868697
0.77837515 0.013919579 0.1870798 14868697
0.78114283 0.015928818 0.18309171 14868441
0.77900004 0.022136169 0.18962474 14671063
0.78172725 0.025208609 0.18529376 14671318
0.78199989 0.03503615 0.18486263 14802647
0.78331262 0.045413941 0.18482807 14868440
0.78733331 0.055553 0.18520181 14934233
0.78894436 0.06346187 0.18537562 14736854
0.79000002 0.067759149 0.18398003 14210766
0.78900003 0.070443973 0.18836482 14342352
0.79000026 0.075316206 0.18477723 14013387
0.78900003 0.08822196 0.18397805 14144460
0.79000002 0.083914228 0.18523115 14013387
0.7888332 0.095358513 0.18463229 14078667
0.78839993 0.10545737 0.18453147 14078667
0.78890002 0.11198882 0.18464775 14671061
0.79033345 0.1168184 0.18498278 12631737
0.79300004 -0.13526364 0.19489086 15393756
0.79162967 -0.12542121 0.19496459 15262170
0.78900003 -0.11056822 0.19575305 15393755
0.79000032 -0.11562081 0.19484526 15393755
0.78899974 -0.10476317 0.19509339 15327962
0.79000002 -0.10885895 0.19137767 15393755
0.78897196 -0.094864935 0.19482255 15262169
0.78859991 -0.084666952 0.19472928 15130583
0.788077 -0.075527981 0.19531076 15064790
0.78746665 -0.065189406 0.19537115 14933204
0.78587997 -0.05493981 0.19497734 14999000
0.77900004 -0.041691687 0.19783118 13420737
0.78242862 -0.045804329 0.19477525 14143947
0.77608573 -0.035051566 0.19514316 13157822
0.77368981 -0.025232499 0.19482677 13289408
0.77325022 -0.015135808 0.19455925 14210767
0.7741335 -0.0051853214 0.1947801 14802646
0.77494442 0.0047870674 0.1949839 14868440
0.77563322 0.014778271 0.19515766 14802903
0.77723551 0.024604201 0.19529276 14671318
0.77900004 0.031619169 0.19655462 14802648
0.78143996 0.035671603 0.1943161 14736855
0.78464532 0.04511388 0.19485182 14737110
0.78764009 0.05557283 0.1954166 14802903
0.78889638 0.065022141 0.19496326 14539731
0.78899974 0.075007297 0.19510117 14210766
0.79000002 0.07608147 0.19045296 14144973
0.7889998 0.08542572 0.19534263 14144716
0.79000002 0.083479084 0.19045298 14144973
0.78899974 0.095379323 0.19482957 14276046
0.78876656 0.10550664 0.19477127 14210512
0.78900003 0.11200289 0.19482952 14737113
0.79033339 0.1168184 0.19515878 12105906
0.79367751 -0.14484742 0.2054196 15327962
0.79333335 -0.13531995 0.20518157 15327962
0.79158056 -0.12551774 0.20476009 15262426
0.78900003 -0.11149175 0.20868251 15525343
0.7900002 -0.11526071 0.20517707 15328476
0.7889998 -0.10460723 0.20515633 15394012
0.79000002 -0.10824248 0.20401525 15393755
0.78866655 -0.094829515 0.20490144 15393756
0.78740013 -0.084538572 0.205492 15196376
0.78633332 -0.075220019 0.20521167 15327962
0.7850554 -0.064990401 0.20487779 15196376
0.78380018 -0.054793738 0.20455202 15327963
0.77850002 -0.042576756 0.20499317 13815238
0.78143752 -0.047197707 0.20519418 15196378
0.77525812 -0.035289686 0.2048714 13223358
0.77335739 -0.024903065 0.20512678 13355201
0.77141666 -0.015102584 0.20493247 14013131
0.7713002 -0.0051662624 0.2049 14342352
0.77241671 0.0047724615 0.20519792 14473938
0.77350014 0.014737629 0.20548671 14539732
0.77518755 0.024979273 0.204687 14736853
0.77757144 0.033539139 0.20513704 14934233
0.78111118 0.03804433 0.20476583 14934490
0.78524143 0.044504039 0.20508786 14868441
0.78826672 0.054694142 0.20479836 14802904
0.78887975 0.064893477 0.20495743 14539731
0.78899986 0.073399283 0.20443425 14210766
0.79000002 0.07848569 0.20635781 14276559
0.78900003 0.088606767 0.2043727 14210253
0.79000002 0.084257767 0.20544285 14210510
0.78899974 0.095379323 0.20498841 14210253
0.78836006 0.10545332 0.20482284 14144718
0.78899992 0.11336105 0.20520569 13224386
0.79000002 0.11792424 0.20478585 11448231
0.79187101 0.12464173 0.20495258 11382440
0.79233348 -0.15576293 0.21471481 14078155
0.78899997 -0.14282079 0.21763369 15459548
0.79023808 -0.14580281 0.21350196 15525341
0.78899986 -0.13458005 0.21699429 15327963
0.79039997 -0.1348193 0.21182783 15328219
0.78899986 -0.12534472 0.21699432 15393756
0.79000002 -0.12550358 0.21172109 15328219
0.78896946 -0.11481781 0.21550259 15393756
0.79000002 -0.11933891 0.21141286 15328220
0.78843325 -0.10495183 0.21499109 15394013
0.78767663 -0.094981402 0.21456809 15196378
0.78500003 -0.084472813 0.21554343 14932948
0.77900004 -0.070870131 0.2188032 15130583
0.7826553 -0.074995354 0.21508767 15130584
0.77785718 -0.064524509 0.21756986 15393757
0.78166664 -0.065101005 0.21275322 15656927
0.77770013 -0.056003921 0.21752517 15591905
0.78123522 -0.054290865 0.21254405 15525854
0.77775002 -0.044661477 0.21564285 15065305
0.78120005 -0.048393775 0.21173978 16117478
0.77505547 -0.035132844 0.21497336 13420737
0.77322245 -0.025294732 0.21496734 13421250
0.76900005 -0.011902547 0.21374412 14079180
0.77044845 -0.015238935 0.21521939 14013387
0.77000028 -0.0051583345 0.21537402 14210767
0.77067655 0.0045495359 0.21529694 14342097
0.77236009 0.014715892 0.21512912 14210768
0.7736668 0.024703253 0.21458668 14605013
0.77624142 0.034656253 0.2151438 14868699
0.77900004 0.040828612 0.21743546 14934492
0.78332263 0.045570865 0.21516331 14934491
0.78775012 0.055235147 0.2145731 14803161
0.78876656 0.064884216 0.21508268 14539732
0.7889998 0.074001282 0.21593393 14276559
0.79000002 0.078341849 0.21305677 14276047
0.78899986 0.086144015 0.21689171 14342096
0.79000002 0.08394143 0.21279991 14341840
0.78874987 0.095348813 0.2150778 14341839
0.78883308 0.10551634 0.21510097 14276304
0.78899986 0.11389394 0.21413577 12566200
0.79000002 0.117878 0.21597473 11448487
0.79085732 0.12489732 0.21453163 11382694
0.7934286 0.13552067 0.21509512 11382694
0.79162073 -0.15528776 0.22496717 14670804
0.78899992 -0.14240289 0.22498013 15591134
0.79000002 -0.14806631 0.22522178 15459548
0.7889998 -0.13458005 0.22530609 15262169
0.7889998 -0.12534474 0.22530605 15327964
0.78863323 -0.1151337 0.22520095 15327964
0.78800005 -0.10489392 0.2250206 15393756
0.78637934 -0.095349476 0.22531705 15065048
0.77866673 -0.082384937 0.22903891 14670804
0.78309393 -0.08545357 0.2245324 14801877
0.77769238 -0.074253321 0.22585538 14735825
0.7808333 -0.077130988 0.22236459 14670033
0.77564281 -0.065313391 0.22453715 15262171
0.77518737 -0.054869849 0.22464848 15854565
0.77567846 -0.045340739 0.22454785 15525601
0.77449995 -0.035106614 0.22479095 13683397
0.7732144 -0.024898598 0.22500066 13618629
0.77118182 -0.015344643 0.22514196 14013645
0.76900005 -0.0021512304 0.22799605 14276305
0.77000022 -0.0055680121 0.2248785 14144974
0.76900005 0.0037209911 0.22705305 14276305
0.77022243 0.0059600123 0.22314879 14342353
0.76900005 0.014651037 0.22829609 14210512
0.77058333 0.01468169 0.22350289 14276561
0.77194452 0.024649829 0.22495154 14407891
0.77477789 0.034715347 0.22486973 14934235
0.77773082 0.043811157 0.22586788 15065821
0.78110009 0.047796983 0.223049 15000284
0.78453332 0.055356618 0.22494616 15065820
0.78784621 0.064667687 0.22518831 14539731
0.78899974 0.075061642 0.22530611 14276559
0.78847998 0.085163109 0.22515707 14342352
0.78723532 0.095381103 0.22544968 14407634
0.78770363 0.10516249 0.22534351 14276306
0.78900003 0.11107936 0.22530608 14737369
0.79136372 0.11587825 0.22463517 11316645
0.79100007 -0.15543555 0.23492095 14933205
0.78899986 -0.14319965 0.23498115 15459548
0.79000002 -0.14851838 0.23381124 15459548
0.78854823 -0.13468207 0.23547745 15262169
0.78726661 -0.12507132 0.23494372 15196377
0.78579503 -0.11483555 0.23504157 15262171
0.78524339 -0.10482509 0.23550069 15327964
0.77766663 -0.093203671 0.23814903 15065306
0.78350008 -0.095710918 0.23390265 15065049
0.77660722 -0.085003793 0.23572381 14867670
0.78100002 -0.087873712 0.23106582 14867926
0.7751388 -0.075057067 0.23495561 14538703
0.77410012 -0.064988665 0.2346416 14867411
0.77355582 -0.054982107 0.23447599 15854564
0.77366674 -0.045028362 0.23450954 15789029
0.77358353 -0.035063613 0.23448443 13947081
0.77285194 -0.025281498 0.23476513 13684422
0.76900005 -0.010552363 0.23669723 14079180
0.77071893 -0.015145762 0.23502599 14013643
0.76873344 -0.005150863 0.23481518 13947595
0.76833338 0.0047468189 0.23469302 14079180
0.76900035 0.014651034 0.23489697 14013133
0.77096975 0.024372859 0.23508747 14276304
0.77368981 0.034790158 0.23467389 14934233
0.77626473 0.044565398 0.23502946 15066075
0.78337044 0.055072855 0.235108 15000282
0.78785187 0.064741746 0.2349516 14539731
0.7889998 0.074753799 0.23413099 14276559
0.79000002 0.077930875 0.23853748 14342352
0.78851992 0.085462853 0.23447308 14408145
0.79000002 0.081629679 0.23853748 14342352
0.78624994 0.094812796 0.23521923 14605526
0.78682137 0.10544784 0.23514287 14605527
0.78900003 0.11107936 0.23454142 13487046
0.79227281 0.11634985 0.23500615 11316390
0.78900003 -0.15189625 0.24631645 15526111
0.79031825 -0.15625066 0.2445199 14933461
0.78866655 -0.14560169 0.24459571 15327962
0.78766686 -0.135276 0.24520819 15130583
0.7844286 -0.12442636 0.24478959 15196376
0.77778578 -0.11250938 0.2460326 15262170
0.78106678 -0.11665026 0.24376196 15196890
0.77632153 -0.10502829 0.24472225 15065305
0.78000003 -0.10748099 0.24099599 14999769
0.77496976 -0.095244549 0.24438606 14933719
0.77422231 -0.084734403 0.24504925 14933719
0.77355582 -0.074903123 0.2453412 15064792
0.77220005 -0.064829551 0.24490997 14933206
0.77161103 -0.054843772 0.24472301 15854823
0.77233326 -0.044950362 0.2449532 15789030
0.7719723 -0.034991104 0.24483845 14210510
0.76900005 -0.02135382 0.24839881 14079180
0.77062076 -0.025132351 0.24425465 13947593
0.76900005 -0.0144371 0.24612477 13881799
0.77015394 -0.016532209 0.24239132 13947593
0.76879346 -0.0050264979 0.24547605 13881802
0.76887119 0.0046042521 0.24493136 13947084
0.76900011 0.014978355 0.24438915 13618375
0.77000004 0.012266644 0.24812096 14012620
0.76900005 0.020351803 0.2453984 13420996
0.77103704 0.025856677 0.2447108 14144718
0.77339309 0.034457896 0.2449677 14802904
0.77556252 0.044964518 0.24473028 14802647
0.77885717 0.051565733 0.24585165 14737110
0.78326094 0.056302782 0.24495094 14802903
0.78792596 0.065022342 0.24487826 14605267
0.78900003 0.070905738 0.24470025 14407888
0.79028589 0.076374114 0.24509867 14342352
0.78899997 0.087331414 0.2448322 14342098
0.79006672 0.083116092 0.24521576 14342096
0.78750008 0.09519539 0.24515797 14473426
0.78744006 0.10533111 0.24513927 14473940
0.78886354 0.11399867 0.24574895 11381926
0.79049999 0.11707432 0.24215753 11382183
0.78900003 0.12380356 0.24849701 11316390
0.7919001 0.12526625 0.2436156 11382183
0.79116684 0.13490634 0.24481493 11316390
0.79331994 0.14512031 0.2451129 11316645
0.79355186 -0.16502336 0.25485179 10328725
0.78884196 -0.1538952 0.25529352 15196633
0.79000002 -0.15817641 0.25364095 14867928
0.78772426 -0.14530052 0.25520837 15196376
0.7861715 -0.13515124 0.25473037 14998997
0.77900004 -0.12193242 0.25831568 15130584
0.78293347 -0.12523891 0.25491053 15130584
0.77679312 -0.11425346 0.25580537 15262170
0.78025001 -0.11801842 0.25157562 15327962
0.77473325 -0.10494254 0.25478551 15065305
0.77422225 -0.094904497 0.25461781 14736597
0.77342874 -0.085043624 0.2546784 14605011
0.76900005 -0.072360702 0.25860018 15130585
0.7717334 -0.075390115 0.2549403 14802134
0.76740003 -0.064665675 0.25644156 14999256
0.77025002 -0.065792084 0.25150704 15130841
0.76815403 -0.055633351 0.25628465 15855078
0.77000004 -0.053077023 0.25202659 15854822
0.76900005 -0.04535706 0.25890025 15921129
0.77050012 -0.044693578 0.254143 15920873
0.76900005 -0.03935625 0.25920027 15789544
0.77062863 -0.034800362 0.25510889 14802391
0.76900005 -0.021610999 0.25405672 13947336
0.77000022 -0.026005611 0.25522676 14210252
0.76822239 -0.015040282 0.25444067 14079178
0.76700008 -0.0050751963 0.25512546 14013643
0.76719528 0.0048486092 0.25512627 14144974
0.76697451 0.015164386 0.25519568 13881804
0.76814288 0.023369493 0.25591093 13750474
0.77050012 0.027048886 0.25326288 13684425
0.7726208 0.034618832 0.25499129 14408405
0.77474999 0.044689458 0.25478998 14539733
0.77742869 0.052642804 0.25554001 14737110
0.7816667 0.057347503 0.25468478 14802647
0.78636664 0.064689673 0.25492606 14605267
0.78842849 0.074546337 0.25526625 14407632
0.79000002 0.077930875 0.25148329 14407632
0.78818512 0.085473575 0.25568703 14473425
0.79000002 0.082554385 0.25148329 14341839
0.78779423 0.095017128 0.25511947 14473168
0.78828001 0.10544282 0.2546272 13947339
0.78894109 0.11400466 0.25364518 11250597
0.79025 0.11657443 0.25780693 11250340
0.78900003 0.12268948 0.25195655 11316390
0.79095238 0.12554972 0.2561976 11316390
0.79278266 0.13533752 0.25495359 11316646
0.78900003 -0.16043893 0.26778856 13619145
0.79238468 -0.1652713 0.26479694 9934482
0.78806669 -0.15471675 0.26470301 14934233
0.78499997 -0.14486381 0.26496905 14867925
0.77875006 -0.13192046 0.26704371 14605011
0.78208345 -0.13591902 0.26383516 14801875
0.77685738 -0.1250415 0.26489836 14670034
0.78050005 -0.12856287 0.2612493 14801620
0.77441669 -0.11487249 0.26525351 14933720
0.77353352 -0.1047788 0.26525301 15065562
0.76800001 -0.091444224 0.26965058 15065562
0.77317661 -0.095043182 0.26491624 14868183
0.76647633 -0.083917677 0.26765829 14801877
0.77160001 -0.085371293 0.26296455 14605011
0.76499999 -0.07480786 0.26533088 14735827
0.77000004 -0.078162983 0.2613399 14539218
0.76335126 -0.065100551 0.26516199 15130585
0.76434267 -0.054759052 0.26482999 15854821
0.76499993 -0.045193058 0.26522911 15920614
0.76700014 -0.035311811 0.26565158 15789028
0.77000004 -0.030995369 0.26194075 15656929
0.76766676 -0.024536088 0.26601022 14933976
0.77000004 -0.026488909 0.26194075 14867927
0.76738894 -0.015023642 0.26494181 14473681
0.76554847 -0.0051314575 0.26520011 14473939
0.76255542 0.004707295 0.26505622 14408147
0.76194435 0.015410038 0.26484555 14342098
0.76606899 0.025422806 0.26501146 14276305
0.76900005 0.030853223 0.26550108 14276305
0.77170831 0.035406012 0.26470378 14276562
0.77478135 0.04446635 0.26511642 14539477
0.77835721 0.052834898 0.26482832 14737111
0.78133339 0.057413921 0.26564452 14802905
0.78466672 0.064345963 0.26488844 14736855
0.78668594 0.074973039 0.26436973 14670804
0.78623074 0.084779382 0.26479453 14539219
0.78675008 0.095339395 0.26483652 14473428
0.7884286 0.10414442 0.26443025 14802651
0.79000002 0.10867723 0.26581615 12236980
0.79313064 0.11513656 0.26515695 11184804
0.78900003 -0.16113158 0.27586943 13223618
0.79135001 -0.16610624 0.27488229 9670540
0.7868889 -0.1542822 0.27484855 14671061
0.7832858 -0.14467685 0.27481869 14736597
0.77768189 -0.13347949 0.27569616 14407632
0.78037506 -0.13767649 0.27285343 14473425
0.77496666 -0.12493156 0.27481568 14407375
0.76900005 -0.11136596 0.2790029 14341839
0.77275872 -0.11540598 0.27499831 14538959
0.76730436 -0.10401633 0.27697921 14604754
0.7708751 -0.10577369 0.2725766 14867926
0.76472729 -0.094421282 0.27494794 14868183
0.77000004 -0.097090118 0.27035281 14999769
0.76197046 -0.085376807 0.27487326 14867926
0.75900006 -0.070827454 0.27892849 14933722
0.76061773 -0.075430192 0.27506959 14802134
0.759 -0.063558593 0.27795929 15196635
0.76047999 -0.065197296 0.27348936 15064791
0.75879991 -0.054821976 0.27707812 15656928
0.76066667 -0.054956373 0.27241722 15722978
0.75893748 -0.045503952 0.27735075 15788514
0.76065004 -0.044805218 0.27276701 15789029
0.759 -0.0352908 0.27804005 15788771
0.76163995 -0.034412626 0.2729767 15591649
0.759 -0.025518222 0.27804005 14933976
0.76184618 -0.024927812 0.27297252 15065049
0.759 -0.014857224 0.27804005 14407632
0.7620334 -0.014916952 0.27290231 14407888
0.75900006 -0.0065061101 0.27857313 14408145
0.76107413 -0.0050341166 0.27401173 14408145
0.76030558 0.0046955771 0.27495709 14474197
0.76117641 0.015185216 0.2750113 14342867
0.76581496 0.025286898 0.27499115 14079438
0.76900005 0.030853223 0.27180195 14144974
0.77164006 0.034647834 0.2751193 14210767
0.77520597 0.044930186 0.27516833 14671317
0.77800006 0.052827995 0.27631551 14802903
0.78140002 0.057205558 0.27447513 14802648
0.78441381 0.064592943 0.2750307 14802648
0.78627771 0.074802399 0.27514723 14736343
0.78623313 0.084921099 0.27513152 14670550
0.78622842 0.094913952 0.27499837 14473684
0.7883333 0.1042201 0.27525175 14013905
0.79025 0.10894302 0.27422422 11382442
0.78866661 -0.16221824 0.28521508 12170416
0.79059994 -0.16724281 0.28498933 9473162
0.78606898 -0.15445404 0.28481269 14539219
0.77828586 -0.1421226 0.28679472 14473425
0.78177279 -0.14566083 0.28405121 14736597
0.77557153 -0.13473114 0.28511819 14407632
0.77310008 -0.12463035 0.28501332 14341838
0.76826674 -0.11293936 0.28616944 14276045
0.77075011 -0.11714625 0.28380835 14144460
0.76480007 -0.10539134 0.28481579 14144460
0.76141667 -0.09511961 0.28486443 14210253
0.75884211 -0.084276892 0.28672385 14341583
0.76009101 -0.086458713 0.28272617 14473425
0.75819457 -0.075190529 0.28484204 14473171
0.75771433 -0.064626373 0.28453499 14868184
0.75706452 -0.054867461 0.28456074 15394012
0.75730556 -0.04496235 0.28450882 15591647
0.75779992 -0.035234842 0.28469416 15525341
0.7574864 -0.025348477 0.28474262 14933719
0.75725639 -0.015026493 0.28496489 14342096
0.75819999 -0.0050781136 0.28484449 14539731
0.75891304 0.0031813614 0.28607988 14605270
0.76000017 0.0073628733 0.28381234 14539477
0.76105869 0.015393802 0.28502822 14276305
0.76586217 0.025355818 0.28503323 14013389
0.77189291 0.034780543 0.28489211 14408402
0.77405572 0.044648267 0.2853663 14737111
0.77589649 0.054808341 0.2847586 14802648
0.77825004 0.061589878 0.28630474 14671062
0.7823751 0.066420846 0.28454128 14802391
0.78493106 0.075023949 0.28497091 14867928
0.78511983 0.0848011 0.28485093 14736343
0.78561282 0.095120847 0.28485236 14407891
0.78837496 0.10453301 0.28510997 13684168
0.79000002 0.10937075 0.28477257 11118497
0.79217857 0.1154378 0.28495786 11119266
0.78900003 0.12955 0.28995332 11053472
0.79263633 0.12508444 0.28504041 11184803
0.78900003 0.13232058 0.28995332 11185058
0.7923336 0.13515562 0.2844263 11184803
0.79316658 0.14508994 0.28498131 11184804
0.78866667 -0.16221824 0.29536963 12697015
0.79058337 -0.16723926 0.2951616 9209736
0.78571427 -0.15513332 0.29496288 14276046
0.77710527 -0.14375627 0.29553828 14407632
0.78118187 -0.14870892 0.29422921 14473425
0.77406067 -0.13499995 0.29484037 14407632
0.77200001 -0.12432909 0.29529583 14341839
0.76749998 -0.1136833 0.29511821 14341839
0.77000004 -0.11872112 0.29468769 14407632
0.76375008 -0.10531054 0.29478455 14341839
0.76067638 -0.095235325 0.29494223 14341839
0.75859255 -0.084800512 0.29515579 14276046
0.75650007 -0.07502383 0.29483259 14210254
0.7549032 -0.065030083 0.29440761 14538704
0.75426191 -0.055376988 0.29484004 14933460
0.75469059 -0.044806641 0.29500651 15262940
0.75514728 -0.035111926 0.29502854 15197148
0.75402457 -0.025460249 0.2948755 14868183
0.74900001 -0.013784763 0.29980141 14539732
0.75312835 -0.014537895 0.2948015 14408146
0.75468576 -0.0050534001 0.29500136 14605525
0.75791436 0.00455719 0.2955097 14539477
0.76000005 0.0091420468 0.29175016 14473684
0.75900006 0.01197295 0.29740754 14407891
0.76048285 0.01620901 0.29432911 14144718
0.76433337 0.025304822 0.29501989 14473683
0.76875007 0.030843195 0.29600808 14802904
0.77142322 0.035120871 0.29495353 14802904
0.77363354 0.044623889 0.29517254 14868697
0.7746551 0.054781869 0.29481137 14802648
0.77700013 0.063649386 0.29591629 14671063
0.78100008 0.068450823 0.29322851 14736856
0.78346676 0.07545571 0.29506868 14802393
0.7852332 0.084814481 0.29500359 14670807
0.78624231 0.094797119 0.29496443 14605270
0.78861111 0.10425635 0.29504138 13815756
0.79012501 0.1089257 0.29591641 11118754
0.79128015 0.11510646 0.29449788 11119011
0.78900003 0.12908822 0.29318565 11185058
0.79055572 0.12466298 0.29484421 11053473
0.78900003 0.13385981 0.29410923 11119266
0.79000002 0.13653386 0.29586902 11119010
0.79085732 0.14447008 0.29493323 11119011
0.79292852 0.15472618 0.29484192 11119011
0.78883332 -0.16179033 0.30420426 13289152
0.79053849 -0.16658956 0.30575129 9867921
0.78620839 -0.15504463 0.30526212 14078925
0.77758336 -0.14401178 0.30335516 14210510
0.78185719 -0.14748171 0.30641699 14144718
0.77466679 -0.13455692 0.30469677 14013132
0.77261543 -0.1246915 0.30542952 14013388
0.76827282 -0.11338734 0.30326504 14079180
0.77075005 -0.11703321 0.30610287 14079180
0.76540011 -0.1054026 0.3049351 14012875
0.76110333 -0.094926499 0.30452436 14144460
0.75840908 -0.084816173 0.30380967 14144461
0.76000005 -0.086340271 0.30835581 13684168
0.75636673 -0.075011246 0.3045232 14210767
0.75425935 -0.065024309 0.30439308 14407632
0.7516858 -0.055064604 0.30514765 14407632
0.74860001 -0.041466959 0.30910417 14868439
0.75096983 -0.044825744 0.3045823 14999512
0.7482 -0.034789421 0.3082377 14737110
0.75152391 -0.034943633 0.30323774 14999769
0.74753565 -0.024883332 0.30646268 14408146
0.75050008 -0.025735844 0.3016561 14539475
0.74733329 -0.01462846 0.30525419 14408404
0.75000006 -0.015558933 0.30020171 14539732
0.74823982 -0.0055715023 0.30573174 14408147
0.75037503 -0.0039280481 0.30122969 14408147
0.75437832 0.0043573361 0.30481178 14473940
0.75874996 0.01303534 0.30494681 14473940
0.76031256 0.01826846 0.30477428 14539732
0.76236659 0.025237236 0.30497083 14605524
0.76738095 0.033100296 0.30570254 14868696
0.77075005 0.037389714 0.30444679 15000283
0.77317661 0.044864114 0.30473971 15000026
0.77406681 0.054614164 0.30530432 14737111
0.77581251 0.064956151 0.30474365 14802903
0.77861553 0.072602086 0.30562618 15000026
0.78170586 0.077113919 0.30427903 14999770
0.78459257 0.084543802 0.30527073 14802390
0.78687871 0.095376909 0.30525041 14539218
0.78866673 0.10318632 0.3041397 14013132
0.79076928 0.107912 0.30584097 11184548
0.79321748 0.13468175 0.30531335 10987938
0.79334784 0.14512038 0.30520144 10987682
0.79225701 0.15525471 0.30492845 11053475
0.78900003 -0.16113158 0.31327248 12171187
0.79075003 -0.16542473 0.31577116 9605004
0.7881999 -0.15474245 0.31549418 12039601
0.78528577 -0.14515629 0.31503049 12434359
0.77707696 -0.13352826 0.31327975 12434359
0.78233337 -0.1364987 0.31772122 11776686
0.77477282 -0.12465236 0.31506678 11710894
0.77362967 -0.11525758 0.31529877 12039859
0.76816672 -0.10375325 0.31166992 12960702
0.77273345 -0.10575474 0.31641957 12434360
0.76619995 -0.09482149 0.31206712 13092031
0.77263641 -0.095121317 0.31748548 12763324
0.76544452 -0.0851667 0.31375366 13487046
0.7713334 -0.085221492 0.31837094 13355973
0.75875002 -0.072136745 0.31125325 13157824
0.7626667 -0.075333506 0.31464967 13224130
0.77000004 -0.079064272 0.31902257 12895679
0.75741172 -0.064318426 0.31391329 13618373
0.76120007 -0.067113414 0.31751534 12960702
0.74900001 -0.051483344 0.31119865 14210509
0.75321054 -0.055812441 0.31466877 13223360
0.74858814 -0.044395082 0.31252187 14473682
0.75155556 -0.045502648 0.31744215 13815243
0.74716663 -0.035129461 0.31345013 14605525
0.75000006 -0.034287076 0.31775934 14539990
0.746158 -0.025041426 0.31282243 14473938
0.75000006 -0.02539121 0.31775934 14474454
0.7459445 -0.014599259 0.31254843 14407890
0.75200003 -0.014713567 0.3186067 14473941
0.74800003 -0.0065661687 0.31282583 14210512
0.7511 -0.0036292165 0.31523988 14145232
0.75462073 0.0050642686 0.31447923 14013646
0.75833338 0.013364574 0.31379431 14342611
0.76036376 0.018208288 0.31535509 14408404
0.76247823 0.025473179 0.31443253 14277075
0.76676935 0.03428866 0.31464562 14210769
0.77000004 0.039906263 0.31451613 14407890
0.77257693 0.045329794 0.31487289 14736855
0.77424002 0.054627113 0.31534198 14737112
0.77596974 0.064494833 0.31472537 14737112
0.77887511 0.072047219 0.31517884 14868441
0.78149998 0.07658606 0.31524986 15065564
0.7846666 0.084823437 0.31516567 15131356
0.78730005 0.095176913 0.31513232 14539475
0.78900003 0.10258287 0.31414983 13618373
0.79111773 0.10724009 0.31535214 10987168
0.79156518 -0.16474935 0.32497838 10263957
0.79052007 -0.15519662 0.32567552 10066579
0.78879994 -0.14390235 0.32410392 9737358
0.79018188 -0.14773065 0.32704839 10000786
0.78600007 -0.13582082 0.32464176 9540236
0.77850002 -0.1245873 0.32163358 8948101
0.7833572 -0.12562647 0.32639471 9540240
0.77700001 -0.11525297 0.32192278 8750724
0.78263628 -0.11467259 0.32709169 9408911
0.7766 -0.10519304 0.32175702 9934486
0.78354549 -0.10479598 0.32730535 9013639
0.7766667 -0.095204987 0.32178465 11381931
0.78412509 -0.094510421 0.32740104 9737362
0.77580011 -0.084564723 0.32306319 11382185
0.78300005 -0.085900515 0.32853299 8684672
0.76900005 -0.073560864 0.32040852 13355973
0.7748462 -0.075097017 0.32507986 10987426
0.78200006 -0.078465775 0.3294864 8948099
0.76537502 -0.064260289 0.32292968 10921119
0.77275002 -0.067134723 0.32739979 9211272
0.75766665 -0.052966695 0.32100752 10986400
0.76300007 -0.055571496 0.32483333 9276039
0.77000004 -0.055630684 0.32983807 9474443
0.75733334 -0.044966768 0.32234389 11907247
0.76185721 -0.045874614 0.32609582 9342092
0.75620002 -0.03515967 0.3221564 14408148
0.76133341 -0.03599586 0.32642451 12303289
0.75733334 -0.025460623 0.32263923 14539734
0.75850004 -0.017509758 0.32313627 14539477
0.75633335 -0.0032961892 0.32044265 13948369
0.76314294 -0.0043401956 0.32562858 12960705
0.75825 0.0029102755 0.32125467 13619404
0.76400006 0.0044940808 0.32525876 12369337
0.77000004 0.005657169 0.32893679 10592928
0.76357144 0.014040947 0.32197788 13619145
0.77149999 0.016957749 0.32641777 13355975
0.77250004 0.026466703 0.32503539 13882318
0.76900005 0.035353832 0.32040852 13881547
0.77421427 0.034556229 0.32569242 13816012
0.77480006 0.044690289 0.32373565 14210512
0.78100002 0.048703857 0.32906505 14144721
0.77579993 0.054737557 0.32324398 14474454
0.78200006 0.055173587 0.3294864 14277077
0.7773751 0.064631701 0.3227613 14342868
0.78187507 0.065687642 0.32806247 13882317
0.77900004 0.071374804 0.32183957 14737626
0.78255004 0.076007068 0.32486555 14276305
0.7853846 0.084973685 0.32518578 14605270
0.78782755 0.095082089 0.32443789 14539991
0.78900003 0.10184405 0.32227689 14605272
0.79177278 0.10566048 0.32526198 11316391
0.79295242 -0.15540993 0.33516353 10461081
0.79165208 -0.14502428 0.33436111 10395543
0.78871435 -0.13374071 0.33099672 10132627
0.79161549 -0.1354533 0.3356781 10263956
0.78850007 -0.12465078 0.33253291 10000787
0.79207152 -0.1249053 0.33743998 10132116
0.78808337 -0.11505157 0.33297309 9869201
0.79109991 -0.11456694 0.33795154 10066323
0.78860009 -0.10645004 0.33263665 9606029
0.79160005 -0.10487761 0.33711582 9868946
0.78840005 -0.094610631 0.33144507 8882307
0.79147619 -0.095564619 0.33665681 9540237
0.78808337 -0.083841704 0.33405033 9013892
0.79000002 -0.086666107 0.33734849 9474443
0.78700006 -0.075388432 0.33620322 9211271
0.77660006 -0.06520237 0.33193722 9145222
0.78400004 -0.066612206 0.33714646 9474443
0.77470005 -0.055064272 0.3336671 9408650
0.78200006 -0.056500778 0.33863977 9671822
0.76700002 -0.042845014 0.33034855 8750465
0.77437502 -0.04551753 0.3353425 9540236
0.78000003 -0.045397196 0.33959967 9671822
0.76750004 -0.034787066 0.3305639 9145227
0.77525008 -0.035594843 0.33639944 9277065
0.78000003 -0.034441233 0.33959967 9475215
0.77700007 -0.026119297 0.33647454 9079687
0.78000003 -0.021659272 0.33777368 8882308
0.78380001 -0.015888836 0.33941925 8947847
0.78340006 -0.0052509112 0.33924603 9145226
0.77200007 0.0047694007 0.33069479 8684676
0.78275007 0.0039178263 0.33850688 8948099
0.77750003 0.013904665 0.33305079 8355964
0.7858572 0.015764801 0.33794564 8355964
0.77900004 0.029430782 0.33004603 13684940
0.78725004 0.026055366 0.33676791 9474445
0.77900004 0.036725391 0.33004603 13947859
0.78545457 0.035523135 0.33529192 11119015
0.78592306 0.04441122 0.3342565 12171704
0.79000002 0.046491001 0.33840528 8750469
0.78708339 0.05537929 0.33470097 11645616
0.79000002 0.053888619 0.33840528 8619397
0.78735304 0.065091595 0.3349981 10855842
0.78754169 0.074923433 0.33458993 11447721
0.78835005 0.08515086 0.33493167 11841709
0.78872734 0.092912979 0.33232129 13618891
0.79071426 0.095852435 0.33646479 11513000
0.79340005 -0.11489964 0.3454361 10197909
0.79274064 -0.094803989 0.34494194 10066323
0.79152 -0.084980823 0.34461844 9803151
0.79162496 -0.075106412 0.34551349 9737358
0.78783339 -0.065222688 0.34116587 9606029
0.79259998 -0.064684823 0.34694377 9803408
0.78750008 -0.054439675 0.34317291 9737615
0.79322225 -0.055866104 0.34824625 9869202
0.78625005 -0.045759492 0.34370351 9606029
0.79150003 -0.045143764 0.34831241 9671824
0.78614289 -0.033925887 0.34359151 9343114
0.79080003 -0.034915768 0.34800434 9540238
0.78700006 -0.025532793 0.34264737 9146249
0.79350007 -0.025188435 0.34770766 9211528
0.78600001 -0.01262568 0.34037194 9145227
0.78900003 -0.0025150229 0.34351814 9014664
0.78800005 0.0048643225 0.34216157 9211528
0.78850007 0.012254298 0.34145454 8948099
0.79275006 0.075184777 0.34446064 9671566
0.79267865 0.085020438 0.34532428 10132373
0.79355997 -0.12421265 0.35479164 10461081
