# .PCD v0.7 - Point Cloud Data file format
VERSION 0.7
FIELDS x y z rgb
SIZE 4 4 4 4
TYPE F F F U
COUNT 1 1 1 1
WIDTH 950
HEIGHT 1
VIEWPOINT 0 0 0 1 0 0 0
POINTS 950
DATA ascii
0.79320014 -0.14458185 0.095586658 14605007
0.78900003 -0.13273299 0.099705793 16512488
0.79334468 -0.1351274 0.094866209 14144712
0.78900003 -0.12534472 0.099705793 16578281
0.79351872 -0.12495838 0.094763666 13881283
0.78900003 -0.11518588 0.099705793 16315623
0.78900003 -0.10502703 0.099705793 16250343
0.78900003 -0.099485844 0.099705793 16316392
0.7935667 -0.15580004 0.10492583 11051937
0.78834999 -0.14452864 0.10571264 14999253
0.79042858 -0.14857017 0.10252865 14670547
0.78596884 -0.13475418 0.10546894 15262424
0.78553575 -0.12518699 0.10536959 15262424
0.78639996 -0.11480527 0.10489667 14999252
0.78703994 -0.10476595 0.10498253 14868180
0.78749996 -0.094686851 0.10504377 15263195
0.78833336 -0.084944688 0.10638735 15065046
0.79089993 -0.083801106 0.10161082 16249572
0.78866673 -0.075442128 0.10704801 15393753
0.79155564 -0.07479196 0.10187943 16183522
0.78838891 -0.06526491 0.10701032 15460315
0.79106659 -0.064560458 0.10181714 16118243
0.78833336 -0.055109721 0.10700277 15657696
0.79099995 -0.055296142 0.10180871 15987429
0.78808695 -0.044745099 0.10616615 15460060
0.79100001 -0.045467641 0.10109682 15724260
0.78790009 -0.034790173 0.10602017 15197144
0.79100001 -0.03492694 0.10088323 15066328
0.78688014 -0.024872387 0.10628452 15000022
0.7906667 -0.025658958 0.10114935 14868435
0.78582144 -0.015051621 0.10685231 15000022
0.79000002 -0.014539337 0.10168157 15264222
0.7881667 -0.0055869687 0.10636418 15460316
0.79124999 -0.0048371688 0.10137776 13224124
0.78864288 0.0043437099 0.10757246 15000023
0.7918182 0.0052278489 0.10258606 13158074
0.78885716 0.014238426 0.10839365 14803157
0.79252166 0.015342233 0.10353301 12632501
0.78900003 0.023343863 0.10894111 14605522
0.7931 -0.1547803 0.11507801 11183776
0.78699994 -0.14517064 0.11495406 14539218
0.78356689 -0.13512023 0.11534609 14473423
0.78446668 -0.12480637 0.11492925 14276557
0.78613877 -0.11476632 0.11498949 14342351
0.7871666 -0.10478251 0.11514052 14079179
0.78738904 -0.094674341 0.11517239 14144716
0.78783345 -0.084583446 0.11523567 13881544
0.78796673 -0.075375333 0.11525464 14144460
0.78638887 -0.065101556 0.11502215 13684164
0.78566664 -0.0549233 0.11491553 14276301
0.78541666 -0.04479393 0.11487944 14210251
0.78363329 -0.034603141 0.11461597 14012871
0.7787143 -0.022925844 0.11689568 14210763
0.78180003 -0.026469361 0.11398282 14013127
0.77804768 -0.015360895 0.11601392 14473681
0.78088897 -0.014981359 0.11208598 14539217
0.77900004 -0.0074981926 0.11804636 14605524
0.78265387 -0.0048891595 0.11383736 14736854
0.78524995 0.0048529622 0.11485105 14868440
0.78683335 0.014992047 0.11508568 14078924
0.78769451 0.025150247 0.11521266 13618116
0.78816664 0.035312753 0.11528266 13881800
0.78822225 0.044335824 0.11580327 13223871
0.79000002 0.046491001 0.11092857 14737621
0.78833336 0.054390267 0.11664005 13289664
0.79044449 0.05577068 0.11160746 14605779
0.78850007 0.064631209 0.11786992 12829114
0.79179996 0.065629713 0.11266053 14211020
0.78844452 0.075008258 0.11809243 13881546
0.79261905 0.074828543 0.11252715 13223870
0.78799999 0.085112005 0.11710183 14407887
0.7911818 0.084949844 0.11193516 12828854
0.78829408 0.094589002 0.11806946 14605009
0.79206252 0.09551961 0.11295272 12895163
0.78850007 0.10270245 0.11902389 14671059
0.78790909 -0.14496058 0.1249719 15196633
0.79000002 -0.14954583 0.12664852 15262686
0.78599989 -0.13498782 0.12508921 15262425
0.78731996 -0.12507689 0.12529907 15130583
0.78780007 -0.11501031 0.12537456 15065303
0.78812003 -0.10490943 0.1254251 15262940
0.78849989 -0.094808184 0.12548649 14933975
0.78844011 -0.084649399 0.12547696 14605266
0.78808004 -0.075386301 0.12541865 14736596
0.78686684 -0.065140918 0.12522639 14736082
0.78539991 -0.054905038 0.12499309 15065048
0.78473336 -0.044755783 0.12488533 14275788
0.78189296 -0.034331758 0.12502186 13814978
0.77821434 -0.024995303 0.12449814 13881030
0.78000003 -0.028963247 0.12869737 13881286
0.77675033 -0.015205358 0.12452398 14407889
0.77750009 -0.0052072508 0.12464283 14671061
0.77854556 0.0015782658 0.12655093 14868696
0.78160006 0.0062562935 0.12453151 14934233
0.78496009 0.014958198 0.1249207 14539474
0.78703344 0.025128715 0.12525152 13684165
0.78796005 0.035303362 0.12539932 13552836
0.78800005 0.044528581 0.12540554 13947339
0.78800005 0.054674551 0.12540556 13026493
0.78800005 0.064820521 0.12540552 12499892
0.7876001 0.074927114 0.12534256 12434101
0.78564 0.084855512 0.1250307 12960186
0.78526658 0.094928958 0.12496943 13288893
0.78674996 0.10543619 0.12461057 13815237
0.7877143 0.11439015 0.1247642 14670802
0.79000002 0.11769307 0.1201756 15328734
0.78878564 0.12199713 0.12579393 11842733
0.79030001 0.12671171 0.12364382 11777198
0.79206437 0.13513841 0.12521645 11711660
0.79304177 -0.15531032 0.13525681 11446951
0.78819233 -0.14537369 0.13487448 15196890
0.78717667 -0.13540629 0.13513906 15262939
0.78808004 -0.12519822 0.13464309 15197146
0.78873318 -0.11514671 0.13475551 15131353
0.7889598 -0.10502151 0.13479334 15131353
0.78899974 -0.094868176 0.13479997 15065560
0.7889998 -0.084709339 0.13479996 14933718
0.78879982 -0.075455733 0.13476618 14867925
0.78780007 -0.065216616 0.13459559 14407117
0.78655189 -0.054859087 0.13514465 14801619
0.78511119 -0.044779137 0.13505436 14406861
0.7821483 -0.034742091 0.13505252 13551552
0.77822739 -0.024758928 0.13503 13815494
0.78000003 -0.028963247 0.13326235 13946567
0.77628613 -0.015066899 0.13522331 14408145
0.77688479 -0.0053438363 0.13475822 14737110
0.77835017 0.0029871331 0.13480258 14802903
0.78070009 0.0084778164 0.13520864 14934489
0.78370011 0.014934768 0.13481061 14868696
0.78667653 0.024902638 0.13505216 14473938
0.78812009 0.035310816 0.13465011 13816008
0.7889598 0.044583019 0.13479333 13947594
0.7888664 0.054734372 0.13477781 13552835
0.78863996 0.06487298 0.1347398 13421249
0.78800011 0.074965797 0.1346297 13486785
0.78651726 0.085077837 0.13513923 13618115
0.78555536 0.094962619 0.13513291 13946824
0.7857666 0.10510628 0.1351683 13947080
0.78655171 0.11429254 0.13514334 14341838
0.78866673 0.12164915 0.13474303 11842475
0.79061538 0.1263995 0.13507599 11842988
0.7920742 -0.15530121 0.14500739 11972780
0.78848267 -0.14569563 0.14502317 15394268
0.78793764 -0.13508978 0.14534086 15328732
0.78866649 -0.125291 0.14489876 15197146
0.78899992 -0.11680205 0.14265001 15131353
0.79000002 -0.11403728 0.14699194 15328733
0.78900003 -0.10391879 0.14071058 15197146
0.79000014 -0.10538209 0.14599328 15328733
0.78899974 -0.094010614 0.14410129 15131096
0.79000002 -0.097993702 0.14814784 15460318
0.78899974 -0.084709339 0.14495887 15065047
0.78899974 -0.075474024 0.14495882 14867668
0.78830552 -0.06525895 0.14483178 14604496
0.78730768 -0.055181548 0.1453568 15262169
0.78446674 -0.044743933 0.14504322 14209738
0.77875006 -0.031879682 0.14740509 13683395
0.78113633 -0.035407599 0.14442705 13420479
0.77720016 -0.025222741 0.14460781 13815495
0.77558088 -0.015328781 0.14503953 14342352
0.77658647 -0.0050758799 0.14465211 14737111
0.77855003 0.0024403364 0.14449638 14737111
0.7808125 0.0077940701 0.14573921 14802903
0.78292 0.01491877 0.14475739 14737110
0.78618747 0.025335085 0.14501545 14605524
0.78803343 0.0353074 0.14478019 14342352
0.78896642 0.044583362 0.14495254 14342352
0.78900003 0.050741967 0.14095686 14144972
0.79021245 0.055193197 0.14554654 13947337
0.78900003 0.067211613 0.14080295 13289662
0.79053867 0.064673491 0.14588368 13552579
0.78875983 0.076035187 0.14362283 13749958
0.79009092 0.072895154 0.14810203 13487043
0.78819233 0.084990449 0.14552109 13815495
0.78689998 0.095123246 0.14549464 14144460
0.78600001 0.10513687 0.14532767 14275533
0.78680766 0.1145988 0.14526463 13881803
0.78872716 0.12279182 0.14524454 11776939
0.79033333 0.12822756 0.14520359 11711402
0.79218525 -0.15559711 0.15498711 12367538
0.78895813 -0.14403872 0.15495576 15394526
0.79000002 -0.14917596 0.1567938 15130842
0.78883982 -0.1349216 0.15479147 15394526
0.79000002 -0.13105181 0.15901309 15262941
0.78900003 -0.12698656 0.15286015 15262939
0.79000002 -0.12457889 0.15658572 15328732
0.79000026 -0.11533184 0.15531427 15328733
0.79000014 -0.10516016 0.15531422 15394526
0.78900003 -0.091635823 0.15327063 15328219
0.7900002 -0.09548635 0.15559874 15394525
0.78899992 -0.083785802 0.15465593 15262169
0.79000002 -0.086460613 0.15613624 15196376
0.7889998 -0.075474016 0.15511771 15130583
0.78829998 -0.065258428 0.15497945 14735826
0.78740013 -0.055045694 0.15480286 14735826
0.7838667 -0.045321174 0.15471986 14209739
0.77742314 -0.033980522 0.15521953 13486787
0.78033334 -0.039631937 0.15463074 13420737
0.7755999 -0.025169889 0.15520589 13749959
0.77455544 -0.015162889 0.1549968 14342352
0.77556664 -0.0051941429 0.15519935 14802903
0.77781481 0.0040319995 0.15527789 14868696
0.78025007 0.0089291362 0.15294035 14868696
0.78166664 0.014894471 0.1545883 14802903
0.78419453 0.025040843 0.15508753 14473939
0.78696012 0.035260148 0.15471521 14473939
0.78851992 0.044559363 0.15502301 14473939
0.78900003 0.050126273 0.15696475 14473938
0.79037058 0.055354126 0.1551809 14144973
0.79116005 0.065081581 0.15554123 13816008
0.79043365 0.0751964 0.15539953 13684165
0.78885704 0.085908018 0.15491378 13881287
0.79000002 0.081629679 0.15623897 13815495
0.78737938 0.095340014 0.1546721 14209994
0.78557682 0.10522103 0.15465602 14209996
0.78723997 0.11451989 0.15477215 14078925
0.78883332 0.12167456 0.15462373 11776939
0.7906667 0.12686305 0.15544611 11777195
0.79273075 -0.15577763 0.16491604 12499381
0.78900003 -0.14176306 0.16620007 15591392
0.79012513 -0.14571659 0.16458762 15525343
0.78899997 -0.13614294 0.16563174 15591393
0.79000002 -0.13376425 0.16456129 15459550
0.79014832 -0.12511533 0.16479826 15525343
0.79021454 -0.11503304 0.16440861 15525342
0.79004014 -0.10516566 0.1645698 15459549
0.7889998 -0.093427479 0.16597842 15328476
0.79000002 -0.098132417 0.1632667 15459805
0.78899974 -0.084709339 0.16527651 15196634
0.78866655 -0.07544338 0.1652067 15064791
0.78794456 -0.065228119 0.16505517 15525342
0.78686678 -0.055008054 0.16482897 15393757
0.7836296 -0.045613989 0.16506664 14209740
0.77696794 -0.035015535 0.16513158 13420993
0.78000003 -0.039919212 0.16247825 13420737
0.77503985 -0.025150495 0.16507362 13618629
0.77456659 -0.015162835 0.16497339 14342352
0.77515984 -0.0051921527 0.16509947 14802903
0.77728599 0.0049351528 0.16477191 14868696
0.77900004 0.011194251 0.16226995 14868696
0.7808401 0.015097702 0.16535887 14868440
0.78280008 0.024995549 0.16489397 14671317
0.78626662 0.035230119 0.16470383 14802903
0.78839993 0.044552587 0.16515084 14868696
0.78899986 0.052764945 0.16620007 14671061
0.79000002 0.057455331 0.16376869 14144973
0.79008013 0.064991906 0.16457757 13881801
0.78900003 0.079679288 0.16712359 13749702
0.79003721 0.074646369 0.16436335 13815495
0.7889998 0.085357293 0.16572122 13881287
0.79000002 0.081629679 0.16178718 13947080
0.78808832 0.095484391 0.1653582 14210253
0.78682756 0.10511973 0.16498284 14144718
0.78750002 0.11455723 0.16496347 13947340
0.78900003 0.12123821 0.16527653 11776940
0.79100007 0.12617645 0.16476962 11645609
0.79260713 -0.1554115 0.17497738 13091518
0.7889998 -0.14331159 0.17568722 15393756
0.79000002 -0.14853707 0.17364021 15328221
0.78899992 -0.13642712 0.17543538 15393500
0.79000002 -0.1319765 0.17473304 15262171
0.79161775 -0.12504947 0.17481953 15393757
0.79235983 -0.11474968 0.17432895 15393757
0.79086232 -0.10514889 0.17476511 15459550
0.78899986 -0.093241014 0.17525947 14670291
0.79000002 -0.09887217 0.1754728 15328221
0.7889998 -0.084709339 0.17543541 14867670
0.7886399 -0.075440794 0.17535551 14473168
0.78796673 -0.065229826 0.17520572 14736339
0.78667998 -0.054995269 0.17491962 14867669
0.78318524 -0.045519713 0.17488827 14276047
0.77620584 -0.034973659 0.1750472 13289151
0.77429998 -0.025126683 0.17488442 13552325
0.77405566 -0.015152193 0.17483026 14342352
0.77436668 -0.0051868842 0.17489956 14868439
0.77613902 0.0047972081 0.17529812 14999770
0.77810001 0.012821669 0.17719936 15065562
0.78105557 0.016101172 0.17387074 14933976
0.7828334 0.024997488 0.17498054 14736597
0.78623998 0.03522902 0.17482112 14934232
0.78828001 0.044545528 0.17527503 15065819
0.7889998 0.054104574 0.17564848 15197405
0.79000002 0.059436832 0.17288363 14736854
0.79000026 0.064985037 0.174733 14342096
0.78900003 0.079679288 0.17266479 13815495
0.79000032 0.074736468 0.17498526 13881288
0.78899997 0.085930891 0.17344624 13815495
0.79000002 0.084557898 0.17781538 13881288
0.78893304 0.095370956 0.1754209 14012874
0.78847992 0.10546797 0.17532095 14078669
0.78863627 0.11430155 0.17493592 13684426
0.79033333 0.11805135 0.17881574 11381672
0.78900003 0.12031468 0.17266479 11777195
0.79117393 0.12467488 0.17495395 11711403
0.79307407 -0.15590782 0.18521172 12762808
0.78900003 -0.14304574 0.1825158 15459806
0.79016662 -0.14608397 0.18638285 15394014
0.78900003 -0.13695484 0.18255976 15393756
0.79033339 -0.13388146 0.18580538 15393755
0.79228109 -0.12470455 0.18509081 15327963
0.79263318 -0.11478946 0.18459196 15327964
0.79111546 -0.10545332 0.18495069 15459550
0.7889998 -0.093440898 0.18492256 14933462
0.79000002 -0.098918408 0.18421122 15394014
0.7889998 -0.084709331 0.18467066 15065047
0.78874981 -0.075253129 0.18520491 14472911
0.78800005 -0.065232389 0.18535894 14604754
0.78706682 -0.055021718 0.18513972 14867670
0.77900004 -0.041691687 0.18871292 13420737
0.78338474 -0.045953438 0.18462494 14078412
0.77556252 -0.035385657 0.18481489 13223358
0.77341396 -0.024973301 0.18539172 13420481
0.77341688 -0.015139265 0.18554837 14473426
0.77370006 -0.0051829647 0.18561633 14868696
0.77412915 0.0046360856 0.18498908 14934489
0.77624142 0.014916947 0.18456297 14802904
0.77805281 0.023452625 0.186804 14605525
0.7815882 0.026516641 0.18347256 14539988
0.78458071 0.035037741 0.18475688 14802647
0.78793341 0.044526219 0.18534215 14934232
0.78899974 0.054743942 0.18467067 14999769
0.78900003 0.061670423 0.18651776 14802647
0.79000002 0.065601505 0.18455251 14605267
0.79036689 0.075192645 0.1849907 14144973
0.79004014 0.085332707 0.18491431 14078667
0.78900003 0.097094461 0.18150432 14012361
0.79000002 0.09420564 0.18573701 14144460
0.78899992 0.10586412 0.18325824 14143946
0.79000002 0.10365441 0.18759479 14013131
0.78900003 0.11154113 0.18236187 14538960
0.79071426 0.1156419 0.18551318 13354946
0.79114306 -0.14500129 0.19522677 15394013
0.79083347 -0.13489221 0.19528267 15393755
0.79183328 -0.12486801 0.19552821 15327962
0.79113334 -0.11457277 0.19535446 15393755
0.78899997 -0.10360622 0.19717389 15328220
0.79005885 -0.10625612 0.19329564 15327963
0.78891635 -0.094858587 0.19480857 15262427
0.78863317 -0.084670596 0.19473763 15130585
0.78814816 -0.075598016 0.19513091 15064792
0.78753346 -0.065194927 0.19538777 14933205
0.78608 -0.054953132 0.19502705 14999255
0.77899998 -0.042212732 0.19587727 13354430
0.7827273 -0.046725165 0.19477831 14472655
0.77522868 -0.035012107 0.1949295 13288636
0.77353859 -0.025242312 0.19532992 13354687
0.77280015 -0.015127901 0.19535129 14276303
0.77292007 -0.0051776152 0.19538203 14802647
0.77360022 0.0049088751 0.19477731 14868697
0.77433336 0.014753663 0.19483212 14802904
0.77591431 0.024645947 0.19509985 14605525
0.77866673 0.032051578 0.19541669 14737110
0.78200006 0.036503151 0.19456369 14737110
0.7863847 0.044299636 0.19531472 14737111
0.78872204 0.0547259 0.19476034 14802904
0.78899992 0.062947065 0.19510116 14737112
0.79000002 0.067545757 0.19472082 14407890
0.79044473 0.075200506 0.1951865 14210510
0.79016685 0.085346423 0.19511785 14210254
0.79036701 0.094619386 0.19516847 14276303
0.79011148 0.10476143 0.19510444 14210766
0.79096305 0.11485571 0.19480009 13355459
0.7923333 -0.15555425 0.20492607 13880775
0.79045188 -0.14515613 0.20518553 15328219
0.78900003 -0.13605769 0.20831311 15328475
0.79016662 -0.13477865 0.20405775 15327962
0.78900003 -0.12534472 0.20868251 15065561
0.79031587 -0.12535894 0.20425814 15328219
0.78899992 -0.11438548 0.20708176 15328478
0.79006666 -0.11614325 0.20316918 15393755
0.78874987 -0.10484031 0.20507635 15393756
0.79000002 -0.10885895 0.20154938 15459548
0.78820002 -0.094772607 0.20477973 15394013
0.78786218 -0.084460102 0.20545508 15065049
0.78703332 -0.075287141 0.20539592 15262171
0.78558326 -0.065034583 0.20501713 15261915
0.78380007 -0.054794211 0.20455138 15327964
0.7782144 -0.042951908 0.20543852 13946311
0.78146672 -0.04743528 0.20498109 15327964
0.77567744 -0.035307821 0.20498297 13223358
0.77339298 -0.024904223 0.20513608 13355202
0.77152783 -0.015105343 0.20496346 14013387
0.77130002 -0.0051661064 0.20490138 14408145
0.77252793 0.0047724978 0.20522811 14539476
0.77358633 0.01461434 0.20535378 14539477
0.7754516 0.024908369 0.20492266 14671063
0.77850008 0.032146204 0.20499355 14868442
0.78175002 0.036742669 0.20527768 14934491
0.78622222 0.044363786 0.20501658 14934234
0.78869987 0.054724492 0.20491086 14802905
0.78900003 0.062132191 0.20383398 14736855
0.79012501 0.066267371 0.20585904 14473939
0.79134488 0.075126454 0.20547172 14276303
0.79161549 0.085288592 0.20581275 14276047
0.79116011 0.094713546 0.20554994 14210510
0.79016691 0.10476851 0.20529099 14145231
0.79164302 0.11535918 0.20507848 12500664
0.7916801 -0.15542659 0.2149511 14144718
0.78899992 -0.14207694 0.21607076 15328220
0.79000002 -0.14715251 0.21395124 15394526
0.78869987 -0.13452926 0.21506412 15196890
0.78846651 -0.12526001 0.21500011 15262683
0.7881667 -0.11506473 0.21491884 15328734
0.78756684 -0.10483662 0.21475457 15328734
0.78703046 -0.095050685 0.21435598 15130842
0.78465712 -0.084979482 0.21582021 14802134
0.77900004 -0.072693788 0.21880321 15262683
0.78281486 -0.075086892 0.21477839 14999769
0.77750003 -0.065014072 0.21824959 15460318
0.78191686 -0.064730659 0.21321271 15591392
0.77754557 -0.05493455 0.21772979 15788771
0.78112495 -0.054835808 0.21231261 15459550
0.7771073 -0.044971146 0.21554002 15196378
0.78050005 -0.049080621 0.21100166 16051687
0.77488881 -0.035124842 0.21492568 13354944
0.77314824 -0.025291372 0.21494593 13552323
0.77116668 -0.015098075 0.21479797 14013388
0.77000028 -0.0050961762 0.21521865 14210768
0.77054304 0.0046314434 0.21539545 14276305
0.77230769 0.014854784 0.21490504 14276305
0.77405572 0.024716061 0.21469371 14605270
0.77672011 0.034147851 0.21575913 14868441
0.78166676 0.038071174 0.21253575 15131613
0.77900004 0.040372699 0.2188032 14934489
0.78516138 0.044848304 0.21519199 15000027
0.78864688 0.054992318 0.21483338 14934233
0.7912001 0.065086558 0.21482259 14671061
0.79112005 0.094707243 0.21479893 14341840
0.78900003 0.10538425 0.21591687 14275792
0.79000002 0.1042849 0.21403286 14210255
0.79100013 0.11506714 0.21476616 12302771
0.78900003 -0.1512036 0.22900021 15525341
0.79117262 -0.15545525 0.22484019 14538962
0.78876907 -0.14505221 0.22516847 15394012
0.79000002 -0.14892937 0.2206599 15525341
0.78800005 -0.13500276 0.22521785 15196889
0.78714824 -0.12484713 0.22518511 15196889
0.78658354 -0.11483315 0.22553499 15328219
0.78629982 -0.10466794 0.22545417 15262684
0.78486663 -0.095291846 0.22504306 15065049
0.77900004 -0.081812054 0.2297451 14736597
0.78182137 -0.085183874 0.22488955 14801877
0.77762508 -0.074787326 0.22518498 14670547
0.78000003 -0.078265086 0.22091007 14670034
0.77534634 -0.065233238 0.22482608 15130841
0.77503324 -0.055086721 0.22494444 15854565
0.77511531 -0.045253452 0.22475849 15591135
0.77294457 -0.035037935 0.22524258 13617859
0.77070004 -0.025009941 0.2245883 13618372
0.77077782 -0.015087575 0.22461274 14078925
0.7701925 -0.0052295825 0.2251357 14210512
0.77025831 0.0049041999 0.22518928 14276562
0.77139992 0.014697935 0.22479488 14276561
0.77252781 0.024666661 0.22512263 14408147
0.77473074 0.03485246 0.22464773 15000283
0.77766681 0.042530682 0.22591148 15131868
0.78284216 0.047422875 0.22373754 15066075
0.78748143 0.055359349 0.2252795 15000282
0.78900003 0.061208658 0.22900021 15329247
0.79168975 0.065255776 0.22498645 14539731
0.79254282 0.084803924 0.22525363 14407632
0.78899997 0.097865768 0.22658481 14473425
0.79027277 0.093850538 0.22365084 14473425
0.78899986 0.10461465 0.22530606 14209999
0.79000002 0.10731587 0.22312577 14670550
0.79117256 0.11496454 0.22484159 12105649
0.78900003 -0.15202452 0.23495187 15459548
0.79081255 -0.15687518 0.23484859 14801619
0.78813338 -0.14550303 0.23520599 15393755
0.78722245 -0.13519956 0.23493361 15196376
0.78596413 -0.12506111 0.23488553 15196376
0.7844193 -0.11472575 0.23536631 15196376
0.78372729 -0.10482521 0.23596987 15131355
0.77900004 -0.091842145 0.23886338 15131355
0.7828216 -0.095239639 0.23512159 14999769
0.77760011 -0.084215328 0.23642877 14736597
0.78125 -0.087384112 0.23269391 14802390
0.77533334 -0.075076573 0.23501402 14539217
0.77400017 -0.064980194 0.23461097 14802133
0.77344477 -0.05497466 0.23444237 15789028
0.77326685 -0.045005552 0.23438874 15854565
0.77213323 -0.035000239 0.23494992 13947081
0.77064002 -0.02500809 0.234497 13750215
0.77087092 -0.014944036 0.234741 14013388
0.77023101 -0.00529854 0.23458019 14013133
0.77050012 0.0047602528 0.23445396 14078926
0.7709285 0.014880915 0.23516287 13881547
0.77203232 0.024506345 0.23509346 14211026
0.77413338 0.034685418 0.2346523 14737369
0.77686363 0.042827632 0.23506613 15066333
0.78116661 0.048715223 0.23495555 15000283
0.78660721 0.05570114 0.23507811 15000283
0.78881818 0.062369954 0.23599753 14671317
0.79039997 0.066622004 0.23421627 14473938
0.79084861 0.074984021 0.23458271 14342096
0.78900003 0.088175781 0.23675787 14539731
0.79005003 0.084593877 0.23429847 14408145
0.78857559 0.095578343 0.23491789 14605524
0.78846419 0.10526986 0.23497464 14605270
0.79204011 0.11522057 0.23507372 11776941
0.78900003 -0.15212713 0.24470025 15525341
0.79072219 -0.157088 0.24523351 14933206
0.78828001 -0.14553064 0.24539995 15393755
0.78596789 -0.13501577 0.24491556 15196376
0.77857155 -0.12186535 0.2473235 15262683
0.78292316 -0.12536786 0.24415153 15130839
0.776577 -0.11435217 0.24566847 15196890
0.78125006 -0.11679901 0.24138045 15262426
0.77623343 -0.10496251 0.24436858 15065304
0.78000003 -0.10565499 0.24099599 15131353
0.77620012 -0.095016234 0.24449003 14933975
0.77514827 -0.085240118 0.24453469 14933718
0.77357155 -0.074775577 0.24521729 15065303
0.77256674 -0.064859949 0.24502791 14802133
0.7719444 -0.054868117 0.24482955 15789285
0.77203327 -0.04493368 0.24486008 15789285
0.7716943 -0.034978844 0.24475209 14276303
0.77083331 -0.025014112 0.24447878 13881801
0.76880008 -0.012709911 0.24869378 13881544
0.77058071 -0.01546225 0.24396156 13881802
0.76866663 -0.0051494022 0.24829035 13881800
0.77073687 -0.0049732784 0.24278633 13881803
0.76881826 0.0054850411 0.24817596 13881803
0.77062964 0.0044585988 0.24311107 13881803
0.76875007 0.015433001 0.24696755 13552581
0.77023089 0.013702963 0.24241544 13684680
0.76885718 0.02107675 0.24758078 13420994
0.77113789 0.025463359 0.24404573 14013646
0.77348286 0.034531206 0.24516259 14737624
0.77663326 0.044436481 0.24504441 14606296
0.78125006 0.049633909 0.24412353 14671833
0.77900004 0.051314622 0.24980529 14671063
0.78500003 0.055264164 0.2451355 14737111
0.7885713 0.064868711 0.24489583 14605524
0.79000002 0.068683848 0.24038687 14539731
0.78899997 0.073214568 0.24707505 14408145
0.79000002 0.076333657 0.24349722 14342096
0.78899986 0.086484268 0.24552657 14407888
0.79000002 0.083142839 0.2435813 14407632
0.78869683 0.095089823 0.24502638 14473682
0.78859246 0.1056902 0.24508668 14539477
0.78899997 -0.15305066 0.25551876 15130583
0.79018188 -0.15748438 0.25439951 14999513
0.788077 -0.14535137 0.25477284 15262169
0.7851072 -0.13595541 0.25484699 14933461
0.77737516 -0.12338642 0.25508374 15130584
0.78123087 -0.12847286 0.25474009 14998997
0.77438903 -0.11486951 0.25467074 15262170
0.77323353 -0.10473816 0.25429046 15196378
0.77386117 -0.094858766 0.25449601 14867413
0.77360022 -0.084867276 0.25441068 14801620
0.77248496 -0.074718244 0.25511208 14933206
0.76900005 -0.061859287 0.25920027 15394014
0.77075005 -0.064901449 0.2549555 15064792
0.76862508 -0.054182187 0.25749865 15920871
0.77020013 -0.055104125 0.2527526 15855078
0.76888895 -0.045750126 0.25816271 16052457
0.77052391 -0.044415921 0.25369999 15920871
0.76900005 -0.03935625 0.25920027 15920871
0.77060014 -0.034799308 0.25509921 14868183
0.77000028 -0.024986763 0.2550309 14144972
0.76820022 -0.014440196 0.25455329 14078923
0.77000004 -0.019579004 0.25521111 14144716
0.76596439 -0.0049416753 0.25516468 14079180
0.76587498 0.0047308384 0.25482172 14144973
0.76668429 0.015174059 0.25534427 14013387
0.76835001 0.023453638 0.25511217 13815752
0.77025008 0.028048502 0.25436127 13881546
0.77235711 0.034542751 0.25509885 14474195
0.77502853 0.044576816 0.2547515 14539987
0.77840006 0.052369289 0.25562602 14737367
0.78263158 0.056763601 0.25443754 14737367
0.78666669 0.064713657 0.25502321 14539988
0.78837496 0.074772537 0.25500128 14276816
0.78883988 0.085203201 0.25480664 14342096
0.78836662 0.095301479 0.25465381 14407632
0.78832 0.10544844 0.25463912 14012876
0.78900003 0.11144878 0.25633675 11184291
0.79152185 0.11611012 0.25462374 11316389
0.78900003 -0.16105461 0.2674807 12894653
0.79090905 -0.16512173 0.26456439 9802896
0.78836656 -0.15477495 0.26480386 14999768
0.78638703 -0.14512321 0.2646994 14933974
0.77900004 -0.13165857 0.26925758 14605011
0.7827931 -0.13548352 0.2646043 14801875
0.77715403 -0.12500516 0.26516569 14670802
0.78066665 -0.1295035 0.26313186 14670546
0.77388579 -0.11466449 0.26524624 14933974
0.77209979 -0.10458615 0.26476297 15065561
0.77175778 -0.095012069 0.26439625 14868182
0.76833338 -0.082490891 0.26886752 14802131
0.77136678 -0.085344389 0.26432812 14604754
0.76764703 -0.074912071 0.26730451 14735827
0.77100009 -0.075463094 0.26243764 14867413
0.76594746 -0.064870626 0.26585403 15065048
0.77000004 -0.067347482 0.2613399 15196378
0.76540548 -0.055007756 0.26490572 15854820
0.7657001 -0.04523439 0.26547393 15920869
0.76770991 -0.035173945 0.26571834 15657440
0.77000004 -0.03255761 0.26170042 15526112
0.76737499 -0.024827346 0.26635742 14868440
0.77000004 -0.024986757 0.26185492 14933976
0.76672989 -0.014550863 0.26541501 14473938
0.77000004 -0.019579004 0.26224118 14408145
0.76368743 -0.0052882568 0.26505712 14473938
0.76099992 0.0046989885 0.26451752 14473938
0.7616111 0.015404727 0.26472914 14342352
0.7663334 0.025369069 0.26493523 14276559
0.76900005 0.030853223 0.26550108 14342352
0.77166677 0.035404049 0.26468962 14276559
0.77536374 0.044646148 0.26514027 14605524
0.77883339 0.051911529 0.26281863 14737110
0.78210002 0.056281626 0.2656295 14934232
0.78492302 0.064429037 0.26477894 14736854
0.78679401 0.075069807 0.26454562 14605267
0.78763348 0.085073188 0.26455748 14539219
0.78800005 0.095258445 0.26468208 14473427
0.78844827 0.10533822 0.26467437 14210255
0.79000002 0.10937075 0.26997736 11315620
0.78900003 0.11154113 0.26178557 11447205
0.79090917 0.11547417 0.26540816 11184803
0.78876919 -0.16195489 0.27552202 12038830
0.79050004 -0.16682509 0.27451 9539210
0.78657144 -0.15422709 0.27491888 14670804
0.78310007 -0.14457637 0.27476445 14605011
0.77785009 -0.13331714 0.27611086 14473425
0.78090012 -0.13740358 0.27308196 14407631
0.77536666 -0.12499621 0.27495781 14407631
0.7732501 -0.11541002 0.27498335 14473425
0.76800001 -0.10206947 0.27716735 14670803
0.77080011 -0.10621476 0.27424154 14802133
0.76706684 -0.094745673 0.2755422 14933719
0.77000004 -0.096369073 0.27071336 14999767
0.76485378 -0.08504615 0.27469251 14933463
0.76213515 -0.074978709 0.27496117 14867670
0.75900006 -0.064164333 0.27848428 15065821
0.76067859 -0.06487947 0.27394691 14999513
0.75900006 -0.05424368 0.27863237 15789028
0.76079172 -0.055113476 0.27409333 15723234
0.759 -0.045305673 0.27812082 15656927
0.76091993 -0.045070015 0.27357569 15920099
0.75900006 -0.0352908 0.27892849 15526112
0.76185721 -0.0346586 0.27360234 15657184
0.75900006 -0.025518222 0.27892849 14933976
0.76139992 -0.024945533 0.27386379 14933975
0.75900006 -0.014857224 0.27892849 14342352
0.76133335 -0.01514757 0.27394864 14407889
0.759 -0.0043739108 0.27786237 14539475
0.76045012 -0.0054512452 0.27331844 14408145
0.75899994 0.003164937 0.2755017 14473939
0.76000017 0.0056645721 0.27420101 14539731
0.76096964 0.015148562 0.27479464 14473938
0.76604003 0.025144953 0.27477291 14144973
0.77000004 0.02909076 0.27936572 14079180
0.76900005 0.030853221 0.27180195 14079180
0.77173918 0.034894198 0.27504832 14276559
0.77575773 0.044832982 0.27523437 14737110
0.77880007 0.05276037 0.27818266 14802903
0.78192019 0.055609085 0.27468309 14802903
0.78455174 0.0646649 0.27470008 14802903
0.78530538 0.074710846 0.27480638 14671060
0.78642857 0.084746763 0.27487105 14671060
0.78786677 0.095243111 0.27478135 14473684
0.78885704 0.10367268 0.27446777 14671063
0.79036367 0.10807607 0.27649343 12039344
0.78858823 -0.16220215 0.28448084 12301745
0.79069996 -0.16707915 0.28576535 9407368
0.78565395 -0.15481184 0.28483012 14473426
0.77818769 -0.14343916 0.28631935 14670547
0.78129411 -0.14693072 0.28346226 14736341
0.77565712 -0.13474545 0.28514975 14407632
0.77380013 -0.12474257 0.28527153 14341839
0.76900005 -0.11181602 0.28845423 14407632
0.771963 -0.11581364 0.28449374 14276044
0.76678139 -0.1051029 0.28470197 14276046
0.77000004 -0.1097082 0.28116831 14341839
0.7625882 -0.095002957 0.28491792 14276046
0.75900012 -0.082249947 0.28730494 14078667
0.76064003 -0.0862239 0.28465751 14407632
0.75859356 -0.074841626 0.28549325 14538961
0.76000005 -0.078482263 0.28151992 14605011
0.75822228 -0.064542718 0.28485298 14933464
0.75830007 -0.054785229 0.28488266 15394012
0.75780565 -0.044992879 0.28469658 15591648
0.75735295 -0.035110317 0.28525355 15328734
0.75797242 -0.0254835 0.28475821 14868183
0.75833338 -0.014843915 0.28489441 14407632
0.75860029 -0.00508173 0.28499547 14605011
0.75895232 0.0028687827 0.28618684 14670550
0.76000017 0.0072442619 0.28404039 14605270
0.76168567 0.01543311 0.28510988 14276305
0.76700002 0.023793105 0.28515834 13881802
0.77044445 0.028306402 0.28533894 14013132
0.77303457 0.034761854 0.28514755 14408145
0.77509087 0.044626262 0.28500521 14737110
0.77682769 0.054684889 0.28472379 14802903
0.78000003 0.058684465 0.28116786 14802903
0.77836376 0.062206741 0.28753445 14671317
0.7821725 0.066048324 0.28396922 14737110
0.78503692 0.075401574 0.28522879 14737110
0.78677779 0.085186116 0.28504369 14736854
0.78797227 0.095255256 0.28496397 14473427
0.78894109 0.10379218 0.2862376 14407634
0.79025 0.10786418 0.28409156 12104879
0.79241377 0.11540029 0.2848689 11119011
0.78850007 -0.1612608 0.29530722 13617861
0.79131252 -0.16635303 0.29485559 9867663
0.78440911 -0.15483719 0.29519045 14341839
0.77671432 -0.14502187 0.29511285 14407889
0.78000003 -0.14947885 0.29029784 14605011
0.77384859 -0.13496216 0.29475912 14342096
0.772138 -0.12435076 0.29534784 14342095
0.7677778 -0.11318779 0.29583251 14276302
0.77058333 -0.11760896 0.29370716 14342096
0.76482767 -0.10551769 0.2946507 14276302
0.76155543 -0.095136084 0.29502094 14276302
0.75900012 -0.081996121 0.29415846 14407632
0.76011121 -0.08635325 0.29564834 14144716
0.75848573 -0.075093344 0.29548046 14276045
0.75700003 -0.064842179 0.29478565 14604496
0.75579995 -0.054908555 0.29513755 14933460
0.74900001 -0.040086098 0.29892468 15657185
0.75404876 -0.044879954 0.29462391 15262938
0.74846148 -0.034396883 0.2981028 15065560
0.75234789 -0.035365015 0.29340196 15131354
0.74863642 -0.025567437 0.29885885 14670803
0.75305408 -0.025198886 0.29364985 14802646
0.74900001 -0.019045033 0.29980141 14342352
0.75450003 -0.014766489 0.29492927 14473938
0.7565484 -0.0051807398 0.29504818 14671317
0.75813884 0.0046842773 0.29547104 14539731
0.759 0.012535616 0.29595646 14276560
0.76063639 0.017244624 0.29401711 14078926
0.76517236 0.02502414 0.29545987 14407890
0.77025002 0.028649559 0.29162741 14539988
0.76900005 0.030853223 0.29880559 14868442
0.77234483 0.034730788 0.29542688 14802904
0.77417648 0.04486816 0.29473883 14803160
0.77523315 0.054697413 0.2948752 14671831
0.77721447 0.064002 0.29543322 14671832
0.78066665 0.06909129 0.29267743 14605782
0.78323346 0.075433858 0.29498023 14736856
0.78576642 0.084872171 0.29520038 14736856
0.78682345 0.094901666 0.29532751 14605270
0.78878248 0.10518889 0.29517218 13158081
0.79000002 0.10937075 0.29586902 11250341
0.78900003 0.11846761 0.29180035 11053218
0.79024166 0.11482692 0.29513127 11053218
0.78900003 0.12216175 0.29180035 11053218
0.79036689 0.12521067 0.29489756 11053475
0.78850007 -0.1612608 0.3045367 13749445
0.79176474 -0.16667299 0.30514282 10065298
0.78538096 -0.15515566 0.30525815 14144203
0.77764291 -0.14473821 0.30333504 14341839
0.7816667 -0.14613923 0.30799744 14144461
0.77468961 -0.13439426 0.30464587 14078924
0.77215385 -0.12461809 0.30524704 14078924
0.76811111 -0.11413646 0.30375478 14144974
0.7705 -0.1175961 0.30720508 14078926
0.76476932 -0.10517922 0.30453199 14013132
0.76175845 -0.095007673 0.30478746 14013389
0.75900006 -0.082376868 0.30291572 14144717
0.76028585 -0.087093599 0.30406573 14079181
0.7579667 -0.075169355 0.30486947 14144973
0.76000005 -0.079816639 0.30954191 13815754
0.75525004 -0.064986579 0.30463853 14341838
0.75231594 -0.055237457 0.30464724 14407633
0.74855 -0.042428665 0.30601686 14868182
0.75029421 -0.04676846 0.30331489 14933718
0.74719989 -0.034742687 0.30520245 14933975
0.74719417 -0.025120879 0.30519998 14539475
0.74793321 -0.015281568 0.30614263 14474197
0.75036371 -0.012531454 0.3019436 14539988
0.75278121 -0.0050941929 0.30466923 14474196
0.756697 0.0044361693 0.30513525 14474195
0.75899994 0.013039051 0.30478132 14539475
0.76025009 0.018266831 0.30508316 14539731
0.7622667 0.025233459 0.30493081 14671317
0.76719242 0.033616118 0.30562872 14868440
0.77055556 0.03793088 0.3038184 14934235
0.77296984 0.044997662 0.30462405 14934235
0.77485174 0.054469831 0.30510971 14736856
0.77747077 0.065082468 0.30509537 14737113
0.77900004 0.071374804 0.30177939 14934489
0.78180778 0.075787909 0.30518883 14934490
0.78403705 0.084482394 0.30505484 14867926
0.78621876 0.095277399 0.30515012 14604754
0.788625 0.10352726 0.30493084 13552326
0.79000002 0.10844605 0.305116 10856096
0.79204172 0.11506291 0.30575153 10987682
0.78900003 -0.1609007 0.3116563 12960959
0.79109091 -0.16499142 0.31547025 9933969
0.78799987 -0.15428375 0.31499514 12171701
0.79000002 -0.15817641 0.31929478 10000534
0.78557152 -0.14520872 0.31514481 12500409
0.77700007 -0.13295476 0.3138088 12171187
0.78224999 -0.1373218 0.31723201 11776686
0.77449995 -0.12460851 0.31495592 11776173
0.77330774 -0.11533207 0.31531551 12170930
0.76780003 -0.10400338 0.31128138 13157824
0.77268755 -0.10556737 0.31629586 12500151
0.76780003 -0.095017627 0.31271878 13289410
0.77336371 -0.095210247 0.31778404 12697530
0.76566672 -0.083995469 0.3133454 13355203
0.77166671 -0.086763345 0.31730536 13486789
0.75850004 -0.071669206 0.31070662 13487043
0.7626667 -0.07444372 0.31449986 13420995
0.77100003 -0.078265667 0.31943688 12697273
0.75739998 -0.064533442 0.31344855 13552837
0.76133341 -0.066888712 0.31751108 13092287
0.75387502 -0.055277735 0.31448016 13487044
0.74888891 -0.043197349 0.31183425 14539218
0.75213331 -0.045418546 0.3158496 14407633
0.74780005 -0.034771286 0.31332633 14736597
0.75300002 -0.03501182 0.31903034 14539477
0.74694437 -0.025113231 0.31296742 14408404
0.75266665 -0.025306849 0.31888911 14539733
0.74694443 -0.014619225 0.31296754 14277075
0.75260001 -0.015609592 0.31886086 14277077
0.74900001 -0.0079400232 0.3129521 14211282
0.75200009 -0.0036046079 0.31365547 14145489
0.75615156 0.0049170367 0.31457263 13948111
0.75870591 0.013201918 0.31382096 14276818
0.76066679 0.018053543 0.31560236 14277075
0.7625652 0.025475653 0.31446978 14211026
0.76669222 0.034908015 0.3142007 14276818
0.77025002 0.039468575 0.31642225 14276305
0.77207702 0.045300908 0.31466949 14671063
0.77471417 0.054855525 0.31495127 14736856
0.77693951 0.064576082 0.31511709 14736856
0.77900004 0.071374804 0.31636864 14868442
0.78129172 0.07562606 0.31478366 14999771
0.78317881 0.084789775 0.31472486 15131101
0.78587502 0.094776891 0.31490597 14604755
0.78871429 0.10339037 0.31451076 12696760
0.79046154 0.10786959 0.31540063 10986911
0.7927084 -0.16506143 0.32487714 10197911
0.79091305 -0.1550331 0.32551518 10000790
0.78863156 -0.14452653 0.32470205 9869204
0.79000002 -0.14923762 0.32607594 9803411
0.78540003 -0.13553283 0.32512969 9474445
0.77816671 -0.12544538 0.32149586 9079431
0.78341675 -0.12522148 0.32687706 9606031
0.77766675 -0.11535107 0.32219899 9079432
0.78381819 -0.11484459 0.32758543 9343115
0.77780002 -0.10535793 0.32225424 9606031
0.78362501 -0.10568777 0.32696244 9013640
0.77833337 -0.095406175 0.32247519 11513770
0.78450006 -0.094323009 0.32717374 9868946
0.77587503 -0.084437929 0.32213908 12434358
0.78299999 -0.086205631 0.32746449 9671566
0.7743572 -0.074595198 0.32458529 11381671
0.78200006 -0.077551603 0.3294864 8684672
0.76412499 -0.063036926 0.32262683 10658462
0.77240002 -0.066292778 0.32761165 9079174
0.75900006 -0.052170709 0.32157245 10789278
0.76277786 -0.054707538 0.32476491 9407627
0.77000004 -0.056531977 0.32983807 9079687
0.75800002 -0.045002542 0.32203719 12631226
0.76300007 -0.046195135 0.32639447 9407885
0.75800002 -0.035244301 0.32292324 14605272
0.76220006 -0.035438649 0.32649684 12894658
0.75900006 -0.025518222 0.32334927 14539477
0.75840008 -0.015382039 0.32273972 14473941
0.76000005 -0.011318451 0.32377532 14671063
0.75760001 -0.0050738603 0.3209793 13948111
0.76216674 -0.0045065568 0.32499799 13092545
0.75875002 0.0029110229 0.32146651 13684940
0.76391673 0.0047168406 0.32574609 11513771
0.7651 0.014222771 0.32308471 13619147
0.77240008 0.015802044 0.32833502 12698045
0.76600003 0.021766759 0.32095176 14671835
0.77233338 0.024356417 0.3254163 13816526
0.76900005 0.032653466 0.32040852 13750731
0.77369243 0.03508262 0.32445684 13619146
0.77516675 0.044710021 0.32358631 14013647
0.78125006 0.04689258 0.32917038 14145491
0.77653325 0.054788988 0.32354993 14474198
0.78260005 0.055217326 0.32973918 14211284
0.77778578 0.064632781 0.32263908 14473684
0.78155565 0.065711409 0.32747105 14342355
0.77900004 0.071982689 0.32153562 14605270
0.78200001 0.07608296 0.32476678 14342098
0.78380013 0.084661156 0.32474273 14605270
0.78732145 0.095444337 0.32461998 14671062
0.78900003 0.10230581 0.32273868 13684168
0.79166675 0.1065158 0.32570451 11053219
0.78900003 -0.14104477 0.3305887 10329754
0.79226321 -0.14499637 0.33488813 10329754
0.78857148 -0.13424309 0.33120075 10198167
0.79174995 -0.13551107 0.33591342 10198168
0.78820008 -0.12521857 0.33209869 9934994
0.79163641 -0.12525918 0.33641222 10066582
0.7881667 -0.11506325 0.33208466 9737615
0.7912308 -0.11486903 0.33651209 10066580
0.78840005 -0.10494857 0.33107612 9145225
0.79169238 -0.10495773 0.33571053 9803409
0.78816676 -0.094767012 0.33054736 8684673
0.79171437 -0.09506233 0.33622947 9474443
0.78811115 -0.083589837 0.33308738 8816258
0.79036367 -0.08569786 0.33721587 9408651
0.78713334 -0.074929632 0.33582905 9211272
0.79000002 -0.079268485 0.33840528 9540236
0.77600002 -0.064372107 0.33240861 9342858
0.78414285 -0.066095464 0.33773336 9474443
0.7749092 -0.054829743 0.33425257 9605773
0.78200006 -0.058328334 0.33863977 9540236
0.77287507 -0.045888484 0.3337858 9473931
0.78000003 -0.042658202 0.33959967 9606031
0.76900005 -0.03935625 0.33120999 9144970
0.77571434 -0.035807766 0.3361783 9145223
0.77840006 -0.025257001 0.33708078 9145223
0.77900004 -0.019807851 0.33734062 8882308
0.78100002 -0.014372295 0.33820671 9079687
0.77633333 -0.0036900248 0.33558229 8948099
0.78000003 -0.0088773137 0.33777368 9079685
0.77600008 0.0041491562 0.33578297 9013892
0.77585727 0.015043539 0.33260688 8947844
0.78220004 0.014905801 0.3376275 8684671
0.77800006 0.023933161 0.33098775 12697790
0.78592312 0.025164809 0.33680356 9474190
0.77900004 0.031254437 0.33004603 13750733
0.78592867 0.035474524 0.33495814 11711407
0.78636366 0.044938371 0.33400437 12698304
0.79000002 0.044641599 0.33840528 8750469
0.78718191 0.055035654 0.33451894 12303289
0.79000002 0.054813325 0.33840528 8619138
0.78733331 0.065072358 0.33480912 11250600
0.78748143 0.075225227 0.33507749 11053220
0.7879445 0.084799923 0.33445245 11974065
0.79000002 0.088102594 0.33840528 9408395
0.78870004 0.093312345 0.33230981 13552583
0.79114288 0.095771976 0.3367798 11381927
0.79250008 -0.075380415 0.34554654 9803408
0.78842866 -0.065136939 0.34221488 9737615
0.79166669 -0.065073572 0.34699675 9869201
0.78657144 -0.054199632 0.34298816 9737615
0.79049999 -0.055415493 0.34802723 9803408
0.78577787 -0.045729831 0.34334478 9671822
0.79014289 -0.045723986 0.34797975 9737615
0.7855556 -0.035093091 0.34283888 9474444
0.79216665 -0.034358084 0.34829721 9540236
0.78766674 -0.024636514 0.34293762 9211273
0.78880006 -0.014518189 0.34343106 9211272
0.78671438 -0.00448272 0.34305072 9211271
0.78550005 0.0048533683 0.34291688 9145737
0.79041666 0.0048820777 0.34876135 9277323
0.7877143 0.014480183 0.34243265 9079687
0.7910769 0.015357973 0.34727177 9014408
0.78900003 0.020573268 0.34167105 8948101
