# .PCD v0.7 - Point Cloud Data file format
VERSION 0.7
FIELDS x y z rgb
SIZE 4 4 4 4
TYPE F F F U
COUNT 1 1 1 1
WIDTH 1005
HEIGHT 1
VIEWPOINT 0 0 0 1 0 0 0
POINTS 1005
DATA ascii
0.41900003 -0.14160238 -0.060833883 12237241
0.42000002 -0.1404655 -0.060979072 12237498
0.42064288 -0.13441761 -0.060790818 12895427
0.42183334 -0.12614983 -0.060751684 12894397
0.42800003 -0.11694404 -0.060993809 13947858
0.43016672 -0.11289907 -0.061112773 13487049
0.43121061 -0.10558734 -0.061066564 13026496
0.43450007 -0.092081316 -0.060880229 13355203
0.43499997 -0.086842544 -0.060526177 13420996
0.41422588 -0.14280801 -0.053880382 15461101
0.41729999 -0.13595751 -0.053656444 16185336
0.42030567 -0.13386996 -0.057798486 15724529
0.41846675 -0.12649621 -0.051221482 16383226
0.42140669 -0.1245504 -0.055766765 16053493
0.42452139 -0.11547364 -0.054531362 16185592
0.43000001 -0.11200015 -0.058706392 16119029
0.42647463 -0.10519536 -0.053226613 16449019
0.43002868 -0.10458648 -0.058091976 15461613
0.42804998 -0.097310439 -0.051676817 16448763
0.43156976 -0.09432891 -0.055884417 15856370
0.43446049 -0.085106678 -0.054660819 15987955
0.4351702 -0.074660502 -0.052930385 16316922
0.43721423 -0.064623848 -0.052914824 16054005
0.43900004 -0.058779657 -0.051062595 16449020
0.44080949 -0.055208739 -0.052869447 16185592
0.44352636 -0.044718616 -0.051443685 16054521
0.44629413 -0.034200236 -0.050783876 15988213
0.44900003 -0.028935468 -0.05082427 15265260
0.45170593 -0.023919763 -0.051337853 14211803
0.45388895 -0.017089631 -0.051613931 13224138
0.40882942 -0.14401354 -0.042060394 15461099
0.4105306 -0.14433621 -0.046759397 15395306
0.40865523 -0.13680267 -0.041584916 16317431
0.41247678 -0.13421549 -0.045937914 16383480
0.41483489 -0.12508044 -0.04499568 16514810
0.41737497 -0.11586233 -0.04371905 16514810
0.420706 -0.11300752 -0.047496837 16514810
0.41866669 -0.10854667 -0.040965911 16580603
0.42193002 -0.10471696 -0.045294903 16514810
0.42543992 -0.095314704 -0.044853818 16580603
0.43000001 -0.091213092 -0.049093001 16580606
0.42781138 -0.085459828 -0.042954735 16514813
0.43095464 -0.084166005 -0.047645494 16449020
0.42858329 -0.077198848 -0.040570658 16580606
0.43168536 -0.074743718 -0.045505069 16514813
0.43302059 -0.065148175 -0.044937346 16514813
0.43629169 -0.055986695 -0.044345368 16514813
0.44017652 -0.052289058 -0.048330631 16449020
0.43825004 -0.046572387 -0.042011622 16580350
0.44172862 -0.04398099 -0.046249341 16383228
0.44447842 -0.034874804 -0.044983629 16382972
0.44786274 -0.02614543 -0.043710504 15988472
0.45112118 -0.023276398 -0.04770584 15527920
0.44889474 -0.016114689 -0.04161277 15659508
0.45236358 -0.014934663 -0.046300653 15396592
0.44900003 -0.0093146143 -0.041013841 15330543
0.45398712 -0.0049668537 -0.04481779 15265264
0.45750007 0.0048211906 -0.044811953 14673383
0.45879579 0.014090283 -0.043772772 14738406
0.46013337 0.018533217 -0.045406397 14409440
0.45900002 0.020564696 -0.040852759 14343648
0.46196878 0.025180534 -0.044551708 14541027
0.46451628 0.034954533 -0.043486375 15133163
0.4672499 0.044934396 -0.042888258 15264748
0.46893746 0.05215995 -0.042217735 15396335
0.4709048 0.057270147 -0.042647861 15067114
0.47595659 0.064684331 -0.042169787 14737635
0.48215386 0.067707516 -0.045348737 12500667
0.48425004 0.071575463 -0.044663616 12500664
0.40721133 -0.14467528 -0.034883585 14671069
0.406739 -0.13492806 -0.034792185 16448504
0.41000003 -0.13040237 -0.039371025 16580603
0.40810022 -0.12613277 -0.033124015 16514553
0.41142103 -0.12356807 -0.037026208 16514810
0.41422129 -0.11507788 -0.035200004 16514810
0.41728252 -0.10569085 -0.03408451 16580346
0.42031583 -0.10193668 -0.037979946 16580603
0.41871437 -0.09830568 -0.031456437 16514553
0.42185271 -0.09464328 -0.03557827 16580602
0.42320672 -0.084943146 -0.034759108 16514810
0.42448962 -0.074996218 -0.03478248 16514813
0.42628175 -0.065440759 -0.034084123 16514813
0.43004763 -0.063429371 -0.038467731 16514813
0.42776322 -0.056093737 -0.032197163 16580606
0.43145159 -0.054040231 -0.036499966 16514813
0.43423158 -0.045220409 -0.034859743 16514813
0.4375636 -0.036228269 -0.03341838 16580093
0.44108567 -0.033841677 -0.037402365 16579837
0.43900007 -0.027605886 -0.031193594 16251386
0.44255561 -0.024947708 -0.035675939 15988215
0.44474745 -0.01481078 -0.035156947 15725300
0.44776109 -0.0058123972 -0.034085244 15659508
0.45081252 -0.0025568248 -0.037750546 15527922
0.44900003 0.0016170038 -0.031238452 15133164
0.45256239 0.0053282911 -0.03542633 15001578
0.45539498 0.015079045 -0.03521201 14804198
0.45769837 0.024352642 -0.034416091 15067369
0.46022224 0.026486177 -0.038986634 14738919
0.45872727 0.033342313 -0.031700864 15659506
0.4619455 0.03544772 -0.036006521 15593456
0.46372154 0.044771794 -0.034864455 15593713
0.46631593 0.054507054 -0.034704749 15659250
0.47000003 0.058467004 -0.039081108 16250875
0.46748975 0.064632855 -0.033014134 15725556
0.47099999 0.065002926 -0.037920881 15856374
0.46799991 0.072986558 -0.032453224 15594227
0.47137502 0.071740724 -0.037680946 14277339
0.40469632 -0.14415115 -0.025013966 14736092
0.40391734 -0.13494723 -0.025050623 16316662
0.40565515 -0.12482751 -0.025238866 16645626
0.40822247 -0.11648581 -0.023350835 16645882
0.4115082 -0.11336455 -0.026821623 16645882
0.40900001 -0.1099773 -0.020125471 16711675
0.41351813 -0.10498907 -0.024714669 16645882
0.41593346 -0.095134698 -0.024779482 16645627
0.42000002 -0.090812504 -0.02951579 16711675
0.41656986 -0.085030548 -0.024418028 16316919
0.42000002 -0.084913149 -0.029515792 16514553
0.41689286 -0.075255238 -0.023970556 16449018
0.42045003 -0.074126281 -0.028907966 16449275
0.41767353 -0.065752655 -0.022450497 16514813
0.42129827 -0.064503461 -0.027412677 16514813
0.41866669 -0.059323903 -0.020928098 16514813
0.42358583 -0.055134505 -0.025130587 16580349
0.4266364 -0.045846146 -0.023919603 16514300
0.43055177 -0.043164365 -0.027860362 16514813
0.42810526 -0.037256993 -0.021277132 16448764
0.43244585 -0.034276433 -0.025557952 16382971
0.43526533 -0.024901027 -0.024905698 15856885
0.44000003 -0.020973459 -0.029891256 15725299
0.43733317 -0.015382797 -0.023557791 15791092
0.44072405 -0.013693949 -0.028055605 15791093
0.43875006 -0.0069185365 -0.021461342 15593715
0.44267699 -0.0045569404 -0.025696885 15659508
0.44566292 0.0046641841 -0.024890359 15067371
0.45025003 0.0088421404 -0.02927018 15001578
0.44786 0.014448315 -0.023446789 14738406
0.45090327 0.015538778 -0.028181968 14672869
0.44890481 0.022915265 -0.022089271 14870249
0.45252943 0.025574239 -0.026371621 15133164
0.4543857 0.035151757 -0.024741162 15396592
0.45657745 0.044801101 -0.024056867 15528177
0.46020001 0.04712183 -0.028785801 15593199
0.45744181 0.054464966 -0.022363821 15461612
0.4620513 0.055789545 -0.027343359 15593456
0.45774999 0.064671658 -0.021493154 15527664
0.46298087 0.065181509 -0.026685279 15659249
0.45830002 0.074876204 -0.0211039 15593714
0.46365514 0.075064391 -0.026154594 15987958
0.45900002 0.080738224 -0.020974007 16316409
0.46322218 0.081239276 -0.024123516 16119029
0.40213493 -0.1442565 -0.015353141 14802397
0.39876011 -0.1348177 -0.010959077 16382456
0.40073135 -0.13477799 -0.01599038 16250870
0.39900002 -0.12923893 -0.010292743 16580089
0.40195104 -0.12488159 -0.015189904 16514297
0.40499991 -0.11518209 -0.014879883 16645882
0.40791598 -0.10575893 -0.013713624 16645882
0.41084373 -0.10325681 -0.017902901 16711675
0.40869236 -0.095799297 -0.011426324 16645625
0.41174993 -0.094774351 -0.016012102 16514040
0.40899995 -0.084821783 -0.010637751 16250867
0.4119238 -0.085072026 -0.015590157 16382454
0.40874997 -0.07498385 -0.011022996 16383225
0.41207147 -0.074993879 -0.015896281 16317176
0.40900001 -0.068805814 -0.010550707 16514813
0.4135094 -0.064927399 -0.015171599 16449020
0.41581124 -0.055518363 -0.014446109 16514813
0.42061114 -0.05215884 -0.018673394 16514813
0.41768572 -0.046322208 -0.012229276 16449020
0.4220143 -0.044344656 -0.016721683 16449020
0.41850001 -0.039542355 -0.010795772 16514813
0.424409 -0.035117026 -0.015226654 16185850
0.42639706 -0.026002688 -0.014103644 15856885
0.43055996 -0.023000374 -0.017961746 15988471
0.42816666 -0.016843313 -0.011156986 15659507
0.43232101 -0.014573203 -0.015659314 15725300
0.43463144 -0.0052076271 -0.014654485 15527921
0.43687826 0.0042628767 -0.013641605 15001835
0.44073072 0.0061773658 -0.018473696 14869992
0.43839401 0.014077235 -0.011652384 14673126
0.44280303 0.01558688 -0.016628629 14804199
0.43900001 0.022237899 -0.010296891 14935785
0.44494259 0.025205478 -0.015409543 15132908
0.44631988 0.034528319 -0.014059926 15330543
0.45072734 0.037174091 -0.018438205 15593972
0.44756511 0.044606708 -0.012711784 15198957
0.45189476 0.04544317 -0.017339563 15396592
0.44806075 0.054688092 -0.011782788 15001064
0.45286554 0.055274252 -0.016744407 15264234
0.44811118 0.065155551 -0.012057492 15198185
0.45291838 0.064889483 -0.016795993 15198698
0.44840008 0.073837034 -0.011610158 15462384
0.45348221 0.075388037 -0.016293684 15659506
0.44900003 0.080030344 -0.010531444 15002346
0.45388576 0.083147824 -0.013844071 15725299
0.40133333 -0.15019457 -0.0056560724 12762558
0.3976852 -0.14355452 -0.0030216125 15328743
0.40043232 -0.14613424 -0.006885109 14604249
0.39667785 -0.13498577 -0.0046680644 16250614
0.39760557 -0.12559049 -0.0039351964 16448249
0.40004548 -0.12280875 -0.0083616637 16382456
0.39828959 -0.11644259 -0.0014421232 16514296
0.40100002 -0.11445723 -0.0060714721 16645882
0.40294445 -0.1050314 -0.0048006177 16580089
0.40539169 -0.095073901 -0.0047361758 16514039
0.40603432 -0.084985629 -0.004767918 16119281
0.40550861 -0.074904054 -0.0047938814 16119540
0.40620911 -0.065202437 -0.0043616961 16449019
0.41045457 -0.062236238 -0.0091035981 16449020
0.40762925 -0.055796839 -0.0024696772 16383227
0.411614 -0.054010931 -0.0074093034 16449020
0.40869999 -0.047897112 -0.00049719156 16120055
0.41299999 -0.044755459 -0.0050792778 16317177
0.41476181 -0.035296049 -0.0044703609 16054263
0.42063639 -0.031911857 -0.0091506653 15988471
0.41670695 -0.025492631 -0.0022433063 15725299
0.42180005 -0.02452736 -0.0075818952 15791092
0.41830778 -0.017640391 -0.000772695 15396334
0.42352864 -0.015094931 -0.0053421953 15593970
0.42607889 -0.0056485184 -0.0037819629 15396848
0.43030006 -0.00338502 -0.0080786161 15002091
0.42727277 0.0037189533 -0.0013551619 14672870
0.43191051 0.0051530027 -0.0061532818 14804456
0.42890903 0.014288258 -0.00011066559 14606820
0.43305635 0.014893236 -0.0051476196 14607077
0.42900002 0.020224895 -1.936998e-05 14606820
0.43409771 0.024799367 -0.0045996462 14935785
0.44000003 0.028468844 -0.0092902975 15198957
0.4353731 0.03482496 -0.0031505434 14936041
0.44126928 0.035747025 -0.0083252247 15330286
0.4360204 0.04500933 -0.002152306 14475747
0.44257453 0.045113765 -0.0072556222 14935785
0.43625537 0.054876052 -0.0021562504 14738149
0.44283342 0.054978088 -0.0073041711 14935271
0.43600005 0.065739103 -0.0024873856 15395565
0.44273329 0.064747952 -0.0075107277 15264748
0.43650004 0.07409507 -0.0017722687 15396593
0.44372097 0.076067567 -0.0068415981 15725556
0.43866667 0.081440963 -0.0003623754 15199470
0.44512823 0.083212331 -0.0047928938 15462128
0.45100001 0.087100692 -0.007712781 15396078
0.4465 0.090558253 -0.0010689361 15658478
0.45250002 0.090187982 -0.004787914 16052724
0.39625004 -0.15014744 0.0069384435 13354696
0.39496624 -0.14462698 0.0050143041 14999776
0.39305556 -0.13486139 0.0050714547 16250614
0.39370555 -0.1249366 0.0050099557 16382455
0.3953827 -0.11496129 0.0050587966 16448248
0.3970108 -0.10553842 0.0057936511 16448503
0.40008694 -0.1023678 0.0020992337 16580088
0.39783666 -0.095246017 0.007734484 16580087
0.40086436 -0.094776094 0.0030804961 16382708
0.39819518 -0.085041091 0.0078694243 15987951
0.40106171 -0.085077733 0.0032854648 16185073
0.39761549 -0.075017467 0.0075148577 15987952
0.40075016 -0.07483945 0.0029279939 16053745
0.39795119 -0.065355428 0.0080012167 16185331
0.40123877 -0.064692996 0.0033561275 16449017
0.39880005 -0.05887384 0.0089443466 16449273
0.40278089 -0.054910593 0.004973067 16448762
0.40508646 -0.045254961 0.0053125019 16316919
0.41000003 -0.040659435 0.00094130525 16053492
0.40681198 -0.035449713 0.0061582285 15922676
0.4108637 -0.033790715 0.0017296572 16054263
0.4080455 -0.025722457 0.0078171222 15593969
0.4123438 -0.024403006 0.0033695668 15528177
0.40883335 -0.018849326 0.0092332438 15528690
0.41401088 -0.014746143 0.0052675279 15528433
0.42000002 -0.010679457 0.00096426392 15462127
0.41639999 -0.0057863467 0.0069029396 15067882
0.42122865 -0.0042276159 0.0024584471 15133163
0.41728577 0.0041552964 0.0085476786 14475233
0.42263764 0.0050996216 0.0039441255 14672612
0.41840011 0.0153175 0.0092854835 14343390
0.42384154 0.014898979 0.0044580321 14474976
0.41815004 0.025098542 0.0092796423 14277855
0.42454055 0.02478024 0.0046670758 14475234
0.43000001 0.027318502 0.00098722253 14935785
0.41816673 0.034233745 0.0096069947 14277598
0.42351675 0.035580814 0.0060325661 14474976
0.43010527 0.035115734 0.0014642928 14606819
0.41821435 0.045522124 0.0094913347 14212060
0.42409223 0.044750951 0.0057567907 14409440
0.43055016 0.044992313 0.0014918044 14541283
0.41860005 0.054099645 0.0095190303 15001577
0.42391548 0.055401489 0.0054744706 14738149
0.43043751 0.054299902 0.0013657161 14738406
0.41900006 0.063402906 0.0097899474 15659507
0.42378482 0.065084442 0.0058557559 15330542
0.4302308 0.065917283 0.0012200533 15395309
0.42425001 0.074448392 0.0070898528 15462643
0.43189657 0.07590501 0.0023132022 15528179
0.42742857 0.081188507 0.0086983172 15726071
0.434614 0.084716707 0.0051644174 15462899
0.44075003 0.088104762 0.0012694153 15527922
0.43788895 0.091376252 0.0066955686 15264495
0.44300002 0.090368666 0.0010170689 15724529
0.39200005 -0.15067828 0.017112311 12565180
0.38900003 -0.14084354 0.01874195 15986672
0.39166641 -0.14505036 0.014491389 14934241
0.38879246 -0.13408172 0.017824231 16315894
0.39098608 -0.13527495 0.012729606 16250358
0.38863939 -0.12465182 0.017908702 16250357
0.39090285 -0.12505084 0.012548937 16250868
0.38859999 -0.11516014 0.018142333 16184821
0.39130256 -0.11475082 0.012839041 16382711
0.38869444 -0.10535068 0.018913485 16316661
0.39196944 -0.10496438 0.013598613 16382455
0.38900003 -0.098224841 0.019106213 16711675
0.39339516 -0.094954051 0.014592982 16448247
0.39434186 -0.085054383 0.014732929 16053488
0.39338648 -0.074970476 0.014713954 15790319
0.39405891 -0.064900316 0.014729012 16250870
0.39579812 -0.055332702 0.01532256 16316919
0.40007147 -0.052585781 0.01088623 16185845
0.396889 -0.045358226 0.016868362 16053749
0.40063265 -0.044408813 0.011981255 15988210
0.39722458 -0.035396568 0.017874941 15462127
0.40171 -0.034661341 0.012855428 15791091
0.39809531 -0.026183983 0.018975487 15527919
0.40305206 -0.024889862 0.014299031 15396846
0.40481251 -0.015297958 0.015463981 15330798
0.41088891 -0.011836272 0.01109608 15462898
0.40635148 -0.0052520516 0.016889401 14607332
0.41194439 -0.0048465589 0.011873122 14672869
0.40701735 0.0049598259 0.017635964 14080474
0.41257623 0.0051940894 0.012728094 14277854
0.40648651 0.014970939 0.018133331 14080475
0.41341519 0.01509842 0.013297586 14014426
0.40677053 0.025187213 0.01770886 14343647
0.41325936 0.024607861 0.012783593 14343647
0.40705782 0.034768518 0.017972389 14607076
0.41366091 0.035191532 0.012955682 14540770
0.40780431 0.044816423 0.018491652 15001577
0.41354287 0.045107417 0.013371851 14803941
0.40854996 0.053549796 0.018487535 15330542
0.41337839 0.055399261 0.014260595 15330542
0.41459 0.065066069 0.015010171 15791349
0.41643482 0.074312277 0.016165094 15791351
0.42096004 0.077044696 0.012357112 15659765
0.41785002 0.083430298 0.018663626 15988729
0.42330009 0.0852587 0.014378821 15660021
0.43066669 0.088356473 0.010565857 15660021
0.42477781 0.091177449 0.015215646 13552850
0.43099999 0.090442032 0.011076964 15922167
0.39185193 -0.15150474 0.025700295 13223621
0.38801587 -0.14309284 0.025541231 15394279
0.39080957 -0.1476734 0.023745751 14473433
0.38602442 -0.13511612 0.025164969 16052465
0.38552836 -0.12499566 0.025222806 16118770
0.38498291 -0.11491032 0.025230544 16053490
0.3849676 -0.10493749 0.025103102 15987697
0.38598511 -0.09500806 0.025047293 16185333
0.39000002 -0.092542864 0.020068325 16579579
0.38665411 -0.085017517 0.025891239 15987697
0.3907308 -0.084235899 0.020808589 15987697
0.38677424 -0.075122051 0.025966365 15790317
0.39044449 -0.075335115 0.020801475 15790318
0.38699102 -0.065191723 0.025866492 15922159
0.39033338 -0.064408213 0.020656096 15988724
0.3876279 -0.055586964 0.026766771 15987955
0.39128572 -0.054157317 0.021833437 16119798
0.3879393 -0.045282248 0.027678136 15790577
0.39197019 -0.044767398 0.0225065 15790577
0.38831255 -0.035591085 0.028426284 15593198
0.39248234 -0.034657247 0.023290528 15527663
0.3885926 -0.026861122 0.028889954 15461613
0.39386854 -0.02446612 0.024062799 15396334
0.39541265 -0.015052474 0.025359258 15067369
0.40009096 -0.012471677 0.020928087 15198442
0.3957749 -0.0051168823 0.026528245 14409439
0.40084383 -0.00497131 0.021680355 14409439
0.39556324 0.0047994033 0.026400886 13818072
0.40153843 0.0042174836 0.021599101 14080731
0.3961249 0.014747296 0.026715714 14212062
0.40107313 0.015587944 0.021963766 14212318
0.39684615 0.025140842 0.027419074 14606819
0.40163994 0.025048079 0.022543006 14606562
0.39744899 0.034765255 0.027910877 14869734
0.40186566 0.035136495 0.02308787 14935526
0.39822581 0.043765869 0.028760385 14935784
0.40242839 0.045428962 0.024229869 15133162
0.40446505 0.054927863 0.024832774 15659248
0.40647924 0.064631417 0.025366141 15856885
0.41073343 0.066865005 0.020750033 15857655
0.40718484 0.074440189 0.026827652 15725813
0.41184443 0.075509295 0.022024689 15660020
0.40823531 0.082209691 0.028538823 15857657
0.41398609 0.085060164 0.024116911 15791350
0.41700006 0.09186393 0.025982359 15462386
0.42000002 0.092559434 0.021612043 16118012
0.38878569 -0.15157755 0.035606969 13355723
0.39019999 -0.15169191 0.030491933 13026758
0.38636702 -0.14496645 0.035220243 14670813
0.38338512 -0.13487794 0.035022739 15657707
0.38195044 -0.12497826 0.034849655 15657962
0.37900004 -0.11388832 0.039354417 15197411
0.38125899 -0.11500597 0.034524128 15592681
0.37899998 -0.10205837 0.039243512 15658731
0.3810949 -0.10524301 0.034449309 15790317
0.37857509 -0.094507113 0.03873324 15461608
0.3810319 -0.095196284 0.033628263 15658990
0.37849995 -0.085403137 0.038465679 15658734
0.38139135 -0.084811985 0.033527363 15856370
0.37871429 -0.075710677 0.039150063 15658733
0.38163903 -0.074856713 0.034281105 15658733
0.37899998 -0.064646177 0.039908949 15856109
0.38195926 -0.065062582 0.034780875 15790319
0.37899998 -0.05518223 0.039908949 15790316
0.3822903 -0.055071678 0.034830235 15790575
0.37899998 -0.04512677 0.039908949 15527403
0.38294259 -0.044925295 0.034968328 15461611
0.37894452 -0.035214007 0.039607346 15001575
0.38323069 -0.034886766 0.034794882 15264747
0.38422391 -0.024956075 0.034871601 15132904
0.38546157 -0.015337525 0.03522747 15132904
0.39050001 -0.014171278 0.03041075 14869733
0.38622439 -0.0054275747 0.036165796 14343646
0.391206 -0.004990058 0.031199466 14541025
0.38711113 0.0045580082 0.036906559 14080474
0.39128006 0.0049636606 0.031856641 14014938
0.3879275 0.014498866 0.037528478 14146269
0.39158735 0.014970234 0.03241273 14212319
0.38858545 0.023313306 0.038143601 14738919
0.39203489 0.025408676 0.033505522 14672869
0.38900003 0.031543639 0.039140645 14738921
0.39301705 0.035124805 0.034747757 14935784
0.39469039 0.04507944 0.035179354 15264748
0.39665288 0.054678619 0.035941705 15658992
0.40045461 0.056677319 0.031087875 15790579
0.3972657 0.064590402 0.037556089 15921907
0.40182006 0.066106319 0.032297645 15987957
0.39799997 0.074027911 0.038734511 15659506
0.40224177 0.075235024 0.033736572 15594227
0.39900002 0.080925971 0.039212763 16514815
0.40358227 0.084374636 0.035389297 15922680
0.41080004 0.088224635 0.031139934 15922936
0.4067308 0.092897646 0.038066756 15329517
0.41276929 0.091858201 0.031494703 15856887
0.38700002 -0.15026632 0.041657332 13025987
0.38478103 -0.14499095 0.044890452 14144725
0.38192686 -0.13471407 0.044925671 15460584
0.37900001 -0.12072011 0.048603959 14868958
0.38071564 -0.12522355 0.044782594 15132130
0.37850437 -0.11472737 0.045459338 15132129
0.38000008 -0.1185341 0.041656569 15065567
0.37802494 -0.10515266 0.04518747 15329254
0.38000005 -0.10764401 0.040268421 15527143
0.37741572 -0.0951313 0.044940207 15395303
0.37686962 -0.085055336 0.044964854 15527146
0.37655446 -0.074972816 0.045117766 15461097
0.37681323 -0.064995892 0.045177352 15658730
0.38000003 -0.066151127 0.040014252 15527144
0.3768701 -0.054846685 0.045290526 15526888
0.38000003 -0.053696916 0.040014252 15330022
0.37616289 -0.044907723 0.045410309 15264231
0.37614295 -0.035058919 0.045283046 15132903
0.37661508 -0.024970533 0.045409884 14804196
0.38000008 -0.02478534 0.040014256 15067367
0.37737906 -0.015349844 0.046166942 14804197
0.38076308 -0.013972796 0.041453879 15198442
0.37821054 -0.0053282036 0.047699388 14343646
0.38137338 -0.0051253708 0.042761993 14277854
0.37850004 0.003077202 0.048480071 14212062
0.38217583 0.0053776233 0.044252176 14212318
0.38352668 0.015020203 0.045110188 14212575
0.38569924 0.025212701 0.044942886 14673126
0.38762408 0.034849696 0.044865299 14869992
0.39000002 0.038320038 0.040458594 14869992
0.38853037 0.043950811 0.047263637 15001833
0.39106461 0.045799982 0.042594161 15132906
0.38899997 0.054283258 0.048782885 15395564
0.39172262 0.055186395 0.04423717 15527406
0.39275017 0.065036595 0.045061078 15856370
0.39437634 0.075023279 0.045050155 15856371
0.3966974 0.0836391 0.046041552 15922679
0.40087494 0.087086014 0.042738538 15922680
0.39900002 0.090733662 0.04948749 16579839
0.40307236 0.09353482 0.045290731 15264237
0.38700002 -0.15026632 0.059776809 11447725
0.38430288 -0.14467177 0.054844078 14078932
0.38160947 -0.13487378 0.055075962 15394279
0.37900007 -0.12103556 0.053759839 14868446
0.38049996 -0.12571798 0.05545219 15197411
0.37818018 -0.11493624 0.054916326 14868447
0.37666112 -0.10509674 0.054976944 15000546
0.37489289 -0.094965905 0.054930974 14935009
0.37432283 -0.084738776 0.054776747 15197922
0.37391555 -0.075213663 0.054762889 15198179
0.37315559 -0.064983174 0.055036824 15066594
0.37251836 -0.055011462 0.055462118 15132387
0.37211436 -0.044966806 0.05509495 15066596
0.37179407 -0.035026804 0.055327453 14935011
0.37222797 -0.024994319 0.055204894 14672354
0.37338063 -0.015065981 0.054981116 14606563
0.37494698 -0.0051424862 0.054834258 14212318
0.37669474 0.0050242417 0.055024162 14080733
0.37817872 0.014437185 0.056441195 14278112
0.38070452 0.016734915 0.052098308 14409954
0.37899998 0.021120915 0.058836859 14606820
0.38165098 0.025328226 0.05471817 14803941
0.38367936 0.035187054 0.055290189 14803940
0.38580534 0.045286223 0.05516471 14935782
0.3870618 0.054984495 0.054801445 15330026
0.38769686 0.064803489 0.055181161 15592943
0.39000005 0.066204488 0.050197236 15396591
0.38839087 0.074108198 0.05640351 15658992
0.3908096 0.076675057 0.052086059 15659506
0.38873333 0.081422448 0.058648359 15922679
0.39283502 0.085412435 0.054600146 15856886
0.39654544 0.09320122 0.055982042 15921908
0.40021059 0.09544751 0.051856052 15000552
0.38700002 -0.15026632 0.060682781 11776690
0.38363534 -0.1438832 0.064766698 13947601
0.38099164 -0.13479286 0.065014541 15263461
0.37900007 -0.12110303 0.066059344 14999777
0.38027075 -0.1258902 0.064846441 15262949
0.3782075 -0.11498108 0.065058723 14868190
0.37560004 -0.10495951 0.065048277 14605530
0.3738918 -0.095001332 0.064773522 14671580
0.37278816 -0.085042 0.064994588 14803166
0.37176281 -0.074990697 0.064925648 14803422
0.36900005 -0.060636912 0.06937813 15000547
0.37087971 -0.065166064 0.064778812 15000290
0.3690002 -0.054324854 0.06872645 14803168
0.37048522 -0.055345118 0.063981615 15132131
0.36891422 -0.044850528 0.067790508 14803169
0.37013462 -0.045261808 0.06290023 15000547
0.36899996 -0.034754749 0.067683339 14211289
0.3700003 -0.035065655 0.063026942 14408666
0.36900005 -0.026257245 0.067332715 13750739
0.37022883 -0.024035731 0.063375853 14474718
0.36900008 -0.014333109 0.06935598 13948118
0.37064791 -0.015080642 0.064306714 14277596
0.36899999 -0.0082720201 0.069583811 14013911
0.37110844 -0.0050098859 0.064589962 14014681
0.37275711 0.004927828 0.06498649 14015196
0.37591672 0.015087486 0.064894333 14278112
0.37781578 0.024479339 0.065599687 14738405
0.38033339 0.027675807 0.061516482 14476260
0.37851921 0.034085378 0.068264015 14541024
0.38089016 0.035400543 0.063495353 14672612
0.37891665 0.042110071 0.068950847 14737890
0.38166386 0.045047626 0.064378545 15066599
0.38260603 0.054837786 0.064910114 15461357
0.38378915 0.064929664 0.065141864 15527149
0.38445008 0.07494171 0.065260269 15461871
0.38644555 0.084429368 0.065297507 15791093
0.39050004 0.088435546 0.061505027 15725043
0.38869226 0.091049783 0.06801676 15922680
0.39259523 0.094750829 0.064659461 15198187
0.38208473 -0.14318927 0.075226091 13618122
0.37900004 -0.13115105 0.077096134 15395048
0.38049027 -0.13596091 0.074428737 15000289
0.37887231 -0.12475349 0.075181 15131876
0.38000005 -0.12861285 0.070641451 15066597
0.37789318 -0.11492059 0.075134881 14868447
0.37561405 -0.10487065 0.074911565 14474201
0.37370571 -0.095322303 0.074894182 14474200
0.37144595 -0.08503975 0.075124919 14605790
0.3707912 -0.074966282 0.075066417 14737373
0.36879987 -0.063295707 0.075861171 14606044
0.37005883 -0.067045279 0.073127002 14671325
0.36810395 -0.054937322 0.075117089 14803168
0.36808956 -0.045183007 0.075028032 14605791
0.36895141 -0.035119433 0.075245105 9474707
0.37 -0.030954238 0.073500037 13487567
0.36863145 -0.02450729 0.075722501 8684935
0.36999992 -0.025980936 0.072540015 13355981
0.36852258 -0.01497897 0.075036839 13487824
0.36851451 -0.0055417805 0.075596951 13553874
0.37011993 -0.002582957 0.071586959 13883096
0.36899999 0.001271307 0.077968508 13290959
0.37074584 0.0054123728 0.074587449 13685974
0.37214297 0.015009153 0.075009316 14277341
0.37474808 0.024937656 0.075078517 14606818
0.37605059 0.035106253 0.075126737 14672097
0.37714592 0.045036942 0.075091027 14935269
0.38000003 0.049643427 0.07055673 15395564
0.37796637 0.054654267 0.076421984 15395563
0.38041857 0.056023303 0.071745135 15461356
0.37820017 0.064502373 0.077261291 15461357
0.38083866 0.065494865 0.072512686 15527150
0.37854353 0.074350797 0.078389406 15395821
0.38110238 0.075298935 0.073613517 15395821
0.37900004 0.081157885 0.079539262 15198699
0.38246602 0.085007705 0.074880563 15659250
0.38686821 0.093940839 0.075401671 15527408
0.39038464 0.097492285 0.071687393 14277086
0.40900001 0.10928479 0.079452068 4012851
0.40900001 0.11024226 0.079452068 4012851
0.38253126 -0.14296466 0.085052997 13684429
0.37900007 -0.13076934 0.085158482 15460584
0.38043302 -0.1357002 0.08480154 14671582
0.37854543 -0.12483215 0.085055932 15065826
0.37758651 -0.11479241 0.084840193 15000031
0.37592909 -0.10506177 0.08495082 14408153
0.37383628 -0.095240481 0.084918305 14144981
0.37125182 -0.085118406 0.085071422 14211031
0.36888584 -0.071976438 0.086783528 14277081
0.37038064 -0.076278545 0.084361881 14408410
0.36796507 -0.064887196 0.08486338 14474459
0.36716431 -0.05498654 0.084793925 14671582
0.36766207 -0.045004446 0.084828995 13684431
0.36737683 -0.03491395 0.08493226 2831151
0.36719614 -0.025156397 0.085091591 2962225
0.36797225 -0.014955822 0.08483389 12435135
0.36784858 -0.0050472082 0.084803768 13224652
0.36840639 0.0043836427 0.085559502 13554387
0.36999995 0.0077092079 0.081610121 13685716
0.36897072 0.013177852 0.088417701 13554645
0.37041256 0.015390066 0.084165566 13883353
0.37164575 0.024919437 0.084804177 14409439
0.37243304 0.034962609 0.084854729 14474973
0.37335333 0.044974383 0.085147552 14869475
0.37427858 0.054979969 0.084896468 15066599
0.37502989 0.064960308 0.084781453 15329771
0.37593231 0.074890159 0.08486177 15395821
0.37773818 0.083565049 0.085890897 15527665
0.38064995 0.087519571 0.083031818 15461871
0.38355443 0.094779514 0.085075334 14869222
0.38500002 0.10016811 0.088309228 4010039
0.40621433 0.10921901 0.083320566 4144181
0.40540349 0.11235198 0.085256577 4077872
0.38159519 -0.14227703 0.094353855 13684429
0.37867922 -0.13241699 0.095705301 15131875
0.38067132 -0.13752401 0.094419755 14539738
0.37808582 -0.12501577 0.095197849 15197668
0.37718368 -0.11499506 0.094828568 15000287
0.37539503 -0.10521095 0.09497644 14736860
0.37409186 -0.095373042 0.095037207 14408152
0.37129456 -0.08498428 0.095049635 14276566
0.36845875 -0.073302552 0.095251039 14276568
0.37019569 -0.078311205 0.0943707 14342617
0.36728701 -0.06507954 0.094892204 14342618
0.3664932 -0.055083033 0.094884597 14539997
0.36718777 -0.04500939 0.094967186 12105657
0.36466655 -0.034938179 0.095123567 2699311
0.36484253 -0.025026325 0.09506537 2764591
0.36754185 -0.014938341 0.095059365 11514033
0.36698517 -0.0050359075 0.094915494 12895943
0.36743769 0.0048511121 0.095029563 13093836
0.36795107 0.015162114 0.095196128 13422800
0.37 0.019175736 0.090065666 14015453
0.36856177 0.024887849 0.09620513 13883095
0.37005255 0.025471067 0.091104247 14146781
0.36899999 0.03164953 0.097812727 14014167
0.37040856 0.035469819 0.094468139 14079959
0.3709853 0.044949055 0.094998844 14342875
0.37169525 0.054847717 0.09511134 14868962
0.37267667 0.065077677 0.094791777 14737633
0.37337804 0.075177185 0.094729103 15001062
0.37600839 0.084979892 0.095049709 15265263
0.38000003 0.089971364 0.091165498 14738919
0.37885714 0.090714432 0.098175883 14673383
0.38202748 0.095487431 0.094812311 13422546
0.3845714 0.10082813 0.095666401 3880499
0.38104987 -0.14211433 0.10530832 13552843
0.37810117 -0.13438582 0.10535806 14868190
0.38033339 -0.13907124 0.10290818 14539478
0.37681726 -0.12503907 0.10516204 15197411
0.37607569 -0.11521225 0.10518551 15263460
0.37461251 -0.10520071 0.10489154 14736860
0.37296116 -0.094958544 0.10503887 14671066
0.36900002 -0.08021719 0.10407554 14342617
0.37073207 -0.084984563 0.10508505 14408153
0.36867753 -0.074850008 0.10511469 14211031
0.37000003 -0.079073437 0.10330579 14605275
0.36761668 -0.064829908 0.10508711 14276824
0.36675212 -0.054867633 0.10512511 14408667
0.36723727 -0.044932194 0.1049834 11052967
0.36247429 -0.034568589 0.10507026 2501930
0.36279312 -0.025083782 0.10511459 2567467
0.36725795 -0.014790355 0.10478637 10791337
0.36686954 -0.0049759056 0.10512068 12369600
0.36684594 0.0048183687 0.10490873 12632772
0.36759108 0.015181234 0.10497028 13159372
0.36844707 0.025198963 0.1051303 13553873
0.36900002 0.032192905 0.10478612 13816788
0.37003976 0.037221447 0.10509852 13948118
0.37092763 0.045108285 0.10515138 14079703
0.37125596 0.054974303 0.10497938 14342875
0.37198669 0.064997226 0.10491774 14474717
0.37200803 0.075015955 0.10492374 14475232
0.3738673 0.084476456 0.10482034 15001833
0.37813163 0.09158016 0.10539188 15067369
0.3813698 0.096695028 0.104731 11052458
0.38216665 0.10092179 0.10622147 3880239
0.37899998 -0.14065358 0.11374751 13750480
0.38020006 -0.1421082 0.11183278 13157829
0.37735641 -0.13499668 0.11491384 14079189
0.38000003 -0.13954206 0.11029161 13750480
0.37486571 -0.12503234 0.11502569 15263461
0.37389582 -0.11505351 0.11506883 15328995
0.37305093 -0.1049064 0.11493304 14934494
0.37158021 -0.094693527 0.11488466 14474200
0.37047225 -0.084978968 0.11508583 14211030
0.36854628 -0.074063636 0.11441281 14079444
0.36999992 -0.078810491 0.11648405 14342615
0.36805263 -0.064910568 0.1147605 13816529
0.36771908 -0.054974902 0.1153379 13619152
0.36751813 -0.04517632 0.11490043 10329500
0.359 -0.032660309 0.11932421 1581600
0.36133599 -0.034743205 0.1149554 2173479
0.35900003 -0.028037967 0.11932421 1646621
0.36110869 -0.024822446 0.11497327 2173223
0.36713681 -0.014810957 0.11508954 10396065
0.36799189 -0.0051127076 0.11533711 11975354
0.36800003 0.0048820376 0.1151283 12303806
0.36802164 0.015088054 0.11482943 13027016
0.36895901 0.024516171 0.11420864 13553102
0.36999992 0.028025808 0.11797161 13158600
0.36899999 0.031471681 0.11202791 13356238
0.37041906 0.035370342 0.11572888 13487823
0.37099946 0.044848837 0.11506186 14079702
0.37150416 0.054914422 0.11478374 14211288
0.37192518 0.065021403 0.11495221 14408410
0.37109825 0.074832924 0.11509121 14606302
0.37326735 0.084259339 0.11511847 14935267
0.37837508 0.091608308 0.11524544 15264229
0.38100004 0.096490122 0.11505305 12697536
0.382 0.1010183 0.11607989 3616556
0.37592131 -0.13377567 0.12486474 13421515
0.37384146 -0.12505262 0.1250879 14737118
0.37245488 -0.11497403 0.12510028 15000547
0.37176999 -0.10492597 0.12476815 14737374
0.3711831 -0.09489473 0.12500383 14605787
0.37089226 -0.084970899 0.12501451 14211031
0.36899999 -0.072364144 0.12143078 14408665
0.37048107 -0.075548053 0.12560587 13684944
0.3690002 -0.065327398 0.12121584 14013908
0.37060741 -0.065021664 0.12636566 13356237
0.36871445 -0.054950807 0.12178926 13750738
0.3707903 -0.055123154 0.12681371 12763842
0.36801606 -0.044464499 0.1234713 9737364
0.37073338 -0.04668862 0.12692858 10460831
0.35820392 -0.033272106 0.1246836 2107687
0.36172226 -0.03839108 0.12412719 2567723
0.35827762 -0.025531592 0.12504469 2173480
0.36051857 -0.021075679 0.12348491 3160632
0.36692232 -0.015160384 0.12430149 9672343
0.36999995 -0.012006624 0.12835065 10462116
0.36852115 -0.0048831846 0.124042 11580339
0.36999992 -0.0055436129 0.12917684 11514802
0.36878335 0.0046577491 0.12393043 12238013
0.36999992 0.0054653962 0.12901886 12435648
0.3688181 0.014838051 0.1225489 12895942
0.37010542 0.015260307 0.12746947 12698821
0.36899999 0.022003362 0.12120827 13619408
0.3705892 0.025427833 0.12545572 13224908
0.37121454 0.034881771 0.12512444 13422030
0.37178513 0.04490681 0.12492222 13948118
0.37239692 0.055044137 0.12465239 14079445
0.3723973 0.06503059 0.1246869 13685458
0.37131304 0.074988119 0.12493116 13092808
0.37272269 0.084790327 0.12499331 13750993
0.37798515 0.093684576 0.12556812 14408664
0.38048834 0.097710252 0.12387516 12367287
0.38158333 0.10147621 0.12347994 3682093
0.37457585 -0.13279615 0.13521056 13421516
0.3726925 -0.12470938 0.13490468 14605790
0.37159091 -0.11487798 0.13540223 14935012
0.37110832 -0.10477365 0.1350394 14671840
0.37151119 -0.094987668 0.13515547 14606047
0.37250021 -0.085090376 0.13493116 14277081
0.37327453 -0.075076111 0.1349702 13684945
0.37344471 -0.065049447 0.13508527 13355724
0.37296447 -0.054982044 0.13482226 12303291
0.36775008 -0.041672736 0.13367678 8289916
0.37165907 -0.046253014 0.13533778 10724258
0.359 -0.033080518 0.13024974 2108201
0.36538577 -0.035245068 0.13557322 1515293
0.359 -0.025336599 0.13024974 2108203
0.36458468 -0.024506062 0.13558464 1252893
0.36720005 -0.017682157 0.13560621 8817548
0.37095019 -0.012970172 0.13508523 10461859
0.37085694 -0.0051209084 0.13498729 11448753
0.3708497 0.0048959777 0.13498574 12172733
0.37125632 0.015000248 0.13484769 12830407
0.37236515 0.024925804 0.13489509 13093579
0.37277704 0.035028066 0.13525029 13488080
0.37382507 0.04479181 0.13479225 14079959
0.37459859 0.054931376 0.13503589 14343130
0.37463647 0.065020211 0.13504902 13948116
0.37330326 0.074834757 0.13492972 13356490
0.37307012 0.084407941 0.13397971 13422029
0.3781831 0.095070437 0.13308123 11973814
0.37900001 0.10038154 0.13129526 3552300
0.38000003 0.1006464 0.1307521 3222822
0.37424442 -0.13248563 0.14323376 13289674
0.37170687 -0.12515442 0.14408778 14540254
0.37106252 -0.11501322 0.14383799 14803170
0.37118933 -0.10518964 0.14326845 14869220
0.37155128 -0.094594985 0.14311202 14869220
0.37398979 -0.085211597 0.14342248 14737633
0.37550884 -0.074823305 0.14432745 13750738
0.3760294 -0.06518504 0.14450268 13355981
0.37488502 -0.055108931 0.1435923 11711410
0.3637692 -0.041016735 0.14794728 4342847
0.37253442 -0.045237884 0.14272389 10263706
0.36587581 -0.035374414 0.14677514 923154
0.37010002 -0.033496041 0.14257735 922898
0.3654049 -0.024773691 0.14650308 922898
0.37030551 -0.027645431 0.14304477 791569
0.36675003 -0.017835056 0.14100188 10002337
0.37203228 -0.01240711 0.14234044 10133408
0.37232238 -0.00527805 0.14246538 11054766
0.37296373 0.0048116464 0.14324036 11844282
0.3722221 0.014741972 0.14236413 12962250
0.37371215 0.024882887 0.14242792 13093578
0.37308335 0.034675058 0.14232871 13422030
0.37428331 0.044693671 0.14216153 14212060
0.37571937 0.054990046 0.14328821 14211802
0.37515384 0.064670041 0.14227459 14277594
0.37370583 0.074343398 0.14174354 13290701
0.37283334 0.081000991 0.14123316 12896201
0.36136368 -0.041411646 0.15379186 1975324
0.36178279 -0.03556573 0.15160291 1120275
0.36102784 -0.024816003 0.15126953 1251347
0.34433338 -0.040997911 0.16899288 2436134
0.35617644 -0.0411302 0.16687866 857105
0.36100003 -0.04171589 0.16097668 1515545
0.34641013 -0.03519053 0.16849944 2041633
0.35298327 -0.03501112 0.16696808 659984
0.34653568 -0.025520144 0.16844368 2041381
0.35352778 -0.02663298 0.16690187 725777
0.3379375 -0.041028805 0.17862622 2172963
0.34182933 -0.041520402 0.17370297 2238755
0.33840737 -0.036827743 0.17784907 1975583
0.34175321 -0.034831632 0.1734418 2107169
0.33900011 -0.024888752 0.17659794 1910047
0.34248117 -0.025473729 0.1729141 2041378
0.34300002 -0.019963127 0.17101695 1910054
0.33445713 -0.041187286 0.18350373 1976096
0.75100005 -0.11051732 0.29884386 14211288
0.74800003 0.068534471 0.29940116 14014932
0.74900001 0.070379511 0.29980141 14211539
0.75257146 0.074495845 0.29846051 12369336
0.75850004 0.081038907 0.29650134 12303804
0.76166677 0.085837461 0.29892612 11316396
0.76700002 0.090026483 0.29982403 12304063
0.75866669 -0.14243072 0.30840734 14803677
0.76050007 -0.14574188 0.30885595 13882578
0.75581819 -0.13423453 0.30767801 14145748
0.75385004 -0.12505552 0.30615613 13685198
0.75366676 -0.11531959 0.30520055 13816530
0.75561112 -0.10588438 0.30618429 14013909
0.75800008 -0.098534502 0.30813581 14211288
0.74733335 0.067453295 0.30540261 13355979
0.74880004 0.071062088 0.30585575 13619152
0.75229633 0.076564759 0.30463913 14277337
0.75700003 0.082651384 0.30477044 14474205
0.76200002 0.086765788 0.30500141 12500415
0.76860005 0.090574339 0.30404854 10790054
0.77275008 0.093643762 0.30682254 10329499
0.78833342 -0.16338025 0.31862065 8815490
0.76833338 -0.15084042 0.31473625 13224392
0.77342862 -0.15417139 0.31733689 10724003
0.78100002 -0.15881217 0.31900918 8881286
0.75900012 -0.1413931 0.31319597 12895424
0.76200008 -0.1454047 0.31591627 13816270
0.75800008 -0.13487075 0.31494007 13027009
0.75682765 -0.12481621 0.31546187 12895424
0.75703865 -0.11515319 0.31529146 12829890
0.75814283 -0.1052286 0.31512648 13224391
0.75883323 -0.097458273 0.31528479 13290185
0.74790013 0.067649998 0.31512088 13092805
0.74885708 0.07199426 0.31427008 13355980
0.75120008 0.077008009 0.31536442 13948118
0.7562778 0.083461009 0.31481054 14342877
0.76233339 0.087694101 0.31495228 12368829
0.77571434 0.094682582 0.31464663 10329752
0.78400004 0.098579049 0.31590873 10329752
0.78842866 0.10308928 0.31716633 10264216
0.79071426 0.1076199 0.31834844 10001557
0.78790927 -0.16290119 0.32510054 8684673
0.79290909 -0.16764735 0.32530823 8684416
0.77446163 -0.15385962 0.32449877 11579053
0.78200006 -0.15901552 0.32490969 8881281
0.76443756 -0.14359345 0.32455012 13816270
0.77125001 -0.14915687 0.32721493 14013652
0.75900006 -0.13183205 0.32216474 13882576
0.76130009 -0.13555984 0.32575706 13421768
0.75868183 -0.12408092 0.32410255 13290441
0.76025009 -0.12767458 0.32810882 12566462
0.75874996 -0.1153579 0.3248719 13224649
0.76000005 -0.11095217 0.32911283 11777717
0.75899994 -0.1063641 0.32345375 13750992
0.76025009 -0.10401761 0.32773846 13027014
0.75900006 -0.09783531 0.32228318 13619403
0.76072735 -0.097215913 0.32716227 13355977
0.75237501 0.068055101 0.32493535 12237497
0.75444442 0.074818544 0.32455266 12763843
0.76000005 0.07852982 0.32911283 11447727
0.75760001 0.082183376 0.32346359 14276826
0.76260006 0.085228786 0.32577416 13355724
0.77000004 0.088576026 0.32983807 12105655
0.76900005 0.090261236 0.324009 10000281
0.77440006 0.093254574 0.32465225 10066327
0.78527278 0.098524764 0.3250117 10132632
0.78888893 0.10265062 0.32459152 10198937
0.79118747 0.10745325 0.32560137 10067350
0.78833342 -0.16214965 0.33543518 8684159
0.79207146 -0.16702572 0.33558211 8553086
0.77670008 -0.15212059 0.33398324 11381420
0.78344446 -0.15768068 0.33457777 8486525
0.76900005 -0.1419701 0.33301023 12763840
0.77307141 -0.14556757 0.33580944 13487306
0.7651819 -0.13507999 0.33331198 13092802
0.7705 -0.13458076 0.33862039 13882574
0.76335293 -0.12484366 0.33414465 13487817
0.76247066 -0.11461755 0.33365226 13356233
0.76439995 -0.10520963 0.33448213 13290442
0.77050006 -0.10166195 0.33907104 13750990
0.76479995 -0.097865269 0.33370003 12961222
0.77200001 -0.098245919 0.33973113 13750735
0.75700003 0.069359079 0.33135799 10329501
0.75866669 0.073063888 0.33090377 12764096
0.76362503 0.075555854 0.33448353 11777201
0.77100003 0.07786151 0.33929107 9212043
0.7665 0.081892461 0.33282536 12368571
0.77400005 0.085416958 0.33699149 11777459
0.77700001 0.092411317 0.33344761 9672337
0.7856667 0.097618975 0.33556491 9869972
0.78880006 0.10181824 0.33419856 10132888
0.7915715 0.10694406 0.33510706 10067351
0.78850007 -0.16033725 0.34237808 8553343
0.79172742 -0.16512476 0.34537977 8882050
0.78641176 -0.15493573 0.34509966 9211020
0.79000002 -0.15879287 0.3495017 9211014
0.77685726 -0.14446473 0.34212777 13947859
0.78271437 -0.14529224 0.34758776 10131611
0.77525014 -0.13556264 0.34328154 13421767
0.78200006 -0.13155538 0.34962383 9539981
0.77430004 -0.12482276 0.34346381 13948111
0.78166676 -0.12509623 0.34947479 11579564
0.77370006 -0.11530508 0.34319809 13948112
0.78160012 -0.11501901 0.34944496 12500666
0.77500004 -0.10546827 0.34369266 13882319
0.78000003 -0.10017701 0.34690365 13882319
0.77500004 -0.098627709 0.34286562 14145236
0.78100002 -0.09847711 0.34734839 13947859
0.77500004 0.07780955 0.34286913 9475215
0.78300005 0.079073362 0.3482379 9672592
0.77724999 0.08304245 0.34204149 9475215
0.78462499 0.085897379 0.34643728 9738387
0.7876429 0.094031632 0.34437752 9935765
0.79057139 0.096494995 0.34869739 9935509
0.7912426 0.10483062 0.34527993 10067094
0.78842866 -0.15346856 0.3514435 9277066
0.79115391 -0.15603386 0.35571238 9540492
0.78760004 -0.14540677 0.35305059 9408139
0.79049999 -0.14501581 0.35712519 9540237
0.78630006 -0.13577458 0.35265312 9079431
0.79000002 -0.1347506 0.35689932 9605775
0.78700006 -0.125027 0.35370165 8882051
0.79000002 -0.12550358 0.35689932 9342349
0.78716677 -0.11491726 0.35377654 8882051
0.79000002 -0.11533186 0.35689929 9342349
0.78609091 -0.10513758 0.35229155 11316135
0.79000002 -0.10516014 0.35689932 9276556
0.78800005 -0.097974449 0.35369107 10000019
0.79050004 -0.098749101 0.35712522 9473935
0.78800005 0.078655943 0.35230637 9475215
0.79090917 0.077348039 0.35747942 9540751
0.78840005 0.084048368 0.35137835 9738386
0.7912941 0.085685708 0.35628706 9803923
0.79154176 0.094914086 0.35558924 9935509
0.79121888 0.10514136 0.35524964 10132630
0.79206663 0.077887841 0.36450884 9541007
0.79218513 0.085771136 0.36489069 9804179
0.79150003 0.094611369 0.36477342 9935765
0.79123342 0.10491128 0.36486652 10001558
0.79150003 0.079004712 0.37054741 9540238
0.78900003 0.08601208 0.37702912 9804180
0.79033339 0.085878462 0.37256995 9804179
0.79110348 0.094581924 0.37483084 9935765
0.79289669 0.10497276 0.37478724 10067350
0.78800005 0.079578303 0.38735607 9410190
0.78859991 0.085547812 0.38565722 9672850
0.78900003 0.090761669 0.38230646 9804180
0.79100007 0.094994128 0.38497886 9870229
0.78888893 0.085003763 0.39251274 9738385
0.79049999 0.087418243 0.39746872 9804178
0.79172003 0.09478423 0.39474609 9869972
0.79100001 0.088610932 0.40470156 9804179
0.79209995 0.094828635 0.40513179 9869971
0.78866673 0.088261746 0.41229996 9738387
0.78890002 0.092227817 0.41494656 9804180
0.79049999 0.096140213 0.41402996 9804180
0.7906 0.097979076 0.42305928 9869972
0.79266691 0.14484052 0.42474362 10001813
0.791875 0.097349346 0.43606928 9804178
0.79224992 0.10504736 0.43488365 9869971
0.79219991 0.11523835 0.43485457 9935765
0.79148477 0.12490382 0.43471342 10001559
0.79080659 0.13468167 0.43411902 10067095
0.78899974 0.14610763 0.43567339 10066838
0.79000002 0.14266002 0.4319323 10001301
0.79028583 0.11443122 0.44345275 9935766
0.78899986 0.12456292 0.44464484 9935766
0.79000002 0.12583044 0.44104725 10001559
0.78900003 0.13139705 0.4451066 10198938
0.79000014 0.13541655 0.44374421 9935765
