# .PCD v0.7 - Point Cloud Data file format
VERSION 0.7
FIELDS x y z rgb
SIZE 4 4 4 4
TYPE F F F U
COUNT 1 1 1 1
WIDTH 899
HEIGHT 1
VIEWPOINT 0 0 0 1 0 0 0
POINTS 899
DATA ascii
0.46540004 0.074236013 -0.040332876 13487565
0.46509096 0.047264278 -0.031298913 13553872
0.46284208 0.055635259 -0.032014176 14737633
0.46349198 0.065556049 -0.033590317 15330025
0.45892316 0.077088006 -0.030681035 16251125
0.46301392 0.074726351 -0.03524087 15922162
0.45878577 0.083156094 -0.030784203 16579836
0.46276924 0.085252292 -0.035528123 16514557
0.46355009 0.091466948 -0.033612195 16119288
0.44900003 -0.1312442 -0.021042615 14605533
0.44900003 -0.12651418 -0.021042615 15658735
0.45000002 -0.12152865 -0.021089479 16447993
0.45050001 -0.11849891 -0.020585891 16119284
0.46450001 0.018636309 -0.020954356 13685459
0.45900005 0.028892284 -0.022585794 14080217
0.46233335 0.024569251 -0.021821434 14146010
0.45900008 0.033901483 -0.021132022 14079960
0.46151218 0.035544604 -0.024188757 14474461
0.458 0.045644723 -0.021279462 14409439
0.46303403 0.044847757 -0.026041595 14541025
0.45664915 0.055526149 -0.023002639 15132391
0.46106458 0.053764477 -0.027806666 14737634
0.45531651 0.065271556 -0.024133431 15658989
0.46022218 0.063115954 -0.028870966 15067367
0.45450607 0.075099498 -0.024482777 16185076
0.45478383 0.084889717 -0.024795376 16448250
0.45682767 0.092412084 -0.024037618 15790322
0.46057144 0.092875905 -0.028516669 15921396
0.44726089 -0.1328789 -0.017549636 14407896
0.43534493 -0.1235244 -0.012079531 16317174
0.44486883 -0.12463447 -0.017137686 15658479
0.43664005 -0.11540017 -0.010980267 16185844
0.44545463 -0.11495857 -0.015255887 15987698
0.45014289 -0.11471658 -0.018386615 15921649
0.43818185 -0.10541818 -0.010371127 16449017
0.44513115 -0.10504835 -0.014502133 15856112
0.43900001 -0.099031508 -0.010296891 16646139
0.44586253 -0.094778687 -0.014124826 15922162
0.44712237 -0.085942037 -0.013015609 15922418
0.45164284 -0.082997896 -0.015994998 15988212
0.44814283 -0.075536437 -0.010811491 15593708
0.45430645 -0.074947149 -0.015141828 15988212
0.44900003 -0.067126051 -0.010531444 15725554
0.45289195 -0.06465809 -0.014724197 16053748
0.45367923 -0.055681594 -0.013470209 16251127
0.45606676 -0.045038603 -0.011909842 16119798
0.46160001 -0.041776236 -0.014717753 15461868
0.45875004 -0.037975468 -0.011028766 15527919
0.46270004 -0.034908663 -0.012699614 15593711
0.45890915 -0.023583954 -0.011056919 14804967
0.46075001 -0.026550064 -0.011616452 15462639
0.45900002 -0.01758102 -0.010765998 14606817
0.4631924 -0.014191489 -0.012705631 14607073
0.45880002 -0.0030744995 -0.010761308 14079704
0.46555004 -0.0057326457 -0.013953936 14278366
0.45736364 0.0068643163 -0.011947501 13685459
0.46328947 0.0049103433 -0.015522336 14080474
0.4555518 0.015091288 -0.013619136 13685717
0.46107146 0.016495507 -0.018449144 13817303
0.44900003 0.027474483 -0.010531444 14014681
0.45498496 0.025276115 -0.014414649 13948888
0.46107143 0.02281425 -0.018602649 13685204
0.44780776 0.035905633 -0.011432501 14277595
0.45504931 0.034703322 -0.016360201 14474718
0.44656819 0.04514407 -0.012499869 14737890
0.45300013 0.044709783 -0.017277637 14737889
0.44577414 0.055131704 -0.013208173 15198441
0.45200005 0.054263119 -0.01808917 15527404
0.44571111 0.065147161 -0.014327809 15592940
0.45033336 0.062871501 -0.018996624 15856110
0.43900007 0.077073395 -0.010443704 15658990
0.44477797 0.074799582 -0.014909335 15527148
0.4390001 0.083797537 -0.010707973 15988471
0.44453973 0.084939107 -0.015660591 15922421
0.44395751 0.093323544 -0.013766352 15461613
0.45040002 0.092934012 -0.018999437 15724272
0.40350005 -0.13164052 -0.00049051899 14079445
0.40562505 -0.12574705 -0.001030951 15066599
0.41586119 -0.12504128 -0.0042951661 15395564
0.42247069 -0.12406443 -0.0075278897 15132649
0.40706667 -0.11599231 -0.00027339451 15461351
0.41415995 -0.11563668 -0.0025478418 15198181
0.42456764 -0.11506978 -0.0053431517 15263976
0.43121427 -0.11378385 -0.0080251666 15263976
0.40833333 -0.10740668 -1.8436851e-05 14935264
0.41534781 -0.10478775 -0.00099383842 15330025
0.42430305 -0.10421835 -0.0039995979 15395819
0.43254063 -0.10516406 -0.0077418541 15461611
0.41785723 -0.094981655 -0.00053233013 15329769
0.42388245 -0.095559038 -0.0032350088 15395562
0.43518922 -0.095367566 -0.0074321972 15659245
0.44033337 -0.092287391 -0.0091256602 16514296
0.41742858 -0.086833604 -1.8847513e-05 14935011
0.42387101 -0.085065417 -0.0015925291 15132390
0.43483335 -0.084732361 -0.0055300007 15527146
0.44179997 -0.085179269 -0.0088124592 16185330
0.42573082 -0.075678498 -0.00082750374 14935011
0.43404174 -0.07483431 -0.004432173 15395816
0.44307408 -0.074687041 -0.0083594928 16054001
0.42714289 -0.06814412 -0.0004493646 14935009
0.43499994 -0.06477505 -0.0028717807 15462124
0.44451168 -0.064779311 -0.0076510254 15725297
0.43513519 -0.05547031 -0.0015961645 15264746
0.44497952 -0.05508377 -0.0060893958 15593711
0.45049998 -0.053901155 -0.0092484392 16054262
0.43590909 -0.045820966 -0.00085776631 15396333
0.44552511 -0.043950573 -0.0042549591 15725295
0.45270005 -0.044889707 -0.0085008563 15724783
0.43860006 -0.0352787 -1.9803436e-05 15133418
0.44446149 -0.035214629 -0.0035125958 15527661
0.45470002 -0.034910392 -0.0081166308 15133161
0.43887502 -0.02605588 -1.9815852e-05 14475230
0.44354761 -0.024918428 -0.0025742445 14737889
0.45481828 -0.024440387 -0.0078027183 14738403
0.43900001 -0.011676429 -1.9821495e-05 14935781
0.44466665 -0.015035614 -0.0024151341 14869989
0.45488635 -0.015048787 -0.0075326008 14606560
0.43900001 -0.0075656017 -1.9821495e-05 15133930
0.44466081 -0.0046140426 -0.0032294453 14606304
0.45388463 -0.0056606838 -0.0080759358 14606047
0.43880004 0.0069210217 -0.00032812456 13817302
0.44489244 0.004293906 -0.0039112931 14080216
0.45240021 0.005438833 -0.0087074758 14145496
0.43773076 0.015470775 -0.00088873197 13619923
0.44493434 0.01527178 -0.0054278029 13751252
0.4510909 0.013295189 -0.0091409739 14080217
0.43708336 0.025551181 -0.00138793 14211546
0.44423336 0.024752401 -0.006618334 14014424
0.43587708 0.035474665 -0.0024991054 14474460
0.44279072 0.034275908 -0.0075465851 14408667
0.43491879 0.045142181 -0.0033094652 14671840
0.44157696 0.044632372 -0.0084511135 14737890
0.42835709 0.056006312 -0.00037801839 14474719
0.43456757 0.054908648 -0.0046403166 14803682
0.44061539 0.054491799 -0.009065588 15067112
0.42711106 0.065497316 -0.0007987569 15132391
0.43395093 0.064569101 -0.0052117403 15066597
0.44000003 0.065035552 -0.0092902975 15527149
0.42718747 0.07455004 -0.001303263 15724784
0.43389231 0.075267598 -0.0063612256 15592942
0.42822224 0.082343556 -0.00035384035 15922678
0.43372616 0.085261747 -0.0050268252 15922678
0.43568051 0.094215125 -0.0040407609 15725300
0.44000003 0.094391912 -0.0092902975 15462897
0.40233338 -0.14169675 0.0083777001 14276823
0.38900003 -0.13100846 0.0099996524 15262951
0.39388892 -0.13193807 0.0071465108 14868193
0.40208337 -0.13577072 0.0049221735 14210516
0.38757578 -0.12450834 0.0087782014 15395305
0.39386275 -0.12500913 0.00521609 15000548
0.40085715 -0.12579854 0.0015450319 15000549
0.38700008 -0.11516846 0.0086500887 15527145
0.39475864 -0.11520836 0.0046411254 15263719
0.40171996 -0.11399477 0.0015976324 14935264
0.3870346 -0.1053487 0.0092281727 15658732
0.39385721 -0.10540111 0.0067721722 15330023
0.40387937 -0.10489092 0.0030229087 15066852
0.41150007 -0.10117505 0.0012654685 15132390
0.38868749 -0.0962108 0.0096501233 15461612
0.39397064 -0.0947285 0.0078989826 15198697
0.40534475 -0.09491913 0.0047515626 15132647
0.4135333 -0.094991907 0.0018822349 15132390
0.3969501 -0.085912734 0.0088558216 15527918
0.40449068 -0.084997967 0.0062078726 15330282
0.41407499 -0.084728353 0.0022539056 15001061
0.40477425 -0.075042412 0.0072155064 15658989
0.41403565 -0.07481157 0.0030558149 15395559
0.42062503 -0.074205704 0.0009656988 15000804
0.40616331 -0.065354876 0.0077190595 15461868
0.41380492 -0.065026939 0.0039912518 15396075
0.42338461 -0.064270392 0.0015034458 15329769
0.40761536 -0.057191569 0.0090825725 15593711
0.41444907 -0.054790515 0.0070034796 15396332
0.42414647 -0.054738585 0.0029751258 15527661
0.43000001 -0.052709196 0.00098722253 15330539
0.41645953 -0.045787718 0.0083305305 15593197
0.42363259 -0.044876166 0.0046667773 15593711
0.43113333 -0.043725722 0.0013927917 15396332
0.41782349 -0.03559548 0.0094162617 15396334
0.42418617 -0.03535891 0.0066238944 15264746
0.43345243 -0.034381587 0.0026804025 15198954
0.41900003 -0.028800432 0.0097899474 15659505
0.42451167 -0.025263462 0.0080620833 15067368
0.43405455 -0.024652954 0.0032960074 14804196
0.42527282 -0.015269338 0.0082105929 15067368
0.43385455 -0.01479699 0.0033127004 14935783
0.425675 -0.0053406833 0.0084464271 14606818
0.43407133 -0.005119246 0.0035976083 14409439
0.42595357 0.0048656324 0.0082773902 13948630
0.43400002 0.0045223096 0.0033925008 13817044
0.42458627 0.015044729 0.0077174474 13751252
0.43255562 0.01454112 0.0027876624 13685716
0.41883337 0.027098345 0.0097860536 14344159
0.42415252 0.025025507 0.0069551384 13949145
0.43200007 0.024629701 0.0023820631 14146010
0.41774994 0.035584621 0.0093933456 14079960
0.42399999 0.035166603 0.0056192875 14211803
0.43071419 0.034034669 0.0016602888 14342874
0.41706252 0.044893462 0.0087970756 14408669
0.42399997 0.045147561 0.0043024109 14343389
0.43000004 0.043928027 0.00098722253 14474460
0.41675615 0.055340257 0.0082350411 14935013
0.42335927 0.054844972 0.0034864491 14671841
0.41650966 0.06508071 0.007814561 15461612
0.42276466 0.065066323 0.0029828318 15395305
0.4169535 0.074795343 0.0081040151 15988471
0.42275435 0.075334951 0.0033076217 15725299
0.4178001 0.083421037 0.0088807493 16054522
0.42378879 0.085400894 0.0045091202 15923192
0.43000001 0.089730039 0.00098722253 15989241
0.42495915 0.093550391 0.006893409 15923194
0.43133333 0.095958866 0.0022972655 15659765
0.43333337 0.10057003 0.0030221969 8421508
0.3845 -0.14104195 0.01805491 15263720
0.39518183 -0.14124075 0.011745133 14803170
0.37792307 -0.1321107 0.018152298 14276057
0.38391486 -0.13604484 0.015901685 14737119
0.39449999 -0.1386728 0.011885094 14408155
0.37653747 -0.12498023 0.017184839 15987186
0.38262266 -0.12492074 0.012517987 15526892
0.37648576 -0.11494345 0.017061664 15921649
0.38211766 -0.11534033 0.012414061 15921647
0.37684065 -0.1055569 0.017212195 15987697
0.38247696 -0.10441188 0.012801533 15724525
0.37820596 -0.095887959 0.018523099 16316917
0.38378122 -0.094710499 0.013979007 15790575
0.39000002 -0.090716869 0.010025358 15658734
0.37900001 -0.089045435 0.019502295 16514294
0.38424093 -0.085196152 0.016034355 15922161
0.39297301 -0.084151693 0.011192949 15790833
0.3856819 -0.075493813 0.017676819 15790833
0.39492059 -0.075047992 0.012885747 15856112
0.40022224 -0.072012991 0.010600267 15790319
0.38795236 -0.066905938 0.01922643 15462380
0.39436471 -0.064907491 0.015587507 15724783
0.40107152 -0.064585686 0.011113098 15593453
0.39551434 -0.055605207 0.01686292 15856626
0.40283626 -0.054251358 0.012335962 15593711
0.39712906 -0.045721561 0.018603582 15921904
0.40385509 -0.045027345 0.014740051 15527662
0.41219053 -0.043972045 0.011237895 15395819
0.39800003 -0.035276636 0.019548256 15461868
0.40365669 -0.035098594 0.016301921 15198697
0.41348642 -0.034791715 0.011932167 15133160
0.39833334 -0.027378323 0.01956463 15001574
0.40393344 -0.025066905 0.017133623 14935524
0.41422001 -0.024842195 0.012541374 14803682
0.42000002 -0.020511733 0.010796539 14606816
0.4057588 -0.015260277 0.017875053 15001575
0.41427666 -0.014823467 0.013488717 14869733
0.42070001 -0.015126696 0.010814534 14606817
0.4069334 -0.0056139817 0.018968141 14475489
0.41457629 -0.0052611623 0.015005144 14935270
0.42090005 -0.0042479215 0.011459359 14737634
0.40710726 0.0055778301 0.019176457 13554130
0.41457579 0.0049872543 0.01545463 13751509
0.42092606 0.0043320572 0.011622096 13882838
0.40600011 0.015220637 0.018167309 13619410
0.41404262 0.015666321 0.013560455 13751252
0.42020005 0.012923218 0.01080168 13751766
0.40542623 0.025147632 0.017585723 13948632
0.41413203 0.024681041 0.012759198 14014681
0.40463245 0.035221174 0.017327713 14212060
0.41314289 0.034752179 0.012312113 14080474
0.40494129 0.044973947 0.016507378 14606561
0.41216666 0.045000058 0.011557961 14606305
0.40513161 0.054939277 0.016929725 15330283
0.41202566 0.055185691 0.011924131 15198185
0.40610379 0.064839482 0.016800417 15790834
0.41174996 0.06524983 0.011786842 15659248
0.40709847 0.074362248 0.017380795 16250873
0.41191673 0.075490847 0.012533505 16120057
0.40880004 0.081287086 0.018738717 16250873
0.41361797 0.085216463 0.014755751 16119544
0.41633335 0.094396591 0.016381027 15856628
0.42086372 0.096064329 0.012250484 15528436
0.37796783 -0.14196347 0.027609741 15460585
0.38107696 -0.14158343 0.02242019 15591915
0.37522733 -0.13468505 0.025700994 15131363
0.38088894 -0.13887794 0.021481412 15658222
0.36880001 -0.12340061 0.028934715 16118770
0.37178457 -0.12517959 0.024134111 15921649
0.36858708 -0.11488525 0.028081834 16382457
0.37192154 -0.1151673 0.023033883 16053492
0.36859104 -0.10479908 0.028084723 16184821
0.37196836 -0.10495718 0.023193393 15856113
0.3688235 -0.097141564 0.028780755 16119285
0.37301537 -0.094628341 0.024238611 16119284
0.37453038 -0.085138105 0.025263462 16119284
0.3804445 -0.08240702 0.020664934 16119536
0.37577885 -0.07537622 0.026498012 15987698
0.3811281 -0.074204296 0.021714885 15856367
0.37709692 -0.065527402 0.028056849 15987953
0.38314471 -0.064634368 0.023196129 15856366
0.37835297 -0.056456406 0.029054781 16053745
0.38366377 -0.055026665 0.024279501 15856624
0.39075002 -0.05224083 0.020335168 15988469
0.38498971 -0.045495689 0.026415542 15856113
0.39255822 -0.04419424 0.021649269 15922162
0.38648391 -0.035435781 0.027688678 15395562
0.39342022 -0.03476448 0.022810463 15395819
0.38725004 -0.02575122 0.028473668 14803939
0.3942298 -0.024691563 0.023646412 14738402
0.40000001 -0.020939592 0.020582898 14672609
0.38815162 -0.015319882 0.029058633 14803682
0.39448619 -0.015031318 0.025033234 14803939
0.40076917 -0.01437378 0.021307137 14672867
0.38854548 -0.0078121084 0.029502271 14738403
0.39409462 -0.0051461845 0.026275627 14343389
0.40200001 -0.0047129374 0.02184489 14344159
0.39408976 0.0048696264 0.026616832 13685716
0.40235719 0.0046366788 0.022045311 13685460
0.38900003 0.017883796 0.029123429 13883867
0.39421955 0.014895071 0.025807913 13751767
0.40099999 0.014641593 0.021319102 13487824
0.38864705 0.024531003 0.029417589 14541025
0.3941412 0.025140014 0.025160424 14409438
0.40037504 0.024263682 0.020953346 14146267
0.3942869 0.035025321 0.025400806 14803682
0.40000007 0.034776632 0.020582898 14672096
0.39513206 0.044990253 0.025404254 15132905
0.40000007 0.045077112 0.020582898 14870247
0.39621738 0.054805569 0.026004912 15725042
0.40021738 0.055612274 0.021286208 15593712
0.39737296 0.064444691 0.027475849 16185335
0.40090916 0.065539002 0.022623327 16053749
0.39844453 0.072626501 0.028948721 16382457
0.40239376 0.07554435 0.024733534 16185592
0.40533349 0.084816314 0.025046853 16120057
0.41057149 0.088011138 0.020439953 15988214
0.40690577 0.094096273 0.026935358 15923193
0.4121277 0.095733412 0.022250395 15856630
0.40700001 0.10017523 0.028565452 15396084
0.37435287 -0.1423482 0.035097178 15197413
0.3682223 -0.13199347 0.037112005 15197414
0.37197447 -0.1363309 0.03464077 15197412
0.36612147 -0.12474068 0.034705289 15921137
0.37 -0.12980665 0.030299475 16776703
0.36607805 -0.11496675 0.034684993 16250871
0.36637184 -0.10501849 0.034723006 16053234
0.36692336 -0.09504471 0.034747396 16119284
0.36715612 -0.085302517 0.035412721 15921906
0.37022215 -0.083418645 0.030799014 15921906
0.36759344 -0.075512715 0.036680039 15922162
0.37111124 -0.074303009 0.032061338 16053492
0.3681801 -0.065936595 0.038061198 16119282
0.37223414 -0.064471208 0.033561461 16185078
0.36900002 -0.058448531 0.039547011 15987955
0.3736783 -0.05480101 0.035004251 15987955
0.37479544 -0.045259811 0.035711344 15790577
0.38095003 -0.042815205 0.03097273 16119285
0.37625307 -0.035203833 0.03672431 15395818
0.38173068 -0.034588784 0.032029815 15330282
0.37669995 -0.025098586 0.037146404 14935782
0.38222405 -0.024745068 0.032328356 14935783
0.37763274 -0.0152467 0.03819257 14803684
0.38296384 -0.014910303 0.033414558 14803940
0.37797734 -0.0051866765 0.03847219 14409182
0.38395736 -0.0051219496 0.033415761 14343646
0.37840003 0.0040213806 0.039047796 14212317
0.38431922 0.0050285086 0.03405242 14080731
0.37899998 0.013431451 0.039908949 14409439
0.38414699 0.015033347 0.03455757 14212061
0.3844001 0.025114246 0.034867875 14738405
0.38615915 0.035020854 0.035344567 15067626
0.39033329 0.036313113 0.030502224 14935527
0.38716006 0.044818144 0.036000837 15396335
0.39057136 0.045648027 0.030970754 15330542
0.38838238 0.054439358 0.037364688 15922421
0.39151663 0.055549245 0.032424618 15725299
0.38892856 0.061714314 0.038482822 16119542
0.39242557 0.065319158 0.034454208 16251129
0.3952727 0.07495901 0.035193317 16251384
0.40000001 0.079724178 0.030883376 16250871
0.39726314 0.084441386 0.036784865 16119544
0.40055802 0.085921258 0.031818829 16185594
0.39811772 0.092014596 0.03857632 16185594
0.40198901 0.095201358 0.034127731 15988216
0.403 0.1012661 0.036835201 14671073
0.37283826 -0.14323048 0.044659313 14868705
0.36740509 -0.13361508 0.045632407 14999777
0.37058064 -0.13818265 0.043722924 15789291
0.36403042 -0.12476867 0.044726342 15789808
0.36374786 -0.11509564 0.044794749 15790064
0.36400649 -0.10512212 0.044721186 15658733
0.36394927 -0.095050767 0.044603154 15658476
0.36373138 -0.085151151 0.04503762 15658732
0.36425689 -0.075133048 0.044744648 15856368
0.365421 -0.065069132 0.04487095 16053746
0.36662072 -0.05518369 0.04523652 15856368
0.37 -0.05141766 0.040693596 15987699
0.36733919 -0.045307525 0.046122324 15724527
0.37051716 -0.043965958 0.041497353 15725040
0.36783555 -0.035064664 0.047428474 15396076
0.37142119 -0.034829307 0.042321473 15330282
0.36818874 -0.025282418 0.04836401 15263976
0.37183881 -0.024831772 0.043144271 15001318
0.36864284 -0.016184105 0.049142819 15001319
0.37234411 -0.014887774 0.044212107 14869989
0.36900002 -0.0093826661 0.04922197 14476002
0.37320608 -0.0050874287 0.044926431 14344159
0.37431931 0.0049447557 0.045096457 14278111
0.37602267 0.015070847 0.045267653 14672612
0.38000003 0.01835962 0.040014252 14541025
0.37739173 0.024324365 0.046053465 15067370
0.38059455 0.026300166 0.041424524 14936555
0.37841868 0.033396501 0.047922716 15198955
0.38140446 0.035569262 0.043507971 15198699
0.38270745 0.044863287 0.045141332 15461870
0.38531944 0.055076975 0.045146659 15856885
0.38768241 0.064525247 0.045364011 16185337
0.39019999 0.068332277 0.041392338 16251130
0.38894442 0.071855433 0.048240058 16251129
0.39155987 0.075597309 0.044416949 16250873
0.39335465 0.084974036 0.045096777 16119799
0.39549097 0.094722278 0.045313671 16119800
0.40000001 0.098764457 0.040871717 16119033
0.39706895 0.10218675 0.046872903 16251901
0.4014211 0.10370627 0.042964317 13289165
0.40742856 0.11131895 0.047396917 5063751
0.41130003 0.11500605 0.048702694 4998463
0.37280285 -0.14362805 0.055265073 14474204
0.36702436 -0.13392462 0.055053763 14802398
0.37030429 -0.13895963 0.055615544 15131877
0.36361128 -0.12475645 0.054993633 15592429
0.3637442 -0.11502385 0.054800704 15790063
0.36390233 -0.10509334 0.054931246 15132390
0.36283329 -0.095016807 0.054769102 15132389
0.36177126 -0.084890328 0.055103369 15263718
0.36195216 -0.074947789 0.054745466 15395817
0.36269173 -0.064858794 0.054852564 15593196
0.36261261 -0.054926399 0.055139109 15593196
0.36353612 -0.045059651 0.0549061 15527405
0.36452475 -0.035247218 0.055076152 15132904
0.36568081 -0.025132956 0.055192113 14935783
0.36668959 -0.014808644 0.055192832 14672612
0.36757028 -0.0053985999 0.05532635 14015195
0.37019995 -0.0029992578 0.050768398 14344416
0.3683289 0.0042406409 0.057050139 14080475
0.37060308 0.005594172 0.052470699 14146782
0.36899999 0.011061444 0.059012104 14343648
0.3712776 0.015078461 0.054969102 14541284
0.37366921 0.024928449 0.054920647 15067370
0.3767195 0.035184119 0.055096108 15264748
0.37853628 0.043712638 0.056194924 15396078
0.38053051 0.04690202 0.053194169 15659249
0.38232791 0.05493382 0.054923687 15791092
0.38524988 0.064885251 0.055171411 16120056
0.38810101 0.074513689 0.055224519 16185592
0.39007694 0.078800216 0.051752206 16053494
0.38899997 0.081824854 0.05832947 16053492
0.39078408 0.085394934 0.054490957 15987700
0.39220861 0.094941914 0.054948464 15856886
0.39574355 0.10377655 0.055231497 14277600
0.40016672 0.10895457 0.054316565 7761525
0.40400001 0.1107861 0.052944951 4932939
0.41353336 0.11695325 0.052000154 4997950
0.37239745 -0.14369658 0.064658754 14211032
0.36697561 -0.13476716 0.064648584 14539741
0.37014288 -0.13914089 0.066458158 14868961
0.36380246 -0.12459152 0.065071903 15461100
0.36399963 -0.11491972 0.065171517 15724015
0.3638815 -0.10508724 0.06515149 15066084
0.36304531 -0.095073335 0.065003455 14868962
0.36191952 -0.085172459 0.065032057 14869218
0.36145249 -0.074619263 0.064778291 14869217
0.36109453 -0.065073758 0.06483338 15132647
0.36104727 -0.055254284 0.065152466 15000804
0.36248595 -0.045277424 0.064901784 14803683
0.36369088 -0.035312951 0.064843357 14080217
0.36439183 -0.025000066 0.064785704 13883096
0.36495489 -0.014831949 0.064915776 14014426
0.36614868 -0.0049276273 0.064844631 13619924
0.36752102 0.004854681 0.064941332 13817560
0.36880365 0.012315457 0.066154107 14014425
0.3703427 0.016629457 0.064482756 14475489
0.37192741 0.025012227 0.064953372 14607332
0.37494224 0.035236839 0.064934619 14870247
0.37773243 0.045190625 0.065012194 15132906
0.38000003 0.049939957 0.060474746 15067369
0.37861225 0.052706972 0.066728078 15462127
0.38058904 0.05660978 0.064082384 15922421
0.38260326 0.064944223 0.064917468 15988471
0.38556659 0.07485994 0.065116271 16054264
0.38810587 0.084816009 0.064891107 15856627
0.39000002 0.089143537 0.06024019 15725297
0.38876393 0.093374364 0.066646002 15725300
0.39048073 0.096550271 0.063019864 15791351
0.39204258 0.10235506 0.064061135 13421781
0.37402636 -0.14388517 0.074885421 13947859
0.36763799 -0.13258681 0.074963875 14474205
0.37071747 -0.13770013 0.075091235 14013653
0.36477426 -0.12467637 0.075016044 15066599
0.36488497 -0.11484418 0.075214453 15263721
0.36438209 -0.10488932 0.074989043 14868963
0.36369333 -0.09516076 0.075031482 14671839
0.36247194 -0.085165143 0.075082272 14802912
0.36158437 -0.074821092 0.074941278 14671839
0.3619718 -0.064740114 0.075009994 14671840
0.36245641 -0.054823335 0.074939452 14737634
0.36463568 -0.044937994 0.075009473 14145755
0.36739066 -0.034816887 0.074951917 8883085
0.36750019 -0.024955494 0.074752502 8817036
0.3667053 -0.014799279 0.074932367 12830408
0.36627296 -0.00502516 0.075012803 13290958
0.36755237 0.0047907154 0.074920014 13488338
0.36868748 0.01320794 0.074890576 13751767
0.36999992 0.017974893 0.075320996 14277854
0.37143558 0.024807822 0.075061783 14475232
0.37431839 0.035176367 0.074905701 14541538
0.37727246 0.04517078 0.075054891 15067368
0.37851101 0.053812802 0.075439185 15264233
0.38018924 0.058577042 0.074167401 15658992
0.38146099 0.065083288 0.075111434 15593456
0.38418517 0.074989222 0.074991494 15790835
0.385876 0.085041441 0.074955635 15659250
0.38772282 0.094600178 0.07499136 15462129
0.39000005 0.099541552 0.075152479 14935787
0.39160004 0.10196123 0.07497824 12039611
0.37616661 -0.14393708 0.083754651 13750481
0.38033333 -0.14767854 0.088128395 13684688
0.36786848 -0.13212001 0.083701104 14408412
0.37165222 -0.13676359 0.085363962 13553101
0.36572593 -0.12480377 0.084912665 15197927
0.36513942 -0.11485191 0.085034519 15658220
0.36486688 -0.10510112 0.085350558 15066341
0.36415428 -0.095174864 0.08502169 14868963
0.36311993 -0.085054122 0.084896758 14803169
0.36263821 -0.074933626 0.085203305 14868705
0.36242938 -0.064872533 0.084942803 15132135
0.36372235 -0.054690301 0.084945373 15198186
0.36659598 -0.044955052 0.08505439 14277083
0.36798573 -0.034906231 0.084735319 2831410
0.36780894 -0.025001884 0.084896006 3028019
0.36774459 -0.015058758 0.085024908 12369857
0.36701685 -0.0050360779 0.085043408 13159373
0.36784515 0.0049175303 0.084870629 13554130
0.36892644 0.01252872 0.084761441 13620694
0.37001738 0.017294927 0.085156523 14081245
0.37143365 0.025009416 0.085044049 14475233
0.37425426 0.035134956 0.085011251 14672097
0.37673989 0.045002759 0.084898554 15001062
0.37826437 0.055027515 0.084993139 15461356
0.38000003 0.059725408 0.080045663 15066599
0.37900001 0.060455479 0.089594714 15921908
0.38078246 0.065135576 0.084795669 15724528
0.38224575 0.075172365 0.085049689 15658736
0.38434932 0.084896147 0.084797904 15658735
0.38646999 0.094307527 0.084780045 15396593
0.39019999 0.099694096 0.083106786 15462387
0.38900003 0.10029817 0.088771403 13619158
0.39186117 0.10238928 0.084449872 11447217
0.37800008 -0.1414291 0.0943617 13356238
0.38195345 -0.14641853 0.094243474 12961223
0.36900002 -0.13031965 0.091118 14474205
0.37288105 -0.13480677 0.095015891 13553616
0.36753651 -0.12469137 0.095069155 14277083
0.37 -0.12963341 0.098554194 13816531
0.36547285 -0.11477342 0.094855033 14934755
0.36502475 -0.1049264 0.094919778 15066341
0.36444446 -0.095013849 0.095112063 14671841
0.36371183 -0.085030198 0.094922028 14671584
0.36247841 -0.074960068 0.095096119 15000549
0.36248294 -0.064788006 0.09502209 15066343
0.36355138 -0.054799926 0.094916478 15264236
0.3662608 -0.044874329 0.095082 13224396
0.36631459 -0.034971714 0.095055334 2699824
0.36614421 -0.025239235 0.095020011 2830641
0.367764 -0.014947487 0.09511593 11777461
0.36705336 -0.0050363997 0.094934098 13159629
0.36777782 0.0048564402 0.095122464 13488595
0.36863631 0.012542623 0.095368296 13949146
0.37027004 0.01730594 0.094520591 14278110
0.37135002 0.024800584 0.095038489 14607075
0.37404606 0.035183724 0.095026337 14607333
0.37603927 0.045093179 0.09488859 15001064
0.37802231 0.054991126 0.095115088 15395821
0.37880844 0.062312193 0.096868888 15592942
0.38041157 0.066549055 0.093970619 15527663
0.38107657 0.075027205 0.094954453 15461871
0.38292846 0.084907882 0.094906703 15330541
0.3863838 0.094196379 0.094782822 15002092
0.39000002 0.099642999 0.095542751 14475238
0.38900003 0.10029817 0.090592712 8421511
0.3913334 0.10196993 0.095808536 4933194
0.37334996 -0.13271028 0.10443293 12566465
0.3686842 -0.12321378 0.10146549 13750739
0.37145013 -0.12552388 0.1058149 13290187
0.36770833 -0.11438018 0.10430682 14014166
0.37041169 -0.11796497 0.10832532 13553616
0.36669609 -0.10505816 0.10476603 14211289
0.36559862 -0.094928116 0.10522527 14408669
0.36439282 -0.085464373 0.10463753 14211289
0.3632822 -0.075040907 0.1049499 14408412
0.36301476 -0.064894058 0.10536739 14671584
0.36398503 -0.054922797 0.10504882 14869478
0.36607185 -0.044771299 0.10509734 11777721
0.36376402 -0.034813903 0.10522373 2567980
0.36392403 -0.024995053 0.10502462 2633004
0.36756262 -0.014689612 0.10486002 11251375
0.36702302 -0.0050361445 0.10523589 13093837
0.36779243 0.004724171 0.10506473 13554130
0.36879331 0.013493468 0.10507705 13949145
0.37002623 0.018219741 0.10500298 14409953
0.37114459 0.024923872 0.10503759 14344416
0.37329391 0.034976609 0.10505477 14606818
0.37537792 0.044883724 0.10487959 15066856
0.37782615 0.054963071 0.1052379 15198699
0.37842101 0.064531244 0.104976 15263977
0.38000005 0.069383785 0.10304783 15462127
0.3808116 0.075047992 0.10513318 15264236
0.3822307 0.084605448 0.10499582 15198954
0.38585711 0.09392865 0.10469747 14475235
0.38900003 0.10029817 0.10197591 3747128
0.39000002 0.100556 0.10041206 4076347
0.37735716 -0.13137828 0.11337568 11251119
0.37494731 -0.12455305 0.11470553 12435137
0.36900002 -0.11088336 0.1105543 13092552
0.37234098 -0.11520021 0.11461227 12633029
0.36859387 -0.1037515 0.11153879 13356239
0.37086093 -0.10519546 0.11632264 12633286
0.36804944 -0.094137773 0.11415534 13027274
0.37047052 -0.097629339 0.11762727 12435908
0.36698088 -0.084908321 0.11431788 13290703
0.37 -0.086497813 0.11951567 12764616
0.36637855 -0.075089388 0.11500762 13554130
0.36532754 -0.065056555 0.11496148 13948119
0.36525622 -0.054772276 0.11489101 14342876
0.36611226 -0.044960823 0.11496661 10593189
0.36170062 -0.034674082 0.11520105 2239016
0.36182114 -0.025006177 0.11499583 2173224
0.36783215 -0.014849679 0.11509459 10856617
0.36710772 -0.0050386786 0.11514423 12436421
0.3676548 0.0049642897 0.11505561 13225680
0.36846423 0.013173201 0.1146858 13685974
0.37009993 0.017989861 0.11564988 13883867
0.37102205 0.02490234 0.11487533 14146269
0.37331477 0.035105128 0.114985 14409439
0.37545902 0.044968892 0.11484651 14672098
0.37795025 0.054981679 0.11500684 14935270
0.37886268 0.062799349 0.11335335 14803684
0.3803283 0.06682121 0.11598302 14738147
0.38114309 0.075007886 0.11501211 14540511
0.38313589 0.084980957 0.11509854 14409954
0.38636765 0.093599513 0.11512104 13422293
0.39000002 0.098730013 0.118672 3945020
0.37600002 -0.12223151 0.12057316 11317168
0.37512502 -0.11744471 0.12095165 11383476
0.37175 -0.10358883 0.12080587 10791085
0.37044439 -0.094649345 0.12100843 10922413
0.37191495 -0.084969305 0.12263794 11909564
0.36881489 -0.073846646 0.12140327 12698566
0.37037265 -0.075399339 0.12451614 12040895
0.36820343 -0.064661145 0.12238494 13093068
0.37079635 -0.065175742 0.12744217 12304579
0.36791271 -0.055003483 0.12358197 13225422
0.37064281 -0.055474855 0.12864845 12501443
0.3674902 -0.044781946 0.12413825 9869467
0.36999995 -0.046783615 0.1290869 10658726
0.35824978 -0.033046618 0.12674937 2173991
0.36126101 -0.035741411 0.12334743 2304808
0.35850871 -0.026916072 0.12658045 2370601
0.36073881 -0.023523813 0.12406657 2173738
0.36737406 -0.014899557 0.12496839 10330788
0.3679153 -0.0051363511 0.12476616 12107199
0.37 -0.0016125034 0.12990978 11647418
0.3683604 0.0041812044 0.12355034 12633800
0.37026313 0.0060751773 0.12810916 12304322
0.36895236 0.012376414 0.12168629 13225167
0.37092724 0.015480473 0.12570621 12962508
0.3724758 0.025089627 0.12496226 13225424
0.37504637 0.035222601 0.12478437 13554387
0.37692025 0.04522121 0.12471493 13948632
0.3785432 0.054006666 0.12380728 14541026
0.38018188 0.057543211 0.1273091 14408670
0.37900001 0.060455479 0.12064831 14869220
0.38129735 0.065071963 0.12482454 14540512
0.38374501 0.074876316 0.12512419 13949146
0.38578206 0.084762901 0.12487867 13686488
0.38818464 0.093281515 0.12448382 14081248
0.39087501 0.096438728 0.12820108 12172995
0.37237507 -0.063461132 0.13123456 10790827
0.37347615 -0.054270938 0.13345271 11119790
0.36806253 -0.041671462 0.13289218 7698296
0.37123463 -0.045718234 0.13538708 9935515
0.358125 -0.033000331 0.13077065 1976866
0.3659167 -0.037217885 0.13487633 1647133
0.37065625 -0.033638149 0.13860033 1186582
0.36382434 -0.023838997 0.13482979 1581085
0.37050003 -0.028719574 0.13940963 791823
0.36533335 -0.017766438 0.13411185 8817292
0.37083933 -0.012606449 0.13464122 10199460
0.36900002 -0.0076549947 0.13042252 12107967
0.37094334 -0.005387302 0.13464576 10988720
0.37127432 0.0048759659 0.13258699 11120818
0.37261099 0.014644242 0.1325559 11777722
0.37528792 0.025075719 0.13316743 11712957
0.3779662 0.03418313 0.13272299 11844285
0.38089281 0.036874931 0.13663368 9804702
0.37857151 0.043760315 0.13089408 12830666
0.38261974 0.045253359 0.13586187 11383477
0.38328439 0.055159789 0.13473605 12896459
0.38490126 0.064647369 0.13459612 12962251
0.38718054 0.074782133 0.13392 13291216
0.39030004 0.078431137 0.13804227 11844028
0.38880765 0.083971113 0.13171741 12896716
0.39120018 0.085174799 0.136013 12370629
0.38900003 0.09028095 0.13020624 13027788
0.39160004 0.092649125 0.13389859 13027278
0.36333334 -0.040707324 0.14683877 4342332
0.36490753 -0.035422571 0.14611793 988947
0.37060875 -0.034166802 0.14191134 923412
0.36285582 -0.024697807 0.14587852 1381907
0.37068176 -0.028004281 0.14221853 857106
0.38600001 0.048469394 0.14004567 10265511
0.38700005 0.05518844 0.1404085 10659754
0.38887501 0.064080238 0.14063345 11186099
0.39012504 0.067139179 0.1411999 11383990
0.38900003 0.070701845 0.14022346 10266280
0.39150003 0.078488886 0.14066698 11909818
0.39200002 0.080882728 0.14130488 10461861
0.36123335 -0.041235518 0.15470798 1581339
0.36133775 -0.034989171 0.15484187 1121045
0.36058107 -0.025033221 0.15474048 1251605
0.36083338 -0.019029915 0.15386234 3549736
0.34621432 -0.041338589 0.16850756 2831404
0.3573077 -0.040806692 0.16739818 660241
0.36147827 -0.041937973 0.16407172 1318171
0.34739619 -0.035116348 0.16858689 2173733
0.35563707 -0.034572713 0.16603386 1383450
0.36033329 -0.035402771 0.16178642 1515033
0.3472223 -0.02529807 0.1684825 2173223
0.35546476 -0.026770467 0.16674864 1186585
0.36055136 -0.024564056 0.16421908 1711901
0.36116669 -0.019329458 0.16781402 791315
0.33875 -0.041127309 0.17940502 2830893
0.34248161 -0.04143104 0.17450126 2764842
0.33862501 -0.038436342 0.17933859 2502440
0.34279218 -0.035070777 0.17398268 2304806
0.34242943 -0.025454279 0.17351516 2238503
0.35800001 -0.021255191 0.17011498 1054487
0.36000001 -0.020531168 0.17022257 1251608
0.34300002 -0.019963127 0.17181993 2107433
0.35500002 -0.019830482 0.17035156 1844257
0.36100003 -0.019320538 0.17069542 988437
0.74600011 -0.12532589 0.26821327 13816273
0.77350003 -0.14189781 0.27610862 8750468
0.78500003 -0.14737655 0.27806816 9079430
0.75627273 -0.13334627 0.27486584 12631999
0.76324999 -0.13733497 0.27602303 11908275
0.74658328 -0.12472408 0.2752403 13882321
0.74706888 -0.11500414 0.27593097 14277078
0.74750012 -0.10650107 0.278056 14539995
0.74900001 -0.099702463 0.27876034 14540253
0.75700003 0.10480209 0.27996561 14737632
0.77375001 -0.14216959 0.28367126 8815749
0.78558344 -0.14779326 0.28501704 9013639
0.75611115 -0.13290697 0.28435218 12960707
0.76271433 -0.13672993 0.28513834 11118246
0.74730754 -0.12417287 0.28499377 13882323
0.75000006 -0.12968357 0.28527772 13224389
0.74703842 -0.1149788 0.28502566 14145495
0.74799979 -0.10531332 0.28490108 14342874
0.74899989 -0.096487857 0.28504339 14211288
0.75000006 -0.093397789 0.28820398 14277081
0.74900001 -0.087428503 0.28840417 14079702
0.75000006 -0.089301012 0.28791136 14474460
0.75066668 0.078150675 0.28787386 13487309
0.75042868 0.085322365 0.28656977 13750737
0.75361115 0.095418066 0.28665015 14079700
0.75786668 0.10362266 0.28489935 14013905
0.76066667 0.10738777 0.28577274 11316648
0.76866674 0.11181566 0.28608063 10527645
0.77642864 -0.14282382 0.29571843 9012871
0.78642857 -0.14782034 0.29426625 9078920
0.79000002 -0.14954583 0.29864311 8947591
0.75509089 -0.13137022 0.29484415 12500158
0.76300007 -0.13601716 0.29391912 10986918
0.74693334 -0.12390903 0.29460162 13816530
0.74653339 -0.11510234 0.29444346 14013909
0.74791658 -0.10568392 0.29498905 14079445
0.74899983 -0.095708556 0.29541788 14211031
0.75000006 -0.095320761 0.29455814 14408667
0.74900001 -0.088129878 0.29383978 14408410
0.75000006 -0.088598691 0.29563671 14671325
0.751643 0.075843818 0.2952041 13751250
0.75226939 0.084641591 0.2942718 13684944
0.7554667 0.094867252 0.29502377 14145493
0.75849998 0.10212475 0.29406083 14211284
0.76270008 0.1059515 0.29546314 14342870
0.77380002 0.11220562 0.29777157 10527133
0.78280008 0.11753669 0.29501158 10527901
0.78840005 0.12059259 0.29526979 10527901
0.79105884 0.12542331 0.2955029 10527645
0.77525008 -0.14176498 0.30440357 8816006
0.78488898 -0.14613196 0.30558369 8881799
0.79040003 -0.14962156 0.30527049 8816262
0.75666666 -0.13182291 0.30404922 12960966
0.76362509 -0.13584216 0.30408305 11513520
0.77000004 -0.13854954 0.30520275 9539729
0.74700004 -0.12370162 0.30271825 13750737
0.75150001 -0.12554884 0.30783921 12632514
0.74640018 -0.11508229 0.30313033 13487822
0.75120008 -0.11406672 0.30947489 13159371
0.74744439 -0.10532609 0.30404091 13487566
0.75000006 -0.10773651 0.30898052 14408669
0.74893737 -0.096735254 0.30361176 13421773
0.75007695 -0.094848283 0.30509549 13355980
0.75000006 -0.088423118 0.30020171 13487308
0.74900001 0.066872671 0.30418497 14409439
0.75000006 0.068717718 0.30605423 13883095
0.75193763 0.074840464 0.30482799 13225422
0.75507694 0.085026711 0.30454716 13225166
0.75803566 0.09493462 0.30468622 13487568
0.76000005 0.098990321 0.30865234 12961994
0.75900006 0.10152532 0.30025047 14079702
0.76353335 0.10392585 0.30501622 13487565
0.77000004 0.10840445 0.30279931 14079698
0.77483338 0.11150397 0.30439878 10527134
0.7855556 0.11713603 0.30564713 10396315
0.78900003 0.12031468 0.30103567 10527903
0.79188454 0.12467882 0.30520251 10396316
0.77700007 -0.14162806 0.31373858 8750214
0.7853334 -0.14560223 0.31495556 8881800
0.79100001 -0.14927278 0.31475922 8881799
0.75900006 -0.13123977 0.31091145 12040121
0.76750004 -0.13630298 0.31169999 10790054
0.77000004 -0.13314179 0.31902257 11645106
0.75639999 -0.12264206 0.31232789 12632515
0.76200002 -0.12640366 0.31606668 12106171
0.75633335 -0.1157271 0.31306645 12501442
0.76075 -0.11462558 0.31697109 11777719
0.75542861 -0.10447506 0.31425229 12106684
0.76133341 -0.10669342 0.31899643 11711924
0.75457144 -0.095775776 0.3149069 12106427
0.75200003 0.068900965 0.31156489 11843512
0.75562507 0.075313449 0.31340188 12106683
0.76025009 0.07588689 0.31854254 11514547
0.75753331 0.085132875 0.3127943 12304320
0.76125008 0.084896334 0.31807134 11843512
0.75880003 0.092261851 0.31154025 12041663
0.76315391 0.095349438 0.31564012 12435649
0.76525003 0.10146472 0.31347573 11975098
0.773 0.10641634 0.31423584 11514033
0.778 0.11135204 0.31232107 10329501
0.78744447 0.11618721 0.31478116 10198938
0.79100001 0.11876792 0.31753975 10396315
0.79336363 0.12469921 0.31477439 10396316
0.78800005 -0.14363261 0.32463786 8881798
0.79250002 -0.1470065 0.32648972 9013384
0.7753334 -0.13285132 0.32365444 11645875
0.78266668 -0.136554 0.32732639 11711154
0.77500004 -0.12425484 0.32540542 11514548
0.78250003 -0.1288923 0.32969707 11119789
0.77400005 -0.11571074 0.32589212 11777718
0.76475 -0.10269386 0.32266778 11514545
0.77400005 -0.10710603 0.32792878 11120043
0.76316667 -0.096821152 0.32304397 11448752
0.77200007 -0.098247096 0.32888755 10725282
0.76500005 0.078152195 0.32232365 10725031
0.77100003 0.076058462 0.32665658 11054509
0.76700002 0.084190913 0.32271802 11185582
0.77271432 0.086045265 0.32686755 10659239
0.76700002 0.090026483 0.32137075 12304063
0.77325004 0.094379589 0.32467189 11514547
0.78200006 0.099109821 0.3294864 12172477
0.77300006 0.10158838 0.32026553 12304063
0.78600001 0.10514158 0.32840934 10856102
0.79200006 0.10964764 0.32999161 10922408
0.79296005 -0.14506111 0.33573556 9539982
0.78755558 -0.13474594 0.33285251 10987431
0.79188895 -0.13548377 0.33818519 9671569
0.78700006 -0.12502888 0.33343548 11382448
0.79166669 -0.12484328 0.33726594 10921639
0.78500003 -0.11460104 0.33350956 11053992
0.79066664 -0.11388568 0.33807442 10198171
0.77600002 -0.10511317 0.33059162 10922661
0.78500003 -0.10580689 0.33679253 9672082
0.7757501 -0.097360983 0.33275646 9277582
0.78500003 -0.097143777 0.33993888 9606031
0.77500004 0.075544029 0.33016559 9211020
0.78450012 0.077388316 0.33697048 9211786
0.77620006 0.08384075 0.33067685 9540754
0.78490919 0.085279167 0.33689687 9738129
0.78630006 0.095053755 0.33498198 10067096
0.79100001 0.097474016 0.33883366 10133143
0.78750008 0.10303397 0.33180434 10198429
0.78900003 -0.10225643 0.34167105 9606031
0.78800005 -0.099359751 0.34123802 9606031
0.78900003 0.077832229 0.34167108 9343629
0.79089999 0.077649765 0.34601331 9343628
0.78900003 0.081526354 0.34167105 9475215
0.79300004 0.085654989 0.34619099 9804178
0.7930001 0.077696405 0.3550722 9607056
0.79302871 0.085287727 0.36473125 10066837
0.78900003 0.084666356 0.37528762 9935765
0.79046154 0.087371625 0.37319154 10067350
0.78900003 0.090761669 0.38507706 10133143
0.79125005 0.095576607 0.38439825 10198937
