# .PCD v0.7 - Point Cloud Data file format
VERSION 0.7
FIELDS x y z rgb
SIZE 4 4 4 4
TYPE F F F U
COUNT 1 1 1 1
WIDTH 1028
HEIGHT 1
VIEWPOINT 0 0 0 1 0 0 0
POINTS 1028
DATA ascii
0.43423074 -0.13294443 -0.062579438 15856111
0.43702081 -0.12477224 -0.062579006 16383224
0.44000003 -0.12088811 -0.064912885 13158600
0.4387143 -0.11855353 -0.06120231 16580348
0.44128576 -0.11644077 -0.062741145 15461609
0.42752641 -0.13439682 -0.053823534 15922161
0.43047372 -0.13314666 -0.058734629 16053748
0.42775011 -0.12553002 -0.052655775 16514810
0.43212003 -0.12424179 -0.057281278 16514810
0.42900002 -0.11937235 -0.050234206 16580603
0.43437359 -0.11516576 -0.054505054 16514810
0.43811116 -0.10796438 -0.05274662 16514809
0.44386798 -0.10369648 -0.054389261 16580090
0.44723821 -0.09721984 -0.051622357 16646139
0.45110002 -0.092360385 -0.051765997 16645883
0.45490003 -0.085302494 -0.051135611 16645628
0.45800003 -0.078657337 -0.050413433 15461351
0.42571431 -0.14052583 -0.047145922 14144725
0.42423156 -0.13487627 -0.045295473 15790061
0.42426917 -0.12497372 -0.045009252 16514810
0.42702994 -0.11602873 -0.043740485 16580602
0.43095008 -0.11279842 -0.047236394 16580602
0.42900002 -0.10882723 -0.040191237 16580601
0.4341808 -0.10533953 -0.044730466 16580602
0.44071433 -0.10140693 -0.048806045 16645882
0.43730557 -0.096424542 -0.04236434 16580601
0.44401678 -0.094262041 -0.046368729 16645882
0.45000002 -0.090978369 -0.049532849 16711675
0.44597507 -0.086710997 -0.042911328 16645881
0.45256764 -0.083657227 -0.0467824 16711674
0.44900003 -0.078162789 -0.041013841 16580089
0.45409846 -0.075399838 -0.044591609 16711674
0.45256415 -0.065891966 -0.042076882 16711673
0.45690906 -0.058191445 -0.041639883 16645881
0.46266669 -0.053349722 -0.041611418 16580087
0.46466669 -0.049525108 -0.040995035 16382708
0.47200003 -0.035754621 -0.041273165 16250612
0.41900003 -0.14013106 -0.030916844 15328744
0.42112258 -0.14333807 -0.034100845 14408152
0.41755006 -0.13414115 -0.033192452 16250357
0.42048582 -0.13607164 -0.037960339 15789548
0.41715154 -0.12523232 -0.032989282 16448249
0.4208501 -0.1245153 -0.038074233 16382967
0.41768962 -0.11672825 -0.031512897 16645626
0.42286909 -0.11450245 -0.036066417 16449017
0.42537796 -0.10555647 -0.034250483 16514810
0.43068424 -0.10248639 -0.038227689 16580603
0.42782354 -0.097774215 -0.031597719 16515066
0.43289018 -0.094521523 -0.035576511 16580346
0.43557957 -0.085685156 -0.033605918 16580346
0.44210717 -0.083167769 -0.037910681 16711675
0.43747827 -0.076620564 -0.031814843 16645882
0.44424999 -0.074564017 -0.036370326 16580089
0.44543895 -0.065038532 -0.034278661 16514296
0.45083335 -0.061241701 -0.038718946 16645880
0.44602174 -0.055463448 -0.032416321 16645882
0.45555001 -0.053544857 -0.037246853 16580087
0.4605 -0.052135132 -0.039369211 16711673
0.44812503 -0.047847174 -0.030706003 16645629
0.45424995 -0.046429288 -0.032885004 16448504
0.46549997 -0.043972023 -0.03734703 16580088
0.45875004 -0.037976634 -0.030628353 15921905
0.46604764 -0.036787178 -0.033434503 16645626
0.47127268 -0.034369007 -0.037206911 16448245
0.46900001 -0.029492391 -0.030763423 16185331
0.47515702 -0.026075538 -0.034181681 16119280
0.48127273 -0.021862976 -0.037049826 15724522
0.4761667 -0.018049516 -0.030304516 15790320
0.48341075 -0.014757743 -0.035111886 15000799
0.48364291 -0.0070361164 -0.033020243 15198178
0.49175003 -0.0012786831 -0.032543626 16119536
0.49623078 0.0036883827 -0.03246567 15198435
0.41724482 -0.14343295 -0.023743484 14671326
0.42064288 -0.14518274 -0.028436443 14342103
0.41390327 -0.13479534 -0.024740642 15724014
0.40900001 -0.12194575 -0.020125471 16053490
0.41274723 -0.12501734 -0.024867533 16316406
0.40900001 -0.11955206 -0.020125471 16711675
0.41403726 -0.11481185 -0.024923008 16580089
0.41674545 -0.10703389 -0.0232793 16645881
0.42140004 -0.10341135 -0.026475914 16645882
0.42424244 -0.095207043 -0.024949329 16580089
0.42999998 -0.09146475 -0.029211909 16580603
0.42650005 -0.085497543 -0.02347184 16514551
0.43054554 -0.084095605 -0.027906423 16514810
0.42806247 -0.077584751 -0.02125207 16251379
0.43284616 -0.074499793 -0.025562519 16514552
0.43602589 -0.065459684 -0.023812117 16514808
0.44064999 -0.0642239 -0.028646329 16580089
0.43732437 -0.056105349 -0.022048155 16580345
0.44211122 -0.054323655 -0.026416373 16645881
0.43900001 -0.049187727 -0.020573959 16711675
0.44510457 -0.045248352 -0.024941184 16580089
0.45150003 -0.041599952 -0.029615534 16645629
0.44783342 -0.037349153 -0.023052482 16251125
0.45337498 -0.034365021 -0.025897935 16119540
0.4621667 -0.031404097 -0.028873524 16053492
0.45558697 -0.025721695 -0.022401061 15658731
0.46435714 -0.024579596 -0.026621785 15724525
0.47122225 -0.023010176 -0.029439032 16053745
0.45792863 -0.016235786 -0.020925801 15461351
0.46443334 -0.015543198 -0.023911763 15395815
0.47385007 -0.014869057 -0.027645055 15790575
0.48033336 -0.011463664 -0.028883317 15658733
0.45700002 -0.0084107313 -0.020347694 15132643
0.465 -0.0058142915 -0.020976033 14474713
0.47629407 -0.0055543608 -0.024358176 15725037
0.48199999 -0.0056049433 -0.027773228 15329767
0.47575003 0.00127077 -0.022576019 15330279
0.48600006 0.0047176108 -0.025567252 14738141
0.49092862 0.0062332936 -0.028509347 15198177
0.48755187 0.012989371 -0.02411174 14737884
0.49077776 0.014905307 -0.027086278 15001055
0.41750002 -0.15038052 -0.017124083 12236472
0.41450635 -0.14445724 -0.01545782 15131106
0.40868005 -0.13201116 -0.012992748 15591911
0.41140002 -0.13606599 -0.015667522 15591912
0.40723976 -0.12479032 -0.014692814 15855599
0.41000003 -0.12896264 -0.019214859 15855858
0.40639371 -0.11514399 -0.014277616 16382456
0.41037506 -0.1119076 -0.018872501 16514296
0.40764427 -0.10629231 -0.012929197 16514296
0.41324618 -0.10363692 -0.016767884 16645880
0.42000002 -0.10015316 -0.019683514 16711673
0.41608438 -0.095491737 -0.013911319 16645880
0.42064294 -0.093763314 -0.018588955 16645880
0.41800004 -0.087882668 -0.012056036 16514294
0.42195553 -0.084425643 -0.016039373 16645880
0.42503196 -0.07536795 -0.014847374 16580087
0.43000004 -0.070996456 -0.018474439 16316915
0.42710203 -0.065522864 -0.012980545 16448500
0.43072098 -0.064508617 -0.017467981 16251122
0.42784381 -0.055603843 -0.011852141 16316913
0.43228132 -0.054548852 -0.016504126 16185586
0.42875001 -0.048540249 -0.010056473 16382451
0.43420234 -0.04523392 -0.014302579 16316916
0.44100004 -0.042801566 -0.019016648 16448503
0.43647921 -0.035850745 -0.012351119 15856108
0.44398084 -0.03430669 -0.017457161 16250868
0.43844447 -0.027455717 -0.010740619 15198435
0.44544694 -0.025965085 -0.014852405 15527401
0.45183337 -0.022885881 -0.018180331 15395814
0.44634876 -0.015499518 -0.012273313 15264228
0.45313343 -0.014536345 -0.017022751 15330022
0.4487333 -0.006086125 -0.011015709 14737628
0.45396674 -0.0051649166 -0.015545429 15000802
0.46260005 -0.0030943376 -0.019514076 15001057
0.44900003 0.0001454396 -0.010531444 14540506
0.45485303 0.0051226178 -0.014310072 14474713
0.46400002 0.0012365308 -0.019573132 14145748
0.45580363 0.014922601 -0.013515961 14474458
0.46033335 0.01918783 -0.016904207 14211284
0.45789665 0.024544472 -0.011962209 14540508
0.46144128 0.024963019 -0.015813962 14606043
0.45880008 0.031726371 -0.011513475 14738655
0.46173176 0.035191007 -0.013811273 14935264
0.46366668 0.042669121 -0.012234417 14869471
0.40794402 -0.14434338 -0.0033040862 15262690
0.41028577 -0.14380303 -0.0088006873 15394789
0.40669927 -0.13481618 -0.0045392551 16184049
0.41000003 -0.13832085 -0.0093767317 15855852
0.40386397 -0.12494045 -0.0046607694 15460583
0.39899999 -0.11155838 -0.00028489149 15987699
0.40178502 -0.11517575 -0.005082726 16053234
0.39900002 -0.10803562 -0.00020482866 16448503
0.40328223 -0.10481256 -0.0050265505 16448503
0.4063296 -0.095793396 -0.0033559722 16448501
0.41195235 -0.093361124 -0.0078513678 16514295
0.40852383 -0.087213837 -0.00097536435 16382451
0.414204 -0.084753551 -0.0055942661 16448501
0.42000002 -0.080980226 -0.0098512396 16645880
0.41591579 -0.075535305 -0.0033480162 16382450
0.42105573 -0.074116021 -0.0085630761 16514294
0.41674578 -0.065213569 -0.0022227468 16119279
0.42226782 -0.064838551 -0.0077038333 16382193
0.41758069 -0.055900186 -0.001187551 15921901
0.42296284 -0.054833096 -0.0061780559 16119022
0.41844448 -0.047863133 -0.00034585554 15921900
0.4242858 -0.04488346 -0.0047060815 16053486
0.43000001 -0.041334189 -0.0088778269 16185331
0.42546165 -0.035623543 -0.0028473041 15921900
0.43156758 -0.033877853 -0.0075860377 15856623
0.42673537 -0.026068576 -0.0013444215 15067105
0.43350002 -0.024450256 -0.0061795148 15066848
0.4285 -0.017916011 -0.00027042162 14935519
0.43449292 -0.015071493 -0.0039453725 15001056
0.44172728 -0.013201678 -0.0083415192 14606042
0.4357954 -0.0053967284 -0.0019744264 14672092
0.44365957 -0.0047609219 -0.0071435012 14540506
0.43678796 0.0041102897 -0.0012938029 14014421
0.44491383 0.0047956388 -0.0059758415 14146004
0.45044443 0.0075279176 -0.009159673 14343127
0.43872729 0.013868988 -0.00020666503 13948373
0.44491789 0.015014919 -0.0039260951 13817041
0.45150006 0.015428415 -0.0087180128 14145494
0.44633874 0.024753209 -0.0030804297 14277081
0.45281827 0.025395049 -0.0081829363 14408922
0.44844449 0.033041507 -0.0010125794 14474714
0.45432845 0.03548675 -0.0055263806 14803679
0.46000001 0.038377825 -0.0097125834 14935520
0.45642102 0.044708017 -0.0039306018 14935264
0.46109092 0.046319127 -0.0085109463 15198436
0.45722225 0.05405654 -0.0017787489 15198177
0.46210003 0.055299439 -0.0067331707 15395558
0.45900002 0.061396733 -2.0724525e-05 15461349
0.46468672 0.065492183 -0.0041716769 15592935
0.46688303 0.075124875 -0.0041197781 14803419
0.47000003 0.074421041 -0.0088234488 12961216
0.46600002 0.081081413 -0.0037122406 15131616
0.40398899 -0.14465474 0.005077038 15263205
0.40277356 -0.13498807 0.0051601892 16381941
0.39866674 -0.12150954 0.0077587049 15262948
0.40106332 -0.12556691 0.0047319648 15526374
0.39717776 -0.11462186 0.0053481478 15724010
0.40000004 -0.11867709 0.0015036011 15198179
0.39603835 -0.10517096 0.0052050631 16250867
0.40000001 -0.10115848 0.0012304822 16448503
0.39677614 -0.095845133 0.0069091548 16382453
0.40161535 -0.093845911 0.0028348023 16316916
0.39822227 -0.087500252 0.0089933788 16316916
0.40417904 -0.084847011 0.0048491033 16316915
0.41000003 -0.080491848 0.00094130525 16185072
0.40582508 -0.075332828 0.0065022856 16119278
0.4114334 -0.074156828 0.0019062862 16053485
0.40668762 -0.064918362 0.0070856367 15921900
0.41204885 -0.065104991 0.00242576 15921900
0.40697962 -0.055202328 0.0078134285 15921900
0.41315264 -0.054828275 0.003073591 15790573
0.4080357 -0.046091314 0.0084405933 15921902
0.41412333 -0.044803999 0.0041000186 15856366
0.42000002 -0.040667899 0.00096426392 15921902
0.40883335 -0.037512314 0.0093928231 15987695
0.41474026 -0.035144527 0.0059709032 15527144
0.42086965 -0.033789095 0.0017794076 15527399
0.41564408 -0.025144234 0.0075111748 14803678
0.42206821 -0.024786716 0.0026713053 14803678
0.41707492 -0.015655246 0.0081553012 14803678
0.42346552 -0.014730273 0.0035432228 14803678
0.41815382 -0.0064889127 0.0094685443 14474713
0.42404479 -0.0053895069 0.0057618408 14474713
0.43085003 -0.0043455958 0.0016438396 14606299
0.42474246 0.0044348044 0.0071111391 13882578
0.43161777 0.0050451374 0.0022358764 13882578
0.42607316 0.013837706 0.0082478086 13948372
0.4335345 0.015403421 0.0035404682 13948630
0.42766666 0.020495242 0.0096576782 14146265
0.43533823 0.024605373 0.0059491494 14540509
0.44152942 0.026716189 0.0019240732 14737630
0.43768975 0.034277134 0.0079277512 14803678
0.4440001 0.035411853 0.0035426421 15066592
0.43900004 0.041456018 0.0090239998 14737885
0.44522381 0.044869076 0.0054885922 15000799
0.45090911 0.047457393 0.0015142844 14605784
0.44653064 0.054759119 0.0070769456 15197664
0.45241389 0.055002086 0.0026057914 14803162
0.44845459 0.063758276 0.0083300564 15526372
0.454245 0.065949284 0.0044810292 15461092
0.46000001 0.068530142 0.0010560985 15658728
0.45510772 0.075038694 0.0063109687 15263714
0.46076471 0.075338751 0.0015646159 15198176
0.45656261 0.082679965 0.0063838977 15197666
0.46055555 0.082329318 0.0015359822 14934233
0.39900002 -0.15025541 0.013992977 12368057
0.39790213 -0.14460063 0.017257366 15328486
0.40011299 -0.14448854 0.012493839 15460583
0.39741424 -0.1350251 0.01681651 16447479
0.4001998 -0.13507222 0.011764999 16513526
0.396696 -0.12481596 0.015316444 15921132
0.40000004 -0.12804116 0.010867673 15855339
0.39382848 -0.11503553 0.014683172 15592425
0.38900003 -0.10110859 0.01880266 15593194
0.39161602 -0.10528018 0.014489456 15724523
0.38884372 -0.095056839 0.01858593 15921902
0.39206108 -0.094778925 0.013517033 16250867
0.38900003 -0.08866296 0.019106213 16053488
0.39390174 -0.084995598 0.014675442 16250867
0.40000001 -0.08086966 0.010282419 16119538
0.39562887 -0.075393498 0.015878417 15987695
0.40053564 -0.073675454 0.011232851 16053486
0.39654541 -0.065344408 0.0171081 16053230
0.40174064 -0.06462165 0.012238176 15987950
0.39723411 -0.055328399 0.017944345 15856108
0.40205625 -0.054830767 0.013085114 15790572
0.39780647 -0.045201186 0.0186358 15790316
0.40257949 -0.044996709 0.013722235 15855851
0.39857146 -0.036124568 0.019376334 15395557
0.40418297 -0.034964453 0.014557944 15527143
0.41050002 -0.031098554 0.010552332 15330022
0.39900002 -0.029760875 0.019597374 14474713
0.40457666 -0.025269931 0.016423885 15000800
0.41129029 -0.024183534 0.011534051 14869471
0.40600014 -0.015439969 0.017535413 14935007
0.41266674 -0.01448686 0.012630074 14803678
0.40683728 -0.0055601578 0.018338699 14145750
0.4139106 -0.0048970184 0.013435702 14277334
0.40795001 0.0037170604 0.019223809 13750991
0.41468358 0.0048752101 0.01503352 13750990
0.42043754 0.0064728851 0.011237948 13356746
0.40900001 0.011622199 0.019131061 13684945
0.41442859 0.01498161 0.016464097 13750737
0.42192867 0.016331667 0.012078661 13882579
0.41600004 0.024458984 0.017919794 13882324
0.42368007 0.025291707 0.013698347 14013910
0.43075004 0.027745983 0.010441975 14408924
0.41704997 0.033769779 0.018871313 13948115
0.42413342 0.034455542 0.016156502 13750992
0.43280435 0.035672266 0.012155685 14277335
0.41900003 0.040352073 0.019598814 14342874
0.424925 0.045052417 0.01815285 14079699
0.43448344 0.0451122 0.013089467 14145748
0.44000003 0.049069803 0.010280613 14803678
0.42611429 0.054574255 0.018587705 14408665
0.43473324 0.05425626 0.014170427 14277080
0.44168749 0.056048926 0.010901053 14935007
0.42673343 0.064403549 0.019626241 14935010
0.43346882 0.064350218 0.017190203 14540253
0.44469053 0.065483585 0.012465295 15066851
0.42650002 0.071527496 0.019949626 14803425
0.43266669 0.074994199 0.019111264 15000548
0.44679999 0.074740149 0.013673609 15000544
0.45042863 0.077574737 0.010825263 15657960
0.43900001 0.080817193 0.018478902 14605789
0.44663158 0.08224529 0.015762731 15066338
0.45173341 0.082703896 0.011961869 15460839
0.39383325 -0.14390422 0.024771523 15657965
0.39300016 -0.13503252 0.024785336 16447736
0.389 -0.1215604 0.028781932 15986929
0.3921282 -0.12515539 0.024497485 16118256
0.38864002 -0.11374736 0.02767567 15855597
0.39116171 -0.11559226 0.022965908 15592168
0.38748232 -0.10466205 0.025274871 15592680
0.39009094 -0.10804782 0.020736998 15921902
0.38585812 -0.094957449 0.025057891 15724523
0.38605431 -0.085042417 0.025014274 15921901
0.39016667 -0.081773363 0.020229066 16184816
0.38642165 -0.075258106 0.026197528 15987694
0.39115158 -0.074180692 0.021152666 15987438
0.38733336 -0.065484546 0.027215563 15987695
0.39181662 -0.064553924 0.022267239 15921901
0.38807392 -0.055357989 0.02817644 15790573
0.39235431 -0.054888725 0.023030736 15724780
0.38831833 -0.04532849 0.028616257 15658731
0.39307967 -0.044960983 0.023436647 15790316
0.38838893 -0.035963781 0.02882381 15264229
0.39396927 -0.034699935 0.023890674 15263972
0.38900003 -0.02901499 0.029123431 15132643
0.39421424 -0.024944918 0.02505523 14869471
0.40016666 -0.021572394 0.02090361 14935264
0.39530763 -0.014959306 0.026644055 14737885
0.40112814 -0.014098117 0.021962723 14606299
0.39670002 -0.0051324312 0.027449766 14408664
0.40186006 -0.0050442754 0.022649374 14277078
0.39724398 0.0039858739 0.028331628 13948117
0.40308338 0.0054262835 0.023514995 13882578
0.39840916 0.015052933 0.029360831 13948375
0.40407935 0.014901134 0.024323855 13751765
0.41033337 0.018385053 0.020154024 13817814
0.39875001 0.022066841 0.029853385 14541025
0.40475005 0.024717133 0.025764788 14343646
0.411625 0.02591175 0.021099253 14277338
0.40724546 0.034295317 0.02733716 14541282
0.41258621 0.035555221 0.022656955 14409437
0.40871426 0.042710993 0.029095447 15001061
0.4141205 0.045044791 0.02491514 14738145
0.42050004 0.047387905 0.02089918 14342874
0.41587305 0.054380476 0.027170323 15330025
0.42157164 0.055664115 0.022441968 15066597
0.41805011 0.06389831 0.028606275 15658474
0.42280519 0.065361887 0.024150457 15461354
0.42407683 0.074825928 0.025626441 15330024
0.43060002 0.077558115 0.020846285 14737633
0.42484102 0.082930274 0.026595635 14869471
0.4316667 0.081149191 0.021536211 14736863
0.38805965 -0.14381632 0.036764193 15131621
0.39070007 -0.14500444 0.031741489 14934499
0.38772672 -0.13485377 0.035327014 16316150
0.39000005 -0.13599324 0.030277289 16250615
0.38696805 -0.12496847 0.034975164 15855854
0.39000002 -0.12860626 0.030111292 16052718
0.38538969 -0.11516107 0.034996815 15724268
0.38320166 -0.10492685 0.035027593 15724009
0.37900001 -0.090376303 0.039908949 15198436
0.38203418 -0.095000245 0.034810271 15526888
0.37894121 -0.083996497 0.039537415 15330022
0.38133341 -0.085217379 0.034579135 15527145
0.37852389 -0.075008899 0.038591802 15658985
0.38141304 -0.074994333 0.033625495 15856365
0.37867856 -0.065760769 0.039209921 15856364
0.38222522 -0.064847447 0.034224667 15856364
0.37900004 -0.058435459 0.039908949 15593194
0.38299194 -0.055053018 0.034930006 15658987
0.38368255 -0.044998322 0.035107043 15658729
0.38393432 -0.034889281 0.03497728 15198179
0.38560608 -0.025283275 0.034908663 15001314
0.39000002 -0.022242099 0.030111292 15066850
0.38629997 -0.015536937 0.03605416 14869472
0.39103127 -0.014516918 0.031219348 14606557
0.38697335 -0.0054188073 0.037190326 14342873
0.39196482 -0.0052329404 0.032190811 14277080
0.38790005 0.003961171 0.038191639 14277335
0.39271951 0.0051637371 0.033362366 14211287
0.38883337 0.011049531 0.039123483 14211542
0.39365512 0.01502547 0.034795906 14079959
0.39551887 0.024686607 0.035662081 14474973
0.40046161 0.027966579 0.031206418 14475231
0.39726189 0.034407433 0.038152196 14606302
0.40240508 0.035360232 0.033279076 14606560
0.39816669 0.041298896 0.039440658 14935264
0.40409166 0.045199744 0.034764238 14803680
0.40467048 0.054690618 0.036005616 14869216
0.41178265 0.05663538 0.031329975 15592937
0.40521878 0.064580105 0.037235789 14737629
0.41435412 0.065430425 0.032104779 15198180
0.4067027 0.07421717 0.038472842 14869475
0.41485521 0.075110093 0.033608742 15001061
0.42016673 0.077351063 0.030473178 15527148
0.40849999 0.082256988 0.03918951 15066854
0.41496721 0.08394672 0.035384633 14935012
0.42052945 0.08514712 0.031367317 15263720
0.38503954 -0.14437424 0.045062609 14999778
0.38418454 -0.13502601 0.044907104 16315893
0.38289815 -0.12487949 0.045183424 15920878
0.37899998 -0.11295179 0.04947149 16513015
0.38139656 -0.11504897 0.044758726 15855597
0.37870458 -0.10410886 0.047997024 15395305
0.38067448 -0.10556393 0.043253981 15592937
0.37806991 -0.094554156 0.045870882 15461351
0.38025814 -0.096621513 0.041218206 15461352
0.37742975 -0.085022621 0.045041036 15329765
0.37644529 -0.074918367 0.045146372 15395301
0.37625346 -0.064979918 0.045295142 15724521
0.37733328 -0.055194546 0.045449585 15724521
0.38020006 -0.052923374 0.040569063 15790572
0.37730855 -0.044795621 0.045740671 15395557
0.38042855 -0.045328137 0.040726565 15461349
0.3766011 -0.035060331 0.045546215 14935264
0.38016674 -0.034634866 0.040377762 15198435
0.37682691 -0.025356101 0.046423279 14803680
0.38083333 -0.024350699 0.041416544 14869216
0.37780291 -0.015160846 0.047066953 14737632
0.38118044 -0.014753126 0.042198267 14671839
0.37825647 -0.0057120738 0.048366763 14342872
0.3819139 -0.005018827 0.043572944 14211544
0.37875003 0.0022849068 0.048970602 14146005
0.38322416 0.0052235159 0.04480974 14145751
0.38571742 0.014746277 0.044921953 14079959
0.39000002 0.018386269 0.04015426 14014934
0.38649479 0.024700303 0.046080265 14539996
0.39115155 0.02562982 0.041297905 14737885
0.38701457 0.03486855 0.047364388 14540509
0.39235476 0.03524233 0.04253947 14606042
0.38804886 0.04435249 0.048459481 14803423
0.39402148 0.045406166 0.043498281 14671835
0.38874999 0.053138573 0.049239516 15329767
0.39408103 0.055060696 0.044544857 15000801
0.40000004 0.056313999 0.040247444 14803425
0.394438 0.064878315 0.045642044 15461354
0.40055004 0.065911755 0.040818047 14935008
0.39571795 0.074608095 0.046838298 15527662
0.40186045 0.075720645 0.042114791 15330283
0.3973704 0.083406277 0.048352692 15001576
0.40459725 0.084822781 0.043601334 15132648
0.38201961 -0.1441166 0.055009179 14802912
0.37877783 -0.13195039 0.057816446 15920620
0.38107353 -0.13559072 0.05422537 16184308
0.3782025 -0.12458993 0.056550078 15657963
0.38059458 -0.1259872 0.052019671 15855086
0.37768668 -0.11495548 0.055383619 15855343
0.38000003 -0.1196746 0.050985824 15591914
0.37699211 -0.10508409 0.055111747 15592427
0.37593311 -0.095044889 0.05506862 15263461
0.37506059 -0.085048057 0.054852821 15198179
0.37364903 -0.075123481 0.054923497 14935007
0.37248564 -0.065050729 0.055231966 15461350
0.37293908 -0.055039316 0.055169746 15527143
0.37302729 -0.045141429 0.054933485 15132643
0.37197864 -0.034996606 0.055371728 14803679
0.37257639 -0.024824228 0.055012099 14606301
0.37346277 -0.014969948 0.055168968 14606045
0.37496981 -0.0051436853 0.054835666 14145751
0.37624109 0.0048722457 0.055115987 14014165
0.38033333 0.0096207075 0.051030289 13948115
0.37721992 0.014933501 0.056774512 14145752
0.38100001 0.015888022 0.051676016 14079445
0.37820986 0.024443308 0.057560179 14277595
0.38151351 0.025361834 0.052576192 14277338
0.37861121 0.0321302 0.058431353 14607329
0.3819738 0.035407409 0.054339692 14672352
0.38368157 0.045039322 0.055210933 14935266
0.38585609 0.055170991 0.05485522 15395562
0.3870993 0.064654902 0.05536532 15790577
0.39039999 0.066784605 0.050674934 15658735
0.3884238 0.073858052 0.057544082 15987956
0.39136371 0.075797729 0.053117465 15856628
0.38900003 0.080719061 0.059175078 15461355
0.39359587 0.084696405 0.054926418 15593198
0.39200002 0.090059526 0.059631437 7038828
0.37829041 -0.14378528 0.067128219 14671583
0.38101995 -0.14512773 0.062383085 14408411
0.37759468 -0.1346672 0.065428719 15724527
0.38030005 -0.13876238 0.061412316 16053235
0.37679052 -0.125218 0.064922422 15658222
0.37535521 -0.1149923 0.06500344 15658478
0.37452078 -0.10509109 0.064859897 15592427
0.37405246 -0.094856434 0.064865828 15460839
0.37321454 -0.084991939 0.065028191 15066336
0.37127197 -0.075045943 0.064903788 14737371
0.36868647 -0.064215489 0.067690752 14803422
0.37046289 -0.065481327 0.063032687 15132386
0.36841887 -0.054974847 0.067359529 15132387
0.37052396 -0.055104945 0.062558711 15395815
0.36846736 -0.045043323 0.066963375 15000803
0.37031916 -0.045126639 0.062105656 15132645
0.36898643 -0.035588149 0.066099219 14277338
0.37006176 -0.034373581 0.063997209 14408667
0.36899993 -0.025106808 0.066241838 14013909
0.37018371 -0.024586137 0.062961623 14343387
0.36900008 -0.015445225 0.068336293 14014166
0.37045577 -0.014728224 0.063472942 14277081
0.36885729 -0.0057766084 0.068865657 13553358
0.37092513 -0.0048943334 0.0637815 13751250
0.36900002 0.00011952608 0.069954023 13092807
0.3714574 0.0049730036 0.064798713 13685458
0.37315166 0.01497449 0.065054163 14079959
0.3749575 0.024884067 0.065088786 14474974
0.37729725 0.034855556 0.065013349 14870243
0.38000003 0.038968381 0.060771275 15330792
0.37825763 0.044130255 0.067359447 15395558
0.38081533 0.045796685 0.063153349 15330022
0.37873691 0.053834751 0.069232799 15658218
0.38178989 0.055005979 0.064229771 15527145
0.37900001 0.060455479 0.069188058 15658477
0.38245314 0.065069616 0.064791143 15790319
0.38364902 0.075074151 0.065070249 15658734
0.38523075 0.084464438 0.06525775 15132134
0.39000002 0.08655671 0.060392354 13750738
0.38900003 0.09028095 0.061907042 3156789
0.39000002 0.090513036 0.061153188 2893615
0.37761202 -0.14344062 0.075278014 14606046
0.37598297 -0.13477384 0.074929841 15526892
0.37482449 -0.12517808 0.075028427 15526891
0.37403557 -0.1149557 0.074910149 15526892
0.37321234 -0.10474647 0.074699886 15329513
0.37181118 -0.094939619 0.07503245 15395046
0.36899999 -0.081296988 0.078916319 15000032
0.37088683 -0.08518023 0.074810416 15131873
0.36870581 -0.073807269 0.076636881 14934753
0.37034401 -0.076554894 0.072849073 14934751
0.36793441 -0.064805433 0.075106196 15000546
0.3672882 -0.054910511 0.075215675 15066596
0.36784008 -0.045336775 0.075162999 14935524
0.36899999 -0.036833439 0.075562127 9277842
0.3700003 -0.033075783 0.074626677 10264480
0.36900017 -0.024042467 0.078389123 3817026
0.37000024 -0.025396282 0.073698573 11382704
0.3686589 -0.014914676 0.075112045 13158344
0.37 -0.019802213 0.074474484 12237500
0.36746237 -0.0050428812 0.075250596 13356235
0.36796767 0.0045955041 0.076064296 13684944
0.37021872 0.006052353 0.071132533 13750737
0.36837146 0.014423613 0.077347949 14079959
0.37062332 0.015385965 0.072649315 14211289
0.36889473 0.023437018 0.078797042 14343386
0.37106463 0.025327571 0.074235372 14474460
0.37243253 0.034967721 0.075026929 14869216
0.3738572 0.044902302 0.075340733 15198437
0.3754079 0.055016804 0.07504335 15395304
0.37592247 0.064914256 0.074906938 15329513
0.38000003 0.068621278 0.070260204 15395305
0.37618786 0.074891716 0.075315215 15395563
0.380077 0.075480305 0.070411295 15329770
0.37723184 0.084149718 0.076731697 15395307
0.38088369 0.085598767 0.072184354 15329513
0.38000003 0.090860948 0.075597726 4075059
0.37753198 -0.1439786 0.084885195 14408410
0.37599123 -0.1350365 0.084969036 15197927
0.37474793 -0.12526083 0.085066102 15197927
0.37367222 -0.11522581 0.08492592 15132134
0.37155813 -0.10515865 0.084899776 14868962
0.36895236 -0.091928989 0.088247523 14671580
0.37055239 -0.095775008 0.084515207 15263460
0.36822513 -0.084702112 0.085561424 14803166
0.36999992 -0.088033289 0.081679486 15263202
0.36744088 -0.075115107 0.084741525 15000546
0.36671156 -0.065036684 0.084992602 15000547
0.36648539 -0.055190723 0.085239612 14935012
0.36770228 -0.044986416 0.084871754 14408926
0.36804968 -0.034878485 0.084766276 2896689
0.36796305 -0.024975142 0.084914781 2961712
0.36793062 -0.014958503 0.084894076 11711154
0.3658714 -0.0050227717 0.085201859 12895941
0.36563924 0.0048255599 0.085145421 13225162
0.36603323 0.015192148 0.084906697 13948630
0.36688137 0.025028287 0.085002705 14409179
0.36767974 0.034611553 0.085809693 14737629
0.37013629 0.036473986 0.081197336 14803678
0.36809647 0.044773303 0.086764798 14935012
0.37056011 0.045385946 0.082150482 15132389
0.36838663 0.05457709 0.087371491 15263976
0.37080294 0.055358723 0.082543835 15329769
0.36873695 0.063635446 0.088349141 15330026
0.37096348 0.06535393 0.083561145 15461612
0.37160599 0.074938215 0.084794812 15396076
0.3736881 0.084661581 0.084843971 14803169
0.377 0.090143621 0.081178844 3878964
0.37841672 -0.14334153 0.093974717 14211289
0.38000008 -0.14597444 0.097495265 12763587
0.37717068 -0.13508773 0.095142886 14803168
0.3753247 -0.12504674 0.094962746 14606046
0.37372977 -0.11521155 0.094860241 14737375
0.37133342 -0.10498673 0.095059566 14474460
0.36868423 -0.092217982 0.094923452 14474460
0.37043074 -0.097415909 0.095084101 14606046
0.36749262 -0.08505439 0.095046565 14540253
0.36649662 -0.075126104 0.094679505 14803168
0.36545363 -0.0651545 0.095442548 14934755
0.36592987 -0.055120327 0.094996005 15000549
0.36760435 -0.045057438 0.095075756 13553103
0.36684811 -0.035003215 0.095118396 2699312
0.36620814 -0.025226349 0.095070347 2764848
0.36676419 -0.01491044 0.09492752 10659236
0.3647123 -0.0050081774 0.095179714 12238012
0.36364549 0.0047989832 0.094900757 12961992
0.36354136 0.015011408 0.094873071 13488336
0.36427245 0.024850087 0.095064595 14014679
0.365363 0.034861021 0.095161587 14343131
0.36636087 0.045069776 0.094865724 14737889
0.36715937 0.05512974 0.094959617 15066598
0.36793524 0.064982265 0.095268041 14803683
0.37 0.069413982 0.090065666 14343644
0.36869997 0.073240131 0.09609767 14738661
0.37008721 0.076688066 0.093488835 14870246
0.37160358 0.084469676 0.095189378 14606305
0.37900001 -0.1405057 0.10024166 14737632
0.38118455 -0.14298388 0.10567013 13356751
0.37857503 -0.13401249 0.10252292 14343131
0.38083076 -0.13580208 0.10717437 14277338
0.37735292 -0.12477014 0.10455574 13948374
0.38000003 -0.12904492 0.10869036 13948631
0.37462744 -0.11489849 0.10502078 13948117
0.3723363 -0.1050678 0.10490263 14013910
0.36873341 -0.091899663 0.10293607 14079702
0.37064391 -0.096234761 0.10553253 13882323
0.36763048 -0.085021526 0.10490983 13882324
0.37 -0.089529425 0.10998773 13816274
0.36668125 -0.074965745 0.10510719 14145496
0.36579543 -0.064922564 0.10535283 14342875
0.36606511 -0.055019617 0.10506591 14606305
0.36754832 -0.045080189 0.10507169 11974327
0.36488056 -0.034928989 0.10515988 2567724
0.36428764 -0.024979126 0.10522661 2436139
0.36648965 -0.014874848 0.10505609 9803928
0.36435184 -0.0049082204 0.1050612 11645618
0.36332613 0.0047958065 0.10502984 12238012
0.36360389 0.015014355 0.10511052 13027529
0.36403874 0.025112804 0.1047613 13357008
0.36497638 0.034985628 0.10512442 13817045
0.36575919 0.045156416 0.10497491 14211546
0.36688218 0.05498777 0.10501053 14606560
0.36801603 0.064902246 0.104996 14606304
0.36883348 0.072813876 0.10306294 14474976
0.3701582 0.075738646 0.10642057 14343903
0.37116662 0.083491117 0.10476889 14277596
0.38416016 -0.14265113 0.11474273 13224908
0.38364586 -0.1350451 0.1149789 13553617
0.37857902 -0.1224156 0.11155866 13685202
0.38155553 -0.12546033 0.11586414 13159372
0.37764871 -0.11464299 0.11369903 13027786
0.38041672 -0.1165416 0.11839101 12435138
0.37639421 -0.1051015 0.11495703 12698564
0.37340412 -0.095008485 0.11488276 12698564
0.36860615 -0.083453536 0.11190141 13290187
0.37138247 -0.085437186 0.11637559 12501185
0.36819673 -0.075210676 0.1128162 13158602
0.37117028 -0.074942172 0.11784332 12369345
0.36795834 -0.0644233 0.11422094 13421772
0.37029991 -0.066760957 0.11887608 12764357
0.36792731 -0.055004854 0.11497504 13882324
0.36806199 -0.045049939 0.11472283 11052968
0.37 -0.044488247 0.11951567 10460832
0.36251053 -0.034630764 0.1150963 2370086
0.36233971 -0.024986433 0.11524412 2107174
0.36711651 -0.015032585 0.11506182 9145999
0.36610278 -0.0051287529 0.11498098 11251375
0.36625233 0.0047953008 0.11528003 11514805
0.36636293 0.01520817 0.11510772 11580598
0.36638063 0.024901997 0.11462004 12304063
0.36703786 0.034643613 0.11423732 12435649
0.37030762 0.03713036 0.11921529 11843769
0.36777109 0.04476472 0.11376859 13158859
0.37053338 0.045746457 0.11890808 12238527
0.36814514 0.054833032 0.11273245 13882582
0.37062502 0.055268865 0.11751353 13093579
0.36876678 0.063486047 0.11154954 14080218
0.37084165 0.065496221 0.11614926 13356752
0.37135631 0.075000755 0.11496967 13488595
0.37340745 0.083622858 0.11460949 13158859
0.38781253 -0.14155775 0.12209437 11843258
0.38823536 -0.13490351 0.12285989 12172991
0.39051861 -0.13541377 0.12685576 11448498
0.38545108 -0.12481146 0.12371506 11909050
0.38147813 -0.11452055 0.12215646 11514808
0.37848008 -0.10269342 0.12204256 11120047
0.38045838 -0.10723918 0.12304302 11120305
0.37608829 -0.096215002 0.12168965 10791340
0.37561557 -0.083894402 0.12323049 11120046
0.37500003 -0.075942591 0.12325958 11383218
0.37106362 -0.064133175 0.1230319 11514034
0.37168467 -0.054853477 0.12457464 12105913
0.36800003 -0.041682579 0.12369383 8159104
0.37117079 -0.046198841 0.12503844 10395552
0.35900003 -0.03181988 0.12630621 2436136
0.36145562 -0.035111599 0.12385201 2304550
0.35900012 -0.026435904 0.12560114 2370601
0.36065799 -0.024053199 0.12316273 2107431
0.36742461 -0.016225813 0.12416565 8882571
0.37003925 -0.012585306 0.12608513 9212306
0.36829308 -0.0048020873 0.12259268 10002079
0.37003565 -0.007707498 0.1273237 9607063
0.36863428 0.0040366729 0.12193736 10725546
0.37029162 0.0070191207 0.12448662 9409174
0.36899999 0.015354446 0.12076329 10330532
0.37065223 0.014682514 0.12402855 9672345
0.36899999 0.02311915 0.12059639 10791340
0.37267193 0.026203241 0.12427224 10200228
0.37360698 0.034833435 0.12458596 10067360
0.3728109 0.044842903 0.12366009 11251890
0.37370867 0.055628009 0.1236664 11778234
0.37435457 0.064986527 0.12367763 11843257
0.3744182 0.073650569 0.1230491 12238273
0.37400004 -0.052761514 0.13070135 10790054
0.36900002 -0.041344583 0.13612382 8226184
0.37345836 -0.046218704 0.13134222 9606550
0.36733332 -0.039722018 0.13644837 4213069
0.36850002 -0.015839357 0.1302458 8883078
0.37075001 -0.012355192 0.13060679 8159873
0.36588892 -0.040613893 0.1451011 5397083
0.36602804 -0.035867278 0.14688882 1054740
0.37060004 -0.033270456 0.14398225 857615
0.36596194 -0.024211062 0.1473566 1185041
0.37070456 -0.02696076 0.14453478 726031
0.36150008 -0.041191559 0.15487379 2107170
0.359 -0.03163312 0.1592911 791307
0.36169064 -0.035111517 0.15479127 1186067
0.35900006 -0.029018464 0.15938449 659721
0.36105439 -0.024878301 0.15489902 1251349
0.36100003 -0.018982494 0.15624408 2039840
0.34621057 -0.041349996 0.16839118 2370343
0.35533333 -0.040863797 0.16694802 725519
0.3612667 -0.04087295 0.16354422 1777948
0.34724557 -0.035295632 0.16849554 1910304
0.35571852 -0.034160711 0.16532321 1186838
0.36054838 -0.037648816 0.16231319 1515030
0.34838706 -0.026167421 0.16933419 2107168
0.35481116 -0.025768563 0.16660613 1120790
0.36085454 -0.023978362 0.1636702 1449498
0.34900001 -0.01949532 0.16992341 2172709
0.35614282 -0.019116938 0.16910394 1449244
0.36166668 -0.018886454 0.16808932 1186848
0.33900002 -0.040760856 0.17933945 2961705
0.34254849 -0.04160041 0.17468151 2501668
0.33900002 -0.038380038 0.17933945 2633251
0.34291098 -0.035104766 0.17417915 2239008
0.34377784 -0.02518026 0.17369384 2106910
0.34625 -0.019341704 0.17142062 1646369
0.33576089 -0.041276004 0.18364403 2501670
0.75860006 -0.16278231 0.25853634 13093061
0.76050007 -0.16621643 0.25811556 13685197
0.75716668 -0.15485303 0.25787053 14080214
0.75650001 -0.14497672 0.25764337 14408919
0.75491673 -0.13539541 0.25813475 13948112
0.75466675 -0.12695633 0.2596691 13948369
0.78625011 -0.18350528 0.26654539 9605263
0.79100001 -0.1882519 0.266985 9473933
0.76774997 -0.17184481 0.26596877 13553612
0.7742309 -0.17584348 0.26528233 12500412
0.78200006 -0.17915295 0.26175138 9671321
0.75853848 -0.16257785 0.26537237 13223879
0.76133341 -0.16764744 0.26445559 14211285
0.75713885 -0.15484753 0.2649509 14145236
0.75626695 -0.14493147 0.26464495 14145749
0.75565642 -0.13530624 0.2649858 13948113
0.75596178 -0.12506396 0.26583284 13816527
0.75608331 -0.11495328 0.26767904 13947859
0.75436366 -0.10523532 0.26759195 13947859
0.77833343 -0.18013503 0.27327794 9276296
0.78558332 -0.18426849 0.27429029 9407881
0.79000002 -0.18838333 0.27552554 9276808
0.76433343 -0.17152695 0.27462152 13027525
0.77307147 -0.17659412 0.27517733 12631995
0.75864714 -0.16325206 0.27461934 13026754
0.76041675 -0.16797827 0.27499819 14474714
0.75666684 -0.15475176 0.2754133 14013908
0.75573343 -0.14482857 0.27507323 14079700
0.75522214 -0.13500722 0.27488554 13947858
0.75506073 -0.12477288 0.27458513 14013907
0.75457561 -0.11505865 0.2748915 14013652
0.75411099 -0.10479687 0.27448267 14079445
0.75357693 -0.095359921 0.27489963 14013908
0.75260007 -0.088906392 0.27728066 13816530
0.76575005 0.071955174 0.27871919 13751508
0.77233338 0.077395298 0.27840111 13685458
0.77675003 0.080716483 0.27817678 12106427
0.78299999 0.084577091 0.27858326 10395548
0.78900003 0.090761669 0.27887091 10527385
0.79080003 0.096153148 0.27913627 10461336
0.78609091 -0.1851123 0.28470188 9079430
0.79000002 -0.18838333 0.28477257 9211014
0.76475 -0.1725194 0.28461611 12829631
0.77375007 -0.17771709 0.28479904 13223876
0.7580834 -0.16391464 0.28480184 13420998
0.76000005 -0.16877532 0.28552309 14277078
0.75606686 -0.15498255 0.28540003 13947344
0.75473505 -0.14526035 0.28541395 14013907
0.75408316 -0.1348034 0.28506526 14013652
0.75333339 -0.12496971 0.28478089 13948114
0.75302792 -0.11522314 0.28466603 14079701
0.753389 -0.10469431 0.28480327 14145751
0.75403315 -0.095077164 0.28504795 14079702
0.75358343 -0.088698588 0.28517297 13750737
0.76181829 0.068990327 0.28482577 13553874
0.76489478 0.07366702 0.28466851 13619666
0.77260005 0.078747869 0.28555292 13093065
0.77662504 0.081612177 0.28403986 11843510
0.78488892 0.086618163 0.28507039 10461338
0.78900003 0.091025531 0.28467599 10527385
0.79052633 0.095710829 0.28515744 10527385
0.79100013 0.1050985 0.28447694 10395544
0.79180014 0.11518095 0.28449085 10461338
0.77800006 -0.18187919 0.29592746 8618880
0.78576922 -0.18596393 0.29456523 9013638
0.76441669 -0.17244343 0.29523239 12894399
0.77308339 -0.17801653 0.29496086 13092290
0.75757694 -0.16421519 0.29477593 13420745
0.76000005 -0.16877532 0.29797727 13618381
0.75514817 -0.15552232 0.29479814 13816273
0.7537272 -0.14508648 0.29511577 13882322
0.75358331 -0.13471401 0.2954599 13948114
0.7530002 -0.12491393 0.29523274 13882321
0.75241691 -0.11512944 0.29500362 14013908
0.75424993 -0.10503244 0.29517093 14211543
0.75637943 -0.094639584 0.29579574 14079702
0.75633335 -0.088579081 0.29506677 14013909
0.76099998 0.069131739 0.29094639 13488337
0.76323074 0.073919788 0.29381531 13488337
0.77220005 0.078888439 0.29462695 11909048
0.77650005 0.082052544 0.29399681 10197916
0.78609091 0.087253027 0.29457462 10592924
0.78900003 0.090761669 0.29180035 10592924
0.79282618 0.095239751 0.29531628 10461337
0.79327577 0.10502026 0.29511556 10461338
0.79273087 0.11510137 0.29518378 10395545
0.7786001 -0.18201944 0.30435991 8552831
0.78618187 -0.18663858 0.30497959 8947844
0.76587504 -0.17277157 0.30476388 12237238
0.77350008 -0.17811231 0.30508119 12566461
0.75849992 -0.16356023 0.30345631 12828609
0.76072735 -0.16650897 0.30627722 12895171
0.7564286 -0.15508337 0.30505317 13289931
0.75416124 -0.14538291 0.30471674 13553358
0.75333345 -0.13466914 0.30506429 13487566
0.75340003 -0.12498029 0.30509141 13816531
0.75330001 -0.11526485 0.3050507 13882324
0.75355881 -0.10451013 0.30453053 14079703
0.75580782 -0.095774904 0.30483729 13948117
0.7608 0.068995118 0.30844301 13488079
0.76411116 0.072995685 0.30525008 13619408
0.77225006 0.077085868 0.30730042 13027013
0.7869001 0.08591672 0.30483994 10527389
0.7906 0.089094914 0.30534917 10592924
0.78542858 -0.1850666 0.31503728 9013895
0.79000002 -0.18838333 0.31991127 8948101
0.76750004 -0.17044087 0.31169999 12566977
0.77442855 -0.17560861 0.31451306 11776947
0.76441675 -0.16409402 0.31462172 11775922
0.77100003 -0.16850956 0.31763428 10789540
0.75772226 -0.15408006 0.31324685 13092294
0.76071435 -0.1569777 0.31721169 12368827
0.75757152 -0.14492682 0.31488973 13289931
0.75684011 -0.13483496 0.31470779 13027272
0.7567932 -0.12481017 0.31544787 13224137
0.75584614 -0.11497423 0.31479499 13619151
0.75489998 -0.10490683 0.31453678 13684944
0.75505012 -0.096088663 0.31459782 13553359
0.76080012 0.06881696 0.31521016 13225165
0.76419997 0.07312312 0.31554428 13685715
0.77172732 0.077115387 0.3148104 13355979
0.77625006 0.080664821 0.31547856 10329753
0.78560001 0.085104972 0.31444657 10527131
0.79100001 0.089139991 0.31476098 10527131
0.78800005 -0.18304414 0.32413328 8684674
0.79089999 -0.1867469 0.32694224 8947843
0.77675003 -0.17204206 0.32181862 10197658
0.78455567 -0.17626956 0.32587227 8881541
0.76800001 -0.16246252 0.32088965 11709872
0.77412498 -0.16512081 0.32571507 9802389
0.78200006 -0.16999958 0.3294864 8946308
0.76490009 -0.15464546 0.3231793 11645363
0.77225 -0.15567803 0.32899404 11053997
0.76372737 -0.1450583 0.32260358 12698308
0.77240008 -0.14440833 0.32905796 11843512
0.76369244 -0.13480002 0.32397768 11974329
0.77000004 -0.13584566 0.32893679 12500673
0.75871432 -0.12332522 0.32195905 12237243
0.76216674 -0.12509631 0.32618803 11447985
0.75849998 -0.11517235 0.32224908 12435649
0.76083344 -0.11463667 0.32680294 11909562
0.75818747 -0.10491982 0.32278249 12830151
0.76083344 -0.10543296 0.32739606 12500927
0.75781816 -0.096683525 0.32268599 13158602
0.76099998 -0.097736806 0.32776436 12237500
0.76033348 0.069367968 0.32362196 13093581
0.76473689 0.074314691 0.32551053 12764615
0.77233338 0.079202823 0.3242068 10922153
0.77637506 0.082494661 0.32642958 10198428
0.78600013 0.086031668 0.32494026 10395545
0.7902 0.089049838 0.32369107 10461338
0.79321736 -0.18535832 0.33534396 9276808
0.78800005 -0.17314957 0.33441398 9078918
0.79099995 -0.1776666 0.33621171 9145223
0.77750003 -0.16264907 0.33214247 9276815
0.78463644 -0.16639972 0.33627903 9211276
0.77516675 -0.15490495 0.33205128 11185327
0.78060001 -0.15507837 0.33620614 9540502
0.77600008 -0.14507763 0.33277252 11843512
0.78250003 -0.14537503 0.33763662 11448497
0.77563643 -0.13510579 0.33489716 11184812
0.78200006 -0.13887808 0.33863977 10658466
0.76749998 -0.12327696 0.33191174 11316400
0.77300012 -0.12510389 0.33639085 9869467
0.76620001 -0.11454878 0.33179766 11646647
0.77245468 -0.11498917 0.3373028 10593188
0.76600003 -0.10465524 0.33171105 11974840
0.77236366 -0.10511137 0.33709875 11119017
0.76666671 -0.096669026 0.33199975 12237758
0.77333337 -0.0987176 0.33730188 10263454
0.76690918 0.073860675 0.33406463 11975098
0.77160001 0.078465216 0.33558124 10922409
0.7762143 0.083713233 0.33522534 10067096
0.7845 0.087858059 0.33365566 10264216
0.78833342 0.092377722 0.33692119 10264216
0.79223812 0.09599378 0.33397222 10329752
0.7931667 -0.17513575 0.34549013 9803666
0.78860009 -0.16405125 0.34149784 9474961
0.79225004 -0.16515723 0.34655851 9803667
0.78785723 -0.15440951 0.34170392 9146003
0.79226673 -0.15491869 0.34716812 9671827
0.78750008 -0.14538433 0.34194425 9803672
0.79191679 -0.14511991 0.34710738 9474704
0.78681827 -0.13470994 0.34474772 9145482
0.79050004 -0.13576177 0.34879762 9804180
0.77833337 -0.12607858 0.34130403 9014157
0.78525001 -0.12544018 0.34671348 9475216
0.77666664 -0.11520508 0.34178481 9145482
0.78342861 -0.11450193 0.34712023 9474704
0.77740002 -0.10529999 0.34210747 8882051
0.78328574 -0.10452656 0.34627038 9079689
0.78400004 -0.097937122 0.34593254 8948360
0.77350008 0.077211522 0.34174901 10067097
0.77633333 0.082035705 0.34163728 10133143
0.78363645 0.086311154 0.34535372 10133143
0.78811115 0.09312138 0.34466946 10198936
0.79012501 0.097827524 0.34585825 10264729
0.79299998 0.10442758 0.34484604 10264729
0.78900003 -0.12257414 0.35090637 9672594
0.78822231 -0.11496932 0.35158658 9738387
0.792 -0.11520202 0.35662472 9738386
0.78825003 -0.10561838 0.35126546 9475215
0.79183334 -0.10494125 0.35633919 9606800
0.78900003 -0.097638778 0.35090637 9343629
0.79222226 -0.098037004 0.35604995 9541008
0.7876001 0.085625723 0.35249764 10001301
0.79044443 0.086405247 0.35792285 10001557
0.78866673 0.091339014 0.35137379 10264473
0.79104757 0.094966352 0.35578695 10330266
0.78900003 0.079679288 0.36752996 9804178
0.78900003 0.081526354 0.36937702 10067350
0.79074091 0.085341468 0.36504883 9936021
0.79291672 0.094849192 0.36510119 10198936
0.78900003 0.079679288 0.37122408 9869971
0.78900003 0.081526354 0.37122408 9804178
0.79057151 0.086536959 0.37478313 9870228
0.7884348 0.085642189 0.38588321 9869972
0.79000002 0.0890273 0.3809416 9935764
0.78900003 0.092344865 0.38811153 10067350
0.79084617 0.095247753 0.38398105 10067350
0.79276943 0.10499632 0.38450453 10330009
0.79294443 0.11493174 0.38410512 10264473
0.79056263 0.12494704 0.38456711 10330524
0.79056013 0.13535924 0.38491389 10396317
0.78744996 0.086067773 0.39473552 9804178
0.78867847 0.095012188 0.39487681 10001558
0.79000002 0.09827432 0.3901886 10264729
0.78900003 0.10230581 0.39338884 10133144
0.79013813 0.10556323 0.39510506 10067608
0.79056007 0.11500145 0.39416805 10199194
0.79174083 0.12485176 0.39455202 10264731
0.79257149 0.13510613 0.3953703 10330524
0.79235995 0.14494066 0.39506513 10330524
0.78660011 0.087050065 0.40470919 9804435
0.78852379 0.093432963 0.40449053 9935765
0.79000002 0.09827432 0.40498385 9936535
0.79187495 0.10430402 0.40525123 9936535
0.78444445 0.087179214 0.41315168 9935766
0.78857148 0.094141968 0.41414133 10067352
0.79000002 0.097811967 0.41469321 10132886
0.79268968 0.10424471 0.41525421 10132887
0.78811115 0.096604832 0.42615363 10067350
0.79000002 0.097811967 0.42347789 10001557
0.78871429 0.10470937 0.42740402 10067350
0.79104757 0.10572632 0.42262635 10067350
0.78900003 0.11200289 0.42848301 10264729
0.79187888 0.11536166 0.42414129 10133143
0.78400004 0.097407609 0.4335956 9870742
0.78762066 0.10542075 0.43472508 9936278
0.78900009 0.11191893 0.43452796 10133144
0.79006666 0.11677837 0.43461129 10133144
0.79189295 0.1246643 0.43501949 10133144
0.79216671 0.14490418 0.43483666 10198937
0.78900003 0.15263829 0.43956542 10198938
0.79172218 0.1550194 0.43459141 10133145
0.78793335 0.10625855 0.44315299 10067607
0.78900003 0.11187097 0.44378725 10067351
0.79000002 0.11633321 0.44382137 10001558
0.7916401 0.1244259 0.44474223 10133144
0.78900003 0.1498677 0.44418308 10198936
0.79080015 0.14465341 0.4442701 10133143
0.79000002 0.15692686 0.44117934 10067352
