# .PCD v0.7 - Point Cloud Data file format
VERSION 0.7
FIELDS x y z rgb
SIZE 4 4 4 4
TYPE F F F U
COUNT 1 1 1 1
WIDTH 875
HEIGHT 1
VIEWPOINT 0 0 0 1 0 0 0
POINTS 875
DATA ascii
0.42741668 -0.12517683 -0.071310513 14869220
0.43066669 -0.12151501 -0.072274186 13684943
0.43072218 -0.11649182 -0.07122007 14013395
0.43445456 -0.10257292 -0.071215719 13092290
0.43629998 -0.098217718 -0.071212165 13157826
0.41553333 -0.14091641 -0.064810492 13553104
0.41477519 -0.13471015 -0.064536043 15395564
0.41628855 -0.12579839 -0.06256035 16119029
0.42283931 -0.12425917 -0.067264937 15724272
0.41866669 -0.11911038 -0.061112449 16184565
0.42454645 -0.11480772 -0.064622998 15921651
0.43000001 -0.11562405 -0.069477417 15527150
0.4261111 -0.1056109 -0.063882992 15921908
0.43071434 -0.10356893 -0.068393223 15066854
0.42780003 -0.097402938 -0.062232051 16053494
0.43188143 -0.094070703 -0.064677268 15724529
0.4372499 -0.085210919 -0.063374713 15921651
0.44 -0.082261309 -0.066354953 15658222
0.43872005 -0.076474339 -0.061725572 15790322
0.44042847 -0.073678397 -0.064505696 15000548
0.44305006 -0.064801022 -0.061914474 15461357
0.44634482 -0.055586658 -0.061776523 15592685
0.44900003 -0.048731506 -0.060985066 15790322
0.45384619 -0.045047604 -0.061072078 15461356
0.45100003 -0.038390581 -0.060200915 13816531
0.45866668 -0.02776807 -0.060150538 13487818
0.46000001 -0.023003666 -0.060325388 11578798
0.45900002 -0.01596923 -0.06019425 10658464
0.46000001 -0.019234626 -0.060325392 10658466
0.41103852 -0.14142849 -0.054278318 13750226
0.40882611 -0.13356648 -0.051658966 15526378
0.41130018 -0.13515872 -0.056566875 15592172
0.40884611 -0.12753139 -0.051334836 16118772
0.41234407 -0.12452995 -0.055576846 16316408
0.41601032 -0.11559803 -0.054302495 16382201
0.42050004 -0.11263721 -0.058529072 16448250
0.41831586 -0.10779049 -0.052230977 16514043
0.42179546 -0.10415468 -0.055567101 16514043
0.42578343 -0.095490173 -0.054753523 16513787
0.43022224 -0.091287799 -0.058322992 16448251
0.4281579 -0.087483637 -0.051507801 16579836
0.43206176 -0.084518306 -0.055632256 16447993
0.43518087 -0.074967891 -0.054934684 16382200
0.43780398 -0.066031463 -0.053277437 16447993
0.44144192 -0.063634776 -0.057172343 16382200
0.43900001 -0.058950946 -0.050377458 16513786
0.44359782 -0.05489951 -0.05515296 16250614
0.44643423 -0.045380369 -0.054636057 16053236
0.4506 -0.043102946 -0.05909266 15066599
0.44819051 -0.036450226 -0.052583728 15856115
0.45172921 -0.033995669 -0.056774829 15461356
0.45584816 -0.025036898 -0.054955091 14869476
0.46000001 -0.023003664 -0.059248526 11710898
0.45790276 -0.015004729 -0.054605771 14277339
0.45999998 -0.010835053 -0.057956286 12500668
0.45900002 -0.0087161716 -0.050792135 14869222
0.46187496 -0.005338138 -0.054662365 13816531
0.45900002 0.0084762657 -0.057776567 10921889
0.46169484 0.0054639401 -0.053582985 12895428
0.46384105 0.014986343 -0.052829731 12171960
0.46779999 0.021398138 -0.05127256 12435136
0.47336361 0.026153529 -0.05109515 12369341
0.47673339 0.033932664 -0.050764654 11777459
0.47600001 0.041941356 -0.050166097 11908527
0.4086 -0.14047901 -0.045933772 13749197
0.41033337 -0.14192969 -0.048581645 13354439
0.40703109 -0.13479765 -0.045277912 15328486
0.40773484 -0.12500638 -0.045003351 16316151
0.41 -0.12112413 -0.049609076 16579579
0.40870836 -0.11795121 -0.042197842 16316664
0.41210631 -0.11429422 -0.04556115 16447994
0.41654167 -0.1059313 -0.044614155 16514043
0.42050001 -0.10152462 -0.046913091 16645629
0.41883337 -0.099221028 -0.040873189 16513786
0.42239439 -0.09479259 -0.045236781 16579579
0.42551568 -0.085250534 -0.044811346 16579579
0.43000001 -0.08114671 -0.049093001 16645372
0.42729172 -0.075899415 -0.042763021 16382456
0.43098038 -0.073884681 -0.046987262 16579579
0.42900002 -0.068655364 -0.040191237 16645372
0.43282306 -0.065081306 -0.045057077 16513786
0.43608141 -0.055263884 -0.044640329 16316151
0.4401429 -0.051964812 -0.049183927 16119030
0.43778947 -0.046216022 -0.042581514 16250615
0.44181827 -0.043970898 -0.046944149 16250872
0.43900004 -0.038739372 -0.040442958 15592943
0.44393989 -0.034645427 -0.045018904 15922165
0.44731736 -0.025878897 -0.043957721 15593456
0.45134786 -0.022957817 -0.048396803 15395819
0.44900003 -0.019125041 -0.041714583 15330028
0.45301235 -0.014799159 -0.045157891 15329514
0.45616254 -0.0052413801 -0.044829465 14935013
0.46000001 -0.00092786551 -0.04955671 14540255
0.45819506 0.0033428229 -0.043085888 14474975
0.46163258 0.0063956543 -0.047089063 14145753
0.45900002 0.010893951 -0.040852759 13948888
0.46359745 0.015320332 -0.045369554 14014680
0.46647826 0.023846075 -0.04344837 14212059
0.47185716 0.02694295 -0.046852622 14211290
0.46875003 0.031701151 -0.040897679 14409439
0.47396886 0.035017978 -0.045210622 14408925
0.47570008 0.044426125 -0.044271287 14145495
0.47860003 0.050797801 -0.041701563 14869219
0.48158616 0.055248626 -0.042552639 14671839
0.48607695 0.064233452 -0.042738862 13487564
0.40391999 -0.14204742 -0.032848962 14012882
0.40335891 -0.13490021 -0.034968644 15526636
0.40467742 -0.12505476 -0.03491804 16316408
0.40790334 -0.11560263 -0.034620032 16447994
0.41030002 -0.11128692 -0.03843978 16514043
0.40885711 -0.10904981 -0.03228822 16448250
0.41319221 -0.10479676 -0.035525963 16513786
0.4165979 -0.095223852 -0.034446619 16514297
0.42050004 -0.092232369 -0.038739037 16513786
0.41755101 -0.085582606 -0.032138776 16316663
0.4213104 -0.084460907 -0.037161522 16447993
0.41861546 -0.077282585 -0.031077368 16316664
0.42280227 -0.074732728 -0.035518982 16250871
0.42610714 -0.065455005 -0.034538195 16316664
0.42999998 -0.062104478 -0.038607191 16513786
0.42775002 -0.055457 -0.032315686 16184821
0.43092591 -0.054258432 -0.037030645 16250614
0.42874998 -0.04778732 -0.030381775 16053235
0.43246141 -0.044768214 -0.035186216 16053492
0.43572488 -0.03548979 -0.0343921 15856114
0.44044447 -0.031934742 -0.038399834 16053494
0.43822739 -0.027088452 -0.03201054 15461355
0.44276479 -0.024559654 -0.036213543 15396076
0.44654548 -0.015340791 -0.034610834 15264234
0.45033336 -0.011625937 -0.038676005 15263978
0.44847235 -0.0059773391 -0.032276489 14869218
0.45173332 -0.0044331225 -0.036849085 14869732
0.44900003 0.0027148367 -0.030736255 14211803
0.45351863 0.0051711611 -0.035512853 14211803
0.45602778 0.014756092 -0.034802493 14080474
0.46025002 0.01779246 -0.03921352 14014681
0.45817941 0.024051407 -0.03275058 14343646
0.46194592 0.026136892 -0.036909543 14409439
0.46502641 0.034794278 -0.034594227 14672355
0.47000003 0.038441934 -0.039411195 14475232
0.46838087 0.042394161 -0.032760508 14737890
0.47170001 0.045917261 -0.035803474 14935526
0.47594649 0.054514594 -0.034208346 14803683
0.48066667 0.057469435 -0.038205896 14803682
0.47771433 0.062144399 -0.031496223 15198955
0.4823001 0.065625824 -0.03578395 15067113
0.48428938 0.073196143 -0.03364763 14869219
0.48900002 0.081436194 -0.03093054 12237492
0.39883336 -0.14233463 -0.021337271 14473177
0.40165517 -0.14207917 -0.02644952 14342105
0.39853129 -0.13547115 -0.021476936 15855600
0.4006364 -0.13450266 -0.026038688 15724015
0.39900002 -0.12923893 -0.020567471 16645625
0.4020001 -0.12483356 -0.025090341 16382200
0.40544823 -0.11509369 -0.025129307 16447993
0.40783197 -0.10546999 -0.024514141 16382200
0.41095239 -0.10234629 -0.02860662 16447992
0.40820023 -0.095675603 -0.022171343 16250868
0.41166139 -0.094695844 -0.027146261 16250868
0.40883335 -0.089195363 -0.020755587 16250867
0.41362858 -0.084941454 -0.0248363 16382197
0.41628301 -0.075174056 -0.02479439 16185076
0.41999999 -0.070984073 -0.029188046 16382457
0.41761988 -0.065991275 -0.02262523 16250868
0.42144647 -0.06427069 -0.027348164 16250868
0.41866669 -0.05850688 -0.020928098 16053235
0.42334366 -0.055057395 -0.025249325 16184818
0.42558426 -0.045217771 -0.024869749 16053490
0.43000001 -0.040881202 -0.02896025 16053235
0.42696083 -0.036095701 -0.023208389 15724783
0.43102282 -0.03349879 -0.027197348 15724784
0.42850003 -0.029285846 -0.020751404 15264746
0.43407276 -0.024661049 -0.025012063 15395819
0.44000003 -0.020458436 -0.029891256 15527148
0.43734616 -0.015625583 -0.022922831 15198183
0.44187179 -0.01372386 -0.027236028 15198184
0.43883339 -0.0057638511 -0.020823075 14803682
0.4436087 -0.0049107336 -0.025632059 14737633
0.43900001 0.0001422004 -0.020573959 14343646
0.44496617 0.0048889299 -0.025082825 14080217
0.44726792 0.014172469 -0.023902848 14080474
0.45132005 0.016377779 -0.028211195 14014682
0.44900003 0.020957557 -0.021463063 14080474
0.45371261 0.025007118 -0.025015712 14343904
0.45788461 0.032679014 -0.023152722 14672611
0.46202174 0.036575597 -0.025794551 14803940
0.46638364 0.044519778 -0.02479355 14935270
0.47012502 0.048990306 -0.028498834 14869219
0.46887502 0.051329747 -0.022111598 15132392
0.47173846 0.055391464 -0.025443031 14935269
0.47593665 0.064728871 -0.024536749 15198442
0.48033333 0.068998426 -0.028009078 15001577
0.47850001 0.071006492 -0.021025218 15066599
0.48360941 0.075436883 -0.024983156 15198441
0.4888334 0.081218034 -0.023480633 15660019
0.49217394 0.085124344 -0.022965929 14277851
0.39661023 -0.14273053 -0.015072558 14539226
0.3956666 -0.13484259 -0.014895572 15921137
0.39717889 -0.12552193 -0.014332529 16447223
0.40011117 -0.1224691 -0.018803693 16513529
0.39797372 -0.1162275 -0.01161617 16250356
0.40136671 -0.11450706 -0.016446009 16382198
0.39900002 -0.1091565 -0.010292743 15986925
0.40282199 -0.10507508 -0.015039988 16250867
0.40437594 -0.095049702 -0.01469691 16185074
0.40681398 -0.085406378 -0.014320842 16250867
0.41058335 -0.082367398 -0.01860193 16185331
0.40800008 -0.075593844 -0.012339912 16053488
0.41193229 -0.074574836 -0.017118709 16119025
0.40876466 -0.066795237 -0.011107857 16185073
0.41304457 -0.06474518 -0.015715638 16184818
0.41435632 -0.055228185 -0.014726355 15987695
0.42055559 -0.051496487 -0.019163053 16119281
0.41649157 -0.045206163 -0.013211952 15921903
0.42097571 -0.044258304 -0.018144369 15790062
0.41795456 -0.037131712 -0.011716512 15855855
0.42233342 -0.034586128 -0.01610296 15724526
0.42536488 -0.025879912 -0.014371737 15263976
0.4306843 -0.022198979 -0.017956691 15263976
0.42795655 -0.016367996 -0.011476265 14869218
0.43232879 -0.014565756 -0.016013512 14935268
0.42900002 -0.0099040056 -0.010062338 14606046
0.43373701 -0.0051983302 -0.014677854 14606560
0.43596756 0.0044690054 -0.014527957 14146267
0.44042858 0.0083917417 -0.01902126 13948888
0.43821433 0.012454363 -0.012332368 14211547
0.44267151 0.01607853 -0.015969781 14146011
0.44739991 0.024314927 -0.014509029 14409183
0.45125002 0.028538037 -0.017188961 14672612
0.44900003 0.03097821 -0.010881816 14541026
0.45539999 0.035112265 -0.014844691 14672356
0.46020001 0.03914855 -0.018120592 14803684
0.45900002 0.040980715 -0.011840525 15067367
0.46319726 0.045181043 -0.015450402 14803683
0.46754837 0.054000601 -0.014607128 14935013
0.47021067 0.058088072 -0.01786595 15132392
0.46900001 0.060538478 -0.01100055 14606048
0.47277951 0.064891495 -0.015243197 15263978
0.47683337 0.071933739 -0.013754253 15330028
0.48275623 0.077122487 -0.015377847 15462128
0.48758155 0.084043428 -0.013402785 15265004
0.49099994 0.087149017 -0.017036688 14541022
0.39298713 -0.14365195 -0.0044347052 14276055
0.39183599 -0.13484277 -0.0045803334 16118259
0.39318901 -0.12487622 -0.0046996758 16249844
0.39475432 -0.11492112 -0.0046488363 16118770
0.39606112 -0.10524476 -0.0044317795 16053233
0.40000004 -0.10193881 -0.0091480296 16316147
0.3967126 -0.095408581 -0.0031623035 16053489
0.40067571 -0.094071388 -0.0081318058 16119281
0.39773819 -0.085684694 -0.0013943096 15790574
0.40208632 -0.084582046 -0.0064516463 16119281
0.3987143 -0.078408659 -0.00028487857 15922674
0.40288588 -0.074722342 -0.0049726698 15987695
0.40438148 -0.064877272 -0.0047951844 15987695
0.40632668 -0.055363741 -0.0039192713 15921902
0.41090003 -0.052962482 -0.0088690082 15790316
0.40804887 -0.046369299 -0.0018376802 15658987
0.41214111 -0.044232778 -0.0063083558 15790574
0.41405141 -0.03496277 -0.0050053066 15592940
0.41611543 -0.025587214 -0.0031736088 15198183
0.42137858 -0.023853883 -0.0082327081 15132390
0.4178333 -0.016450575 -0.0010389644 14869218
0.42318985 -0.015046261 -0.0059486087 14672353
0.4251591 -0.0054466468 -0.0041945884 14540766
0.43011114 -0.002880852 -0.0087459544 14409180
0.42707697 0.0029618458 -0.00215069 14277852
0.43157378 0.0057750475 -0.0061026034 14080731
0.43524462 0.014675814 -0.0043641077 14277854
0.44050002 0.019049138 -0.0086137662 14211806
0.43850005 0.021357708 -0.0019031478 14409440
0.44416672 0.025642604 -0.0051319087 14541026
0.44863346 0.031828813 -0.0038033419 14672868
0.45301676 0.03665328 -0.0052726441 14738660
0.45777497 0.043501474 -0.0033996943 14804197
0.46154058 0.046904694 -0.0064192205 14869477
0.46467826 0.054698482 -0.0050530406 15066599
0.46845153 0.061990179 -0.0035603174 15395563
0.47083625 0.066509612 -0.005474681 15263978
0.47548985 0.073718019 -0.004135306 15592943
0.48086664 0.078431129 -0.0057280213 15000806
0.48522589 0.084405936 -0.0050675957 15066854
0.38866666 -0.14292027 0.0075851269 14933984
0.39056253 -0.14504045 0.0038475331 14341590
0.3882243 -0.13479862 0.0059063626 15921136
0.39000002 -0.13537766 0.0011236371 15789550
0.38832504 -0.12530188 0.0072069936 15921648
0.39065215 -0.12440605 0.0023862813 16053235
0.38860723 -0.11493905 0.0081199128 15986925
0.39110956 -0.1150936 0.0031837926 15921646
0.38873908 -0.10524005 0.0086073698 15790059
0.39152509 -0.10479528 0.0036095537 15855854
0.38899997 -0.094910055 0.0093804039 15790062
0.39221436 -0.094854228 0.0044431728 15855853
0.389 -0.087296985 0.0096961008 15592683
0.39348072 -0.085037164 0.0048062829 15856110
0.39509532 -0.074925669 0.0052196649 15856365
0.39675492 -0.065359294 0.0056694704 15790315
0.40007147 -0.062888108 0.0015204867 15790316
0.39746007 -0.05530674 0.0075529986 15658987
0.4012 -0.054826058 0.0030778029 15856109
0.39838463 -0.04728971 0.0087338174 15921904
0.40295935 -0.0447293 0.0046282494 15658987
0.40600017 -0.035398673 0.0058566895 15395817
0.41049999 -0.032959808 0.0016626086 15527147
0.40754905 -0.02573766 0.0074424231 14935011
0.41191077 -0.024211828 0.0030602592 15132388
0.40862498 -0.017503699 0.0088895615 14671839
0.41337928 -0.014523884 0.004729995 14606815
0.41606757 -0.0059658904 0.0063317628 14541025
0.42084625 -0.0031207562 0.0025186613 14475232
0.41837502 0.001238139 0.0091625825 14277853
0.42341304 0.0048985789 0.0050905859 14212061
0.42737034 0.011441909 0.0070541324 14146267
0.43188053 0.015931213 0.0044888463 14212061
0.4364717 0.023359776 0.0058169817 14606818
0.44162962 0.02752351 0.003613753 14672611
0.44582084 0.033972997 0.0057064896 14869990
0.45133337 0.038272403 0.0025313313 14672611
0.44900003 0.040350668 0.0086514428 14935783
0.4541688 0.045017634 0.0051092426 14803941
0.45811349 0.05331042 0.006727885 14803684
0.46188578 0.056997161 0.0038373433 15132392
0.46565294 0.06480702 0.0055411998 15330285
0.47000003 0.069103025 0.0014458168 15066858
0.46853334 0.072398543 0.0083873123 15396335
0.47257629 0.075612053 0.0048446856 15527664
0.46840006 0.083048344 0.0088599706 12303543
0.47289476 0.081720032 0.0056196386 14803937
0.48066673 0.08229968 0.0011035466 15790322
0.3869907 -0.14502688 0.015465102 14210519
0.38526902 -0.13508889 0.015379204 15723499
0.38527203 -0.12506819 0.015208916 15724268
0.38545904 -0.11500715 0.015309419 15724523
0.38636816 -0.10511808 0.015336449 15658730
0.38656941 -0.094992235 0.015482966 15592937
0.3867645 -0.084893823 0.015313429 15724267
0.39016667 -0.081773356 0.010181808 15724524
0.38761953 -0.075443886 0.016546605 15724523
0.39097628 -0.074052744 0.011508681 15724522
0.38864869 -0.066733457 0.018424109 15724780
0.39182118 -0.064649329 0.01362815 15790316
0.38900003 -0.058611311 0.019106213 15658987
0.39294648 -0.054817144 0.01463843 15593194
0.39485961 -0.045153197 0.014765726 15527404
0.40000001 -0.040604144 0.010282419 15856113
0.39640257 -0.035830062 0.016486188 15329769
0.40102217 -0.033745982 0.012058635 15198183
0.39795241 -0.026885327 0.018746519 15000804
0.4026081 -0.024759853 0.014322148 14869475
0.40433341 -0.015047938 0.015147929 14606560
0.41000003 -0.010425185 0.01053948 14146265
0.40686682 -0.0063723759 0.01691363 14409695
0.41258338 -0.0037242081 0.013076346 14343902
0.41595188 0.0039206971 0.015718278 14146524
0.42082617 0.0081896195 0.013386076 14212061
0.41900003 0.010925475 0.019598814 14212060
0.42509529 0.014447806 0.015230867 14343647
0.4300833 0.018346384 0.011474978 14212060
0.42833337 0.020193467 0.019031083 14475234
0.43414426 0.025106352 0.014677114 14541026
0.43887502 0.031478442 0.018087959 14738405
0.44287959 0.035690323 0.014638614 14672612
0.44681248 0.044326685 0.016316256 14672611
0.45170835 0.0474259 0.012490786 14673381
0.44885716 0.051634077 0.019343968 14672354
0.45412996 0.055228207 0.014811941 15001318
0.45749995 0.063787259 0.01617343 15132905
0.46186215 0.067002065 0.01287549 15067114
0.45900002 0.071067475 0.019320766 14738404
0.46428216 0.075191125 0.015127525 15396078
0.46457699 0.081550919 0.014985039 11777202
0.38545665 -0.14436637 0.024879705 13815504
0.38284332 -0.13489099 0.02514242 15460327
0.38248786 -0.1249822 0.02497864 15394790
0.38261667 -0.11505647 0.025065154 15395046
0.38220963 -0.10501081 0.025029883 15263459
0.38265058 -0.094947673 0.025055228 15329766
0.38340309 -0.084937893 0.025105372 15395558
0.38404083 -0.075025924 0.025140332 15329765
0.38509294 -0.064960398 0.025128556 15461608
0.38616002 -0.055120807 0.024943165 15330023
0.39000002 -0.051001504 0.020068325 15790320
0.38693079 -0.045432802 0.02606258 15198694
0.39084375 -0.043760903 0.021139961 15527402
0.38789228 -0.035789672 0.027625836 14869986
0.3919718 -0.034313019 0.022736307 15132388
0.38868749 -0.028137794 0.028815016 14606815
0.39367571 -0.024484746 0.02447773 14672351
0.39590901 -0.015183458 0.025800262 14541023
0.40027273 -0.012646982 0.021618681 14672609
0.39775002 -0.0077848556 0.028146595 14475230
0.40287641 -0.0044385628 0.024463885 14343901
0.4072454 0.0025285867 0.026222216 14277595
0.41306067 0.006923886 0.023899952 14212316
0.41637501 0.013908138 0.026443742 14080218
0.42136374 0.016878951 0.023264598 14343647
0.41800001 0.020684855 0.029337492 14672611
0.42473614 0.024348451 0.026124794 14343647
0.43210003 0.026851529 0.021929016 14475233
0.42690006 0.032768916 0.028660303 14343647
0.43484053 0.035281807 0.024735648 14541025
0.44025004 0.037632544 0.020979056 14672611
0.43723252 0.043969292 0.027397992 14541025
0.44237494 0.045734763 0.023232818 14738147
0.43900001 0.050499838 0.029783679 14672613
0.44544747 0.054457575 0.02562562 14935270
0.45099998 0.057952072 0.021182233 14869990
0.44855562 0.062995382 0.027513763 15329773
0.45263347 0.065686308 0.02372361 15198186
0.45548484 0.074142531 0.025654875 14935526
0.46027276 0.077534199 0.021431031 15132392
0.45900002 0.080738224 0.024693402 11184806
0.460875 0.080798239 0.021826742 11316392
0.38284999 -0.14341466 0.034798466 14078932
0.38148779 -0.13473119 0.03480991 15262949
0.38145462 -0.12489527 0.034806371 15460325
0.38116553 -0.1149856 0.034781411 15197409
0.37900004 -0.10102326 0.039908949 14935007
0.38082671 -0.105077 0.034750469 15000543
0.37900001 -0.094027653 0.039192334 14935007
0.38062266 -0.095412306 0.03415104 15001057
0.37894115 -0.084909782 0.038963329 14935007
0.38061163 -0.085196957 0.033717472 15001057
0.37854764 -0.075309165 0.038594257 14869214
0.38091397 -0.0748294 0.033634402 15000800
0.37855315 -0.064909309 0.038559787 15000543
0.38107976 -0.065000534 0.033433285 15132386
0.37872499 -0.055155545 0.038682442 15132386
0.38138947 -0.054930095 0.033557374 15198180
0.37900001 -0.045760516 0.039718825 14869472
0.38238707 -0.044955894 0.034797102 15066851
0.37900001 -0.037851356 0.039908949 15000804
0.38331917 -0.034922492 0.035003241 14738143
0.38544464 -0.025135601 0.034942731 14540765
0.39000002 -0.0217856 0.030111292 14671839
0.38666672 -0.01586419 0.036381826 14409181
0.39132565 -0.014036729 0.031830519 14606816
0.38824999 -0.0085645355 0.038665891 14146266
0.39385703 -0.0053226943 0.034970216 14343389
0.40076923 -0.0017456989 0.031446088 14409437
0.39655009 0.0031738218 0.038132668 13883095
0.40377778 0.0054943752 0.033788364 14079960
0.40514508 0.014417448 0.036849473 13882839
0.41279551 0.016150899 0.032108154 14014168
0.40766665 0.022175301 0.038698904 14080475
0.41490915 0.024947906 0.034998022 14211804
0.42082354 0.027258659 0.031331632 14408669
0.41657504 0.033052169 0.037692063 14409440
0.42301637 0.036100127 0.033770267 14343648
0.43000001 0.039398156 0.030179717 14409441
0.42558005 0.043740626 0.037056141 14540769
0.43253058 0.046123534 0.033079073 14541026
0.43597248 0.054434948 0.035956755 14804198
0.44171435 0.057412289 0.031835407 14869992
0.43850005 0.061820451 0.03864504 15264749
0.44390002 0.065330371 0.034402467 15067113
0.45000002 0.069673993 0.030529967 15132394
0.44660789 0.073721163 0.036132123 15067111
0.45133337 0.075826727 0.031631656 14737632
0.38239998 -0.1437476 0.044770714 13815504
0.38098499 -0.13477659 0.045021955 15197412
0.38087249 -0.12489168 0.045032118 15395047
0.37899998 -0.11078296 0.047450539 14803164
0.3804546 -0.11529446 0.044770237 15197667
0.37869081 -0.1048594 0.045556646 14803165
0.38005564 -0.10723637 0.040860269 14803421
0.37814021 -0.0949644 0.045176789 14737372
0.37766093 -0.084834315 0.045069713 14869214
0.377049 -0.074949332 0.045031138 14671835
0.37687972 -0.064996995 0.044873815 14869215
0.37716383 -0.054908734 0.045104422 14935007
0.37730581 -0.044925474 0.045022979 14869214
0.37733579 -0.03525563 0.045115098 14606300
0.38016674 -0.032211971 0.040476598 14672095
0.37783149 -0.02577156 0.046719987 14408923
0.38092986 -0.023937596 0.042222165 14540253
0.37872002 -0.016295725 0.048815884 14408924
0.38170099 -0.014746352 0.04414472 14409180
0.37900001 -0.0096369386 0.049668655 14212058
0.38467708 -0.0054321974 0.045219768 14080217
0.39057145 -0.0017011529 0.040735144 14211288
0.38740623 0.0037142686 0.047378786 13948631
0.39288574 0.0057316925 0.043006193 13817045
0.39534995 0.014578769 0.04575523 13882582
0.40108344 0.016957154 0.041450385 13883096
0.39763165 0.022177862 0.048237696 14343390
0.40371287 0.025644252 0.04452721 14277598
0.41050005 0.029203147 0.04058291 14343648
0.40656358 0.034187637 0.046718482 14343391
0.4126316 0.036184907 0.042377573 14474977
0.40849999 0.040935095 0.049071532 14409441
0.41570911 0.043666862 0.046137083 14474976
0.42226195 0.046742663 0.043260168 14606305
0.41800001 0.050041221 0.049886946 14869990
0.42538577 0.054186352 0.046276461 14935270
0.43125004 0.056583162 0.042316083 14935526
0.42741665 0.062343199 0.048924167 14935526
0.43431312 0.065237962 0.044712488 15198185
0.44000003 0.068383202 0.040409513 15263978
0.43682355 0.074689686 0.046590663 14672354
0.44085184 0.074640237 0.041680042 14868961
0.43866667 0.08041326 0.046703789 11119270
0.38219479 -0.14382592 0.05509802 13421259
0.37899989 -0.13343732 0.057515837 15262950
0.38027608 -0.13596763 0.053678107 15065571
0.37899989 -0.12491973 0.058048181 15263203
0.3799997 -0.12534378 0.053322949 15460327
0.37877017 -0.11402414 0.056335635 15131360
0.38000003 -0.11730239 0.052960575 15131874
0.3779372 -0.10506884 0.055126011 14671323
0.37703767 -0.095207483 0.055142514 14605785
0.37540141 -0.085125625 0.054901801 14474456
0.37487689 -0.075123839 0.054712892 14540249
0.37426111 -0.06494309 0.054853622 14671834
0.37407595 -0.055049475 0.054710221 14737629
0.37360442 -0.04492522 0.054846417 14671580
0.37347168 -0.03490708 0.054923493 14474202
0.37404105 -0.025000097 0.05483371 14145752
0.37587306 -0.014910956 0.055032264 14277338
0.37742984 -0.0056317253 0.056086544 13817300
0.38096553 -0.0031030055 0.051616129 13883095
0.37826094 0.0017407801 0.058233045 13751509
0.38274139 0.0053336308 0.054550722 13817302
0.38616031 0.014328262 0.055616133 13882839
0.39117393 0.017130032 0.051501628 14014681
0.38806254 0.022299603 0.057894502 14146267
0.39356369 0.025574865 0.054190341 14277340
0.40000001 0.028846055 0.050860062 14540256
0.39617303 0.033450648 0.057351954 14474462
0.40205547 0.036109701 0.053310439 14540255
0.40556669 0.044425014 0.055871684 14606304
0.41259098 0.047640778 0.051827684 14738404
0.40845454 0.052028634 0.058396339 14606818
0.41464716 0.054939926 0.05524135 14935783
0.4213914 0.056669131 0.051405307 14869990
0.41707143 0.063790388 0.058001127 14869990
0.42332357 0.065574706 0.053410761 15001319
0.43000001 0.069093965 0.050312471 14936040
0.42468193 0.074162699 0.056441475 14935526
0.43105006 0.074863642 0.051946681 14738403
0.42900002 0.080482699 0.056221247 11579821
0.43150002 0.080951713 0.054019406 11053220
0.37900001 -0.14028388 0.068522625 14934241
0.38148525 -0.14370276 0.064631268 13486795
0.37826538 -0.13454114 0.065228187 14934498
0.38000005 -0.13924553 0.062352769 14605790
0.37811244 -0.12506028 0.065103784 15132132
0.37805268 -0.11493201 0.06503173 14999776
0.37696785 -0.10499514 0.065115765 14539225
0.37498349 -0.09469045 0.064941674 14342102
0.37390354 -0.084700577 0.064882472 14473944
0.37317446 -0.075011 0.065061584 14539736
0.37218073 -0.065188885 0.064850688 14342357
0.37117463 -0.055024687 0.064746402 14474200
0.36900002 -0.041690119 0.068226352 14473433
0.37050825 -0.045215335 0.064714231 14342873
0.37068096 -0.035061859 0.064836189 14144980
0.37065318 -0.024940236 0.064811304 13684944
0.37154824 -0.015097612 0.064776063 13882324
0.37359247 -0.0050750012 0.065085649 13488081
0.37599978 0.0047393478 0.065063424 13554130
0.3804445 0.0089309234 0.061237641 13816790
0.37773988 0.014637249 0.06721019 13882839
0.38172725 0.016090842 0.062545523 13948632
0.37850001 0.020502336 0.069539234 14343646
0.38437608 0.02506944 0.065150693 14409182
0.39000002 0.0290379 0.060544524 14475232
0.38794735 0.033444963 0.067089781 14409182
0.39264283 0.03609911 0.063292444 14540512
0.3950488 0.044129223 0.066487975 14672098
0.40160459 0.046463903 0.062378429 14671841
0.39820004 0.050840586 0.06914974 15001063
0.40483189 0.055014029 0.064820141 14935526
0.41075003 0.059030138 0.060800519 14672611
0.40728581 0.063278347 0.067147858 15198442
0.41315877 0.066275895 0.063470073 15067626
0.40900001 0.07002826 0.069877304 14540255
0.41572008 0.074191861 0.066213019 14869990
0.42076683 0.076706082 0.061740573 15264748
0.41800001 0.081075087 0.068198398 14605787
0.421 0.081506498 0.064224228 12104882
0.37900001 -0.14084694 0.075228162 14670554
0.38037694 -0.14463057 0.074708514 13223365
0.37786698 -0.1349083 0.07526616 15065570
0.37775725 -0.12500985 0.075149819 15262948
0.37791702 -0.11489088 0.075182863 14999776
0.37657002 -0.1047865 0.074915446 14473432
0.37466177 -0.094647989 0.075009793 14276309
0.3732197 -0.084930845 0.07467176 14145236
0.37153637 -0.074909702 0.075291917 14145492
0.36899999 -0.062241178 0.078304432 14408150
0.37048632 -0.065391041 0.074320287 14144978
0.36891821 -0.054484412 0.075754158 14211288
0.3700555 -0.056864236 0.071766198 14211031
0.36898041 -0.045527015 0.076130897 14211289
0.36999992 -0.044321656 0.071342938 14408666
0.36868823 -0.034664266 0.077033974 6842471
0.37000024 -0.035160683 0.072147459 13355723
0.36854118 -0.024879782 0.076411709 7764089
0.36999997 -0.025036126 0.071636401 13158601
0.36900014 -0.017427135 0.077485591 12763843
0.37008041 -0.014344571 0.074126504 13421773
0.36900002 -0.0072230771 0.079456218 13027014
0.37073067 -0.0050526988 0.074977756 13355980
0.37232277 0.0049507413 0.074967287 13356495
0.37442851 0.014994966 0.074961074 13882582
0.37655252 0.024311339 0.075906359 14211803
0.38124004 0.027080126 0.071487211 14212317
0.37812197 0.033459604 0.078137487 14014681
0.38351038 0.035701748 0.073821507 14343390
0.37900001 0.040048826 0.079835013 14212060
0.38573003 0.044300664 0.076296799 14343132
0.39179498 0.046932265 0.072320752 14737891
0.38775611 0.054304816 0.078377999 14474461
0.39446151 0.054941375 0.074364461 14606047
0.40094739 0.057141297 0.071365692 15066598
0.38850001 0.061061371 0.079561859 14277081
0.39475384 0.064773522 0.077598251 14606304
0.40324289 0.065472312 0.072915807 14803427
0.39690477 0.073003121 0.078869708 14409439
0.40468132 0.075052179 0.075232677 14737634
0.41131586 0.076102965 0.071082838 15132391
0.40385714 0.081300594 0.077632323 14737635
0.4165 0.08203952 0.070669994 13224137
0.37803191 -0.14285117 0.085584939 13815503
0.38033339 -0.14607587 0.081124552 12894658
0.37649977 -0.13480322 0.084900945 15000290
0.37618354 -0.12500809 0.085011788 15328998
0.37626851 -0.11511851 0.084926695 15131363
0.37526724 -0.10512011 0.084789567 14605019
0.37405056 -0.095004305 0.085177325 14407896
0.37196949 -0.085187636 0.084919073 14210773
0.37093943 -0.075031243 0.085044339 14145237
0.36856991 -0.063541964 0.085427701 13816272
0.37009367 -0.068163231 0.083887786 14079187
0.3680152 -0.055018868 0.084843948 14342360
0.36841655 -0.045157805 0.084935546 13224138
0.36738589 -0.034980714 0.084872328 2699052
0.36718148 -0.025272824 0.084968135 2895917
0.36862221 -0.015015705 0.084954232 12040633
0.36833334 -0.005201519 0.0851693 12764099
0.37 -0.0022621357 0.080862544 12960964
0.36850631 0.0042586992 0.087166794 12961734
0.37040022 0.0056307358 0.082691282 13093322
0.36894736 0.013257428 0.089218378 13225164
0.37095073 0.01512659 0.084363505 13356494
0.37223598 0.024959492 0.084936045 13948373
0.37437487 0.035146322 0.084944874 14145752
0.37635189 0.044609088 0.08593969 14343388
0.38109681 0.04634526 0.08151298 14409182
0.37781137 0.053894363 0.087758765 14803426
0.38248387 0.05543616 0.083138563 14671840
0.37900001 0.06152017 0.089417264 14540255
0.38414833 0.064959876 0.084959984 14737633
0.39033332 0.068051465 0.080546953 14737633
0.38668424 0.073846266 0.08656656 14672098
0.39240685 0.076280713 0.082509823 14606047
0.38880005 0.080768861 0.089180388 15396334
0.39220005 0.08161629 0.085537307 14803939
0.37786582 -0.14315672 0.09470091 13618638
0.38016668 -0.14731652 0.096249007 12039607
0.37443209 -0.13483711 0.094963379 14539740
0.37405065 -0.12505864 0.094972596 15394790
0.37423211 -0.11501386 0.095073082 15263204
0.37355998 -0.10489982 0.09492828 14736861
0.37212962 -0.094996512 0.095082693 14473946
0.37084922 -0.084999561 0.095080622 14473946
0.36894995 -0.071698822 0.09771277 14211031
0.37053898 -0.075801715 0.094389349 14211031
0.36801401 -0.06489633 0.095212974 14013396
0.3672578 -0.054905251 0.094983853 14013654
0.36783344 -0.045087706 0.095134817 11974071
0.36543733 -0.035001371 0.095089823 2501932
0.36527222 -0.025058951 0.09512163 2567468
0.36780566 -0.014947717 0.095127352 11250604
0.3670685 -0.0050377245 0.094938062 12172220
0.36717394 0.004847887 0.094963297 12566977
0.36836606 0.015152649 0.095338017 13158857
0.37 0.019175736 0.090498753 13159370
0.3689881 0.024570493 0.096353732 13225163
0.37018001 0.025980348 0.091772787 13685713
0.36899999 0.030893669 0.098352619 13422543
0.37083837 0.035092924 0.094796367 13882836
0.37235469 0.044637691 0.094953395 14277082
0.37477943 0.055023883 0.094894417 14737376
0.37690586 0.064484201 0.095357366 15000805
0.38064712 0.068214439 0.091188595 15132135
0.37837839 0.072781883 0.098280475 14935269
0.38218272 0.075737685 0.094096191 14869477
0.38414285 0.083282433 0.095981285 14803941
0.38500002 0.090253904 0.09912473 15132140
0.37629732 -0.14244625 0.10506437 12500415
0.37329686 -0.13495365 0.1049963 14079446
0.37167349 -0.12494595 0.10471113 15065826
0.37164497 -0.11494955 0.10492922 15066081
0.37118816 -0.10493151 0.10493392 14605787
0.36899999 -0.091274284 0.10856749 14079445
0.37043422 -0.095571257 0.10504624 14408153
0.36874533 -0.085005298 0.1055878 14079700
0.36999992 -0.086164646 0.10125935 14210518
0.36828449 -0.074995607 0.10512487 14144980
0.37000003 -0.078331001 0.10083099 14341847
0.36777282 -0.064885244 0.1050223 13947858
0.36781836 -0.054988097 0.10503703 13816275
0.36794776 -0.045041397 0.10514876 10460831
0.36314395 -0.034654189 0.10510929 2239017
0.36259574 -0.025056321 0.10508019 2435625
0.36756012 -0.014731159 0.10474017 10592932
0.36733881 -0.0049418882 0.10514112 11580082
0.36700034 0.0048442231 0.10522973 12238011
0.36774448 0.015151873 0.10505152 12961477
0.36820605 0.025150655 0.10474827 13158857
0.36898708 0.033154622 0.10605415 13421772
0.37011683 0.037276559 0.10405746 13553616
0.36900005 0.041583639 0.10969047 14474713
0.37089908 0.04518491 0.105023 14145495
0.37199992 0.054987133 0.10491454 14605788
0.37347925 0.065021142 0.10513221 14934755
0.37504134 0.07499446 0.10522153 14803169
0.37694559 0.082542032 0.10634764 15263719
0.38162494 0.086117186 0.10333585 14672097
0.38475007 0.091371864 0.10529071 14540000
0.37465784 -0.14210518 0.11554799 12236729
0.372067 -0.13497221 0.1149265 14210518
0.37032065 -0.1247958 0.11490654 15000034
0.37058491 -0.11514808 0.11485912 14934497
0.37026641 -0.1052053 0.1151205 14408410
0.36899999 -0.092557706 0.11147983 14079445
0.37036696 -0.0954611 0.1158108 14211032
0.36900014 -0.084023461 0.11152613 13750481
0.37049496 -0.085575357 0.11641413 13882066
0.36887279 -0.075180352 0.11218102 13421515
0.37043273 -0.074775279 0.11740705 13553358
0.36892325 -0.065208465 0.111528 13224137
0.37043056 -0.064909235 0.11669223 13553101
0.36899996 -0.054615099 0.11304563 13421516
0.37003353 -0.055263065 0.11747653 13355467
0.36781034 -0.043342091 0.11381521 8553347
0.37036529 -0.04660257 0.11613972 10724003
0.36137319 -0.034606569 0.11514559 2041122
0.36097783 -0.02513125 0.11515837 1910051
0.36809441 -0.014854676 0.11495025 9869208
0.37 -0.013738976 0.11605096 10461088
0.36792004 -0.0051183365 0.11515807 11382446
0.36735627 0.0048497291 0.11522397 12303548
0.36800003 0.015228498 0.11502607 13158601
0.36804691 0.025018688 0.11485992 13487567
0.36816308 0.035108048 0.11494166 13553359
0.36869013 0.04462916 0.11517324 14277081
0.37009087 0.048716649 0.11158962 14869218
0.36900014 0.052785631 0.11774364 14737118
0.37027517 0.055611961 0.11401956 14671839
0.36899999 0.065112874 0.11878129 14869214
0.37057376 0.064965427 0.11401024 15000288
0.36885017 0.075717099 0.11843123 14606044
0.37068564 0.074749321 0.11376712 14539996
0.36900002 0.081104115 0.1189767 14605789
0.37211582 0.084152244 0.11512461 14737631
0.37775004 0.092485733 0.11705574 15000804
0.38210002 0.094758958 0.11482489 13618125
0.37296298 -0.14148608 0.12331379 12303035
0.36899999 -0.13154343 0.12876683 14408412
0.37084112 -0.13516009 0.12462836 13881810
0.3690002 -0.12657638 0.12752384 14869220
0.37000021 -0.12418962 0.12390794 14935012
0.37034011 -0.11485311 0.12517619 14868963
0.37092093 -0.10515249 0.12524793 14474460
0.37099957 -0.094982497 0.12504986 14408667
0.37149581 -0.085106745 0.1252194 14342874
0.37162861 -0.075133853 0.12526406 13948117
0.37155062 -0.065079242 0.12519448 13684945
0.37105343 -0.054992851 0.12500374 13026758
0.36656001 -0.041382078 0.12450586 7829624
0.37102339 -0.046420068 0.12496845 10592416
0.35824788 -0.033353884 0.12524284 1910050
0.36127272 -0.037892453 0.12373912 2369831
0.35833344 -0.025857139 0.12503427 1976100
0.36069444 -0.021366879 0.12417902 1844774
0.36736882 -0.015615803 0.12425095 9475220
0.37003219 -0.012315101 0.12681955 10001052
0.36838785 -0.0048864144 0.12481756 10987946
0.37 -0.0091193672 0.12889923 10396066
0.36799246 0.0048572612 0.12489764 12105914
0.36788896 0.01514344 0.12497656 13224394
0.36817595 0.025205534 0.12479286 13619152
0.36815214 0.035022613 0.12494987 13750739
0.36794451 0.045071762 0.12503769 14277082
0.36821708 0.054940809 0.12491738 14605789
0.37 0.056421328 0.12038185 14933984
0.36798057 0.065096982 0.12495191 14606045
0.36779302 0.074890889 0.12494312 14539996
0.36810526 0.082507543 0.12553331 14671840
0.37114045 0.087449014 0.12445252 14935268
0.37511611 0.094284408 0.12460684 12762815
0.36899999 -0.13190335 0.13107041 13356238
0.37033334 -0.13599306 0.13060428 13487569
0.36899999 -0.12741403 0.13097222 13750739
0.37 -0.12297348 0.13106468 14145240
0.36999995 -0.11469187 0.13116571 13027016
0.37065622 -0.1048702 0.13111614 12698051
0.37100005 -0.0952124 0.13107836 12829894
0.37177423 -0.08443971 0.13148753 12631998
0.3715556 -0.075336702 0.13137372 12105911
0.37272984 -0.065794416 0.13181186 11908534
0.37200007 -0.055788632 0.13119256 12895172
0.36500001 -0.041140206 0.13316904 5988190
0.37157148 -0.046812039 0.13153896 10198173
0.35900006 -0.034341156 0.13024974 2041636
0.36436614 -0.035593882 0.1352745 1317655
0.37 -0.031062508 0.13943774 595213
0.359 -0.026297087 0.13024974 1844512
0.36454353 -0.024340166 0.13496676 1317656
0.37066671 -0.027213661 0.13968898 726029
0.36490476 -0.017932499 0.13209642 8422018
0.37134495 -0.012874344 0.13405678 8882570
0.36862752 -0.0031988733 0.13296384 10461604
0.37043995 -0.0080326488 0.13336033 9672343
0.36830768 0.0038994339 0.13238138 11382705
0.37178946 0.0066083153 0.13672552 10264994
0.36813956 0.015912682 0.13150184 13158859
0.37332556 0.015438753 0.13748559 11448497
0.368 0.025679078 0.13338283 12960966
0.37096295 0.023146851 0.13796771 11710897
0.36753336 0.034361742 0.13299277 13224394
0.37033334 0.036097892 0.13725199 12171450
0.36719406 0.045099963 0.13267209 14079959
0.37099999 0.042244449 0.13699484 12040122
0.36691535 0.05533966 0.13245162 14343388
0.36713007 0.064822897 0.13296588 14079960
0.37100002 0.066127516 0.13807757 11184553
0.36653623 0.07500425 0.1325727 13948118
0.36708325 0.083024509 0.13201129 13289931
0.37100002 0.089287989 0.1305504 13421006
0.37240005 0.092446625 0.1308386 11907508
0.36423075 -0.041005235 0.14675711 4736317
0.36607832 -0.035255004 0.14567998 791309
0.37010518 -0.031754922 0.14157481 529420
0.3640931 -0.025531912 0.14785083 790795
0.37052378 -0.02701644 0.1428559 660236
0.36100003 -0.018958349 0.14848116 4857372
0.37637502 0.0081116632 0.14200744 9277582
0.37770846 0.015411488 0.14297031 10198681
0.37539285 0.022868767 0.14301024 10198425
0.37715793 0.035302985 0.14306565 12171961
0.38091996 0.037540995 0.14658526 10922407
0.3779375 0.044418287 0.1421534 12171702
0.38099998 0.044594608 0.14638418 12237754
0.38097346 0.055180963 0.14630832 13027524
0.37811539 0.065762728 0.14365581 13290180
0.38049996 0.06430462 0.14663607 13092802
0.37900001 0.070215181 0.14416033 13882317
0.38035005 0.072157852 0.14600945 13619146
0.36160007 -0.040989455 0.1545538 2106911
0.35881251 -0.032013804 0.15884587 791309
0.36158925 -0.035209876 0.15455839 988945
0.35890907 -0.028145151 0.15886018 857102
0.36085081 -0.02478436 0.15460971 1054224
0.36100003 -0.018869815 0.15306085 3221282
0.34650007 -0.041551389 0.16844344 2238752
0.35504341 -0.041004669 0.16626932 659723
0.36166668 -0.041229133 0.16232975 1976095
0.34711286 -0.035534404 0.16856764 1844254
0.35557309 -0.034457497 0.16504593 1186068
0.36041185 -0.037752662 0.16163214 1054480
0.34763151 -0.026078399 0.1689976 1778206
0.3555592 -0.025734678 0.1658337 1186070
0.36019236 -0.023719393 0.16249767 1251861
0.35740003 -0.019545505 0.16773465 790804
0.33850002 -0.041295353 0.17927176 2435875
0.34251791 -0.041584551 0.17378414 2369826
0.33850002 -0.038561631 0.17907424 2239008
0.34247223 -0.034998696 0.17364718 2041373
0.34293076 -0.025533572 0.17339762 1843997
0.33613506 -0.041427232 0.18343024 2106910
