# .PCD v0.7 - Point Cloud Data file format
VERSION 0.7
FIELDS x y z rgb
SIZE 4 4 4 4
TYPE F F F U
COUNT 1 1 1 1
WIDTH 1054
HEIGHT 1
VIEWPOINT 0 0 0 1 0 0 0
POINTS 1054
DATA ascii
0.78900003 -0.10225643 0.07846456 12698297
0.79357159 -0.10543648 0.07466422 12698038
0.78833342 -0.09693981 0.079321019 12764090
0.79367846 -0.094565079 0.074609526 12632247
0.78742856 -0.15195759 0.087653629 11842479
0.79375005 -0.15620342 0.084133588 12105905
0.77760005 -0.14246453 0.088433839 14342870
0.78535712 -0.14564537 0.086370178 12237237
0.79220003 -0.14476587 0.081931546 12500662
0.77675003 -0.13567404 0.088609919 14935264
0.7853334 -0.13468987 0.08600007 13356232
0.77600002 -0.12509611 0.088979833 14672091
0.78512502 -0.12507136 0.086458713 13685197
0.77633333 -0.11515408 0.089018054 15527399
0.78564698 -0.11496587 0.086076796 13619402
0.79408336 -0.11577806 0.081909142 12632504
0.77641678 -0.1047174 0.0876626 14869469
0.78511763 -0.10494416 0.083424874 12829884
0.79000002 -0.10885895 0.081338115 12764088
0.77538097 -0.095175646 0.086570159 13750986
0.78609103 -0.094932668 0.082104236 12566711
0.79000002 -0.090364903 0.081338115 12698295
0.77587497 -0.085796304 0.088283084 15001056
0.78540003 -0.085179009 0.085885666 13290437
0.79292309 -0.084128223 0.082062796 12500917
0.77800006 -0.077151418 0.089209154 15329765
0.78600001 -0.074728213 0.087821752 14671835
0.77900004 -0.062663697 0.089323826 14737885
0.78569233 -0.065107256 0.088105291 14737886
0.77650005 -0.055193927 0.089037158 14935008
0.78500003 -0.05487857 0.08725246 14540505
0.79428571 -0.055527836 0.083898835 12237746
0.77540004 -0.045130871 0.088911042 15001057
0.78427279 -0.045144681 0.08708749 14409175
0.7925455 -0.044776168 0.084464543 12040624
0.77471435 -0.03576595 0.088571884 14803676
0.78350008 -0.035500579 0.087084442 13487814
0.79339999 -0.035032678 0.084470488 11974574
0.77580005 -0.025174033 0.0889569 15067105
0.78666669 -0.024299862 0.087130986 12171183
0.77700001 -0.014300083 0.08909449 14475481
0.78600001 -0.015382621 0.088286437 11645612
0.79322225 -0.01459734 0.086411223 11382183
0.77900004 -0.005218626 0.089323826 14541276
0.78680009 -0.0052699433 0.088376299 11449004
0.79339999 -0.0053155618 0.08632762 11250855
0.77900004 0.007546945 0.089323826 13948367
0.78683329 0.0050159157 0.087762602 11119526
0.78500009 0.014588797 0.088720985 12171957
0.78525001 0.025071101 0.089118116 12106163
0.79354548 0.024912434 0.086428598 10987684
0.77750003 0.037564162 0.089151829 13882576
0.787 0.035258606 0.087783076 10527133
0.77649999 0.044787049 0.089037158 13422538
0.78530008 0.046027128 0.087101914 10658719
0.77679998 0.054807641 0.089071557 14014933
0.78540003 0.055414874 0.087296911 10856867
0.79440916 0.054696742 0.082883626 11316648
0.77766675 0.064882338 0.08917094 13949397
0.78660005 0.064706765 0.08743076 11250859
0.77900004 0.074110284 0.089323826 14079955
0.78661537 0.075186826 0.087643728 11184809
0.78600007 0.084061772 0.08861652 12434875
0.78900003 -0.16043893 0.099705793 11051937
0.7766667 -0.15126495 0.097840942 12763324
0.78593749 -0.15521945 0.094716772 11051937
0.79075003 -0.15848127 0.092058778 11117730
0.76683336 -0.1421694 0.097798079 15197666
0.77342862 -0.14520459 0.094113246 15066593
0.78100002 -0.14967048 0.09138149 12170931
0.76455551 -0.1350507 0.096542455 15921389
0.7729091 -0.13496047 0.091255859 15395557
0.76344442 -0.12525581 0.096667878 16119024
0.77236366 -0.12500215 0.091355488 15198178
0.76406902 -0.11527554 0.096423849 15790057
0.7729091 -0.11505606 0.091255859 15658727
0.75866669 -0.10543093 0.099424668 16052715
0.76468176 -0.10488231 0.09556818 15921900
0.77236372 -0.10511521 0.09135592 15527397
0.75770003 -0.093942851 0.09858726 16382194
0.76381814 -0.095007226 0.094482735 15724521
0.77133328 -0.096055336 0.090550862 15658729
0.74900001 -0.081291527 0.099911265 16251119
0.75739998 -0.084864244 0.098370492 16185071
0.76380968 -0.085324705 0.093790278 16053486
0.77200013 -0.08494895 0.090585947 15198179
0.74820006 -0.075074747 0.09980455 16316912
0.75635719 -0.074500196 0.097853847 15922154
0.76233327 -0.075775437 0.094428144 15658729
0.77291673 -0.074837983 0.091338545 15395301
0.74700004 -0.065335795 0.099644482 16250605
0.75635296 -0.064642929 0.097241767 15856105
0.76216674 -0.064881019 0.093636155 15658986
0.7725001 -0.064855359 0.091288939 15329765
0.7475 -0.054877535 0.09971118 16185325
0.75617647 -0.055045772 0.097218491 16250863
0.76360011 -0.054691978 0.09267623 15658729
0.77316672 -0.054955442 0.09046495 14935007
0.74900001 -0.048853211 0.099911265 16710900
0.75784218 -0.045040518 0.097353488 16119278
0.76206261 -0.044911388 0.092729598 15592935
0.77200001 -0.044934392 0.090328433 15329763
0.75820005 -0.035253834 0.096698858 15790571
0.76145464 -0.034918424 0.091685839 15790571
0.7701667 -0.034909498 0.09011393 15198434
0.74783343 -0.023685699 0.099463403 15132384
0.75669569 -0.025635863 0.096388809 15395813
0.76309103 -0.025245227 0.092043735 15198436
0.77240002 -0.025062298 0.090375245 15198691
0.74650002 -0.014614684 0.098702639 15066334
0.75533336 -0.014787529 0.09544757 14935262
0.76475006 -0.014969289 0.092161201 14803677
0.77333337 -0.015136234 0.090484448 14146516
0.74650007 -0.0049992655 0.098702475 15066335
0.7554667 -0.0050581642 0.095463827 15066591
0.76371437 -0.0058860853 0.092420347 14474713
0.7725001 -0.0044991132 0.091062918 14475224
0.7470001 0.0039889337 0.099393986 14935005
0.75575006 0.0044897702 0.096646756 15329763
0.76233345 0.0055987616 0.093359709 14803421
0.77266669 0.0047719576 0.091308706 14277332
0.74654543 0.015492701 0.098787688 14606041
0.75538456 0.014934392 0.096543148 14803164
0.76274997 0.015426036 0.093706943 14737885
0.77340007 0.014736973 0.091395646 14474713
0.74550009 0.025547301 0.098570019 14671835
0.7548334 0.025427615 0.095825933 14540249
0.76387501 0.024614213 0.09362144 14343127
0.77441674 0.024724824 0.091515809 14014162
0.74649996 0.035193205 0.098702237 14803678
0.7566666 0.034787986 0.095615804 14540506
0.76480001 0.035879202 0.092346951 14277334
0.77300012 0.033858381 0.090960808 14277334
0.74616671 0.044783268 0.098658174 14803678
0.75591677 0.045369536 0.096407436 14869471
0.76364297 0.044683892 0.093047082 14606045
0.77285719 0.045222968 0.090686582 14277848
0.74550009 0.055216193 0.098570026 14738142
0.75569999 0.055086412 0.096379533 15066850
0.76233345 0.054677948 0.093656242 14540251
0.77236366 0.054985952 0.091355488 14277848
0.74650013 0.064246118 0.098920837 14869472
0.75571436 0.065323077 0.096758783 14606046
0.76281828 0.065021567 0.093796536 14408667
0.7730909 0.064910606 0.091277353 14146005
0.74825001 0.072938591 0.099811219 15197925
0.75713342 0.074808083 0.097684592 15000547
0.76450008 0.075264782 0.094069533 14540507
0.77400011 0.075034536 0.091549516 14342870
0.75857151 0.083456531 0.098650694 15066340
0.76369244 0.083999999 0.095677495 14868959
0.77476925 0.085357234 0.092602164 14802911
0.78000003 0.08790037 0.091264486 15132133
0.76900005 0.090261236 0.098978639 15657707
0.77480006 0.092031993 0.0975466 14934498
0.78733337 0.094462797 0.093759418 11579307
0.79150003 0.097227193 0.091990851 11579819
0.78766674 -0.16108938 0.105066 10657438
0.74450004 -0.15226212 0.10976832 14802911
0.75800002 -0.15147468 0.10820977 12696764
0.76499999 -0.1528741 0.10741819 11381160
0.77475005 -0.15406699 0.10470372 11644331
0.78340006 -0.15746765 0.10303263 10656667
0.74490005 -0.14467077 0.1091278 14408407
0.75541669 -0.14432019 0.10636047 15197153
0.764 -0.14531305 0.10314515 15789547
0.77200001 -0.14884937 0.10207567 16185074
0.736 -0.13366315 0.10925118 15198179
0.7452001 -0.13478383 0.10707619 14408407
0.75500011 -0.1352171 0.10398939 15921645
0.76000005 -0.13497104 0.10137858 16250099
0.73346668 -0.12476388 0.10836709 14934753
0.74445456 -0.12508206 0.10548076 14869215
0.75555557 -0.12533033 0.10254799 16250865
0.76000005 -0.12785433 0.10137859 16447989
0.7288 -0.11407538 0.10915966 15461098
0.73281252 -0.11513137 0.10675374 15000547
0.74410009 -0.11490054 0.10395817 14671836
0.75524998 -0.1153405 0.10140484 15724520
0.72816664 -0.10459999 0.10906481 15856111
0.7323333 -0.10519858 0.10625592 15197924
0.74428576 -0.10479771 0.10313606 15329251
0.75450009 -0.10485404 0.10064492 16579572
0.72666669 -0.094466992 0.10912222 15263972
0.73294455 -0.094992206 0.10634432 15066592
0.7447058 -0.09502925 0.10271835 15395043
0.75220001 -0.094848499 0.10033812 16447985
0.72447062 -0.085166357 0.1086058 15395557
0.73380005 -0.08427836 0.10509402 15066593
0.74407697 -0.085912943 0.10246609 15197919
0.75050008 -0.0867263 0.10011136 16316912
0.71900004 -0.072985955 0.10937501 15198179
0.72372216 -0.075156629 0.10726293 15066593
0.73338473 -0.074776404 0.10403288 14277333
0.74308342 -0.075431935 0.10172915 15461603
0.71900004 -0.064569987 0.10937501 15724523
0.72333336 -0.064959154 0.10664233 15330022
0.73366672 -0.064740419 0.10344338 14606297
0.74277776 -0.064678423 0.10139757 15592675
0.71900004 -0.054470841 0.10937501 15329765
0.72377783 -0.054831371 0.1067076 15461608
0.73300004 -0.055529326 0.1037809 14672348
0.74290907 -0.054935239 0.10162623 15790311
0.71900004 -0.044371691 0.10937501 15395558
0.72338462 -0.044968579 0.10730284 15330022
0.7335335 -0.045326252 0.10482669 14672606
0.74524999 -0.044391278 0.10217012 15922157
0.75280005 -0.04381036 0.10041817 16381935
0.71899998 -0.033911854 0.10913455 15132386
0.72299993 -0.034695283 0.10736474 15197922
0.73275 -0.034210533 0.10531641 15132386
0.74492866 -0.035259072 0.1026023 15329509
0.7536 -0.035041589 0.10052487 16447475
0.71899998 -0.025014982 0.10853342 14540506
0.7246365 -0.023978215 0.10606499 14540506
0.73385715 -0.024672225 0.10390003 14342613
0.74390912 -0.025409568 0.10176346 15066078
0.75000006 -0.02960504 0.10004466 15328995
0.71900004 -0.015757425 0.10937501 14672092
0.72231263 -0.015300147 0.10659798 14540506
0.73377776 -0.014363893 0.10302913 14079954
0.74300003 -0.015068183 0.10085028 15132384
0.71900004 -0.0056582741 0.10937501 14540506
0.72333336 -0.0056909453 0.10664167 14474713
0.73419994 -0.0049172565 0.10308775 13882319
0.74300003 -0.0049755843 0.10085028 14868443
0.71900004 0.0044408781 0.10937501 14671838
0.72372234 0.0044686785 0.10669824 14540252
0.73443764 0.0047515272 0.10333637 14079698
0.74342859 0.0044680201 0.10115593 14868700
0.71883327 0.014535879 0.10850806 14606043
0.7239334 0.015148808 0.10537461 14277079
0.73381257 0.014625299 0.10249746 13685197
0.74220002 0.014136696 0.1007417 14803421
0.71837497 0.025038119 0.10780713 14145238
0.72421438 0.024334531 0.10459292 13882323
0.73438889 0.025166344 0.10139483 14013906
0.71800005 0.034690015 0.10754049 14408410
0.72391671 0.034975395 0.10418829 13882323
0.73250002 0.035390582 0.10199552 13487561
0.74025005 0.03489738 0.10047701 14474456
0.71805561 0.044778913 0.1075488 14474460
0.72383338 0.045138508 0.10417638 14211031
0.73330772 0.045665164 0.10177506 13816783
0.74033338 0.042990699 0.10048833 14869471
0.71861112 0.054907247 0.10763265 14605790
0.72350001 0.055280466 0.10412858 14276824
0.73378575 0.055085894 0.10155785 13948626
0.74000001 0.051344126 0.10044308 14935521
0.71849996 0.064990565 0.10845736 14342874
0.72350013 0.064595297 0.10533606 14211288
0.73300004 0.064784341 0.102526 13619149
0.74200004 0.065384634 0.10071454 15067106
0.71900004 0.072946787 0.10903837 14737887
0.72392857 0.075403914 0.10757705 14474458
0.7335 0.074934788 0.10470871 13816530
0.74400002 0.075453863 0.10209183 14934754
0.75200003 0.078584582 0.10031144 15066598
0.72275001 0.082294986 0.10909626 14803425
0.7334286 0.082160495 0.10665777 14408667
0.74563652 0.083551966 0.10406139 15395820
0.75433338 0.085402779 0.10219065 15527149
0.76233339 0.089478731 0.10168594 15658477
0.7753334 0.09403155 0.10160654 13816274
0.78900003 0.099996991 0.10524698 11645614
0.77900004 -0.16022913 0.11120766 10525853
0.78833342 -0.16399437 0.11253928 10394267
0.72499996 -0.15275671 0.11718822 13947859
0.73412496 -0.15207176 0.11188535 13816530
0.74500006 -0.15497988 0.1115861 14145238
0.72499985 -0.14506933 0.11690257 15329768
0.73379993 -0.14508864 0.11150654 14606300
0.71900004 -0.13105607 0.11947417 15723753
0.72374994 -0.1352565 0.11580345 15527144
0.73257154 -0.13598385 0.11094756 15066593
0.71899992 -0.12478235 0.11870909 15789033
0.72337914 -0.12513714 0.11371055 15526630
0.73000002 -0.12964322 0.11104834 15198179
0.71888232 -0.11479995 0.11787043 15658217
0.72250009 -0.11520147 0.1126506 15527144
0.71855563 -0.10490236 0.11771724 15789806
0.72262502 -0.10507087 0.11245844 15790316
0.71814287 -0.094393671 0.11716829 15724525
0.72210526 -0.095677964 0.11224534 15724523
0.71783864 -0.084279135 0.11570012 15592937
0.72040004 -0.087126419 0.11161156 15329765
0.71749991 -0.074513704 0.11502196 15395558
0.71716666 -0.064405672 0.11496811 15527144
0.71691179 -0.054559238 0.11472874 15395558
0.71660006 -0.044917285 0.11485159 15395558
0.7165882 -0.035291657 0.11497354 15066594
0.71637136 -0.025642624 0.11495998 14803421
0.71583337 -0.015689068 0.11475226 14342870
0.71454751 -0.0056235977 0.11537914 14540251
0.71464282 0.0044139945 0.1153924 14342874
0.71411908 0.014440014 0.115309 14277080
0.71302384 0.024433516 0.11513411 14013651
0.70900005 0.036744859 0.11947229 14737632
0.71261537 0.03423772 0.11468308 14408665
0.70866674 0.045022592 0.11886285 14277080
0.71281815 0.044224646 0.11388792 14539995
0.70900005 0.053342674 0.11919564 14474459
0.71286476 0.054760501 0.11447559 14605789
0.70900005 0.065791041 0.11947228 14408670
0.71308094 0.064432889 0.11446503 14539997
0.71392685 0.074506268 0.11515561 14935012
0.71693343 0.084488347 0.11560409 15066598
0.71875 0.091514379 0.11817023 15066600
0.78900003 0.099996991 0.11078817 11974579
0.71894437 -0.15348697 0.12619692 13684175
0.72000003 -0.15315028 0.12132587 14408669
0.7183333 -0.14522928 0.12608778 15461097
0.72000003 -0.14556538 0.12132586 15856368
0.71791637 -0.13506052 0.12517259 15855852
0.71722215 -0.1248564 0.12505192 15789288
0.71616662 -0.11461338 0.12486698 15855081
0.71494102 -0.10462055 0.12445583 15724012
0.71430564 -0.094804399 0.12454247 15724268
0.71402454 -0.084771872 0.12520564 15592426
0.71429265 -0.075015113 0.12537429 15263974
0.71340007 -0.065278433 0.12534393 15263974
0.71307492 -0.055648841 0.12516282 15330023
0.71329713 -0.045757294 0.12452672 14935007
0.71391678 -0.035700712 0.12447605 14606044
0.71302509 -0.025476515 0.12490473 14211286
0.71221423 -0.015608961 0.1250145 13684942
0.71119452 -0.0055981148 0.12566736 14014163
0.7088334 0.0065903463 0.12746412 13816273
0.71029168 0.0032782771 0.12440027 14013909
0.70854169 0.014328289 0.12685813 13750991
0.71000004 0.014358026 0.12213396 14013909
0.70844001 0.024442999 0.126674 13422026
0.71000004 0.023953008 0.12205841 13553358
0.70797378 0.034770921 0.12540382 13882324
0.71000004 0.030148193 0.12130291 13290188
0.7075386 0.045333039 0.12483045 14145751
0.70808339 0.055760588 0.12511875 14145751
0.70800012 0.065698043 0.12510319 14080475
0.70845002 0.074032873 0.12642723 14409696
0.71063638 0.076908745 0.12277112 14936297
0.71390009 0.084469333 0.12505479 15461357
0.7181924 0.09406361 0.12580529 15724272
0.71788889 -0.15195549 0.13403898 13289160
0.715909 -0.14512207 0.13465126 15065569
0.71367443 -0.13509583 0.13529046 15723753
0.71394855 -0.12516333 0.13508624 15723497
0.71325648 -0.11545237 0.13521414 15855339
0.71302843 -0.1056449 0.13445847 15527144
0.71273673 -0.095535181 0.13459121 15460841
0.71183783 -0.085704312 0.13562258 15263463
0.71158344 -0.07556387 0.13573188 15066340
0.71206242 -0.065821975 0.13530369 14934497
0.71249992 -0.055645432 0.13507424 15066081
0.71291417 -0.045592964 0.13443749 14934752
0.71308327 -0.03566014 0.13435021 14211030
0.71231252 -0.02582575 0.13472575 13816528
0.71168578 -0.015478173 0.13563447 13289927
0.71069461 -0.0055945697 0.13556373 13355721
0.70839292 0.0053808717 0.13494676 13487308
0.71000004 0.00085327856 0.13605425 13421515
0.70800012 0.014317582 0.13504943 13355722
0.70788902 0.024257768 0.13502824 12895941
0.7070955 0.03499021 0.1348771 13224649
0.70705575 0.045748055 0.13486962 13684944
0.70705575 0.055678964 0.13486964 13553611
0.7067222 0.065579206 0.13480467 13750736
0.70755565 0.075598188 0.13496388 14540254
0.70900005 0.081558965 0.13772987 14671839
0.71171427 0.085624032 0.13492261 15263720
0.71626663 0.094134137 0.13494678 15592684
0.7173636 -0.15167394 0.14561383 13091524
0.71406251 -0.14504853 0.14492755 14670812
0.71086127 -0.13539751 0.14557801 15328997
0.71123677 -0.12539029 0.14534712 15526376
0.71159464 -0.115433 0.14557089 15460838
0.71219039 -0.10563933 0.14501658 15461097
0.71215373 -0.095909595 0.14513849 15263719
0.7118333 -0.085590348 0.14577994 15132132
0.71203023 -0.075838134 0.14544177 15132132
0.7129705 -0.065501064 0.14458857 14868960
0.71268278 -0.055599347 0.14523931 15066851
0.71344447 -0.045697078 0.14443976 15329508
0.7145834 -0.035734501 0.14467162 14671323
0.71419442 -0.025685284 0.14459391 13816015
0.71248484 -0.015540934 0.14523031 13158342
0.71108359 -0.0055979555 0.14562593 13026757
0.70893747 0.0069717714 0.14446031 12961221
0.71000004 0.0023076355 0.14598542 12961221
0.70842856 0.014207757 0.1449651 13027014
0.71000004 0.018513333 0.14955899 12763842
0.70840007 0.024275932 0.14424825 12961221
0.71000004 0.024330763 0.14955901 12895428
0.70835716 0.033987012 0.14400248 12829379
0.71000004 0.035134561 0.14914347 13092808
0.70835704 0.044943649 0.14346923 13092808
0.71000004 0.043898482 0.14880349 12632001
0.708 0.055326391 0.14510736 13355978
0.71000004 0.050093669 0.14955899 13421774
0.70669454 0.065576524 0.14472789 13553613
0.70784855 0.07525216 0.14473794 14145753
0.71131253 0.084638745 0.1454639 14606047
0.71543324 0.094025411 0.14484252 14935012
0.71644437 -0.15258127 0.15585499 12894145
0.71331042 -0.14510934 0.15491976 14473432
0.71036124 -0.13530274 0.15545648 15131617
0.71025002 -0.12530436 0.15543243 15263460
0.71080571 -0.1154174 0.15555304 15131873
0.71127796 -0.10550311 0.15565588 15263716
0.71238226 -0.095758431 0.15535808 14868960
0.71280009 -0.085706718 0.15515552 14803167
0.7128787 -0.075474352 0.15471719 14803168
0.71286476 -0.065575868 0.15449196 15000547
0.71199995 -0.055607334 0.15581405 14934754
0.71316653 -0.045680389 0.15439919 15329255
0.71525007 -0.03576602 0.15485026 15000545
0.71572208 -0.025739942 0.15495376 14079445
0.71382374 -0.015842764 0.15478921 13487308
0.71212906 -0.0054719718 0.15517147 12961221
0.70900005 0.0085285669 0.15183802 13158343
0.71047068 0.0041423887 0.15567648 13092550
0.70900005 0.011516175 0.15167204 12829378
0.71035492 0.014821889 0.15601838 12895171
0.71116662 0.024371199 0.15563408 12632256
0.71127784 0.034365494 0.15565871 12829635
0.71108353 0.044342592 0.15561491 12961222
0.70859259 0.056628466 0.15417798 12632514
0.71006668 0.052092917 0.15699811 12237756
0.70800018 0.065697856 0.1549397 13224137
0.70850003 0.073540688 0.15471748 13948374
0.71000004 0.077684909 0.15604128 13948887
0.71228576 0.084419362 0.15518576 14343133
0.71649998 0.09416528 0.15512314 14540254
0.71628559 -0.15284091 0.16493474 12763585
0.71383864 -0.14510576 0.16508302 14473945
0.71113902 -0.13545114 0.16561361 15197411
0.71097249 -0.12543194 0.16557568 15197412
0.71100026 -0.11544992 0.165582 15131619
0.7116667 -0.10556065 0.16573785 15197924
0.71318418 -0.094800219 0.16486172 15000543
0.71345156 -0.085111693 0.16434959 14868701
0.71299988 -0.075715184 0.16437869 14737372
0.71268415 -0.065584786 0.16487585 14868958
0.71199995 -0.055607334 0.16581489 14803166
0.71274352 -0.045845516 0.16476794 14934753
0.71491677 -0.035748828 0.16482116 15000289
0.71599978 -0.025748694 0.16507028 14408152
0.71519446 -0.015674969 0.16488506 13816271
0.71417147 -0.0057418076 0.16476995 13487564
0.71240002 0.004398318 0.16507648 13158600
0.71156669 0.014389201 0.16488259 12895428
0.71209991 0.024403859 0.16500536 13092550
0.71266663 0.03443265 0.1651372 13092550
0.7123 0.044418462 0.16505235 13092550
0.71105891 0.054523915 0.16535299 12829378
0.70893747 0.066925973 0.16271615 12960965
0.71033353 0.063350864 0.16674431 12895171
0.70899999 0.073132373 0.16377568 13750482
0.71010536 0.075736977 0.1666425 13750995
0.71322858 0.084580868 0.16512322 14211289
0.71796674 0.094357967 0.16552471 13948115
0.71440011 -0.15304688 0.17456684 13157829
0.71234286 -0.14533021 0.17535 14671323
0.70900005 -0.13199961 0.17867117 15263719
0.71018171 -0.13554545 0.17503861 15197669
0.70900005 -0.12923332 0.17922443 15132133
0.71022838 -0.12518115 0.17525877 15329512
0.71063888 -0.11539041 0.17547837 15329512
0.71205556 -0.10561788 0.1758287 15395304
0.71441865 -0.095212005 0.17487636 15197667
0.7151143 -0.084430732 0.17503203 14933983
0.71374196 -0.075120956 0.17444351 14802653
0.71272725 -0.065904185 0.17470683 14934239
0.71166682 -0.055580903 0.17490153 14868959
0.71287876 -0.045433052 0.17474382 14803166
0.7151112 -0.035759233 0.17490961 14868958
0.71599978 -0.025748696 0.17512733 14211029
0.71591645 -0.015690211 0.17510699 13882066
0.71536106 -0.0056310999 0.17497157 13618894
0.71455574 0.0044123214 0.17477581 13619151
0.71408331 0.014440179 0.17466147 13290441
0.71430552 0.024478467 0.17471713 12960964
0.71466678 0.034529559 0.17480433 13289929
0.71458352 0.044561304 0.17478287 13224393
0.71334368 0.054294176 0.17500162 13027014
0.71193331 0.064394869 0.17496775 12961221
0.71178788 0.074156202 0.17538676 13488079
0.71587878 0.084945597 0.17522715 14211546
0.71877271 0.094003581 0.17473517 13882324
0.71440005 -0.15329848 0.18527463 13551815
0.71169448 -0.14555623 0.18517992 14671322
0.70900005 -0.13338277 0.1808842 14802398
0.70999974 -0.13533081 0.18553902 15263203
0.70900005 -0.12923332 0.1808842 15066340
0.71002829 -0.12514655 0.18542098 15394790
0.71019435 -0.11531813 0.18534535 15460841
0.71119457 -0.10549006 0.18560566 15526891
0.71270448 -0.095171094 0.18493563 15591914
0.71568412 -0.084682442 0.18527836 15131361
0.71627754 -0.074388124 0.18525785 14802654
0.71469712 -0.064564757 0.18507807 14868960
0.7140587 -0.055226181 0.18458776 14868960
0.71448588 -0.045645226 0.18467529 14737375
0.71522224 -0.035766676 0.18498431 14606046
0.71594417 -0.02574637 0.18517023 14211286
0.7161665 -0.015694747 0.18522818 13882322
0.71638858 -0.0056379866 0.18528648 13553101
0.7158609 0.0044208071 0.18514936 13355722
0.71577764 0.014475647 0.18512708 13158086
0.71599978 0.024536373 0.18518434 13026757
0.71619415 0.034603331 0.18523556 13289929
0.71627754 0.044666681 0.18525799 13421515
0.71527773 0.054651003 0.18499893 13224393
0.71333337 0.064521603 0.18449557 13158600
0.7141819 0.074863337 0.18509488 13553614
0.71791184 0.085009545 0.1851355 14342873
0.71899992 0.092688225 0.18295453 14474460
0.72022229 0.095027357 0.18674509 14737630
0.71533334 -0.1543133 0.19493996 13091520
0.70900005 -0.1408518 0.19582224 15460581
0.71151417 -0.14563908 0.19508781 14671068
0.70900005 -0.13836211 0.1991418 15460324
0.71011746 -0.13505933 0.19505475 15395046
0.7102499 -0.12530461 0.19533503 15526119
0.710778 -0.11541292 0.19548064 15657962
0.71094477 -0.10545517 0.19552681 15855086
0.71121639 -0.095391475 0.19544236 15789292
0.71439987 -0.08527942 0.19519183 15657963
0.71594417 -0.074352995 0.19522387 15131874
0.71525002 -0.064233899 0.19503576 14934496
0.71541172 -0.054444045 0.19488284 14868958
0.7156561 -0.045316856 0.19535556 14737117
0.71594423 -0.035802599 0.19522591 14342617
0.71633309 -0.025760356 0.19533363 14013652
0.71680522 -0.015708648 0.19546171 13882322
0.71699971 -0.0056425356 0.19551411 13684686
0.71624976 0.0044226237 0.19530959 13553098
0.71544439 0.014469489 0.19509025 13421512
0.71602756 0.024537489 0.19524884 13158341
0.71686077 0.034635801 0.19547619 13684685
0.71691638 0.044707149 0.19549157 13684687
0.71608323 0.054712642 0.19526593 13750737
0.71500003 0.064672224 0.1949712 13487565
0.71577764 0.074801467 0.19518183 14145235
0.71827269 0.084768318 0.19496846 14540506
0.72000003 0.089566469 0.19605117 14343127
0.72029179 0.093819208 0.19472556 14145491
0.71568179 -0.15360467 0.20573913 12829122
0.70900005 -0.14108892 0.20554383 15131619
0.71169239 -0.14613198 0.2047026 14473690
0.70838231 -0.13512006 0.2050148 15328996
0.71000004 -0.13190877 0.20108481 15986925
0.70833337 -0.12496593 0.20558615 15460582
0.71000004 -0.12526028 0.20108481 15592167
0.70827997 -0.11517423 0.20623417 15395045
0.71000004 -0.11490979 0.20184034 15724010
0.70845836 -0.1050859 0.20645183 15658217
0.71000004 -0.10531481 0.20191588 15724010
0.70851845 -0.095542759 0.20594695 15790060
0.71011114 -0.09415593 0.201855 15855853
0.70853335 -0.085690536 0.20763515 15987695
0.71148008 -0.084712155 0.20303312 15855854
0.70900005 -0.076120302 0.20910048 15855855
0.71213889 -0.075391687 0.20446368 15790062
0.71262801 -0.065528519 0.20504303 15658477
0.71331716 -0.055607021 0.20548102 15592684
0.71399993 -0.045909137 0.20502929 15395560
0.71524996 -0.035766408 0.20508152 15198180
0.71633309 -0.025759835 0.20539206 14737629
0.71680522 -0.01570878 0.20552844 14342872
0.71699971 -0.0056425352 0.20558503 14079956
0.71669674 0.004349506 0.20511791 14013905
0.7163887 0.014486641 0.20541126 13684940
0.71574992 0.024527187 0.205226 13421769
0.71661079 0.034624603 0.20547216 13882322
0.71738887 0.04473656 0.20569593 13948372
0.71711087 0.054791853 0.20561713 13882836
0.71647197 0.064805299 0.2054341 13684944
0.7161665 0.074840419 0.20534594 14276311
0.71826929 0.08411514 0.20471956 14934496
0.71999997 0.089084886 0.20512094 14803423
0.72100008 0.093663707 0.20440057 14145494
0.71504539 -0.15407638 0.21453467 12631743
0.70891672 -0.14166515 0.21488477 15000031
0.71169579 -0.14711314 0.21510994 14407895
0.70797235 -0.13484693 0.21459803 14934238
0.70736867 -0.1246227 0.21471822 15065823
0.70647633 -0.11471596 0.21496941 15066081
0.70626205 -0.10476002 0.214904 15394791
0.70664263 -0.0948909 0.21501915 15658221
0.70685738 -0.084991388 0.21508405 15724013
0.70690471 -0.075067624 0.21509816 15855599
0.70705128 -0.065343425 0.21552396 15921392
0.71000004 -0.062930681 0.21105754 16053235
0.70727265 -0.055463433 0.21641454 15921392
0.71033335 -0.054644935 0.21171068 15855856
0.70814288 -0.046423588 0.21784592 15526635
0.71133351 -0.044915251 0.2133013 15592683
0.70900005 -0.035455652 0.21905918 15329256
0.71191669 -0.035600889 0.21412259 15592683
0.71264285 -0.025627097 0.21517184 15329511
0.71407145 -0.015647044 0.21560326 15198183
0.71633315 -0.005635988 0.21545297 14671839
0.71748722 0.0044973237 0.21534878 14145748
0.7169165 0.014496176 0.21563067 13619403
0.7151112 0.024504287 0.21508729 13619404
0.71497226 0.034544609 0.21504442 14014165
0.71569431 0.044630796 0.21526048 14013909
0.71508324 0.054636884 0.21507481 13948116
0.71486104 0.06466151 0.21500853 14079702
0.71572208 0.074795216 0.21527106 14408667
0.71841383 0.084209867 0.21477608 15198184
0.71999997 0.089325681 0.21475254 14934756
0.72143751 0.093019634 0.21477237 14408154
0.71505004 -0.15343773 0.22544846 13026243
0.70900005 -0.1410889 0.22427563 14671065
0.71144444 -0.14621437 0.22493269 14210516
0.70761126 -0.13477981 0.22442791 14868444
0.70634192 -0.1246163 0.22485131 14671322
0.70530546 -0.11452668 0.22534683 14868960
0.70455575 -0.10450659 0.22510637 15132131
0.70508319 -0.094681092 0.22527473 15197926
0.70586103 -0.084871002 0.22552477 15132133
0.70599985 -0.074971832 0.2255697 15263461
0.70558321 -0.065017179 0.22543666 15198182
0.70574993 -0.055118393 0.2254898 15395302
0.70641458 -0.045146897 0.22499405 15329253
0.70676208 -0.035343725 0.2249821 15132387
0.70702374 -0.025425525 0.22506459 14540253
0.70745462 -0.016030062 0.22585541 14737376
0.71028572 -0.014021709 0.2215941 15132392
0.70841676 -0.0066802409 0.22772332 15000806
0.71183342 -0.0051565748 0.22337389 15263977
0.70900005 0.00022965853 0.22901788 15329769
0.71314633 0.0045085559 0.22521803 14803424
0.71415007 0.014275327 0.22540924 13684940
0.71346158 0.024511961 0.22506027 13422025
0.71314633 0.034354251 0.22522421 13882576
0.71350008 0.044494048 0.22462445 13750735
0.71276909 0.05465205 0.22484371 13816530
0.71221936 0.06432122 0.22493279 13947859
0.7146666 0.074687116 0.22499166 14408411
0.71832436 0.08508864 0.22489311 15066339
0.71899998 0.091606177 0.2252748 15197927
0.72000003 0.092600428 0.22414339 15329769
0.71472234 -0.15314421 0.23430416 13025986
0.70900005 -0.1408518 0.23482712 14934494
0.71151727 -0.14617994 0.23545852 14407894
0.70752513 -0.13459773 0.23491755 14934494
0.70618403 -0.12476204 0.23524269 14868957
0.70522213 -0.11451338 0.23522761 14671581
0.70402801 -0.10443003 0.23482858 14935007
0.70349997 -0.094468638 0.23465078 15066594
0.70524997 -0.084795631 0.23523511 15066339
0.70599985 -0.074971832 0.23548619 15000544
0.70633322 -0.065084882 0.23559836 14803165
0.70667672 -0.055191718 0.23547029 14737371
0.70611089 -0.045229882 0.23552367 14803421
0.70599985 -0.03530563 0.23548624 14408663
0.70599985 -0.025389073 0.23548624 14079444
0.70610505 -0.015300299 0.23521617 14013909
0.70671415 -0.0055610333 0.2348941 14737632
0.70739472 0.0040649576 0.23559882 15066853
0.71025002 0.0072970111 0.23149988 14803168
0.70820004 0.012941128 0.23815304 14737885
0.71103859 0.015148996 0.23364344 14211542
0.71158975 0.024321731 0.23523338 13685197
0.71186483 0.034506448 0.23561721 13948369
0.71238083 0.044425715 0.23511103 13882320
0.7123332 0.054233644 0.23548111 13684686
0.71224993 0.064426504 0.23562543 13882064
0.71450001 0.074668929 0.2349769 14539996
0.71808332 0.085128658 0.23503311 15000801
0.71900004 0.091125265 0.23224804 15263972
0.72108346 0.092799 0.23489074 14211026
0.70900005 -0.15081048 0.24893527 12894654
0.71161544 -0.15226413 0.24446651 12828861
0.7083478 -0.14317463 0.24610938 14539993
0.71068758 -0.14763524 0.24349481 14013392
0.70694739 -0.13482733 0.24542603 14935008
0.70599985 -0.1245546 0.24540281 14671579
0.7058332 -0.1146119 0.24534509 14605531
0.70433336 -0.10447702 0.24482346 14671066
0.7028681 -0.094211638 0.24461661 14868702
0.70405555 -0.084652327 0.24472472 15197926
0.70525008 -0.074891433 0.24513954 15198182
0.70599979 -0.065054029 0.24540122 15461096
0.70657891 -0.055184133 0.24529707 15000802
0.7060554 -0.045226064 0.24542186 14671835
0.70599985 -0.03530563 0.24540281 14211028
0.70661122 -0.025409875 0.24561623 13618891
0.70624995 -0.015479267 0.24548939 13618892
0.70561099 -0.005553884 0.24526641 14079702
0.70527774 0.0043561878 0.24514969 14540254
0.70625627 0.014475188 0.24504334 14540507
0.70777142 0.023758631 0.24580269 14343383
0.71000004 0.026546927 0.24152978 14014421
0.70871431 0.033412661 0.24753095 14408666
0.71054554 0.03485956 0.24350379 14146009
0.71080559 0.044327483 0.24540731 14211288
0.71169448 0.05437886 0.24571466 14145494
0.71162164 0.064480945 0.24553122 14013905
0.71340001 0.074387461 0.24521558 14474202
0.71819997 0.08521466 0.24500683 14934755
0.71900004 0.091125265 0.24537691 15066597
0.72233337 0.093525112 0.24403256 12566462
0.70840007 -0.1513463 0.25485897 12960450
0.70721054 -0.14463805 0.25492725 14211029
0.7060554 -0.13448197 0.25533903 14803164
0.70591652 -0.12454031 0.25528872 14737375
0.70524991 -0.11451753 0.25504646 14474459
0.70374995 -0.10422502 0.25508037 14408409
0.70252466 -0.094504356 0.25513095 14671579
0.70183307 -0.084388323 0.2546317 15131876
0.70183325 -0.074528657 0.25463009 15395048
0.70273811 -0.064752564 0.25495729 15658220
0.70437491 -0.055174965 0.25530487 15790062
0.7054444 -0.04518529 0.25511774 15658476
0.70599985 -0.035305627 0.25531924 14934238
0.70608312 -0.0253923 0.25534889 14013136
0.70577759 -0.015468367 0.25523794 13553355
0.70447505 -0.0053807111 0.25534311 13882323
0.7029525 0.004340813 0.25503549 14145495
0.70341849 0.014361557 0.25531834 14474460
0.70579988 0.024725677 0.2552861 14540508
0.70711905 0.034873772 0.25489259 14606302
0.70772094 0.045000777 0.25518671 14474460
0.71000004 0.048431545 0.25094849 14277081
0.70784855 0.055364721 0.25636181 14606046
0.71000004 0.055080034 0.25150254 14408667
0.70791686 0.065690666 0.25600979 14474202
0.71000004 0.063628092 0.25118592 14145491
0.70844454 0.072834581 0.25684792 14539738
0.71129179 0.075928196 0.25403991 14671581
0.71679479 0.084913224 0.25489524 15132391
0.71899998 0.091798544 0.25463447 13158602
0.70840007 -0.15201022 0.26398098 12433850
0.71000004 -0.15434743 0.26756972 12368057
0.70686108 -0.1445671 0.2650069 14408408
0.70599985 -0.13447112 0.26523581 15197922
0.70536101 -0.12444314 0.26499501 14934237
0.70441681 -0.11438221 0.26464096 14802651
0.70327759 -0.10431933 0.2653102 14605531
0.70188874 -0.094254568 0.265333 14671323
0.70077789 -0.084261805 0.26491329 14935007
0.69866663 -0.073102959 0.26875004 14868961
0.70013344 -0.074786298 0.26396 14934497
0.69858336 -0.065053202 0.26885423 15329512
0.70043343 -0.064268164 0.26401806 15395305
0.69900006 -0.057864774 0.26996976 15658477
0.70181561 -0.054635964 0.2650004 15658477
0.70428205 -0.045299869 0.26503149 15790064
0.70538884 -0.03527461 0.2650049 15131877
0.7047435 -0.025155798 0.26520398 14145239
0.70290482 -0.015406191 0.26488948 13882323
0.69866669 -0.0043181251 0.26911399 14211288
0.7015143 -0.0060150572 0.26455513 14276824
0.69828564 0.0045465371 0.26665691 14211288
0.70028573 0.0038559155 0.26180074 14408410
0.69853848 0.011925598 0.26765269 14013652
0.70047069 0.015902907 0.26426634 14211031
0.7026667 0.025726534 0.26479992 14342617
0.70426172 0.035676103 0.26540142 14540253
0.70532435 0.045525081 0.26513559 14539996
0.70566654 0.055570111 0.26510921 14408667
0.70616668 0.065528706 0.26529765 14605791
0.70788455 0.073847644 0.26473176 14934496
0.71033335 0.078386545 0.26519942 15197667
0.71457493 0.084717222 0.26510769 15461097
0.71723074 0.09167628 0.26486734 12500671
0.70812505 -0.15186848 0.2750476 12960193
0.71000004 -0.15434743 0.271725 11841714
0.70655268 -0.14467774 0.27506131 14539992
0.70517141 -0.13447969 0.27480391 15395045
0.70380491 -0.12499142 0.27511725 15263716
0.70348889 -0.11483326 0.2751033 15000543
0.70241666 -0.10487709 0.27498633 15066337
0.69855553 -0.093169935 0.27833787 15198436
0.70058626 -0.095577456 0.27420065 14868959
0.69811541 -0.085386865 0.27666655 14935008
0.70012492 -0.085514024 0.27183813 14935007
0.69672501 -0.075457022 0.27536637 14803165
0.69610852 -0.065276518 0.27515447 15132132
0.69648832 -0.054944027 0.2759712 15526891
0.7001667 -0.052497223 0.27096656 15592684
0.69791669 -0.046745677 0.27758375 15724270
0.70170969 -0.04412397 0.27376816 15790064
0.70328569 -0.035169505 0.27491349 14935012
0.69825 -0.022045976 0.27764803 13421515
0.70176458 -0.025964543 0.274223 14013910
0.69722229 -0.014918851 0.27553639 13882066
0.70012498 -0.016163854 0.27081394 13750737
0.69659513 -0.0054825419 0.27555925 14145495
0.69641465 0.0042024581 0.27537012 14079702
0.69715905 0.01480462 0.27522707 13684944
0.70000005 0.019071938 0.270356 13816530
0.69761306 0.02519693 0.27575356 13685199
0.70009094 0.026598979 0.27128494 13948116
0.69821435 0.033851881 0.27772138 13816527
0.70096296 0.03614755 0.27382544 13750737
0.70253658 0.045557216 0.27474034 14079702
0.70380944 0.055424832 0.27511832 14211288
0.70527774 0.065447465 0.27486989 14474461
0.70715153 0.074977905 0.27547398 15000548
0.71000004 0.078349754 0.271725 15131365
0.70900005 0.081558965 0.27881134 14999777
0.71270275 0.084965974 0.27516752 15592426
0.71561539 0.091598853 0.27509511 11776690
0.78100002 0.10995308 0.27969998 11382442
0.70646161 -0.15116137 0.28480786 13092808
0.7052812 -0.14481047 0.28482804 14145238
0.70254993 -0.13546017 0.28474081 15197668
0.70130545 -0.12536858 0.28481248 15263462
0.69870001 -0.11443535 0.28882757 15066340
0.70071894 -0.11562634 0.28406221 15131875
0.69796157 -0.10472392 0.28634676 14606044
0.70037496 -0.10624498 0.28187481 14869213
0.69735152 -0.094990715 0.28525859 14606045
0.70000005 -0.099188484 0.28073451 15132384
0.69621432 -0.08534272 0.28518957 14540253
0.69513136 -0.075616919 0.28526187 14474201
0.69499987 -0.065668672 0.28550839 14605533
0.694857 -0.05508193 0.28544927 15263463
0.69592673 -0.044674098 0.28519025 15329256
0.70000005 -0.041287314 0.28073451 15592685
0.69683862 -0.03497934 0.28691745 15066085
0.70047063 -0.034788128 0.28191924 15066598
0.69655001 -0.024887938 0.28557009 13947346
0.70020002 -0.027967477 0.28092378 15000547
0.69507492 -0.015397054 0.28496781 13816273
0.6944167 -0.0054651042 0.28526714 13947859
0.69448847 0.0051784432 0.28516391 14079702
0.69499981 0.015702052 0.28481236 13816530
0.69566643 0.025468985 0.2849651 13882323
0.69654769 0.0352856 0.28532583 14145238
0.70000005 0.039555848 0.28018826 13487561
0.69747072 0.044600401 0.28565621 14013652
0.70019996 0.046452314 0.2810877 14079445
0.6984545 0.052698459 0.28759596 14211032
0.70113796 0.055866081 0.28403789 14276825
0.70347625 0.065281354 0.28487009 14605789
0.70583785 0.075525962 0.28484514 15066341
0.70807415 0.084524117 0.28562865 14802911
0.71025002 0.087106705 0.28283548 14934494
0.71220005 0.090597734 0.28206754 11250599
0.7770834 0.11273879 0.28633055 11053475
0.78385717 0.11656135 0.28395015 11053475
0.78815389 0.12259923 0.28595093 11119268
0.79250008 0.1264165 0.2838141 11053475
0.70600003 -0.15017235 0.29333279 12039864
0.7045334 -0.14474963 0.29475719 13223623
0.69820005 -0.13118781 0.29777408 14803170
0.70082873 -0.13543431 0.29448873 14671581
0.69799995 -0.12458543 0.2951487 14869220
0.70000005 -0.12595412 0.29043019 15329512
0.69769454 -0.1149229 0.29478014 14868962
0.69700032 -0.10501821 0.29448843 14408667
0.69587487 -0.095239297 0.2950699 14211287
0.69488883 -0.085179739 0.29522237 14014164
0.6944167 -0.075367697 0.29502097 14079700
0.69436121 -0.065608278 0.29499739 14342616
0.69428575 -0.055036958 0.29496577 14671582
0.69430566 -0.044472679 0.29497397 15066341
0.69452769 -0.034731824 0.2950682 14671581
0.69455558 -0.02497803 0.29508007 13684684
0.69365811 -0.015032775 0.29499754 13553100
0.69254774 -0.0054505765 0.29503602 14013393
0.69277555 0.0050915708 0.29513335 14210773
0.69397235 0.015658926 0.29483333 14079702
0.69438893 0.025421951 0.29500934 14079702
0.69491649 0.035202112 0.29523429 14474203
0.69607502 0.045202393 0.29515436 14277079
0.69737858 0.054631658 0.2950654 14408410
0.70000005 0.058674157 0.29056677 14013654
0.69791305 0.064300753 0.29654193 14079446
0.7008422 0.065595753 0.2922678 14408411
0.6982857 0.072620831 0.29841784 14211288
0.70279998 0.075337045 0.29425865 14869214
0.70670587 0.084656417 0.29493594 15591652
0.71000004 0.089984618 0.29499471 12498353
0.71383339 0.092427157 0.29742375 10260875
0.77750003 0.11401245 0.29118752 10921889
0.78312504 0.11781666 0.29421303 11053218
0.78785723 0.12330396 0.29493523 11053218
0.79025 0.12767436 0.29503766 11119011
0.70386672 -0.14461346 0.30524114 13091780
0.69750005 -0.1329702 0.30577776 14737377
0.70071429 -0.13815176 0.30414084 14408154
0.69690502 -0.12458101 0.30505231 14803170
0.69700038 -0.11480834 0.30509463 14606046
0.69692886 -0.10500785 0.30506346 14408667
0.69536096 -0.095006064 0.30519181 14145495
0.69425011 -0.085101575 0.30470434 13882066
0.69391686 -0.075313635 0.30455717 13750480
0.6936391 -0.06553939 0.30443522 13750480
0.69400018 -0.055013862 0.30459365 14474460
0.69400018 -0.044453532 0.30459368 14935012
0.69394755 -0.034702893 0.30486941 14474461
0.69373828 -0.024948478 0.30528921 14013652
0.69260007 -0.01534307 0.30503142 13947861
0.69163883 -0.0054438952 0.30517766 14145497
0.69119042 0.0050783809 0.3049781 14079960
0.69169044 0.015607717 0.30438602 13750994
0.69254768 0.025355492 0.30476269 14014423
0.69397384 0.034984227 0.30487981 14211288
0.69549984 0.045002323 0.30525291 14211288
0.69714707 0.054852504 0.30463231 14145238
0.70000005 0.059220396 0.30968508 14079702
0.69732457 0.064816788 0.30457571 14211031
0.69718438 0.07410188 0.30538911 14539738
0.70075005 0.078559794 0.30181339 14211029
0.69900006 0.080408633 0.30760631 15065570
0.70364273 0.085106544 0.30501324 15460579
0.71000004 0.089984618 0.30081216 16051687
0.70833331 0.09143161 0.30839634 9800575
0.71638459 0.094152249 0.30351451 10325377
0.72183341 0.098243661 0.30498335 10786183
0.72640002 0.10090703 0.3033402 10722707
0.73160005 0.10368469 0.30790821 10394512
0.79250002 0.11713788 0.30886507 10856095
0.78900003 0.12216174 0.30103567 10855839
0.79317647 0.12564957 0.30547205 10856096
0.69900006 -0.14082882 0.31709725 14013910
0.70221877 -0.14521143 0.31461859 12631743
0.69672728 -0.13515447 0.31510538 14737633
0.69590235 -0.1250951 0.3153019 14935270
0.69691694 -0.11479472 0.31566232 14803940
0.696639 -0.10496415 0.31553569 14541025
0.69583315 -0.095069945 0.31517226 13948374
0.69499987 -0.085384175 0.31455529 14013909
0.69427282 -0.075426914 0.31269267 14211288
0.69400018 -0.065476716 0.31326932 13882324
0.69400018 -0.054629076 0.31442705 14342875
0.69320023 -0.04424151 0.31454557 14803169
0.69244999 -0.034628484 0.31469062 14539997
0.69186109 -0.024881037 0.31499091 14145496
0.69232339 -0.01536231 0.31496561 13882839
0.6929667 -0.0054535959 0.31468743 13883095
0.69199997 0.0053017572 0.31451043 13883095
0.6916129 0.015474929 0.31422922 13685202
0.69220001 0.025342556 0.31433928 13816531
0.69387895 0.035422601 0.31441116 14145496
0.69655555 0.044679049 0.31438348 14211289
0.70033336 0.048865408 0.31912327 14145496
0.69844443 0.05273059 0.3124491 13948116
0.70039999 0.056384724 0.31560209 14145495
0.69811773 0.065981604 0.31289005 14079701
0.70057148 0.063720524 0.31685072 14079446
0.69710356 0.074620463 0.31453905 14605789
0.70000005 0.070691384 0.31951734 14276826
0.70293331 0.084818736 0.31487691 14407382
0.708 0.091388583 0.3132259 12103593
0.71200001 0.091904894 0.31832755 15656162
0.72200006 0.098266348 0.31096697 10455927
0.72883338 0.10090259 0.3147634 11180165
0.73400009 0.10553584 0.3145102 10326918
0.74100006 0.10952577 0.31394622 10658971
0.75000006 0.10910028 0.31249207 10658971
0.74600005 0.11201003 0.31736797 10724252
0.75674999 0.11406542 0.31795743 10593180
0.76200002 0.11530434 0.31838268 10658717
0.79303569 0.14486508 0.31497151 10790303
0.69800001 -0.14030053 0.32105547 13750997
0.70000005 -0.14397997 0.32115608 13684689
0.69610012 -0.13503174 0.32181129 11250864
0.69542867 -0.12652515 0.32091919 10592675
0.69680005 -0.11396025 0.32131916 8947597
0.69616669 -0.10489362 0.3210271 8553864
0.69400001 -0.052576862 0.32002795 12303808
0.69300002 -0.043989155 0.32078183 12895430
0.69154543 -0.034951285 0.32125074 12763586
0.69150007 -0.028105838 0.32049394 13882325
0.6936155 -0.013388344 0.32222402 12633799
0.69475758 -0.0052448492 0.32407573 12567492
0.694206 0.0047168666 0.32370839 12764871
0.6944688 0.016026529 0.32405627 12698562
0.69496769 0.025311688 0.32388771 12830660
0.69627279 0.034235526 0.32396701 13158855
0.70060003 0.038606524 0.32733589 13027268
0.69800001 0.041893873 0.32023847 14211288
0.70291311 0.045590404 0.32535782 13487563
0.70499998 0.055305228 0.32535025 13619405
0.70514292 0.065196931 0.32540649 13290443
0.69900006 0.075499512 0.32069728 14474462
0.70269233 0.073362999 0.32429403 12566465
0.70666671 0.086805992 0.32145697 11117475
0.71300006 0.092033982 0.32044381 14932693
0.72100008 0.09559726 0.32657224 8221806
0.72900003 0.10092566 0.32422149 10523785
0.736875 0.10503875 0.32405055 9734782
0.74150002 0.10873233 0.32370472 9932932
0.745 0.11186106 0.32174629 11248794
0.77350003 0.11795108 0.32137513 10592925
0.78700006 0.11779603 0.32200894 10724768
0.79150003 0.11791594 0.32051867 10724512
0.77600002 0.12196556 0.32514173 10658717
0.78675002 0.12511538 0.32480547 10659232
0.79079998 0.12595664 0.32097501 10724512
0.78900003 0.13139705 0.32597104 10659489
0.79057705 0.1359316 0.32448658 10724768
0.79186666 0.1448525 0.32530239 10790305
0.69700003 0.0189902 0.33120152 8882057
0.70652944 0.046542734 0.33271539 13290698
0.70822221 0.054850429 0.33340365 13488333
0.71100003 0.056822743 0.33809283 13554129
0.70833337 0.066190228 0.33216551 14079697
0.71064711 0.064328916 0.33670917 13487819
0.70800006 0.072328009 0.33228606 14671836
0.71025002 0.071310394 0.33625108 14408920
0.72700006 0.093841098 0.33184159 10657690
0.73300004 0.097190693 0.3345803 10987167
0.73900002 0.10404012 0.33039898 9142905
0.74350005 0.10467365 0.33502346 8946038
0.78800005 0.1293858 0.33109206 10790304
0.79000002 0.12971419 0.3374806 10659230
0.78900003 0.13139705 0.3305887 10790305
0.79145455 0.1360185 0.33557686 10659231
0.79231995 0.14493352 0.33569062 10724767
0.79191434 0.1549233 0.33472055 10790303
0.78200006 0.11924725 0.34779316 11119522
0.77900004 0.12061343 0.34281161 10527131
0.78757149 0.12457721 0.34605521 10658717
0.79055554 0.1287777 0.34584138 10592924
0.79255557 0.13528925 0.34486049 10658974
0.77750003 0.11583258 0.35124868 10658972
0.78550005 0.11794209 0.35671109 10462107
0.78840005 0.12169991 0.3521167 10527388
0.79055011 0.12527159 0.35585287 10527901
0.78800005 0.09987025 0.36706415 10396315
0.7856251 0.10554498 0.36527193 10264729
0.78788894 0.11420323 0.36393914 10330522
0.79114288 0.11693762 0.36747068 10396315
0.79200011 0.12432778 0.36506736 10462108
0.79100019 0.10476525 0.37459582 10264730
0.7924 0.11526911 0.37467965 10330522
0.79215133 0.10528567 0.38518381 10264731
0.79289991 0.11534104 0.38512433 10396060
0.79263312 0.12457956 0.38499352 10396317
0.79289168 0.13490641 0.38494101 10462110
0.79221427 0.12510812 0.3953881 10462110
0.79078805 0.13489066 0.394952 10461854
0.79100019 0.14469329 0.39531076 10396574
0.79240727 0.12488616 0.40456885 10396317
0.79133338 0.13473508 0.40546325 10396317
0.79155004 0.14479366 0.40485334 10396317
0.79268956 0.155049 0.40463564 10462110
0.79252774 0.15517503 0.41462725 10396318
0.7923612 0.17523687 0.41546163 10592928
0.79271424 0.18493137 0.41501188 10658721
0.79206669 0.15508315 0.42458647 10396063
0.79103714 0.16527405 0.42444512 10461855
0.79012531 0.17482053 0.4250471 10592929
0.79064304 0.18554667 0.42507818 10592928
0.79220003 0.16468903 0.43510449 10395808
0.79003364 0.17503177 0.43459257 10527136
