# .PCD v0.7 - Point Cloud Data file format
VERSION 0.7
FIELDS x y z rgb
SIZE 4 4 4 4
TYPE F F F U
COUNT 1 1 1 1
WIDTH 1038
HEIGHT 1
VIEWPOINT 0 0 0 1 0 0 0
POINTS 1038
DATA ascii
0.78766668 -0.15279436 0.087651432 11841966
0.79285723 -0.15600869 0.083393842 12105905
0.77775002 -0.14267541 0.088724583 14342870
0.78540009 -0.14548817 0.086497158 12303286
0.79300004 -0.14466496 0.081889845 12435126
0.77700013 -0.13556559 0.088486612 15198179
0.78592861 -0.1347138 0.085908301 13290181
0.77600002 -0.12509611 0.088979833 14606298
0.78562504 -0.12515108 0.086514167 13685453
0.77600002 -0.11510464 0.088979833 15593190
0.78605872 -0.11502632 0.086339392 13619913
0.77580005 -0.10508702 0.088956907 15066846
0.78481251 -0.10481271 0.086423628 13882574
0.77566671 -0.09507928 0.088941611 15000798
0.78549993 -0.09502016 0.08626996 13027008
0.77600002 -0.085130244 0.088979833 15329763
0.78541172 -0.084970631 0.086484149 13487816
0.77783328 -0.075312987 0.089190044 14803676
0.78600007 -0.07518471 0.087364078 14408919
0.79383343 -0.075006001 0.082655348 12303539
0.778 -0.065318033 0.089209154 14935263
0.78600007 -0.065068968 0.087364078 14475226
0.79410011 -0.064808212 0.082683086 12171953
0.77655566 -0.054892436 0.088435642 14869469
0.78659999 -0.054986436 0.085956641 13487558
0.77590007 -0.045160208 0.088058174 15001055
0.78658324 -0.044860333 0.085587025 12895421
0.7753334 -0.036053363 0.088296279 14737882
0.78700006 -0.03475032 0.085632853 12171952
0.7748 -0.025141582 0.088842236 15198436
0.78644449 -0.02511357 0.086287968 11908269
0.78572732 -0.014957636 0.087416656 11251110
0.78699994 -0.0052722194 0.087475225 11119525
0.77700001 0.0057085976 0.08909449 13817037
0.7863 0.0055891755 0.087213077 10856096
0.77825004 0.013918367 0.089237824 14079955
0.78650004 0.014986788 0.087419771 10724510
0.77900004 0.020312516 0.089323826 13684940
0.78575015 0.025087453 0.088867992 11907757
0.78622222 0.035020348 0.089126855 11841965
0.77850008 0.046724305 0.089266494 13751247
0.78575009 0.044708308 0.087947987 11119013
0.77780002 0.054877721 0.089186229 14014679
0.78581828 0.054940298 0.087259799 10790305
0.79400021 0.055092026 0.082673185 11251109
0.77816677 0.064923458 0.089228272 14079959
0.78659999 0.064705834 0.08743123 11316650
0.77866673 0.074383684 0.089285605 13948116
0.787 0.074872144 0.087475426 10987429
0.78650004 0.083569542 0.088338509 12171447
0.78850007 -0.16033725 0.098719075 10921119
0.79400015 -0.16525485 0.094833516 11052961
0.77600002 -0.15113485 0.097757876 12697534
0.78573686 -0.15551953 0.094254687 10855329
0.79000002 -0.15879287 0.090585135 11776171
0.76628578 -0.1417255 0.097086206 14934236
0.77340013 -0.14540961 0.094108775 15197923
0.78100002 -0.14967048 0.09138149 12500413
0.76307684 -0.13496821 0.096354619 15921902
0.77181822 -0.13477014 0.091126949 15330021
0.76232147 -0.12524776 0.096519955 16053488
0.77172738 -0.1248985 0.091279753 15198178
0.75900006 -0.11258302 0.099468365 16382451
0.76262963 -0.11520418 0.095970877 15658728
0.77218187 -0.11494925 0.091169499 15527397
0.75777781 -0.10441807 0.098715916 15856106
0.76294446 -0.10512845 0.094919592 15856104
0.77145463 -0.10498951 0.091247842 15658982
0.75766677 -0.094648905 0.098405205 16250606
0.76335311 -0.095094964 0.094778687 15658727
0.77200007 -0.095041923 0.091148637 15527142
0.74800003 -0.083812431 0.099777877 16448242
0.75690001 -0.084808454 0.098304972 16184556
0.76305878 -0.084866457 0.094531938 15921899
0.77163643 -0.085142732 0.091269128 15460579
0.7464 -0.074895069 0.099564448 16381935
0.75586671 -0.074780263 0.097400762 15987435
0.76275009 -0.07548935 0.094152719 15658728
0.77266669 -0.074813679 0.091308899 15329763
0.74600005 -0.065248333 0.099511087 16250349
0.75569999 -0.064498998 0.096905105 15987435
0.76269996 -0.065638319 0.093523175 15856107
0.7723 -0.064837389 0.091265529 15263970
0.74666667 -0.054816157 0.099600017 16119534
0.75633329 -0.054892786 0.096582241 16053484
0.76470006 -0.055250339 0.092155933 15527141
0.77250004 -0.054908838 0.090386935 15066592
0.74900001 -0.048853211 0.099911265 16776953
0.75795656 -0.045193341 0.096783161 16118764
0.76315391 -0.044967946 0.092175893 15593191
0.77140009 -0.04489807 0.090258226 15198177
0.7579999 -0.035047527 0.096968986 15921386
0.76238465 -0.035310771 0.092220411 15724778
0.77066666 -0.034932744 0.090172432 15000798
0.74757147 -0.024510769 0.099470213 15000797
0.75621736 -0.025619734 0.096327446 15461093
0.76218188 -0.025217861 0.09193439 15066850
0.77100003 -0.025019208 0.090211429 15001827
0.74624997 -0.014608913 0.098669477 14935261
0.75422227 -0.014766823 0.095306896 14869213
0.76333338 -0.014941267 0.091990948 14672092
0.77266675 -0.015123184 0.09040644 14212311
0.74619997 -0.0049981927 0.098662928 14869214
0.75460011 -0.0050518895 0.09535446 15001057
0.76380008 -0.0051156287 0.09204711 14408919
0.77300006 -0.005178432 0.090445444 14607069
0.74671429 0.0039871694 0.099355876 15000542
0.75613636 0.0046706214 0.096430808 15329764
0.76390004 0.0043554604 0.092595376 14606555
0.77244455 0.0056733079 0.090981312 14343125
0.74650002 0.015094395 0.099577785 14803163
0.75527781 0.015271123 0.097206712 14737627
0.76250005 0.015422248 0.093676716 14606299
0.77270001 0.014723167 0.091312803 14408919
0.74600005 0.025564438 0.099511087 14540506
0.75459999 0.024975568 0.097118951 14540250
0.76470006 0.025311809 0.093945637 14343127
0.7750001 0.024746666 0.091584839 14079697
0.74680007 0.035208281 0.099617802 14803421
0.75570583 0.034484521 0.097366564 14540506
0.76453847 0.035490416 0.094130941 14342871
0.77510005 0.034725837 0.091596432 14342357
0.74671441 0.045441587 0.099355876 15000800
0.75612497 0.045383114 0.097316213 14737628
0.76327282 0.044594206 0.094014235 14606043
0.77350003 0.044612452 0.091407962 14014162
0.74674994 0.055307895 0.098735012 14803420
0.75740004 0.055209868 0.09659718 14935005
0.76266664 0.054701269 0.093696989 14540249
0.77254546 0.05499899 0.091377191 14277594
0.74600005 0.06427668 0.09921924 14935005
0.75550008 0.065239869 0.097013965 14671834
0.76236379 0.064982057 0.093740799 14474456
0.773 0.064902075 0.091266721 14014421
0.74766666 0.072006084 0.099733412 15198177
0.75724995 0.075034522 0.097573966 14934751
0.76390916 0.074869096 0.093767978 14606045
0.77345461 0.074982852 0.091485053 14211287
0.75866669 0.08283218 0.09853626 15000801
0.76293343 0.084547028 0.096168138 14868961
0.77425003 0.084984921 0.092551522 14605789
0.78233337 0.08815942 0.091533594 14934498
0.76700002 0.090026483 0.098721214 15395305
0.77399999 0.092359632 0.097809069 14408410
0.78840005 0.095491275 0.095200285 11513773
0.79255557 0.096533179 0.092937224 11579821
0.78700006 -0.16271208 0.10597896 10591897
0.79171431 -0.16694942 0.10375177 10723739
0.75900006 -0.15078494 0.10835253 13025474
0.76520002 -0.15309116 0.10780209 11644334
0.77466673 -0.15480541 0.10529718 11380903
0.78314286 -0.15794095 0.10315604 10657690
0.74562502 -0.14376619 0.10905953 14211541
0.75563639 -0.14448592 0.10658094 15066594
0.76378578 -0.14522462 0.10328401 15658217
0.77200001 -0.14915136 0.10177445 15856109
0.73542851 -0.13282089 0.10941206 15197666
0.74468756 -0.13486521 0.10717621 14408663
0.75561112 -0.13487725 0.10334161 15987437
0.76000005 -0.13852938 0.10137859 15987693
0.73364276 -0.12440234 0.1082868 15000030
0.74400002 -0.12501772 0.10548252 14934236
0.7561667 -0.12587722 0.10218816 16447475
0.72850001 -0.11317641 0.10911473 15724010
0.73247063 -0.11484788 0.10688067 15131616
0.74450004 -0.11425874 0.10366225 14737369
0.755 -0.115304 0.10137178 15921642
0.72790009 -0.10388075 0.10834222 15658473
0.73284614 -0.10546786 0.10593561 15066079
0.74393761 -0.1045797 0.1028227 15395555
0.75220007 -0.10541351 0.10033812 16448498
0.72526664 -0.094847865 0.10862561 15526631
0.73447067 -0.094936721 0.10494661 14737629
0.74508333 -0.094822116 0.10200352 15658728
0.75060004 -0.096051373 0.10012469 16448243
0.72315794 -0.085036092 0.10813075 15329508
0.73337507 -0.085175514 0.10447593 14868958
0.74360001 -0.085059509 0.10180001 15395555
0.75000006 -0.089301005 0.10004466 16448244
0.71900004 -0.072985955 0.10937501 15066591
0.72275013 -0.075399265 0.10689393 15001056
0.73376471 -0.074739344 0.10292635 14277075
0.74316669 -0.075442433 0.1008729 16645107
0.71899992 -0.064246304 0.10833919 15527144
0.72371429 -0.064868785 0.10524573 15330021
0.73292315 -0.064956874 0.10264613 14473941
0.74200004 -0.064898469 0.10071456 16118252
0.71899992 -0.054951753 0.10817271 15395558
0.72327274 -0.05456746 0.10540318 15527401
0.73331249 -0.055016052 0.10296378 14671834
0.7431429 -0.053937461 0.10111749 16053997
0.71899992 -0.044601217 0.10860992 15395301
0.72445464 -0.045094673 0.10634635 15395558
0.73281825 -0.044833612 0.10445569 14737628
0.74480009 -0.045089755 0.10196453 15987950
0.75220001 -0.043774512 0.10033812 16316658
0.71899998 -0.033671398 0.10913455 15197924
0.72283334 -0.034451555 0.1071339 15132131
0.73368752 -0.035294607 0.10473299 14737630
0.74533337 -0.035528746 0.10203766 15592937
0.75160009 -0.034950003 0.10025809 16119279
0.71899998 -0.025389023 0.10862692 14540252
0.72446162 -0.024165224 0.10615713 14540506
0.7342667 -0.024169454 0.10344171 14145748
0.74344444 -0.0258644 0.1014891 14935261
0.71899998 -0.015156286 0.10913455 14540508
0.72286683 -0.015557889 0.10657343 14474713
0.73377776 -0.014364026 0.10302913 13882575
0.74266672 -0.014539063 0.10080504 15132639
0.71899998 -0.0062594139 0.10913455 14474713
0.7231766 -0.0054432699 0.10651948 14408920
0.73400003 -0.0049166973 0.10305998 13816526
0.74260008 -0.0049733734 0.100796 14606040
0.71899998 0.0052824738 0.10895421 14737885
0.72325009 0.00404472 0.10641871 14408920
0.7341764 0.0046875374 0.1031855 14013905
0.74379998 0.0044210525 0.10095886 15197407
0.71899992 0.014540029 0.1085334 14606299
0.72392857 0.015125039 0.10551981 14277335
0.73425007 0.014417969 0.10288019 13750733
0.74366665 0.015037292 0.10094076 14803162
0.71862507 0.025047131 0.10784517 13948116
0.72464287 0.024348212 0.10465427 13816530
0.73383337 0.025146717 0.10218078 13619149
0.74240005 0.025612896 0.10076885 14408920
0.71838886 0.03470926 0.10759911 14277336
0.72550011 0.03505316 0.10441548 13882323
0.73475003 0.035499781 0.10230736 13421768
0.74374998 0.035064727 0.10095207 14540506
0.71844441 0.044803359 0.10760731 14343128
0.72509098 0.045446955 0.10443435 14211288
0.73345453 0.045033596 0.1025171 13553354
0.74316669 0.044601455 0.1008729 14935263
0.71857148 0.054422978 0.10810753 14605789
0.72331256 0.055687014 0.1047342 14408409
0.73263645 0.054652367 0.10193656 13684940
0.74080002 0.054693915 0.10055168 15001055
0.71849996 0.064990565 0.10845735 14408667
0.72371441 0.064614095 0.10536714 14342871
0.73350006 0.065122254 0.10250115 13618889
0.74300003 0.067208417 0.10085028 15263970
0.71900004 0.072189353 0.10895421 14672353
0.72400004 0.074804135 0.10786971 14474973
0.7334286 0.075048469 0.10531136 13882578
0.74433333 0.075607441 0.10233521 14671835
0.75233334 0.077740751 0.1003559 15198179
0.72700006 0.081358783 0.10945424 14869989
0.73499995 0.081681319 0.10779176 14080472
0.74533337 0.083847173 0.10610694 14737632
0.75480002 0.085770935 0.10315518 15592684
0.76100004 0.089322239 0.10151198 15724270
0.75800002 0.0907446 0.10998426 12237241
0.76375008 0.091432974 0.10455284 14276824
0.77240002 0.093916193 0.10339458 12500413
0.78650004 0.099680141 0.10537 11908785
0.77900004 -0.1620528 0.11211949 10459545
0.78662503 -0.16709609 0.11298767 10525592
0.79000002 -0.16988929 0.11185329 10657432
0.72378582 -0.15262015 0.11735583 14078677
0.73166674 -0.15248944 0.11244117 13881297
0.74650002 -0.15310776 0.11181019 14341849
0.75600004 -0.15550148 0.11205459 13617613
0.77300006 -0.15899503 0.11035112 10393754
0.72476673 -0.1451696 0.11702909 15526376
0.73300004 -0.14455868 0.11189672 14606044
0.74225003 -0.14745733 0.11073702 14606044
0.72384387 -0.13485047 0.11619089 15657960
0.7321111 -0.13668406 0.11136661 15066594
0.71899998 -0.1243233 0.11891311 15723754
0.72289294 -0.12517543 0.11412816 15592169
0.73000002 -0.12878874 0.11104834 15263202
0.71885711 -0.11456265 0.11824816 15592683
0.72224998 -0.11546367 0.11300384 15592426
0.71855563 -0.10490236 0.11771724 15790063
0.72191304 -0.10520824 0.11245911 15724524
0.71815389 -0.094497576 0.11648616 15658730
0.72081828 -0.096106857 0.11179788 15724523
0.71812123 -0.084435128 0.11550432 15527144
0.72000003 -0.087414496 0.11121266 15658217
0.7178055 -0.074545532 0.1150707 15395558
0.71722215 -0.064411059 0.11497659 15461351
0.71702766 -0.054321002 0.11494692 15329765
0.71699983 -0.044495311 0.11474566 15329765
0.71660596 -0.035149522 0.11495508 15197923
0.71640003 -0.025643617 0.1149644 14671581
0.71522504 -0.015508863 0.11523785 14277079
0.71480942 -0.0056251297 0.11542155 14474459
0.71497625 0.0044158855 0.11544851 14342873
0.71469045 0.014452962 0.11540118 14277080
0.71390468 0.02446318 0.1152754 13947859
0.71266663 0.034431946 0.11507574 14277338
0.71288079 0.044456311 0.1151104 14408922
0.71328574 0.054499872 0.11517385 14539995
0.70900005 0.06413126 0.11947228 14474461
0.71299982 0.064492695 0.11460146 14408668
0.71419042 0.074635185 0.11531927 14803683
0.71612 0.084325351 0.11617675 15132904
0.72000003 0.08198157 0.11121266 14737634
0.71850002 0.091903493 0.11855008 14013909
0.78550005 0.098636895 0.11305209 11711149
0.71899992 -0.15349865 0.12620692 13749710
0.72000003 -0.15315028 0.12132587 14736863
0.71851516 -0.14539421 0.12566164 15526377
0.72000003 -0.14416076 0.12132587 16118256
0.71780545 -0.13503967 0.12515308 15855853
0.7166943 -0.12476528 0.12495845 15658473
0.71597207 -0.11458182 0.12483288 15723752
0.71497047 -0.10462493 0.12446025 15723753
0.71447372 -0.09470918 0.12479133 15658730
0.71417946 -0.08456441 0.12505475 15592680
0.7136153 -0.075201668 0.12538402 15198436
0.71302384 -0.065463521 0.1251533 15198179
0.71416211 -0.05534393 0.12445132 15461350
0.71523529 -0.045567717 0.1249048 15000543
0.71397227 -0.035705961 0.12448667 14540250
0.7128973 -0.025446447 0.12474825 14211029
0.71168417 -0.015773287 0.1254473 13618894
0.71150017 -0.0055992519 0.1257215 13948116
0.70900005 0.0081136217 0.12818614 13882323
0.71059394 0.0039202045 0.12519757 13948116
0.70865208 0.014366442 0.12698625 13684944
0.71046156 0.014303432 0.12240459 13948116
0.70844454 0.024553696 0.12637985 13421772
0.71022224 0.023506276 0.12189492 13487565
0.70808339 0.034486379 0.1253476 13750994
0.71000004 0.030148193 0.12130291 13355979
0.70813894 0.044758726 0.12554225 14145239
0.71000004 0.046215385 0.12130291 14211288
0.70834213 0.055474639 0.12498917 14014166
0.70805568 0.065703914 0.1251132 14145497
0.70842111 0.074160665 0.12670578 14606047
0.71036363 0.076274239 0.12287626 14672098
0.71292508 0.084352665 0.12488481 15395563
0.71792316 0.094028249 0.12575807 15724527
0.72100002 0.098130234 0.12318224 15592941
0.78900003 0.1092323 0.12741172 11711405
0.78880006 0.11474533 0.12922606 11908527
0.71844447 -0.15188558 0.13414247 13223367
0.71626467 -0.14506005 0.13474888 15065569
0.7129001 -0.13507582 0.1351842 15592424
0.71229267 -0.12531866 0.1351112 15592680
0.71280491 -0.11559911 0.13500668 15724010
0.71291417 -0.10562829 0.13443735 15461095
0.71245712 -0.09569633 0.134351 15329766
0.71191663 -0.085601307 0.13524054 15329508
0.71172225 -0.075578384 0.13575907 15000801
0.71246868 -0.0658582 0.13538085 14935009
0.71358335 -0.055729136 0.13444515 15000800
0.71475005 -0.045783535 0.13466436 14935007
0.71350008 -0.035681728 0.1344303 14145492
0.71318167 -0.025875594 0.13474904 13816526
0.71203119 -0.01539763 0.13529842 13158854
0.71113908 -0.0055970275 0.13564879 13290186
0.70899993 0.0072007426 0.13573812 13355979
0.71000004 0.0023669975 0.13507478 13421772
0.7080279 0.014317981 0.13505463 13356235
0.70794463 0.024259996 0.13503869 13026758
0.70704788 0.034988411 0.13486807 13224135
0.70736128 0.045768373 0.13492855 13684943
0.70775008 0.055733163 0.13500117 13553355
0.70691687 0.0655974 0.13484232 13816273
0.70763898 0.075606793 0.13498026 14474717
0.70900005 0.081558965 0.13607009 14343644
0.71168977 0.085491873 0.13514777 15132647
0.71657556 0.094632946 0.13513345 15132391
0.78737509 0.11615328 0.13221909 11645613
0.71650004 -0.15139987 0.14572832 13092293
0.71348387 -0.14497861 0.14463404 14671068
0.71077806 -0.13538076 0.14556305 15394533
0.71083361 -0.12540738 0.14557356 15395302
0.71135157 -0.11539328 0.14552149 15395302
0.71226186 -0.10564952 0.14503129 15461095
0.71299988 -0.095744938 0.14434892 15329252
0.71249998 -0.085671753 0.14508127 15197410
0.71199995 -0.075728059 0.14569421 15066338
0.71339464 -0.064942539 0.14482498 14935010
0.71484381 -0.055305809 0.14451376 15132133
0.71500009 -0.045798667 0.14475378 15263719
0.71508336 -0.035760283 0.1447711 14606042
0.71480566 -0.025706287 0.14471532 13750477
0.71364713 -0.015838614 0.14472726 13092804
0.71196973 -0.0053781047 0.14542882 13092804
0.7089411 0.0069657131 0.1451384 12895171
0.71026325 0.0020671508 0.14550161 13027014
0.7080279 0.014317981 0.14499973 12895427
0.70808339 0.024265436 0.1450116 12895427
0.70836103 0.034224406 0.14506963 12829634
0.7081905 0.044991892 0.14503413 12960966
0.70791441 0.055628028 0.1450007 13290186
0.70733345 0.065636367 0.14485911 13553358
0.70812505 0.075243555 0.14481354 14145497
0.71140623 0.084649824 0.14548287 14540254
0.71573329 0.094121486 0.14478968 14869219
0.71683335 -0.15266463 0.15594016 12894403
0.71390003 -0.14517157 0.15489261 14407895
0.7108891 -0.13540258 0.1555703 15131616
0.7106111 -0.12536764 0.15551037 15328740
0.71141684 -0.11551717 0.15568803 15065824
0.71199995 -0.10561146 0.15581411 15263204
0.71274346 -0.095901906 0.15475692 14934753
0.71235883 -0.085718453 0.15518607 14803167
0.71237499 -0.075647362 0.15506271 14935009
0.71331567 -0.06542021 0.15425561 14935009
0.71411771 -0.055527057 0.15479966 14935008
0.71391672 -0.045729049 0.15455931 15197922
0.71458358 -0.035733655 0.15470502 15000544
0.71497232 -0.025711827 0.15479071 14013908
0.71372235 -0.01564345 0.1545202 13421515
0.71294117 -0.0057111196 0.15489136 12895428
0.70900005 0.0079753064 0.15156139 12895428
0.71096987 0.0040619047 0.15591761 12895428
0.70884204 0.014902246 0.15289637 12829635
0.71023536 0.013726441 0.15792234 12895682
0.70881248 0.023045896 0.15283546 12369338
0.71040004 0.025343498 0.15729359 12566459
0.71086109 0.034345005 0.15556727 12698305
0.70899993 0.045928989 0.15311052 12763844
0.71033341 0.043068603 0.15691456 12961221
0.70870262 0.054934159 0.15457797 12500671
0.71000004 0.054248974 0.15911621 12368827
0.7085588 0.065945059 0.1548187 13092807
0.71000004 0.061728526 0.15953173 12434617
0.70880944 0.073793851 0.15460305 13882580
0.71000004 0.077611037 0.15657684 13882323
0.71186113 0.084392861 0.15522763 14408668
0.71624136 0.094016097 0.15521224 14540507
0.71668416 -0.15271135 0.16482939 12960450
0.7134375 -0.14502557 0.16515507 14605273
0.71052784 -0.13533363 0.1654713 15131876
0.71108347 -0.12545003 0.1656013 15131877
0.712111 -0.11562971 0.16584083 15066340
0.7123428 -0.10554467 0.16577525 15132133
0.71227014 -0.09562315 0.16517873 14934496
0.71283865 -0.085845478 0.16501482 14868445
0.71355271 -0.075200051 0.16481481 14802909
0.71409112 -0.065421961 0.16440354 14803422
0.7131111 -0.055694632 0.16440482 14803421
0.71299988 -0.045670554 0.16437867 15000543
0.71419448 -0.035711866 0.1646551 15000543
0.71513897 -0.025718281 0.16487247 14211287
0.71425021 -0.015654529 0.16466725 13750481
0.71299994 -0.0055460455 0.1648061 13553101
0.71169448 0.004394942 0.1657449 13224393
0.71141189 0.014190413 0.16543533 12829891
0.71163344 0.024388023 0.16489807 13092806
0.71196663 0.034398329 0.16497396 13027014
0.71125007 0.044353243 0.16564228 12961221
0.70900005 0.05832202 0.16096683 12631482
0.71060008 0.054175865 0.16560939 12829636
0.70900005 0.068280712 0.16215239 13289928
0.71038705 0.063693136 0.16589673 12894914
0.70900005 0.071600273 0.16096683 13421772
0.71057582 0.074583232 0.16581267 13750737
0.71359378 0.084808476 0.16503932 14145495
0.71786678 0.094344921 0.165502 14079699
0.7145263 -0.15295516 0.17472003 13223107
0.71188575 -0.14537995 0.17552368 14736858
0.71022213 -0.135276 0.17537661 15131874
0.71086138 -0.12541133 0.17553374 15395048
0.71147239 -0.11552612 0.17568386 15329255
0.71183789 -0.10570004 0.17561677 15329254
0.71256739 -0.09539149 0.17539215 15263203
0.71333337 -0.085212968 0.17447665 14868703
0.71402514 -0.074734434 0.17447785 14802652
0.71497071 -0.064454384 0.1750726 15000030
0.71337503 -0.055194288 0.17427661 14868701
0.71294427 -0.045666803 0.17437997 14802908
0.71499997 -0.035752963 0.17488283 14868958
0.71541667 -0.025729114 0.17498393 14145493
0.71469462 -0.015664399 0.17480846 13882064
0.71329409 -0.0058118068 0.17471223 13684942
0.7129333 0.004403797 0.17521365 13619150
0.71371883 0.014642933 0.17509377 13290186
0.71391684 0.024465209 0.17462082 12961219
0.71372229 0.03448328 0.17457311 13290441
0.71290004 0.044456184 0.17520529 13290186
0.7122333 0.054419417 0.17504071 13092808
0.71155888 0.064460106 0.17546315 12895430
0.71200001 0.074178562 0.17543764 13553873
0.71582866 0.084743358 0.17496754 14277081
0.71845001 0.093579292 0.17488632 14145749
0.71314293 -0.15288462 0.18456475 13355723
0.71129739 -0.14554176 0.18547472 14605787
0.70899993 -0.13276035 0.18586355 15197922
0.71000004 -0.13706136 0.18462978 15132130
0.70900005 -0.12923332 0.18669343 15000544
0.71018738 -0.12477314 0.18513502 15329255
0.71100026 -0.11544992 0.18555562 15395049
0.71088916 -0.10544601 0.1855264 15461353
0.71174365 -0.0953824 0.18529882 15526376
0.71400011 -0.085127845 0.18480295 15131617
0.7150557 -0.074259773 0.18494123 14802908
0.71500009 -0.064591184 0.18484962 14868447
0.71372741 -0.055362888 0.18467356 14868704
0.71394449 -0.045729741 0.18465583 14737374
0.71519446 -0.035765518 0.18497711 14671579
0.71508342 -0.02571615 0.18494743 14211286
0.71530557 -0.015676169 0.18500605 13816530
0.71530557 -0.0056298831 0.18500656 13553101
0.71486127 0.0044154767 0.18489057 13355722
0.71500009 0.01445914 0.18492565 13092550
0.71547216 0.024519816 0.18504833 12960964
0.71561104 0.034574859 0.18508536 13289929
0.71530545 0.044606224 0.18500707 13289929
0.71399999 0.054553241 0.18467006 13224393
0.71287495 0.06437657 0.18489814 13289929
0.7136969 0.074811824 0.18496999 13553358
0.71744114 0.084954232 0.18501489 14277082
0.71899992 0.092808463 0.18363348 14474715
0.71368194 -0.15408704 0.19461003 12894401
0.70900005 -0.14140506 0.19665213 15131617
0.71096671 -0.14612755 0.19520101 14605274
0.70899987 -0.13452002 0.19545339 15395045
0.71000004 -0.13680281 0.19388227 15460838
0.70899987 -0.12607183 0.19653356 15460583
0.71000004 -0.12387519 0.19310659 15328742
0.70900005 -0.11927463 0.1991418 14868444
0.7104286 -0.11523725 0.19526532 15592170
0.710778 -0.1054307 0.1954805 15790062
0.71111131 -0.095490098 0.1955725 15658732
0.71344191 -0.085176967 0.19494943 15658219
0.71476489 -0.074770287 0.19480471 15000547
0.71384859 -0.065399416 0.19488074 14934754
0.71374995 -0.055741377 0.19462675 14868960
0.71595114 -0.045140907 0.1953305 14605788
0.716645 -0.03516164 0.19528353 14408409
0.71608311 -0.025751723 0.19526547 14013651
0.71658301 -0.015703909 0.19540195 13816272
0.71661079 -0.0056405151 0.19540933 13618894
0.7154721 0.0044182753 0.19509888 13421515
0.71558326 0.014472201 0.19512901 13290186
0.71641636 0.024551205 0.19535631 13027013
0.71691632 0.034637969 0.19549187 13618894
0.71694428 0.044708844 0.19549954 13619151
0.71627754 0.054727335 0.1953188 13684944
0.7149722 0.064669549 0.19496322 13487307
0.71561104 0.074783981 0.19513635 13948116
0.71847224 0.085173711 0.19507411 14474461
0.71900004 0.091546059 0.19143061 14211031
0.72007161 0.093428507 0.19562943 14606044
0.71400017 -0.15372393 0.20494621 12763327
0.70853335 -0.1420866 0.20531306 15131104
0.71133339 -0.1475023 0.20526893 14210516
0.70827782 -0.1349047 0.20474094 15394533
0.70830554 -0.12496144 0.20474878 15460581
0.70844829 -0.11540703 0.20567665 15460581
0.71000004 -0.11374415 0.20155968 15461350
0.70852 -0.10499569 0.20630385 15592167
0.71009094 -0.10555548 0.20186606 15790060
0.70852375 -0.095657147 0.20674744 15724266
0.71026671 -0.094656549 0.20260097 15790316
0.70854557 -0.085571133 0.208212 16118511
0.71125001 -0.08510264 0.20363618 15920877
0.70900005 -0.076950192 0.20910048 16052718
0.71184206 -0.075416163 0.20440839 15855341
0.71233326 -0.065637492 0.20507787 15789804
0.71380562 -0.055745389 0.20466897 15461095
0.7140249 -0.045569569 0.20531149 15395560
0.71364284 -0.035687804 0.20544907 15263461
0.71492308 -0.025900129 0.20543401 14868703
0.71672195 -0.015706727 0.20550412 14342873
0.71697193 -0.0056421533 0.20557694 14145493
0.716833 0.0044271057 0.20553812 13948112
0.71672183 0.014494423 0.20550644 13684940
0.71661091 0.024556797 0.20547262 13356232
0.71691632 0.034637969 0.20556065 13816529
0.71713871 0.04472075 0.20562433 13948116
0.71674973 0.054763898 0.20551249 13948116
0.71583313 0.064747728 0.20525093 13684687
0.71605533 0.074829586 0.20531479 14145239
0.71856004 0.084275112 0.20458557 14803427
0.72000003 0.089145079 0.2056025 14539997
0.72085714 0.093531542 0.20496495 14079701
0.71411121 -0.15375787 0.21413632 12565435
0.70833337 -0.14237836 0.21470766 15000029
0.71129417 -0.14787151 0.21536109 14210514
0.70761132 -0.1347789 0.21448752 14803421
0.70692712 -0.12465813 0.21498513 15000287
0.70676208 -0.11476151 0.21505526 15131873
0.70666683 -0.10482015 0.21502659 15329251
0.70688105 -0.09492287 0.21509184 15592425
0.70707154 -0.085017458 0.21514979 15724269
0.70716679 -0.075094916 0.21517819 15724012
0.70811534 -0.065950833 0.21578771 15987181
0.71039999 -0.063630283 0.21234016 16184817
0.70870006 -0.056012463 0.21830258 15921902
0.7117812 -0.055381637 0.21356149 15790317
0.70861542 -0.044050638 0.21753629 15526890
0.71104002 -0.046512224 0.21362802 15658477
0.70821434 -0.035180163 0.21573611 15460841
0.71012503 -0.036343701 0.21151023 15657964
0.70819044 -0.025980303 0.21659778 15197926
0.71133339 -0.024560576 0.21237677 15460584
0.70900005 -0.019134464 0.21850592 15526891
0.71292311 -0.015344467 0.21491437 15132133
0.71494871 -0.0058158645 0.21548362 14803168
0.71688867 0.0044286842 0.21562204 14145492
0.71680522 0.01449484 0.21559708 13619147
0.71588874 0.024532238 0.21532097 13553611
0.71605533 0.034596596 0.21537161 13816785
0.71649975 0.044681069 0.21550417 13948116
0.71572208 0.05468528 0.2152705 13948116
0.71538883 0.064709157 0.21516989 14145495
0.7161386 0.074838318 0.21539696 14408410
0.71868002 0.083682977 0.21464734 15132390
0.72009104 0.088811629 0.21451668 14934756
0.72131258 0.093002766 0.21484144 14276826
0.7149412 -0.15365085 0.22532566 12829121
0.70840007 -0.14205997 0.22418088 14736858
0.71160007 -0.14753421 0.22535875 14013136
0.70705414 -0.13456188 0.22440766 14934237
0.70602691 -0.12462647 0.22542176 14671066
0.70572209 -0.11459354 0.22547987 14803165
0.70566654 -0.10467204 0.22546165 15132386
0.70566672 -0.09476018 0.22546166 15066594
0.70577759 -0.084861405 0.22549754 15132132
0.70599985 -0.07497184 0.2255697 15132132
0.7062856 -0.065081105 0.22483261 15198180
0.70688105 -0.055207156 0.22502023 15395302
0.70700008 -0.045286171 0.22505817 15329252
0.70659512 -0.035336096 0.22493051 15000801
0.70659512 -0.025409725 0.22493021 14539997
0.70780563 -0.015740504 0.22476353 14803169
0.71000004 -0.011404877 0.22103028 15132390
0.70866674 -0.0080649368 0.22743508 14934755
0.71170014 -0.0045983633 0.22433273 15263462
0.71426189 0.0044135358 0.22569458 14803424
0.71419042 0.014441766 0.22567213 13619148
0.71433359 0.024479849 0.22488539 13487561
0.71516669 0.034554552 0.22514933 13750991
0.71599978 0.044650406 0.22541237 13685199
0.71530557 0.054652642 0.22519387 13684943
0.71413916 0.064597026 0.22482504 13882579
0.71583325 0.074807078 0.22535975 14277338
0.71848583 0.084814802 0.22487265 14934753
0.72000003 0.089566469 0.22161508 14671580
0.71900004 0.091125265 0.22635683 15263716
0.72012508 0.092532292 0.22418168 15329509
0.71505564 -0.15349486 0.23487872 12763071
0.70862508 -0.14119226 0.23553178 15000286
0.71171421 -0.14657117 0.23501098 14276309
0.70710015 -0.13468274 0.23502496 14934750
0.70599985 -0.1245546 0.23548627 14802908
0.70527768 -0.11452214 0.2352455 14671835
0.70469445 -0.10452897 0.23504965 14803421
0.70319992 -0.094265521 0.23512486 14935010
0.70419443 -0.084668666 0.23488262 15066340
0.70561105 -0.07492891 0.23535649 14934753
0.70580542 -0.065038115 0.23542097 14737375
0.70541656 -0.055093203 0.23529011 14606046
0.70599985 -0.045222178 0.23548621 14737630
0.7060554 -0.035308082 0.23550503 14342872
0.70599985 -0.025389075 0.2354863 14013908
0.70636582 -0.015379333 0.23490068 14013909
0.70685363 -0.0056630927 0.23506029 14606302
0.71000004 -0.0014321404 0.23100302 15132390
0.70700008 0.0042338129 0.23648386 15001059
0.71045452 0.0047663841 0.23190641 14935011
0.70808691 0.013492147 0.23708144 14408921
0.71068752 0.015100497 0.23278569 14079700
0.70900005 0.02014704 0.23897657 14079955
0.7121464 0.024508119 0.2349098 13553612
0.71442115 0.034343194 0.23525608 13948113
0.71555543 0.044622425 0.23532166 13750734
0.71450007 0.05459027 0.2349747 13619404
0.7131111 0.064503707 0.23451887 13882321
0.7155 0.074771591 0.23530456 14474460
0.71822226 0.085144892 0.23479836 15000544
0.71900004 0.091125257 0.23477282 15328995
0.72000003 0.093358919 0.23257105 14144721
0.70840001 -0.1513463 0.24739723 12499896
0.71200001 -0.15261537 0.24315116 12565949
0.70787096 -0.14388938 0.24597095 14342358
0.71079999 -0.14786655 0.24224408 14078673
0.70651364 -0.13468215 0.24542317 15000543
0.70599985 -0.1245546 0.24540278 14736858
0.7054165 -0.11454499 0.24520016 14671321
0.70367575 -0.10426848 0.2447497 14605528
0.70210785 -0.094570927 0.2452714 15000032
0.7037499 -0.084614903 0.24462025 15263719
0.70536101 -0.074902914 0.24517965 15197925
0.70563877 -0.065022431 0.24527618 15461096
0.70574987 -0.055118781 0.24531701 15000546
0.70608312 -0.045227095 0.2454322 14802653
0.70661116 -0.03533547 0.2456166 14276564
0.70669454 -0.025413943 0.24564528 13553098
0.70599985 -0.01547252 0.24540278 13421770
0.70480561 -0.0055484222 0.24498738 13948372
0.70461124 0.0043535009 0.24491856 14474715
0.70635909 0.014477082 0.24507989 14540507
0.70764875 0.023870653 0.24572654 14277336
0.71020001 0.027164396 0.24170847 13882322
0.70850009 0.033126071 0.24765356 14277081
0.71146435 0.03508972 0.24349172 14211287
0.70900005 0.040064421 0.24893527 14145495
0.7124145 0.044528935 0.2450017 14211287
0.7127142 0.054456145 0.24523032 14079701
0.7123332 0.064432211 0.24510133 13947859
0.71392298 0.074416384 0.24526103 14473947
0.71797228 0.085115604 0.24480115 14935010
0.71899998 0.091365717 0.24427083 14934240
0.72750008 0.095608726 0.24606434 11052709
0.70693326 -0.15147442 0.25571042 12763325
0.70628929 -0.14462191 0.25511768 14211030
0.7059443 -0.13446051 0.25529888 14803422
0.7057777 -0.12451579 0.25523785 14671836
0.70508331 -0.11448997 0.25498715 14408407
0.70363885 -0.10437351 0.25474039 14473943
0.70237809 -0.094208181 0.2554988 14671578
0.70269042 -0.084490217 0.25494164 15131874
0.70304763 -0.074658312 0.25506958 15526376
0.70361912 -0.064834647 0.25527772 15657961
0.70540524 -0.055201691 0.25525859 15789546
0.70636106 -0.045243908 0.25544921 15724010
0.70683348 -0.035347302 0.25561967 15065567
0.70666689 -0.025413368 0.25555891 14013135
0.70599985 -0.015472521 0.25531936 13619147
0.7054323 -0.0054418221 0.25526929 13882321
0.70342857 0.0043428061 0.25520912 14211287
0.70350003 0.014489519 0.25541952 14474203
0.70526183 0.024759641 0.25552052 14474460
0.70707327 0.034989841 0.25487587 14540253
0.70750004 0.045060948 0.25499153 14474460
0.70820832 0.054457918 0.2566686 14605790
0.71053851 0.055634491 0.25254557 14474460
0.70885718 0.065185837 0.25860468 14408664
0.71107149 0.064556316 0.25441653 14277081
0.71178961 0.074691743 0.25517341 14539997
0.71669221 0.084899917 0.25486022 15132134
0.71866667 0.091643825 0.25457069 13158601
0.70731252 -0.15200481 0.265212 12368313
0.70588869 -0.14436628 0.26519445 14473689
0.70505548 -0.1342912 0.26488075 15263202
0.70499998 -0.12437817 0.26486027 14934238
0.70499998 -0.11447567 0.26486018 14671324
0.70407891 -0.10435244 0.26507702 14605530
0.70205539 -0.094277196 0.26539597 14671579
0.70061117 -0.084242016 0.26484993 14869216
0.69863635 -0.072629362 0.26863942 14868960
0.70033342 -0.074806757 0.26403472 14868704
0.69830769 -0.064660341 0.26869589 15263719
0.70110363 -0.064461201 0.26410142 15395304
0.69850004 -0.057822794 0.26977664 15658477
0.70290244 -0.054793376 0.26500916 15592683
0.70473814 -0.045140259 0.26558155 15855855
0.70548648 -0.035390634 0.2651968 15065826
0.70485353 -0.02524887 0.26550463 14144980
0.70349997 -0.015418933 0.26511294 13948113
0.69860005 -0.0027177748 0.26916069 14145491
0.70228195 -0.0058027995 0.26452804 14277079
0.69800001 0.0049143406 0.26709566 14145491
0.70057893 0.0035923289 0.26272351 14408664
0.69780666 0.014612267 0.26666126 13948115
0.70033336 0.015529566 0.26201352 14277080
0.69822222 0.023292478 0.26839766 13948116
0.70161766 0.026316123 0.26421249 14342617
0.70347607 0.035637159 0.26510438 14474460
0.70472491 0.045433797 0.26532957 14539996
0.70610267 0.055796079 0.26482615 14474460
0.70707142 0.065613329 0.26480734 14606045
0.70841169 0.073004968 0.26550677 14737373
0.71085709 0.077137887 0.26456395 15066336
0.71528947 0.084756315 0.26510906 15395302
0.71750003 0.091775201 0.26451591 12500413
0.70757151 -0.15180871 0.27564597 12829119
0.70597214 -0.144384 0.27514112 14605786
0.70482355 -0.13449025 0.27449921 15328997
0.70450014 -0.12459304 0.2747398 15197413
0.70462173 -0.11430347 0.2747696 14934753
0.70288885 -0.10481113 0.27489692 15000801
0.69844443 -0.093154885 0.27829337 15132388
0.70065522 -0.095586859 0.27422741 14934494
0.69812006 -0.085216053 0.27675352 14934753
0.70005542 -0.085448511 0.27201614 14935007
0.69715792 -0.075366639 0.27552477 14803167
0.70000005 -0.078431465 0.270356 14935007
0.69582218 -0.065366305 0.27503699 15132133
0.69616663 -0.055183835 0.27604946 15526891
0.70025003 -0.052435253 0.27147672 15395305
0.69793338 -0.045738872 0.27783528 15461355
0.70103699 -0.044326052 0.27379319 15724270
0.70209765 -0.035009354 0.27456897 14935008
0.69800001 -0.022799732 0.27760425 13552584
0.70136672 -0.02599081 0.27410978 14079700
0.69716674 -0.014872245 0.2757858 13816529
0.70000005 -0.016160384 0.27090222 13684687
0.69635707 -0.0054809465 0.27546471 14079701
0.70000005 -0.0079668202 0.270356 14145491
0.69573897 0.0047919261 0.27543426 14079444
0.69641459 0.015138095 0.27477482 13750480
0.69757164 0.025423072 0.27524921 13619151
0.70000005 0.029177332 0.27090222 13948116
0.69850004 0.032726318 0.27815661 13684942
0.70050013 0.035947185 0.2742894 13684945
0.70218402 0.045607347 0.27500442 14079702
0.70365852 0.055312704 0.27493989 14276824
0.70541662 0.065460637 0.27492398 14474203
0.70735306 0.074942775 0.27538499 15000547
0.71000004 0.078349754 0.271725 15197926
0.70900005 0.081558965 0.27881134 14803421
0.71294874 0.085014455 0.27496588 15592680
0.71607149 0.091592677 0.27488291 11776688
0.77900004 0.10967152 0.27898374 11185831
0.78100002 0.10995308 0.27787167 11316647
0.78685188 0.11446508 0.27483284 11185061
0.78875005 0.12073833 0.27739725 11185061
0.79107702 0.12519188 0.27483124 11119268
0.70658332 -0.15112399 0.28530404 13224137
0.70572722 -0.14470872 0.2847338 14013654
0.70347369 -0.13520464 0.28499994 15132133
0.70243174 -0.12530759 0.2842589 15197668
0.70230949 -0.11521255 0.28447449 15066082
0.69869995 -0.10282131 0.28784579 14605532
0.70089293 -0.1059578 0.2842361 14934496
0.69735134 -0.094991729 0.28525937 14671837
0.70000005 -0.099188484 0.28073451 15066595
0.69585699 -0.085299008 0.28504309 14540250
0.69512796 -0.075632893 0.28512213 14408409
0.6948055 -0.065651245 0.28542912 14539740
0.69483322 -0.055079307 0.28544006 15066597
0.69592851 -0.044574969 0.28507158 15198184
0.69684595 -0.034911335 0.28582188 14934754
0.70000005 -0.034732457 0.28073451 14803423
0.69609517 -0.025034716 0.28513914 13816273
0.70000005 -0.028450727 0.28018826 15461094
0.69494861 -0.015418957 0.28504768 13816528
0.69450003 -0.0054654684 0.28530121 13882580
0.69469041 0.0051046526 0.28538001 14079445
0.6954999 0.015857492 0.28514236 13882322
0.69694895 0.02532801 0.28511518 13882321
0.69813335 0.034711905 0.28565073 14145236
0.70000005 0.038736492 0.28264633 13947859
0.69900006 0.041953899 0.28878802 14013652
0.70100003 0.045550425 0.28444782 13948116
0.70178372 0.055376898 0.28485104 14211288
0.70417494 0.065181807 0.28490588 14539996
0.70613509 0.075557254 0.28496534 15066084
0.70820832 0.084163092 0.28547564 15197667
0.71022224 0.087426476 0.28317079 14408149
0.71259999 0.090648904 0.28222576 11052706
0.78400004 0.11588575 0.28426886 10987938
0.78835291 0.12249684 0.28493837 10987939
0.79046667 0.1279411 0.28494033 11119268
0.79204005 0.13561346 0.28550851 11053475
0.70628566 -0.15070602 0.29356888 11775921
0.70563328 -0.14491978 0.29488671 13289160
0.69900006 -0.1306833 0.29860628 14868961
0.70186847 -0.13546151 0.2949428 14671324
0.69823074 -0.124379 0.29626536 14868959
0.70018744 -0.12588617 0.29163465 15197922
0.69816667 -0.11500072 0.29579753 15000031
0.69999999 -0.1153025 0.29083994 15131872
0.69762868 -0.1049975 0.2948691 14473944
0.70000005 -0.10902077 0.29056677 14408406
0.6963684 -0.095143847 0.29503515 14211286
0.69502759 -0.085196272 0.2952821 14079699
0.69419456 -0.07534346 0.29492721 14079442
0.69416684 -0.065589942 0.29491544 14473944
0.69404781 -0.055017918 0.29486555 14671325
0.69430566 -0.044472672 0.29497409 15000805
0.69422233 -0.03471683 0.29493883 14540254
0.69411129 -0.024961658 0.29489186 13684688
0.69357514 -0.015038835 0.29523084 13553355
0.6929763 -0.0054531693 0.29521814 13947858
0.69372743 0.0049136109 0.29498672 14079701
0.69448572 0.015555012 0.295167 13948629
0.69535875 0.025645871 0.29498255 13948629
0.69585705 0.035249431 0.29481632 14408665
0.69630951 0.045053534 0.29500687 14145493
0.70000005 0.046930056 0.29002053 13816273
0.69728214 0.05463808 0.29529488 14277079
0.70014286 0.055720959 0.29031381 13948116
0.69729042 0.064361833 0.29684615 14211030
0.70136839 0.065992542 0.29188117 14408409
0.69750011 0.072772905 0.29784718 14276824
0.70297217 0.075610116 0.29389584 14934496
0.70679998 0.085074469 0.29510885 15328482
0.71000004 0.089984618 0.29360965 11445922
0.71400005 0.093562208 0.29860479 9667966
0.7862308 0.11621267 0.29530948 10987425
0.788625 0.1226809 0.29523969 10987682
0.79000002 0.12823468 0.29549912 11053218
0.7921111 0.13542062 0.29521668 10987682
0.70431238 -0.14476706 0.30514869 13026244
0.69776011 -0.13280486 0.30601349 14606048
0.70094121 -0.13770738 0.30392146 14408155
0.69781584 -0.12491518 0.30493522 14803170
0.69828576 -0.11513684 0.3028557 14606047
0.69999993 -0.11513864 0.30837408 14540255
0.69786203 -0.10467061 0.30383942 14408668
0.70000011 -0.10746008 0.30898279 14277083
0.69648582 -0.095136896 0.30501023 14079703
0.69499987 -0.085193612 0.30503321 13882322
0.69419456 -0.075343989 0.3046799 13750478
0.69347239 -0.065525204 0.30436304 13816272
0.69347644 -0.054970559 0.30436382 14540254
0.69353688 -0.044325143 0.30508119 14934755
0.69283324 -0.034648102 0.3048901 14539997
0.69228554 -0.024896162 0.30464968 14013651
0.69152623 -0.015326337 0.30482641 13882324
0.69188881 -0.0054444638 0.30528632 14079960
0.69300014 0.005267079 0.30517197 14014167
0.69392127 0.015657196 0.30485758 13751251
0.69364309 0.025393693 0.30524686 13948630
0.69394755 0.034981996 0.304869 14080216
0.6948055 0.044956192 0.30494669 14211288
0.69547343 0.054939795 0.30493882 14145238
0.69522214 0.064512022 0.30512917 14211030
0.6962564 0.074454531 0.30489218 14539995
0.69900006 0.080408633 0.30678812 15000030
0.70321053 0.085447907 0.3046869 15460322
0.70740002 0.091311127 0.30633146 9931387
0.71550006 0.094875611 0.30369821 10258810
0.72049999 0.098062187 0.30610356 11113858
0.72466677 0.10032574 0.30363557 10458765
0.73200005 0.10305462 0.30756268 10394515
0.74400002 0.10474404 0.3099921 10461081
0.78850007 0.11700841 0.30453786 10790303
0.79000002 0.11769307 0.30881482 10724510
0.78900003 0.12363939 0.3017745 10855839
0.79042864 0.1259075 0.30607578 10856096
0.79276919 0.13552612 0.3052583 10856096
0.70236123 -0.14469992 0.31506491 12763329
0.69707692 -0.13459469 0.31529367 14737633
0.69747382 -0.1247239 0.31535476 14935269
0.70000005 -0.12103799 0.31132379 14869220
0.69887501 -0.11695738 0.31818566 14870504
0.70021439 -0.11481033 0.3145797 14671841
0.699 -0.10239746 0.31602192 14606303
0.70013803 -0.10619783 0.31522807 14606304
0.69741672 -0.095287837 0.31507164 14277082
0.69532341 -0.085425116 0.31470153 14013652
0.694619 -0.075274952 0.31264725 14342616
0.69412011 -0.065552518 0.31345412 13947858
0.69413173 -0.05459705 0.31431642 14146008
0.69330317 -0.044337902 0.3149848 14737375
0.69194436 -0.034603059 0.31503034 14474460
0.69125009 -0.024859644 0.31471381 14013909
0.69134295 -0.01526611 0.31464291 13948116
0.69243336 -0.0054483851 0.31444529 14013910
0.69320017 0.0050938581 0.31479216 14013909
0.6935885 0.015649565 0.31439453 13619409
0.69336671 0.025383363 0.31486818 13619923
0.69417655 0.035356928 0.31466228 14014681
0.6954062 0.044791505 0.31447268 14080216
0.69551849 0.054680143 0.31385568 14079958
0.69606662 0.064591534 0.31446698 14079699
0.6967501 0.073695421 0.31409422 14540506
0.7001667 0.077811264 0.31768122 14277335
0.69900006 0.080408633 0.31087905 14803168
0.70279312 0.084936425 0.31489274 14276308
0.70750004 0.091324031 0.31383419 12432298
0.72533339 0.10041803 0.31240186 11310721
0.73522222 0.10504241 0.31627655 10260349
0.74483341 0.10776657 0.31527185 10657427
0.74600005 0.11026481 0.31868303 10460306
0.75100005 0.11100385 0.318183 10724507
0.7924 0.11805037 0.31531996 10658717
0.79276001 0.12460072 0.31546339 10790303
0.70050007 -0.14326462 0.32097462 13487567
0.69650006 -0.13429396 0.32199606 11316141
0.69728577 -0.12406379 0.32130966 11118505
0.69800001 -0.11497306 0.32105547 11777206
0.69827271 -0.10513516 0.32110634 11711414
0.69833332 -0.097863227 0.32039142 10658470
0.69500005 -0.05346613 0.32048911 11842998
0.6936 -0.044917647 0.32016748 13093065
0.69189996 -0.034600161 0.32132712 12960964
0.69166678 -0.027301645 0.32057118 14211289
0.69383341 -0.013037901 0.32279482 12830407
0.6950624 -0.0054187574 0.32408005 12698564
0.69478941 0.0049326573 0.32403219 12830406
0.69621426 0.015478419 0.32407874 12698563
0.70050001 0.019086147 0.3295849 12698821
0.69625014 0.025488332 0.323513 12895940
0.70075005 0.024013486 0.3297025 12764612
0.69673336 0.03524185 0.32368183 13027270
0.70100003 0.039065335 0.32763281 13224392
0.69850004 0.044786949 0.32087639 14080472
0.70242101 0.045667678 0.32564491 13224649
0.70399994 0.055321556 0.32582116 13356237
0.7037918 0.065307774 0.32537201 13092808
0.70306671 0.073962159 0.32432255 12763584
0.704 0.083954081 0.32101306 12829632
0.72900003 0.099219061 0.32763469 9076850
0.72800004 0.10078722 0.32292578 10786184
0.73533344 0.10467881 0.32358289 9865850
0.74400002 0.10996919 0.32305497 10262668
0.74500006 0.110117 0.32087314 10196876
0.75400001 0.11321239 0.32298428 11249566
0.76460004 0.11516122 0.3235808 10724509
0.77425003 0.11806662 0.32576805 10658460
0.78550005 0.11793917 0.32498035 10724510
0.79166669 0.11794136 0.32243714 10790303
0.77800006 0.1204586 0.32780105 10461338
0.78744447 0.12253632 0.3274765 10658717
0.79175019 0.12544484 0.32439935 10724510
0.69800001 -0.0038589807 0.33004266 10001308
0.70233339 0.018314203 0.3320916 12501440
0.70533341 0.021143124 0.33461201 10001308
0.70676482 0.04704475 0.33302137 13225164
0.7079199 0.055781107 0.33407247 13488079
0.70819044 0.065598756 0.33367825 13750992
0.71000004 0.06671489 0.33737889 13487823
0.70850009 0.072379284 0.33335003 14803421
0.7335 0.097258747 0.33309141 8484718
0.73600006 0.10189477 0.33078071 9274229
0.74500006 0.10430348 0.33482715 9011314
0.75400001 0.10791701 0.33887044 8946293
0.77900004 0.12243708 0.33369333 10527131
0.78762507 0.1267921 0.33393088 10658973
0.79000002 0.12971419 0.33470649 10658717
0.79210716 0.13582592 0.33500117 10724766
0.7536667 0.1031662 0.3428385 10262668
0.77150005 0.11313263 0.34944287 10724248
0.78800005 0.12459233 0.34529266 10527131
0.79055554 0.12836568 0.34543037 10461853
0.79288 0.13538778 0.34520939 10527902
0.77500004 0.10850517 0.35617352 10724251
0.78000003 0.10616031 0.35968563 10527131
0.76900005 0.11006391 0.35101262 10855321
0.77433342 0.11264154 0.35405102 10593179
0.78233337 0.11747053 0.3540374 10461336
0.78850007 0.12153115 0.35511369 10527131
0.7906 0.1263586 0.35519472 10527389
0.78700006 0.099743515 0.36475596 10395545
0.79100001 0.098398715 0.36846158 10395545
0.78800005 0.1060956 0.36591202 10395545
0.79000002 0.10197314 0.36799577 10461338
0.78715384 0.11464792 0.3644048 10461338
0.79000002 0.11769307 0.36799577 10527133
0.78900003 0.12123821 0.36198878 10658717
0.79070002 0.12501752 0.36517662 10527645
0.79028571 0.085094146 0.37870091 10987429
0.79100001 0.095705912 0.37805656 10264474
0.79203326 0.10501789 0.374506 10395546
0.79144013 0.094747536 0.38534284 10264217
0.79265702 0.10496943 0.38487417 10264474
