# .PCD v0.7 - Point Cloud Data file format
VERSION 0.7
FIELDS x y z rgb
SIZE 4 4 4 4
TYPE F F F U
COUNT 1 1 1 1
WIDTH 897
HEIGHT 1
VIEWPOINT 0 0 0 1 0 0 0
POINTS 897
DATA ascii
0.44625002 -0.11450037 -0.040762641 13092029
0.45000002 -0.11046734 -0.041105185 12104877
0.44723532 -0.10345042 -0.042208504 13026747
0.45116666 -0.10776035 -0.042797014 13158335
0.43900001 -0.090296008 -0.04061424 12366504
0.44272345 -0.094928384 -0.042954709 12696758
0.43597436 -0.085263796 -0.042783659 12236461
0.44000003 -0.089471646 -0.044826955 13618372
0.42553186 -0.073628128 -0.043405052 12695471
0.42999998 -0.079385094 -0.042298198 11051414
0.41823083 -0.061320569 -0.04257445 13026752
0.42162752 -0.065865032 -0.043837242 12565428
0.41615632 -0.054807834 -0.04406105 13616830
0.41418761 -0.044651777 -0.043657787 13946052
0.41458848 -0.035030097 -0.043468218 14012103
0.41663834 -0.025798747 -0.042684808 13290182
0.42020005 -0.020718146 -0.042121712 12369077
0.42303848 -0.016381282 -0.041571811 13684681
0.42900002 -0.0099040056 -0.040191237 14277334
0.44516674 -0.12117905 -0.034411799 12235947
0.44497395 -0.11498269 -0.035549596 12499119
0.43746668 -0.1028186 -0.031837929 12105132
0.44338465 -0.10529172 -0.03611856 12170156
0.42800003 -0.091039337 -0.030077996 11250603
0.43554005 -0.094229721 -0.033964757 12105395
0.44113043 -0.097067177 -0.037737589 12236979
0.42615387 -0.083280906 -0.033175983 12039082
0.43313166 -0.085919537 -0.036765411 12499375
0.4170714 -0.07386113 -0.031404525 12630187
0.42271429 -0.07523483 -0.035860829 12432812
0.40830001 -0.061710883 -0.031561781 12038574
0.4146032 -0.065006599 -0.035138492 12433325
0.42075002 -0.068566449 -0.038556837 13287340
0.40660334 -0.054367147 -0.033128977 13683651
0.41197222 -0.055886924 -0.038036022 13420221
0.40613967 -0.0451409 -0.033902775 13881032
0.41088888 -0.04448593 -0.039029535 14143689
0.40635154 -0.03529362 -0.03321721 14341842
0.4115454 -0.03454823 -0.038353316 14408146
0.40817395 -0.027535364 -0.032092717 14078416
0.4138537 -0.024469154 -0.035932019 13816015
0.42000002 -0.020511733 -0.039348066 12894904
0.416875 -0.017245777 -0.032807119 13817297
0.4231334 -0.013969054 -0.03616083 13553353
0.42759264 -0.0084235501 -0.033833921 13750476
0.43103334 -0.0050336393 -0.034290325 13027520
0.4390001 -0.13089043 -0.024342218 12433594
0.44000003 -0.13289212 -0.022443216 11907506
0.43720281 -0.12494045 -0.024258127 12696506
0.43286371 -0.11509544 -0.023623671 12893365
0.44 -0.11316274 -0.029891256 13090742
0.42709756 -0.10399728 -0.022822054 13089715
0.43244836 -0.10643492 -0.026422575 12696759
0.4182727 -0.091641568 -0.022095961 11905703
0.42340687 -0.09533909 -0.025094561 13024180
0.43024999 -0.098820731 -0.028977234 12038826
0.4149572 -0.084706962 -0.023836019 12369598
0.4222143 -0.087762609 -0.028544703 12566971
0.40761366 -0.073695205 -0.022834392 12433330
0.41222921 -0.076384015 -0.026303269 12697532
0.403889 -0.064800501 -0.024887074 13092030
0.41075003 -0.069099635 -0.029107451 11973546
0.39828211 -0.053545788 -0.022157293 13157566
0.40138802 -0.05581405 -0.026265092 13223874
0.39727125 -0.044906996 -0.022767516 13881549
0.40104339 -0.044937186 -0.027614744 14342355
0.39755315 -0.035807848 -0.022118751 14145236
0.40149999 -0.034400076 -0.026886409 14342610
0.39900002 -0.029449521 -0.020878827 14408154
0.40443286 -0.025264049 -0.025046811 14079441
0.41085717 -0.021026373 -0.029285958 13816781
0.40721211 -0.017111255 -0.022495635 14144462
0.41380483 -0.015026337 -0.0267478 14080725
0.42114288 -0.01113057 -0.028329281 13884113
0.41500005 -0.007861115 -0.02191001 13422282
0.42378265 -0.006551526 -0.026857173 13817552
0.43000001 -0.0048939036 -0.029211909 13158853
0.4414444 -0.1325095 -0.015746305 12038316
0.43762678 -0.12384275 -0.015507235 12367796
0.44027272 -0.12850623 -0.013230562 12170158
0.43274984 -0.11485247 -0.014706503 12565173
0.42642465 -0.10419504 -0.0151693 12696244
0.42999998 -0.10929661 -0.013752828 12433585
0.41823083 -0.091748945 -0.015645267 12302254
0.42132765 -0.096527964 -0.015171103 12368049
0.41478661 -0.085315354 -0.015118373 11974837
0.40676683 -0.073610269 -0.01522234 12039083
0.4109655 -0.078791797 -0.014781822 11909302
0.40199113 -0.065283917 -0.015076083 12829114
0.39758494 -0.054493353 -0.014851188 13025722
0.40000007 -0.059414905 -0.016047148 12171443
0.39599994 -0.044863459 -0.014842602 13815753
0.39630565 -0.035123438 -0.014863017 14210767
0.3983078 -0.027860554 -0.014311115 14013391
0.40074617 -0.023012863 -0.015380969 13948114
0.40492237 -0.015145857 -0.014983383 14209998
0.4086923 -0.0090669161 -0.013340464 13947344
0.41427636 -0.0048914822 -0.014949811 13290184
0.42050004 -0.0010120614 -0.018067064 13356490
0.41900003 0.00013572203 -0.011789558 12567487
0.42175013 0.0020238392 -0.014983487 13093575
0.44300002 -0.13135749 -0.0050361482 11577506
0.43866673 -0.12216556 -0.0053585749 12037797
0.44119999 -0.12683956 -0.0042322087 11906470
0.43407497 -0.11520529 -0.0045895311 11775654
0.42699999 -0.10331186 -0.0051878816 11644326
0.43016669 -0.10851932 -0.0038451136 11644068
0.41890916 -0.091066964 -0.0049212188 12235432
0.42215586 -0.095733076 -0.0049591563 11906726
0.4150435 -0.085560262 -0.0049186689 11906466
0.40696362 -0.074151687 -0.0046884473 11381410
0.41052637 -0.079128839 -0.0052791727 11775139
0.39899999 -0.060585059 -0.0032872469 12434098
0.40199998 -0.065539137 -0.0046095047 11644581
0.39700893 -0.05517691 -0.0046671242 12631220
0.39511597 -0.045197595 -0.004646129 13223096
0.39534724 -0.03503919 -0.0046497211 13617599
0.39751005 -0.025836349 -0.0041693137 13552840
0.40008697 -0.021534387 -0.0068598422 13881037
0.40308845 -0.015211431 -0.00500208 13486790
0.4082703 -0.0082360692 -0.0042822496 13355717
0.41325006 -0.0035271146 -0.0051998147 13093318
0.41750002 0.00041482056 -0.0042109452 13159110
0.42390251 0.0041926955 -0.0064751534 12830915
0.43064708 0.008502163 -0.0042302473 12567231
0.43546343 0.012232127 -0.004097715 12895939
0.44343331 0.017277936 -0.0038912853 12500924
0.44861537 0.020503709 -0.0034918052 12830145
0.45469704 0.024996197 -0.0023097619 12764353
0.46025002 0.029240325 -0.0016360832 12895680
0.46546668 0.032338835 -0.0016904745 13093058
0.47100002 0.03654068 -0.0011242202 12764093
0.44375002 -0.13100828 0.0069954097 12302770
0.4390001 -0.12144838 0.0047333227 12104365
0.44185972 -0.12638547 0.0053166673 12039084
0.43534994 -0.11498352 0.0050388458 11775656
0.4269512 -0.1023996 0.0051727574 11709348
0.43067655 -0.1073268 0.0052298736 11972775
0.41860008 -0.091326728 0.0061863577 11513513
0.42242622 -0.096038043 0.0049750474 11250084
0.41485903 -0.085702807 0.0047771428 11644322
0.40625688 -0.074315622 0.0054682125 11382182
0.41045457 -0.07944569 0.0049591102 11381668
0.39881256 -0.060965251 0.0061078528 12170668
0.40183336 -0.065984443 0.0049647964 11841959
0.39608994 -0.055049539 0.0050795884 12696240
0.39320007 -0.044979978 0.005041209 13157049
0.39315456 -0.034844775 0.0050403378 13617859
0.39615443 -0.024902146 0.0050784014 13355459
0.3987501 -0.018680215 0.0066551841 14078156
0.40168902 -0.014038845 0.0048075863 13618633
0.40734631 -0.0073459414 0.0055908668 12896965
0.41267392 -0.0027379424 0.0049581672 12962759
0.41696873 0.001265849 0.0057146177 12698815
0.42373469 0.0062401951 0.0045129829 12632767
0.43000001 0.0091990242 0.00098722253 10988201
0.43550006 0.012895712 0.0057978635 12500924
0.44358066 0.017299721 0.0056744609 12303288
0.44864705 0.020595497 0.0049834619 12434874
0.45389658 0.024157962 0.0058441595 12303288
0.46205556 0.028815564 0.0053892303 13355717
0.4666 0.032050632 0.0051126285 13224386
0.47340554 0.036673225 0.0058216793 12434614
0.47866669 0.04049547 0.003714652 10132372
0.48300004 0.044378702 0.0063308137 13948110
0.44466674 -0.13159738 0.015541058 11052963
0.43900007 -0.12061336 0.014881927 11841190
0.44264308 -0.12628366 0.015006036 11841190
0.43484205 -0.11457805 0.01457988 11775656
0.42714006 -0.10287982 0.015239142 11709861
0.4304412 -0.10788973 0.014709218 11645097
0.41800001 -0.091149412 0.015566454 11644583
0.42256927 -0.096025035 0.01515594 11775396
0.40900001 -0.080295525 0.018652324 11644833
0.41360471 -0.085186958 0.014998081 11578788
0.40628126 -0.074928671 0.015047669 11579047
0.39789134 -0.061998371 0.015511175 11776682
0.40121868 -0.067045979 0.01455289 12301742
0.39451817 -0.054833192 0.014756121 12236461
0.39167729 -0.044806045 0.01465012 12697785
0.39150378 -0.034698807 0.014642641 13224129
0.39371905 -0.024749085 0.0147246 13487301
0.39753732 -0.016952379 0.015369871 13487301
0.40083328 -0.012135666 0.014368366 13356230
0.4059025 -0.0061621475 0.015588952 12765381
0.41150001 -0.0016169376 0.013728303 12172734
0.41542107 0.0020590641 0.015484081 12633026
0.42441669 0.0066889119 0.013892728 12369596
0.42999998 0.0091990242 0.016757881 12764611
0.43447065 0.012476726 0.016679484 12566716
0.44394442 0.017816277 0.016717063 12565945
0.44862506 0.020231251 0.015731577 13026239
0.45534697 0.024589306 0.014577453 12763837
0.46137497 0.02877322 0.015572541 12698046
0.46629626 0.032054517 0.015748391 13947597
0.47400004 0.036959942 0.014916852 11512998
0.47900006 0.040523674 0.016237915 13882316
0.4842779 0.044613671 0.01419128 14868955
0.49063638 0.049131107 0.016685478 15593192
0.48900002 0.05052774 0.010280741 12763838
0.49257138 0.051886581 0.01568521 13093060
0.44500002 -0.13192803 0.021971691 11645354
0.4390001 -0.12089884 0.024930619 12235948
0.44215161 -0.12615867 0.025070531 12170669
0.43474326 -0.11509351 0.02507975 11644326
0.42653969 -0.10330361 0.025162622 11512995
0.43031043 -0.10869136 0.024504434 11841446
0.4174138 -0.09195704 0.025791842 11118754
0.42184457 -0.096865825 0.025105953 11446946
0.40899995 -0.080295518 0.024875917 10591119
0.41276473 -0.085307635 0.024955595 11315101
0.40535882 -0.074942999 0.024930669 11249822
0.39704168 -0.063313097 0.025193051 11710118
0.40036356 -0.068205692 0.02460539 11579817
0.39286089 -0.054823115 0.024930684 11841963
0.38887498 -0.043700237 0.02642482 12697014
0.39049998 -0.046424843 0.022505863 12500666
0.38853589 -0.035566274 0.025788648 12830142
0.39000002 -0.033257604 0.02078284 11908015
0.38895831 -0.028556457 0.027412733 12829113
0.39159986 -0.024094952 0.024251087 13420995
0.39593574 -0.015134351 0.025326706 13158850
0.40016672 -0.01079942 0.022308415 13882315
0.39880005 -0.0088331746 0.029109877 12236979
0.40455565 -0.0049628834 0.024651948 13027269
0.41000003 -0.0008270106 0.020137653 11318189
0.40900001 0.00013248283 0.027748346 12698047
0.4119778 0.002452512 0.024176706 12961476
0.42033339 0.0083367405 0.029173516 11777200
0.42500004 0.011083486 0.029828792 11777459
0.43575004 0.014172624 0.022647232 12829891
0.44300002 0.018555017 0.025912628 12566974
0.44857147 0.020848261 0.025782112 12632254
0.45488003 0.025157752 0.02603827 13684168
0.46127781 0.028647015 0.023974085 13026240
0.46621621 0.03242695 0.025198862 13553355
0.4729715 0.037361607 0.025124991 11184548
0.47768754 0.041182682 0.026046986 14934748
0.48298219 0.045773324 0.024704188 15263713
0.49050003 0.049534462 0.02122025 14802906
0.48500001 0.051749751 0.026336143 11974576
0.49150002 0.051361952 0.021837844 12829629
0.4437038 -0.13196652 0.036144014 11447458
0.4390001 -0.12164107 0.034922209 12827314
0.44175011 -0.12661812 0.034955282 12105133
0.43412495 -0.11522025 0.035042085 11775913
0.42657974 -0.10376982 0.035076126 11447460
0.42999998 -0.1090809 0.034709588 12039083
0.41713959 -0.092161156 0.034997839 11381926
0.4214502 -0.097146705 0.035004534 11447716
0.40843749 -0.080783233 0.035717349 11578275
0.41270599 -0.086073928 0.034902737 11579303
0.40403026 -0.074603185 0.034974851 11249567
0.39678666 -0.063908674 0.03515587 11513253
0.40000004 -0.068696357 0.035097208 10789789
0.38900003 -0.051052861 0.037865724 11840674
0.39181882 -0.055501349 0.034679998 11776167
0.38788998 -0.045296881 0.035054971 12959155
0.38659522 -0.035170685 0.035272177 13223869
0.38785976 -0.025556533 0.035313454 12960957
0.39053851 -0.021392496 0.031066583 13224127
0.389 -0.019388054 0.037969802 12697788
0.39309907 -0.014621761 0.034802012 13158853
0.39705005 -0.0078169201 0.035973638 12830656
0.40371427 -0.0030665584 0.034403764 12763322
0.40799999 0.00037133289 0.034757596 13223616
0.41485715 0.0047400547 0.034514554 12435129
0.42050004 0.0087148678 0.034082621 12434875
0.42509085 0.011755033 0.035985168 12500669
0.43503851 0.016561989 0.03487917 12369851
0.44212502 0.019422373 0.032451127 13027266
0.44622225 0.022898586 0.0356941 12830401
0.45400003 0.027184492 0.034908202 12830401
0.45850003 0.030471139 0.03888819 12896454
0.46553063 0.033856008 0.035205852 12961475
0.4708637 0.038382944 0.034647938 11909296
0.4758071 0.043542918 0.03501156 15395813
0.48019999 0.048269864 0.032353353 14540760
0.4810909 0.051655889 0.036223199 11908528
0.44283333 -0.13091104 0.043688763 12434867
0.43840009 -0.12234112 0.045691662 12170155
0.44081256 -0.12698255 0.044372916 12039340
0.43389997 -0.11515914 0.045178883 11906983
0.42549229 -0.10419907 0.045275275 11314845
0.42999995 -0.10920674 0.044020981 11841962
0.41696003 -0.093517885 0.044568628 10987424
0.42090014 -0.098332502 0.044286247 10986397
0.40819517 -0.082189918 0.044985697 11446433
0.41192454 -0.087187201 0.044811934 11117465
0.39900002 -0.070859782 0.04948749 10853777
0.40296 -0.074896812 0.045023814 10985881
0.39578566 -0.064797431 0.045339476 11315617
0.40000001 -0.068977289 0.041371137 10724251
0.38857409 -0.052568242 0.045547586 11643294
0.39115259 -0.057270259 0.044213258 11183771
0.38568836 -0.045064278 0.045080245 12236206
0.38446239 -0.03497652 0.044980407 12960441
0.38546267 -0.025137397 0.045097329 12303286
0.38807893 -0.017121403 0.045905229 12895683
0.391451 -0.012824541 0.043390859 13224389
0.39514279 -0.0070632128 0.045235109 13093061
0.40090001 -0.0020268424 0.045092225 12830404
0.40579072 0.0020167793 0.045865361 12567746
0.41352633 0.0070947809 0.0455015 12238782
0.42000002 0.0089850938 0.040293366 13225416
0.41850001 0.010912437 0.047496747 13489362
0.42552385 0.014422557 0.046318956 12829890
0.43277267 0.017737936 0.043257579 12369338
0.43700007 0.02205348 0.047457278 12500666
0.44512501 0.024706079 0.044198871 12764095
0.45233333 0.028504703 0.043805379 13094089
0.45754167 0.032016288 0.045589004 13554384
0.46410906 0.036643699 0.044695344 12369598
0.47000003 0.039762266 0.040689085 10000532
0.46833333 0.041449208 0.0473039 13422283
0.47359324 0.045563955 0.04452521 15658731
0.48000002 0.049597781 0.04043112 16053745
0.47707698 0.0511862 0.046538427 14211285
0.48044449 0.05176831 0.042217296 12566204
0.44085717 -0.13188684 0.055227373 12433073
0.43752369 -0.12388042 0.055289589 12039344
0.44020832 -0.12858881 0.053609822 12564917
0.42833331 -0.11116534 0.057135057 11710121
0.43205801 -0.11542305 0.054744836 11841705
0.42385134 -0.1046516 0.05542358 11709606
0.43000001 -0.10958422 0.050815791 11908012
0.41624328 -0.094406739 0.055164628 11315618
0.42009094 -0.099102013 0.054158784 10987168
0.40729636 -0.082931913 0.055405959 11577761
0.41152382 -0.088018574 0.054341868 11446945
0.39861119 -0.071153976 0.055762868 11445914
0.40244299 -0.076011829 0.054885544 11314330
0.39408106 -0.064938076 0.055006009 11184286
0.38773695 -0.054103218 0.055396207 11710117
0.39044994 -0.058601834 0.053132497 11710372
0.38373998 -0.044694994 0.055030208 12171698
0.38188642 -0.034742184 0.054958414 12698041
0.3828153 -0.025033288 0.055021353 13026495
0.38628101 -0.015185811 0.055050667 13026496
0.39000002 -0.010829636 0.050653726 13156024
0.38885713 -0.0094322516 0.057136733 12763067
0.3934285 -0.0052631614 0.054832932 12698045
0.40019998 -0.00099452445 0.051696889 12764353
0.398 0.00059595285 0.059612438 13026239
0.40522414 0.0032674167 0.054313667 12567746
0.41223812 0.0084080836 0.054847606 12173244
0.41570002 0.011977159 0.056353573 12764353
0.42473692 0.016499201 0.054194495 12763840
0.43000001 0.019013742 0.051067449 13092548
0.42900002 0.020224895 0.058229838 12435387
0.43514028 0.023654712 0.054376651 13158597
0.44200003 0.028311862 0.05562605 12830401
0.44616672 0.030958563 0.058119427 13094087
0.45724246 0.035122279 0.054244507 13488332
0.46073335 0.03847529 0.05347411 11383212
0.46503037 0.044149153 0.055657856 13948367
0.47117648 0.048038565 0.052661408 16119535
0.46800002 0.050823513 0.059139319 15263717
0.47557896 0.052486401 0.053473014 14211027
0.48100004 0.056457289 0.055716753 12105139
0.43885723 -0.13200758 0.066494271 12499377
0.44000003 -0.133526 0.062337652 12631478
0.4362804 -0.12490698 0.064966351 12039084
0.42729419 -0.11219203 0.065908603 11840934
0.43145835 -0.11705106 0.064641871 11906985
0.41860002 -0.10079928 0.067596257 10786963
0.42265058 -0.105205 0.064778939 11775142
0.41458693 -0.094887592 0.065045521 11643811
0.40658435 -0.084118679 0.065193281 10921121
0.41027272 -0.089014992 0.063719302 10394515
0.39750004 -0.071921416 0.065745868 10855068
0.4018909 -0.076869003 0.064332366 11118242
0.38899997 -0.061278235 0.066395283 11052448
0.39301175 -0.065693915 0.064729087 11183774
0.38641328 -0.055074718 0.065005146 11315618
0.38199198 -0.044775203 0.064979054 11973546
0.37883329 -0.033155747 0.067910984 12302257
0.38052928 -0.035342634 0.063784875 12237234
0.37876466 -0.027024858 0.068205312 12368823
0.38065588 -0.02422362 0.064083673 12763065
0.38326344 -0.015146311 0.064985603 13223618
0.38742304 -0.0081211478 0.065593809 13092287
0.39262894 -0.003084433 0.064631969 12698046
0.39680651 0.0015104893 0.066115841 12895169
0.40483335 0.0066178516 0.065308072 12829888
0.41085717 0.0092025222 0.061537512 11778484
0.40862498 0.011013999 0.068258218 12565688
0.41383642 0.013565235 0.065011851 12632765
0.4223479 0.018623216 0.065747961 12961475
0.4264634 0.022006508 0.065256961 13027271
0.43364865 0.026958982 0.064872108 12829634
0.43900001 0.03097341 0.06883654 12698050
0.44521955 0.033836093 0.066147171 13685196
0.45347375 0.037642051 0.063526332 13618890
0.45696148 0.043664709 0.066523716 13157825
0.46177149 0.046851218 0.063352898 15329250
0.45900002 0.051188722 0.069823548 15461349
0.46286365 0.052800283 0.065896325 15197921
0.43637994 -0.13278759 0.074750729 12367792
0.43322098 -0.12507129 0.074903674 12235952
0.42576003 -0.11425275 0.07536605 12236206
0.43015385 -0.11884145 0.07263875 12630453
0.41781822 -0.10179834 0.076034211 11644073
0.42128825 -0.10671478 0.074815407 11906984
0.40883335 -0.091109924 0.078302644 12103845
0.41316473 -0.095154278 0.074567012 11578534
0.40553126 -0.085035555 0.075143091 11578018
0.39665151 -0.073275611 0.0751656 11381925
0.4006578 -0.0781902 0.07452324 11184290
0.38874194 -0.061669849 0.075661592 11249054
0.39196154 -0.066509418 0.074903421 11183775
0.38516092 -0.055116553 0.074977599 11250340
0.37841666 -0.042228583 0.077003963 11644326
0.38096508 -0.046152581 0.074337728 11841449
0.37700003 -0.035215598 0.075184777 9474186
0.38000003 -0.03990832 0.070260204 12629422
0.37735149 -0.02512086 0.075238362 9934483
0.38000003 -0.020633938 0.07055673 12303035
0.37850004 -0.017882835 0.07760822 12368308
0.38124177 -0.014444586 0.074370295 12960705
0.38551354 -0.0059718736 0.075499795 12500670
0.39162505 -0.0021051597 0.071662523 12435131
0.38900003 0.00012600447 0.078754179 12829380
0.39652112 0.0041105449 0.075072631 12763581
0.40070835 0.0081826067 0.074046053 12961474
0.40608007 0.012116237 0.076288931 13093060
0.41346008 0.016500264 0.075297587 13026754
0.42112502 0.01960724 0.072193488 12172216
0.41825002 0.02143172 0.078065768 12237495
0.42436361 0.024776252 0.075284347 12895683
0.43275002 0.028887877 0.072152883 12961477
0.42800006 0.030197309 0.079133615 12698559
0.43525001 0.033263028 0.076112159 13290952
0.44353667 0.037326396 0.073844001 14080211
0.44718421 0.043236151 0.077221639 12236980
0.45342115 0.046167172 0.073678643 12894910
0.45636493 0.054462284 0.075995155 15329765
0.46057147 0.056755338 0.071447469 13619401
0.45550001 0.060928568 0.079420708 11711405
0.434791 -0.13415827 0.085359402 12235950
0.42783999 -0.12165392 0.086431846 12170676
0.43162686 -0.12642755 0.084401637 12301744
0.42328721 -0.11484246 0.085000671 11907500
0.41700003 -0.104162 0.085544795 11709863
0.42025003 -0.10857525 0.083603822 11643813
0.40795848 -0.092309617 0.085614413 11446948
0.41225007 -0.097324967 0.084553324 11644070
0.40314144 -0.084819406 0.084913887 11644326
0.39611623 -0.074670367 0.085452653 11512225
0.40009096 -0.079142593 0.082829706 11380123
0.38798302 -0.062702298 0.085511938 11511968
0.39128849 -0.06757351 0.084730975 11381925
0.38339469 -0.055146895 0.084967837 11446947
0.37748203 -0.043322481 0.08519838 10132117
0.38063625 -0.04844135 0.084329411 11579305
0.37284833 -0.034799308 0.08499822 2896429
0.3728357 -0.024700418 0.084923439 3291190
0.37728968 -0.015652051 0.085480087 12303288
0.38037506 -0.011749166 0.082312532 13289925
0.37900001 -0.0096369386 0.089594714 11249827
0.38312185 -0.0051715281 0.084976971 12631739
0.38764867 0.0016241979 0.086387128 12631996
0.39422888 0.0064411983 0.084500134 12567233
0.39757693 0.011478127 0.087181099 12566978
0.40373689 0.015165906 0.084763281 12633283
0.41169232 0.018594263 0.081751548 12961987
0.40837499 0.020806396 0.088770822 12763330
0.41517916 0.023904795 0.085634395 13092547
0.42200014 0.027774448 0.08337564 13092548
0.42558828 0.033294655 0.08625672 13355974
0.43253666 0.036794111 0.083691038 13684939
0.44000003 0.039284348 0.080323875 14935005
0.43656668 0.043550041 0.088003978 14014162
0.44379044 0.046094421 0.083802514 11711408
0.45000002 0.049658295 0.080042496 12632256
0.44642419 0.054303285 0.086728454 15066593
0.4518286 0.055937834 0.082178108 15658729
0.44776928 0.061829064 0.088350333 15329251
0.45171434 0.061780971 0.084571443 14013392
0.4326795 -0.13438752 0.095053576 12302000
0.42652941 -0.12428576 0.095336318 12499378
0.43006665 -0.1285961 0.093209274 12499120
0.41800001 -0.11146435 0.097033255 11972261
0.42154172 -0.11606852 0.094509296 12104620
0.41481528 -0.10504947 0.094686054 11973034
0.40762523 -0.094185494 0.095101088 11775143
0.41061905 -0.098832086 0.094184019 11972523
0.39833334 -0.08162079 0.096493296 11380383
0.40225926 -0.086117499 0.094611712 11511969
0.39430895 -0.0749496 0.095110208 11380640
0.38664645 -0.064049222 0.095174231 11446690
0.39057145 -0.068775661 0.092589699 11118240
0.37872726 -0.050897893 0.09807305 11577509
0.38165754 -0.05510376 0.094620809 11512483
0.37680319 -0.044637118 0.095202833 9999501
0.38020006 -0.049275134 0.091835722 11643811
0.36824995 -0.033020645 0.096723974 2764588
0.3710677 -0.03599342 0.093482092 2830125
0.36831588 -0.026018934 0.096857645 2830125
0.3705608 -0.023917858 0.092974596 2961195
0.3759439 -0.015236009 0.095020019 11381156
0.37856817 -0.0080743441 0.096540444 11842993
0.38117284 -0.0039923 0.09444619 11777973
0.38621566 0.0036455346 0.095415764 12172474
0.39145166 0.0081986273 0.09342096 12829633
0.39544675 0.013690132 0.095622033 12895685
0.40140542 0.018265577 0.093539707 13421000
0.40589869 0.023757173 0.096177131 12895425
0.41251352 0.027201353 0.093460239 13027269
0.41589192 0.033218995 0.097626217 12830399
0.42275757 0.036566582 0.093947396 13290950
0.42615911 0.043199897 0.097289652 14013647
0.43286961 0.046127651 0.093578823 13223876
0.43601286 0.05430885 0.096307635 13289666
0.4417879 0.056557596 0.09199135 15132385
0.43826085 0.063308127 0.098472148 16053744
0.44235551 0.063196063 0.09354084 15527144
0.4325 -0.14059605 0.10375897 10790046
0.42864996 -0.13141736 0.10664879 12498094
0.43040994 -0.13559112 0.10480091 12301484
0.42519093 -0.12494288 0.10510407 12038829
0.41777077 -0.11321441 0.10533988 11776170
0.42075014 -0.11770717 0.10441505 12170668
0.40900001 -0.10040253 0.10721888 12038825
0.41325811 -0.10549472 0.10477352 11776172
0.40553001 -0.094787367 0.10498462 11447206
0.41000003 -0.099688202 0.10076232 10131346
0.39705086 -0.082837634 0.1052342 11447461
0.40047494 -0.087623224 0.10442052 11578792
0.38884613 -0.071297422 0.10739645 11052443
0.39255425 -0.075696714 0.10457043 11446687
0.38614297 -0.065405011 0.10498126 11446949
0.37841308 -0.051740497 0.10528514 11709347
0.38140002 -0.05703453 0.10494819 11644068
0.37579456 -0.045140859 0.10494429 10394259
0.36642602 -0.034023717 0.105225 2567210
0.37067997 -0.039138433 0.10397512 2435111
0.36607414 -0.025346274 0.10526878 2698281
0.37 -0.020668389 0.10175905 3157283
0.36866668 -0.019730853 0.10613838 9012089
0.37476021 -0.014786465 0.1045354 11315618
0.37800008 -0.0065836776 0.10550125 11974580
0.38057494 -0.002036138 0.10410915 11974325
0.38415027 0.0046282024 0.10503068 12172217
0.38857147 0.01110733 0.10673504 12500924
0.39359218 0.01593698 0.10460155 12830146
0.39738715 0.022127343 0.10747126 12698558
0.40295801 0.026077183 0.10439198 13224135
0.40682465 0.033117708 0.10684104 13093317
0.41340593 0.036535285 0.10364972 13224131
0.42000002 0.039465148 0.10027025 13158846
0.41646937 0.043316845 0.10698248 13289926
0.42277274 0.046209138 0.1035167 14013648
0.42592654 0.053971738 0.10658821 12763583
0.43131825 0.056342825 0.10257811 12565945
0.42816672 0.060948197 0.10940219 13157821
0.43450987 0.065089777 0.10487778 15987438
0.43824998 0.072258964 0.10753126 15066335
0.42764291 -0.13330017 0.11548204 11908272
0.43000007 -0.13788196 0.11406618 12236462
0.42361102 -0.124901 0.1148577 11907498
0.41655406 -0.1138468 0.11523005 11775397
0.42031255 -0.11880001 0.11418027 11972773
0.40858075 -0.10125678 0.11546955 12104106
0.41204354 -0.10636932 0.11469457 11643299
0.40451729 -0.094915017 0.11489942 11446176
0.39648569 -0.083294727 0.11487439 11314847
0.40038228 -0.088694312 0.11493864 11511711
0.3885307 -0.072380058 0.11527291 10855325
0.39186791 -0.07714349 0.11478953 10329500
0.38504535 -0.065227509 0.11501562 10986652
0.37821063 -0.052956957 0.11531629 11117213
0.3809399 -0.057952002 0.11443445 11511969
0.36900002 -0.040480748 0.11876074 3750458
0.3751578 -0.045173984 0.11475132 9539467
0.36417887 -0.034672838 0.11516482 2369829
0.36379561 -0.025095997 0.11509459 2435365
0.3684375 -0.01934066 0.11626144 7894642
0.37447271 -0.014016087 0.11519156 10921632
0.37764734 -0.0052997768 0.11499835 11645359
0.38000003 -0.00076649763 0.11162599 11710380
0.37899998 0.0003762641 0.11836683 11842996
0.38236976 0.0048587322 0.11495391 12106166
0.38728166 0.013688125 0.1157008 12697789
0.39103034 0.017964721 0.11282425 12632510
0.38900003 0.020160437 0.11927838 11514026
0.39475825 0.024623035 0.11520406 13093059
0.40016672 0.028546071 0.11114829 13027265
0.39833334 0.031109018 0.11830461 13685970
0.40331244 0.035193868 0.11472034 12961730
0.41000003 0.03948532 0.11036048 13224646
0.40764108 0.042489763 0.11684185 13158855
0.41318288 0.046214171 0.11396635 13290182
0.41660008 0.053551435 0.11689188 14145491
0.42216957 0.056440681 0.11304303 13354689
0.41900003 0.060950689 0.11964924 13025979
0.42448381 0.064457521 0.11569799 14473683
0.43111116 0.067815863 0.11194726 16513523
0.42781818 0.07170286 0.11843173 16513525
0.43264475 0.074459702 0.11512171 15789801
0.42666081 -0.13335279 0.12404281 11710890
0.43000001 -0.13897803 0.12198508 11317418
0.42218831 -0.1249613 0.12479979 11447205
0.41631529 -0.11486718 0.12499438 11316392
0.42000002 -0.11981771 0.12091803 10789276
0.40855175 -0.1013156 0.12405406 11579047
0.41176668 -0.10630699 0.12542394 11053220
0.40439284 -0.095021807 0.12494479 11183517
0.39700004 -0.083392203 0.12469831 10592154
0.40037832 -0.088584818 0.12547784 11249827
0.38889998 -0.07166101 0.12352721 10920861
0.39243481 -0.076091446 0.12530032 10591897
0.38556075 -0.065321021 0.12503943 10592410
0.37811279 -0.05284008 0.12430602 10525845
0.38125575 -0.058121134 0.1254991 10262932
0.36900002 -0.040480748 0.12048841 3290163
0.37497243 -0.045256518 0.12499108 9144964
0.35900006 -0.030979455 0.12856889 2305061
0.36136892 -0.0342829 0.12482673 2436136
0.35900003 -0.027617754 0.12856889 2502440
0.36129934 -0.024974464 0.12499657 2501929
0.36687505 -0.01913262 0.12583295 8356996
0.373734 -0.014141172 0.12493256 10593181
0.3776499 -0.0052133785 0.12476481 10922150
0.38000003 -0.00076649763 0.12986253 11842993
0.37900001 0.00046401363 0.12324181 11776943
0.38139138 0.0053634509 0.12520465 11842479
0.38588127 0.014809907 0.1248657 12303031
0.38889652 0.020971529 0.12524295 12434617
0.39257148 0.026121372 0.12473772 12566460
0.39703232 0.032993626 0.12553127 12764097
0.40103763 0.037703775 0.12408132 12960703
0.40539995 0.045052573 0.12510586 13290181
0.41050002 0.049143352 0.12058486 14473176
0.4085294 0.051495641 0.12729052 13684943
0.41309571 0.055686433 0.12434307 13882066
0.4169459 0.063808456 0.12620701 13157827
0.42120522 0.067240037 0.1227271 14737114
0.41900003 0.070759557 0.1294581 16711418
0.42458761 0.074682698 0.12505241 16382452
0.43000004 0.078489259 0.12111267 15461609
0.42782351 0.081322052 0.12705432 14342872
0.42999998 0.081005849 0.12279039 11316138
0.42161539 -0.12468542 0.13087359 10065812
0.41622218 -0.11414732 0.13114142 9276297
0.40900001 -0.10040253 0.13115579 9276293
0.41182613 -0.1052515 0.13147405 9276551
0.40459257 -0.094596513 0.13152847 9144193
0.39828578 -0.082189545 0.13091682 9540238
0.40035298 -0.086758859 0.13135985 8881538
0.39346153 -0.075486533 0.13070306 8684925
0.38552639 -0.064105012 0.13089405 7960692
0.37812501 -0.051772911 0.13043879 8816769
0.38200003 -0.057291131 0.1307244 7961206
0.3678 -0.040865999 0.13757673 8158067
0.37499997 -0.044965211 0.13112597 9474184
0.36451584 -0.035064135 0.13378309 1712668
0.37066662 -0.034473158 0.13945799 923151
0.36423472 -0.024202913 0.13464546 1842714
0.37075001 -0.02808859 0.13972038 726029
0.36383334 -0.01890214 0.13185741 8553347
0.37526193 -0.013215227 0.13274018 9080203
0.37818432 -0.0070745288 0.13224755 9607061
0.38039386 -0.0030332555 0.13401879 9080714
0.3823868 0.0048469114 0.13348505 9803152
0.38723657 0.014512049 0.13436534 10527132
0.39000002 0.019071016 0.13807319 10197400
0.389 0.020565173 0.13182519 12500665
0.39241371 0.025533443 0.13471706 11250856
0.39682543 0.033252344 0.13444628 11316908
0.40044728 0.038171623 0.13522397 11053223
0.40402922 0.045085981 0.13495 11908532
0.40817037 0.052505564 0.13507691 12435130
0.41148984 0.05718711 0.13490205 13356488
0.41548553 0.0648214 0.1348379 11908016
0.41857147 0.071702853 0.13541459 14803164
0.4212712 0.076061338 0.13383225 15197922
0.42415383 0.080948979 0.13310716 15395302
0.36254999 -0.041001722 0.14667088 5723211
0.37033334 -0.040915746 0.14071904 8618362
0.36461705 -0.03538147 0.14639944 857359
0.37078008 -0.033870626 0.14226541 857359
0.36492923 -0.024672376 0.14641953 1250317
0.37062854 -0.027645083 0.14314367 725773
0.36100003 -0.018897984 0.14914517 5839897
0.39500001 0.029256064 0.14053689 11448230
0.39750004 0.032705195 0.14049229 9344143
0.40250003 0.039234743 0.14037852 12960445
0.40537497 0.046281159 0.14134143 11053477
0.40810004 0.053014614 0.14180642 11119269
0.41083336 0.057279866 0.14168152 11250597
0.41529411 0.064425074 0.14083549 11447975
0.36097148 -0.041265924 0.15491576 1842968
0.35881484 -0.03255051 0.15836832 1053966
0.3608872 -0.035304632 0.15438926 1317654
0.35893336 -0.027724368 0.15885058 856845
0.36079711 -0.024637507 0.15468229 1383187
0.36100003 -0.018968409 0.15344115 4009768
0.34531584 -0.041157454 0.16867679 2698793
0.35538095 -0.04104355 0.16675407 594190
0.36118755 -0.041157492 0.16290772 2172192
0.34616107 -0.034983341 0.16830069 2107169
0.35588744 -0.034498751 0.16475412 1449497
0.36050007 -0.038321577 0.16209568 1777942
0.34667116 -0.025823751 0.16811703 1975587
0.35659134 -0.026763305 0.16449907 1646878
0.36053127 -0.02227425 0.16491047 1185815
0.35800001 -0.019998064 0.16927689 1317402
0.36100003 -0.019320538 0.16985032 2107433
0.3379167 -0.041224137 0.17797194 2436134
0.34178573 -0.041685935 0.17303185 2304292
0.3383618 -0.03593675 0.17729692 2172961
0.34173268 -0.034781583 0.17328279 2238498
0.33895841 -0.024885938 0.17733359 2172193
0.34224108 -0.025202684 0.17337047 2172705
0.33875 -0.019319553 0.17722434 2830127
0.34300002 -0.019761797 0.1728207 2041382
0.36000001 -0.019267017 0.17022257 1712162
0.33497065 -0.041175693 0.183541 2239012
0.33380267 -0.035245091 0.18485309 2107169
0.33411703 -0.0253585 0.18537383 2172448
0.78687507 -0.1528708 0.26729703 10394517
0.79050004 -0.15750632 0.26829764 9341830
0.77691674 -0.14343455 0.26641628 11184802
0.78200006 -0.14803146 0.26724339 9078656
0.77473336 -0.13565233 0.26681611 11514279
0.77580005 -0.12506293 0.26875693 11644066
0.77600002 -0.11782959 0.26882619 10918802
0.78706253 -0.15256275 0.27484637 10262933
0.79110003 -0.15808906 0.27498358 9407624
0.77708334 -0.14300922 0.27420387 13157823
0.78162503 -0.14727543 0.27580568 13026238
0.77530539 -0.13496718 0.27493897 12763576
0.77573341 -0.12505288 0.27508864 13223612
0.77547061 -0.1152406 0.27472854 13223614
0.77472216 -0.10564616 0.27483118 13092284
0.77400005 -0.099406421 0.27719307 14670030
0.76833338 0.078790814 0.27816251 10331294
0.76780003 0.084728085 0.27856749 10527643
0.76730007 0.093835652 0.27766791 10328982
0.77050006 0.10261352 0.27909648 10724253
0.77340001 0.11540285 0.27878875 11053475
0.7748751 0.12474107 0.27818683 11316647
0.78806674 -0.15274788 0.28481388 9604490
0.79191667 -0.15809835 0.28530762 9341575
0.77850008 -0.14190145 0.28366616 11447209
0.78321439 -0.14629988 0.28560075 10789022
0.77625006 -0.13480949 0.28507349 10658468
0.77499986 -0.1249349 0.28480834 10658727
0.77492845 -0.11520491 0.28504142 10526877
0.77463627 -0.10501146 0.28517008 10526360
0.77421063 -0.096381396 0.28480521 10723223
0.76900005 0.077299491 0.28152326 12633020
0.77216673 0.077075504 0.28693315 8750723
0.76860005 0.084814958 0.28065711 13093055
0.77179998 0.085170269 0.28544199 10131863
0.76783341 0.093421228 0.28067717 13158337
0.77222228 0.095560521 0.28549808 11974062
0.77377278 0.10556281 0.28485516 12500663
0.77578956 0.11447817 0.28405043 11053475
0.78200006 0.11924725 0.28921151 11053475
0.77742857 0.12323218 0.2823211 11185061
0.78254545 0.1251619 0.28708264 11250854
0.78733331 0.13358049 0.28657803 11316647
0.79050004 0.1385868 0.28726631 11250854
0.78866673 -0.15196064 0.29495999 10065809
0.79088897 -0.15681288 0.29527563 9605772
0.78609091 -0.14538138 0.2949101 10527130
0.77820003 -0.13237408 0.29217917 11120299
0.78321427 -0.13595092 0.29660508 10001302
0.77715391 -0.12486216 0.2925992 11844018
0.78150004 -0.1259848 0.29771733 12895419
0.77680957 -0.11483394 0.29326957 12237745
0.78000003 -0.11752396 0.29760182 13355968
0.77700007 -0.10498844 0.2938621 12566455
0.78000003 -0.10017701 0.29942781 12699842
0.77656519 -0.094992869 0.29344907 12500919
0.78025001 -0.093816973 0.29952377 11251368
0.77550006 -0.088706315 0.29134679 11645096
0.77533334 0.076486401 0.29219115 9211272
0.78200006 0.078972377 0.29653421 9409420
0.77583337 0.084709771 0.29056332 8948103
0.78383332 0.086802118 0.29661921 9277578
0.77600002 0.094716117 0.29062575 8487808
0.7827273 0.095034763 0.2959798 9540751
0.77750003 0.10309277 0.29118752 9276812
0.78372729 0.10516787 0.29602444 10461342
0.78595006 0.11479239 0.29527798 11053475
0.78800011 0.12477341 0.29358429 11185061
0.79057151 0.12610704 0.29833087 11185061
0.78850007 0.13223732 0.29161543 11316647
0.79131818 0.13574296 0.29568985 11316647
0.79231817 -0.15546627 0.305002 10263960
0.78871435 -0.14349975 0.30198213 8882308
0.79133338 -0.14547466 0.30645698 9540237
0.78780001 -0.1347454 0.30365315 10000530
0.79057139 -0.13564236 0.3085098 9540233
0.78659999 -0.12496497 0.30472857 10065040
0.78549999 -0.11509219 0.30447045 10526875
0.78519058 -0.10521845 0.30413961 10199453
0.78550011 -0.095595762 0.30499157 9212299
0.78780013 0.085093208 0.30057782 9541006
0.79292303 0.086217217 0.30610615 9803408
0.78837508 0.096226573 0.30125901 10001557
0.79240006 0.09473829 0.30641672 10263959
0.78842866 0.10572629 0.30134538 10658718
0.79214299 0.10507499 0.30727059 10724510
0.78900003 0.11200289 0.30103567 10856096
0.79191309 0.11543866 0.30618069 10921889
0.79207683 0.12470644 0.30577829 11119525
0.79299998 0.13534999 0.30491912 11316647
0.79390478 -0.13515301 0.31512347 10395543
0.78900003 -0.12257414 0.31027099 9604743
0.79191315 -0.12492047 0.31528908 10329493
0.78900003 -0.11518588 0.31027099 10000014
0.7915715 -0.11489872 0.31578603 10395543
0.78900003 -0.10548879 0.31027099 9869200
0.79235303 -0.10503516 0.31519413 10198420
0.78900003 -0.098562315 0.31027099 9408650
0.79250002 -0.097761326 0.31505194 10330006
0.79107702 0.077610858 0.3170681 10066580
0.79338449 0.085124485 0.31477782 10132374
0.79299992 0.10514501 0.31555685 10856096
0.79300004 0.11535536 0.31555676 10987939
0.79387504 0.12462178 0.31575057 11119525
0.78900003 0.076677814 0.32574013 10395545
0.79012501 0.079330549 0.32412305 10461338
0.79155195 0.085371464 0.32501137 10592667
0.79285705 0.11533298 0.32531032 11119268
0.79241925 0.12466685 0.32531589 11053733
0.78900003 0.077216536 0.33120438 10461338
0.79044443 0.078591436 0.33612952 10461338
0.79165393 0.08565262 0.33519366 10724510
0.79371434 0.11426143 0.3346881 11053475
0.7926001 0.12457579 0.33488268 11119268
0.79139996 0.078810379 0.34419364 10592924
0.79283994 0.085637398 0.34519178 10724511
0.79299998 0.10527501 0.35533389 10856867
0.7934376 0.11559634 0.35525286 10856867
0.79128563 0.079115167 0.36382702 10461851
0.79354066 0.085613407 0.36451384 10593694
0.78900003 0.1092323 0.36752996 10922659
0.79090929 0.10483598 0.36493918 10791074
0.78899986 0.11508134 0.36691421 10988453
0.79008335 0.11446912 0.36202323 10922661
0.78871429 0.1244923 0.36686879 10988197
0.79122233 0.12549035 0.36197653 11053990
0.78900003 0.13232058 0.3684535 10988197
0.7935589 0.13521528 0.36434159 10988453
0.78885716 0.084941521 0.37432262 10527901
0.79027271 0.088049047 0.37383997 10659487
0.79150003 0.094558038 0.37484798 10659487
0.79159272 0.10464752 0.37471053 10725280
0.78900003 0.11662055 0.37122408 10856866
0.79076475 0.11470328 0.37532285 10791073
0.78900003 0.12493234 0.37214765 10988196
0.79050004 0.12516926 0.37748232 10987939
0.78900003 0.13139705 0.37122408 11120040
0.79047835 0.13542563 0.37521884 11053990
0.79235995 0.14494328 0.37465954 10988454
0.78900003 0.084527828 0.38623148 10396316
0.79000002 0.088498898 0.38543302 10462109
0.79159272 0.094974883 0.38500354 10659487
0.79323518 0.10501296 0.38501474 10725280
0.7930401 0.11536035 0.38426566 10856609
0.79242301 0.12475994 0.38567919 10856610
0.79229021 0.1351171 0.38551748 10856867
0.78900003 0.083373412 0.39154175 10462108
0.79016674 0.087196268 0.39489642 10527901
0.79133338 0.094531387 0.39496386 10593695
0.79287487 0.10530365 0.39497161 10725280
0.79343319 0.11541864 0.39466885 10791073
0.79300004 0.1246375 0.39538318 10791074
0.79266655 0.13479179 0.39521661 10856867
0.7936666 0.14518131 0.39478445 10922659
0.77750003 0.083978355 0.40858489 10396315
0.78714293 0.087389 0.40772563 10462109
0.79049999 0.088158555 0.40338883 10462109
0.78866673 0.091953926 0.40860781 10527901
0.79111552 0.09513744 0.4046272 10593695
0.79259366 0.10468751 0.40486333 10659488
0.79336661 0.13490953 0.40485412 10856867
0.79335999 0.14512472 0.40485051 10922659
0.77775002 0.086736158 0.41281161 10527902
0.78166676 0.088393308 0.41291055 10593695
0.78722578 0.095200129 0.41473508 10593695
0.79000002 0.09827432 0.41053206 10659487
0.79230434 0.10469423 0.41455156 10659487
0.77646154 0.095749564 0.42740223 10593696
0.78500003 0.097654305 0.42388123 10593696
0.7766667 0.10025207 0.42905483 10725281
0.78660011 0.10374636 0.42778814 10659489
0.79225004 0.10616101 0.42431036 10593696
0.77750003 0.10263686 0.43270296 10659487
0.78444439 0.10697254 0.43426678 10659488
0.78809094 0.11229426 0.43620673 10659488
0.79359257 0.11633825 0.43358141 10659488
