# .PCD v0.7 - Point Cloud Data file format
VERSION 0.7
FIELDS x y z rgb
SIZE 4 4 4 4
TYPE F F F U
COUNT 1 1 1 1
WIDTH 721
HEIGHT 1
VIEWPOINT 0 0 0 1 0 0 0
POINTS 721
DATA ascii
0.7921946 -0.14531933 0.10474351 11842988
0.79476929 -0.15474334 0.11525337 11711145
0.79307687 -0.14477214 0.11493167 11974060
0.79477423 -0.13508277 0.11441014 11908524
0.79439998 -0.12483598 0.11475869 11711146
0.78844452 -0.14268899 0.12650059 14670031
0.79138893 -0.1458994 0.12388398 11446689
0.78544122 -0.13478473 0.12509531 14867408
0.79000002 -0.13752472 0.1201756 13814722
0.77900004 -0.12831521 0.1294442 13090225
0.78474998 -0.12487198 0.12487563 11708315
0.78619993 -0.11537978 0.12500453 13419705
0.79000002 -0.11255775 0.1201756 13091005
0.78546876 -0.10490043 0.1261415 12763057
0.79000002 -0.10516014 0.1201756 11907498
0.78578794 -0.094898708 0.12571228 12434865
0.79066664 -0.095067799 0.12027701 11645607
0.78506887 -0.084919855 0.12676838 12763060
0.79077774 -0.084694453 0.12111589 11973802
0.78548288 -0.075010508 0.12607302 12695725
0.79049999 -0.076235145 0.12055989 12500145
0.78557158 -0.06503135 0.12500747 13023663
0.78562516 -0.055093188 0.12553425 12957869
0.79000002 -0.053376824 0.1201756 13551032
0.78603226 -0.04533083 0.1261524 12433069
0.79088885 -0.044177637 0.12092728 12629933
0.78750002 -0.035002403 0.12693615 12237744
0.79142869 -0.034681663 0.12211107 12696755
0.78747612 -0.024500404 0.12637249 11514536
0.79100007 -0.025272915 0.12164921 11645607
0.78704989 -0.014945408 0.12644814 11252134
0.7912727 -0.01422523 0.12154651 11185057
0.78681248 -0.0050400803 0.12682542 11514279
0.79171419 -0.0055676666 0.12215451 10855835
0.78596658 0.0048538316 0.12691361 11249568
0.79200006 0.0048917593 0.1214057 10987680
0.78556001 0.014966351 0.12684718 11380897
0.79140002 0.015076633 0.12131351 10855579
0.78566647 0.025084814 0.12686473 11512225
0.79083329 0.025248678 0.12122708 10591635
0.78695232 0.035084352 0.1263742 11445404
0.79079998 0.035431124 0.121222 10524816
0.78770584 0.044620335 0.12709217 11906474
0.79192859 0.04501662 0.12218761 10656147
0.78805876 0.054949578 0.12714972 11775658
0.79238886 0.054979134 0.12239022 10590867
0.78800011 0.064820521 0.12724869 11381671
0.79233336 0.065176979 0.1223815 10722710
0.78840005 0.074451447 0.12768315 10988968
0.79231584 0.075326569 0.1230616 10526616
0.78850001 0.085166469 0.12825336 11909293
0.79259092 0.085101508 0.12317955 10724764
0.78850001 0.095318884 0.12825334 12697523
0.79240006 0.094862357 0.12331865 11250851
0.78883338 0.10397744 0.12861581 12566455
0.79189301 0.10546128 0.12396772 11579562
0.79290009 0.11534301 0.12525174 11316645
0.79408002 -0.15545465 0.13521639 9933710
0.78673083 -0.14475286 0.13526002 12960185
0.79000002 -0.14954583 0.13219672 9604745
0.77900016 -0.13287435 0.13589711 14868180
0.78138471 -0.13722284 0.1339203 14407372
0.77878964 -0.12660074 0.13507003 12037798
0.78018188 -0.1214532 0.13478698 11050390
0.77900004 -0.11828512 0.13673881 13550522
0.78092319 -0.11456767 0.13475397 13353398
0.77900004 -0.1052156 0.13643485 12893104
0.78058332 -0.10466746 0.13480769 12235432
0.78100014 -0.094820537 0.13526118 12039337
0.78073347 -0.084736682 0.13521464 11711144
0.78056014 -0.074666187 0.13518369 11908266
0.78116661 -0.064665891 0.13528854 12432295
0.78128004 -0.054616924 0.13530888 12694442
0.77900004 -0.042603515 0.13856246 12630191
0.78100008 -0.045102078 0.13441563 12301482
0.78152955 -0.035152886 0.13464981 11908522
0.78183341 -0.025371067 0.13448724 11317671
0.78144461 -0.015297349 0.13442034 10855841
0.77899998 -0.0039160168 0.13778089 11380388
0.78104365 -0.0056298808 0.13319869 10921119
0.77900016 0.0053585614 0.1361917 11118756
0.78030008 0.0037228453 0.1325825 11381413
0.77891999 0.014839752 0.1349009 11249827
0.7790001 0.024291396 0.13574407 10789791
0.78012508 0.026506044 0.13282691 11446694
0.77900004 0.031254437 0.13613091 10921634
0.78134626 0.035570864 0.13433369 10789534
0.78266674 0.045143776 0.1346305 11250084
0.78276652 0.055227444 0.13464764 10986398
0.78317165 0.06520991 0.13484964 11184547
0.7845484 0.075379431 0.1348051 10592926
0.78436679 0.084719792 0.134921 11119011
0.78413892 0.094791919 0.13488147 11973289
0.78659999 0.10522082 0.13530676 12171696
0.78870583 0.11397126 0.13594407 11053474
0.79012501 0.11655595 0.13244867 11119523
0.78900003 0.12031468 0.13849412 11053475
0.79078585 0.12515004 0.13497014 11119523
0.79345453 -0.15527126 0.14459747 9802124
0.78684008 -0.14519595 0.14481938 12301999
0.79000002 -0.14954583 0.14884137 9670282
0.77900016 -0.13263121 0.14415501 14801618
0.78100008 -0.13701425 0.14552779 14275530
0.77875006 -0.12699743 0.14453499 12234668
0.78025001 -0.12189939 0.14563534 10721942
0.78130764 -0.11511715 0.14467213 13354172
0.78110009 -0.1048896 0.14442433 12366504
0.78136003 -0.094864517 0.14447099 12103333
0.78083879 -0.084600277 0.14455092 11645093
0.78062969 -0.07487648 0.14474235 11448485
0.78090012 -0.064644367 0.14438511 11644066
0.78108007 -0.054602373 0.14441839 11840162
0.77900004 -0.041691687 0.14038612 12497064
0.78060728 -0.045433197 0.14524531 11970977
0.77900004 -0.037132557 0.14038612 11182488
0.78028136 -0.035138834 0.14575545 11642268
0.78093344 -0.025341237 0.14530511 11380639
0.78033352 -0.015276119 0.14519386 10722453
0.7790001 -0.0043464447 0.14450917 10656916
0.78000009 -0.0080947448 0.14656602 10459538
0.77899981 0.0048114657 0.14494522 10395802
0.77899998 0.01463893 0.14443868 10132375
0.78000003 0.016686603 0.14969629 9211792
0.77900016 0.024611128 0.14168872 9146250
0.78050005 0.025085805 0.14730172 9803670
0.77900004 0.031254437 0.14038612 9474188
0.78078586 0.035112761 0.14527842 9803157
0.7817418 0.044943705 0.14471754 10395547
0.78207994 0.055179514 0.14460327 10066325
0.78273362 0.065304108 0.14472383 10527389
0.78300017 0.075407334 0.14477299 10723994
0.78209984 0.085390158 0.14460619 10789793
0.78203988 0.095453531 0.14459532 11447461
0.78496009 0.10500387 0.14513502 11974061
0.78863156 0.1133605 0.14387071 11053474
0.79030001 0.11718305 0.14667825 10987680
0.79096442 0.12491333 0.14419818 11119267
0.79323071 0.13524678 0.14488129 11185317
0.78705555 -0.14377163 0.15504222 13223102
0.79075003 -0.14899428 0.15546173 9670283
0.77900004 -0.13105069 0.15132803 14603726
0.78176934 -0.13553248 0.15524498 14275016
0.77900004 -0.12922704 0.15132803 13288379
0.78086209 -0.1248057 0.15547244 10854550
0.78255194 -0.11503366 0.1549253 12894906
0.78286147 -0.10512643 0.15482874 11908267
0.78229994 -0.094978899 0.15471736 12039078
0.78199977 -0.085003912 0.15478757 11971486
0.782107 -0.07461828 0.15500554 11511964
0.78222203 -0.06475383 0.15470192 11447714
0.78223324 -0.054683141 0.15470408 11579301
0.78189647 -0.04506642 0.15555254 11513251
0.78151846 -0.034914751 0.15527453 11511966
0.78155982 -0.025362069 0.15548605 11117723
0.78126675 -0.015293401 0.15542831 10657686
0.77900004 -0.005218626 0.15132803 10922913
0.78108352 -0.0052322894 0.15554409 10527643
0.78096676 0.0048234165 0.15536901 10462111
0.78123993 0.014884984 0.15542293 10396319
0.78196645 0.024966562 0.15556568 9936028
0.78196138 0.035034247 0.15535346 10264479
0.78205699 0.045239192 0.15479922 10461603
0.78266674 0.055221491 0.1547897 10132895
0.78300041 0.065325737 0.15485464 10527909
0.78300029 0.075407334 0.15485457 10461339
0.78224981 0.085406162 0.15470688 10921633
0.78206646 0.095456906 0.15467031 11250341
0.78485191 0.10478598 0.15471047 11842731
0.78900003 0.11190029 0.15470724 11119009
0.79193753 0.11682532 0.15534742 11053472
0.79482609 -0.15523785 0.164836 9670538
0.78772718 -0.14450818 0.16501015 13091516
0.79000002 -0.14954583 0.1645613 9472903
0.77900004 -0.13105069 0.16226995 14537931
0.78184617 -0.13512412 0.1651853 14143945
0.77900004 -0.12922704 0.16409361 13748415
0.78116667 -0.12495008 0.16491598 11050904
0.78377801 -0.11493167 0.16530636 13156278
0.78396434 -0.10494681 0.16494453 12103849
0.78336024 -0.095108278 0.16501343 12039339
0.78263354 -0.084942073 0.16486026 11512224
0.78308016 -0.074907258 0.16495383 11905437
0.78343368 -0.064854242 0.16502887 11905695
0.78312021 -0.054745931 0.16496214 11709604
0.78266692 -0.044636831 0.16486658 10921373
0.78243989 -0.034548689 0.16481954 10988194
0.78243989 -0.025390252 0.16481954 10791585
0.78223336 -0.015312519 0.16477546 10330262
0.7823599 -0.0052409484 0.16480261 10461595
0.78213316 0.0048301946 0.16475411 10527132
0.78159249 0.015092801 0.16504516 10461339
0.78145707 0.024820376 0.16539331 10000530
0.78203988 0.035038132 0.16473418 10263958
0.78263342 0.045142137 0.16485991 10329500
0.78308016 0.055250071 0.16495343 10198428
0.78372431 0.065228827 0.16496374 10133920
0.78350025 0.075242355 0.16518396 10330524
0.78281492 0.084958978 0.16489734 11316902
0.7828216 0.094960295 0.1648985 11251112
0.7858572 0.10532054 0.16494586 11776682
0.78900003 0.11107936 0.16527653 11579046
0.79280961 0.1163937 0.16488087 11053472
0.78786677 -0.14361066 0.17518385 13881032
0.79049999 -0.14871578 0.17484361 10656664
0.78311545 -0.1354131 0.17504407 14210508
0.78281832 -0.12519278 0.17511712 11248286
0.78503329 -0.11460658 0.17455383 13288379
0.78446162 -0.10428271 0.17463747 12365992
0.78366685 -0.095145836 0.1751664 12563110
0.78419375 -0.085258171 0.17454609 11973287
0.78479993 -0.075072438 0.17450207 11906980
0.78372252 -0.064879373 0.17517839 11971488
0.78323364 -0.054753739 0.17506894 11904925
0.78300041 -0.044655293 0.17501779 11510681
0.78313357 -0.034579113 0.1750482 11643296
0.78306693 -0.025411014 0.17503305 11184288
0.7828058 -0.015324088 0.17497489 10788246
0.78250009 -0.0052421517 0.17490761 10591638
0.78261137 0.0048330543 0.17493197 10526616
0.78196424 0.014701136 0.17511372 10724251
0.78190309 0.025113072 0.17551176 10329237
0.78286684 0.035075918 0.17498916 10658976
0.78327823 0.045178313 0.17508127 10526874
0.78386694 0.055305362 0.17521138 10723995
0.78468752 0.065064684 0.17533709 10461082
0.78370994 0.075236887 0.17479031 10067355
0.78280586 0.085466623 0.17497441 11053476
0.78260016 0.095522948 0.17492886 10988199
0.78537053 0.10485457 0.17503566 11841962
0.78900003 0.11138722 0.17605108 11052959
0.79250008 0.11621521 0.17486297 11053472
0.79413038 -0.15510178 0.18513928 9736329
0.78787512 -0.14461158 0.18563604 13749441
0.79020005 -0.14921382 0.1834711 10196108
0.78434485 -0.13543457 0.18522701 14472651
0.78434491 -0.12504579 0.18503827 11116695
0.78572202 -0.11470655 0.18482281 12762552
0.78499991 -0.10462131 0.18481173 12038827
0.78340012 -0.095113315 0.18519403 12103332
0.78468567 -0.085032381 0.18470964 12038050
0.78493327 -0.07508532 0.18463753 11841957
0.78360027 -0.064869545 0.18524168 11776420
0.7831201 -0.054745555 0.18512829 11709088
0.78300029 -0.044655301 0.18509938 11707805
0.78340018 -0.034589857 0.18519384 12168870
0.78376013 -0.025434308 0.18527986 11774109
0.78306693 -0.015328635 0.18511535 11247512
0.78316015 -0.0052463072 0.1851379 11182746
0.78323364 0.0048366371 0.1851552 10723736
0.78300017 0.014917765 0.18509938 10461852
0.78320032 0.025006445 0.18514737 10133660
0.78364021 0.035109818 0.18525064 10527905
0.78426677 0.045236152 0.18539916 10593437
0.78432012 0.055336613 0.18541348 10790558
0.7842415 0.065080456 0.18539307 10920863
0.78355199 0.074762195 0.18465912 10658463
0.78276694 0.085462324 0.18504436 10988201
0.78220004 0.095472783 0.18490981 11250853
0.78546429 0.10526808 0.18508972 11513513
0.78872734 0.11188055 0.18510996 11184803
0.79212499 0.11720156 0.18505244 10987679
0.78900003 -0.1512036 0.19575307 9341317
0.79242313 -0.15550476 0.19510256 9539208
0.7878077 -0.14558688 0.19524458 12894390
0.7850666 -0.13482948 0.19477797 14275274
0.78516001 -0.12473308 0.19480111 10854037
0.78559983 -0.11468944 0.19490995 13025720
0.78491992 -0.10448382 0.19474044 12040367
0.78424019 -0.095215015 0.19457172 12105389
0.78400022 -0.08509019 0.19451253 12037538
0.78420013 -0.075014398 0.19456215 11906466
0.78384399 -0.06465967 0.19481707 11841700
0.78313357 -0.054746602 0.19521353 11645092
0.78300041 -0.044655293 0.19518097 11315100
0.78321451 -0.034778628 0.19490694 11971747
0.78404015 -0.025442641 0.19452265 11642268
0.78329444 -0.015118502 0.19498432 10854296
0.7831074 -0.0051808432 0.19488062 10724250
0.78300041 0.0048361709 0.19518095 10593694
0.78300029 0.014917764 0.19518094 10264476
0.78377444 0.024877312 0.19463404 10592155
0.78364021 0.035108317 0.19442342 10394777
0.78423339 0.045236219 0.19457023 10330009
0.78495997 0.055382337 0.19475059 10725536
0.7834121 0.065574087 0.19501293 10395288
0.78300029 0.075407334 0.19518092 10722967
0.78283376 0.085469745 0.19513936 11053734
0.78206646 0.095456913 0.19494869 11251109
0.78592008 0.1051321 0.19499011 11711148
0.78887504 0.11175442 0.19433734 11119010
0.79152632 0.11631408 0.19540392 11053473
0.79296005 -0.15553313 0.20505029 9539464
0.78836364 -0.14470762 0.20490681 13551551
0.79000002 -0.14954583 0.20617288 9144446
0.78563875 -0.13492876 0.20503491 13881289
0.78546655 -0.12478185 0.20499009 10196884
0.78558326 -0.11468855 0.20501952 12828598
0.78440017 -0.10441408 0.20471081 12039594
0.78430015 -0.095220707 0.20468591 11908269
0.78461111 -0.085157178 0.2047677 11644070
0.78453338 -0.075046435 0.20474753 11972517
0.78367668 -0.065092236 0.20479208 11841700
0.78292012 -0.054731384 0.20524125 11710628
0.78263342 -0.044634577 0.20516644 11448230
0.78311133 -0.034374494 0.20488368 11645608
0.78326702 -0.025417505 0.20441434 11513511
0.78306288 -0.01555766 0.20493484 10790043
0.78325951 -0.0053153099 0.20492238 10987935
0.78300029 0.0048361714 0.20526259 10921886
0.78304017 0.014918715 0.20527329 10853270
0.78491431 0.025192311 0.2049778 10786706
0.78466672 0.035155617 0.20478241 10787476
0.78486109 0.045270443 0.20483238 10721681
0.78503323 0.055387523 0.20487684 10855066
0.78390646 0.065169394 0.20515637 10527128
0.78332031 0.075438343 0.20534761 10854807
0.78314835 0.084994368 0.20509847 11315360
0.78317875 0.095004976 0.20550695 11052960
0.78719991 0.10478555 0.20474237 11973035
0.79000002 0.10937075 0.2080223 10987679
0.79275006 0.11532495 0.20503493 10987680
0.78900003 -0.1512036 0.2197649 9276037
0.79292601 -0.15588127 0.21487516 9539210
0.7879656 -0.14560123 0.21502294 13749701
0.78513324 -0.13484029 0.21501173 13816266
0.78559995 -0.12480318 0.21513961 10461086
0.78549981 -0.11467665 0.21511225 12960442
0.78464007 -0.10444695 0.21487765 12236461
0.78491992 -0.095296182 0.21495382 11908525
0.78499991 -0.085198723 0.21497534 11710894
0.78499991 -0.075091384 0.21497536 11710375
0.78479993 -0.064968184 0.2149208 11775649
0.78376025 -0.054791234 0.21463723 11644063
0.78297091 -0.044438619 0.21506703 11381925
0.7828337 -0.034566335 0.21529852 11514027
0.78296691 -0.025407378 0.21533498 11250854
0.78300041 -0.015327017 0.21534416 10723736
0.78323364 -0.0052470635 0.21540767 11116693
0.78297263 0.0048358375 0.2153365 11247253
0.78300029 0.014917763 0.21534412 11049619
0.7850967 0.024920939 0.21517894 10787988
0.78600001 0.035215359 0.21524921 10591637
0.78599989 0.045335583 0.2152492 11181461
0.78579992 0.05544113 0.21519513 10984853
0.78485179 0.064968638 0.21479933 10460823
0.78403473 0.07506223 0.21502735 10658199
0.78316694 0.084589794 0.21538931 11775139
0.78322881 0.094552979 0.21527481 11381665
0.78760868 0.1047942 0.21536863 11842219
0.79000002 0.10937075 0.21449523 11053474
0.79364294 0.11565331 0.21488532 10921888
0.78900003 -0.1512036 0.22530608 9144195
0.79221743 -0.15633997 0.22509411 9473417
0.78677773 -0.14505136 0.22507979 13947336
0.78455561 -0.13473994 0.22495484 14013130
0.78543317 -0.12477688 0.22520636 10066326
0.78547204 -0.11467212 0.22521716 12434873
0.78499991 -0.10449457 0.22508277 12039599
0.78499991 -0.095306084 0.22508277 12039855
0.78499991 -0.085198723 0.22508274 11842992
0.78489995 -0.075081974 0.22505389 11842735
0.78455555 -0.064947061 0.22495349 11776166
0.78446668 -0.054838795 0.22492765 11841438
0.7830627 -0.044889443 0.22509876 11775907
0.78203988 -0.034531496 0.22514923 11710631
0.78231996 -0.025385704 0.22522926 11447458
0.78300029 -0.015327018 0.22542575 11314584
0.78276002 -0.0052435338 0.22535571 11641495
0.78263354 0.0048341015 0.22531995 11379354
0.78304023 0.014918714 0.22543745 10919830
0.78465718 0.025185337 0.22511543 10855578
0.78533328 0.035185575 0.22517684 10461334
0.78527755 0.04529405 0.22516052 11052184
0.78533322 0.055408768 0.22517672 11051156
0.78499991 0.064573742 0.22508271 10722451
0.78417152 0.074468218 0.22497615 10526354
0.78243333 0.085425466 0.22526248 11380638
0.78238457 0.095637754 0.22503695 11117983
0.78649998 0.1050117 0.22518158 11645356
0.78900003 0.11107937 0.22715314 10987425
0.79211551 0.11551678 0.22476712 10921632
0.78900003 -0.1512036 0.23454142 9210499
0.79142863 -0.15643691 0.23499802 9407879
0.78682142 -0.1454608 0.23514345 14144203
0.78410017 -0.13466309 0.23491985 14079180
0.78463995 -0.12465151 0.23508114 10591896
0.78496546 -0.11475541 0.23505278 12500922
0.78457695 -0.10465049 0.23520337 11580594
0.78455997 -0.095252849 0.23505676 11579819
0.78466672 -0.085162386 0.23508887 11711146
0.78428 -0.075024575 0.23497392 11448491
0.78300029 -0.064818479 0.23459083 11316134
0.78288472 -0.054587994 0.23476698 11447458
0.7829358 -0.044504017 0.23474887 11710885
0.78264314 -0.03462372 0.23507297 11710630
0.78227592 -0.025385359 0.23513225 11315869
0.78215611 -0.015538714 0.23468189 11511707
0.78280014 -0.0052432399 0.23453133 11380381
0.78303349 0.0048376648 0.23460191 10855325
0.78424013 0.014941577 0.23496391 10593176
0.78470004 0.025053443 0.23509997 10395797
0.78472006 0.035157826 0.23510538 10330005
0.78413349 0.045229174 0.2349299 10593178
0.78499991 0.055385254 0.23519003 10986649
0.78499991 0.06457375 0.23518999 11051158
0.78433341 0.074614696 0.23499031 11379609
0.78245175 0.085575104 0.23460357 11381665
0.78273082 0.09539891 0.23472248 11183262
0.78651857 0.10541512 0.23523653 11579306
0.78900003 0.11177201 0.23384874 10790046
0.79166675 0.11670857 0.23533334 10921632
0.78900003 -0.15120362 0.24470025 10196623
0.79195464 -0.15624073 0.24519478 9473158
0.78651851 -0.14500348 0.24525903 14341323
0.78350031 -0.13547798 0.24482784 14605778
0.7836948 -0.12541711 0.24488872 10723736
0.78487498 -0.11515837 0.24502833 12762809
0.78423548 -0.10504079 0.24527505 11908784
0.78423345 -0.095213316 0.24505888 11842733
0.7837503 -0.085063547 0.24490592 11775913
0.78373355 -0.0749707 0.24490133 11710891
0.78291696 -0.064812012 0.24464591 11251115
0.78237933 -0.054819588 0.24463524 11053221
0.7821427 -0.044737335 0.24453443 11382180
0.78196287 -0.034460444 0.2448556 11513249
0.78199989 -0.025375711 0.24506332 11249821
0.78291202 -0.015109194 0.24491456 11117724
0.78300029 -0.0052454229 0.2446724 10921120
0.78416681 0.0048457831 0.24503681 10526877
0.78499991 0.014955874 0.2452974 10790045
0.78491658 0.025060134 0.24527174 10525842
0.78446674 0.035145417 0.24513103 10723220
0.78438902 0.045244284 0.24510673 11052959
0.78499991 0.055385254 0.24529739 10592413
0.78487498 0.064907297 0.24537291 10328727
0.7840001 0.074853368 0.24487571 11051417
0.78296697 0.08456897 0.24466182 11249824
0.78326499 0.094903216 0.2450237 11315874
0.78651857 0.10500615 0.24525878 11776168
0.78900003 0.11107936 0.24470025 10987425
0.79223812 0.11604437 0.24504298 10855839
0.78858346 -0.15250884 0.25518551 10789532
0.79146665 -0.1576069 0.25454152 9407881
0.78521436 -0.14516468 0.25488052 14604751
0.78233331 -0.13527475 0.25545153 15130324
0.78312927 -0.12547538 0.25497317 10854550
0.78489989 -0.11458672 0.25537196 12893108
0.78499991 -0.10449457 0.25540471 12302254
0.78495997 -0.095301412 0.25539151 11448487
0.78360039 -0.085046932 0.25494787 11841705
0.7837202 -0.074969232 0.25498748 12038570
0.78281283 -0.064575516 0.25503621 11645869
0.78199977 -0.054666985 0.25534397 11251113
0.78187078 -0.04532953 0.25515389 11579819
0.77900016 -0.032853983 0.25639847 11512737
0.78045458 -0.036621418 0.25384197 11776679
0.77900004 -0.028926115 0.25801173 12236459
0.78078592 -0.025073728 0.25468498 11578271
0.78264737 -0.01553438 0.25528464 11118494
0.78280795 -0.0051040333 0.25490254 11250086
0.78303254 0.0049841562 0.25494111 10986914
0.78370386 0.014728803 0.25538778 11315359
0.78476655 0.025056817 0.25532827 10854291
0.78495997 0.035168577 0.2553919 10854291
0.78496659 0.045276169 0.2553941 11578014
0.78456002 0.05535318 0.25526017 11052444
0.78338748 0.065504871 0.25505561 10855581
0.78251737 0.075486287 0.25535369 11512480
0.78169441 0.085345633 0.2552422 11709860
0.7815333 0.095392041 0.25518882 11119011
0.7853334 0.10491932 0.25482804 11316390
0.78900003 0.11107937 0.25116497 10921632
0.79363638 0.11528724 0.25517133 10790046
0.7879445 -0.15284759 0.26466256 11710120
0.79045451 -0.15787545 0.26508567 9408137
0.77900004 -0.14108077 0.26895365 13617344
0.78278577 -0.14471516 0.26443315 14472908
0.77900004 -0.13510326 0.26905498 14801869
0.78128558 -0.13491887 0.26447168 14998477
0.78248596 -0.12509334 0.26479089 11511707
0.78418195 -0.11489874 0.2649816 13222069
0.78415149 -0.10488168 0.26547223 12629933
0.78356683 -0.095133699 0.26502442 11776423
0.78230584 -0.084906667 0.2645981 11578788
0.78230011 -0.074832946 0.26459599 12037801
0.78217661 -0.064966641 0.26482406 11710379
0.78171992 -0.054647595 0.26531652 11251626
0.78092003 -0.04545252 0.26504472 11382703
0.77899992 -0.034657594 0.26543656 11315881
0.78000009 -0.037310652 0.26447305 10855586
0.77900016 -0.025988007 0.26672474 10724259
0.78008342 -0.024248414 0.26354447 10790050
0.77900004 -0.019807851 0.26986548 11711158
0.78125 -0.01506188 0.26481262 10592671
0.78241372 -0.005367911 0.26479343 10789792
0.77900004 0.009370598 0.26986548 11446173
0.78208572 0.0046979892 0.26465496 11118752
0.78207141 0.01509764 0.26484644 11314330
0.78330582 0.025010316 0.26493621 10985107
0.78320009 0.035089526 0.26490015 10919057
0.78313893 0.04517052 0.26487872 11510935
0.78230011 0.055194367 0.26459605 11248279
0.78208572 0.065118723 0.26465544 10855836
0.78196138 0.075165957 0.26518786 11183514
0.7786001 0.087134242 0.26717415 12366249
0.78050005 0.083844706 0.26408076 11905951
0.77857697 0.094540745 0.2656514 11579045
0.78000003 0.098399833 0.26245141 11974320
0.78549999 0.10521132 0.26488882 11777200
0.7943334 0.11449486 0.2652559 10790303
0.78677779 -0.15293032 0.27501497 12499122
0.79066664 -0.15831038 0.27452433 9275781
0.77841669 -0.1432538 0.27528167 14341067
0.78150004 -0.14684051 0.27402347 15788255
0.77753341 -0.13535285 0.27481693 14604752
0.77900016 -0.12698254 0.27659899 11116954
0.78086954 -0.12365542 0.27384892 11643555
0.7790001 -0.11380888 0.27765748 12828084
0.78136843 -0.11546724 0.27337915 13617341
0.7790001 -0.10634847 0.27765748 12499376
0.78112 -0.1041237 0.27374256 12631219
0.78106666 -0.094829082 0.27514932 12368306
0.77900016 -0.084691502 0.27610433 12170669
0.78058338 -0.086395837 0.27193645 11973804
0.77868962 -0.075494081 0.27535135 12499120
0.78016669 -0.074324317 0.270574 11905695
0.77852184 -0.065279737 0.27548283 12302769
0.78025007 -0.065047912 0.27075502 11512997
0.77834475 -0.055417046 0.27522871 12369078
0.78000003 -0.054222833 0.27051625 11514796
0.77840006 -0.045304075 0.27512234 12236981
0.78000003 -0.045397192 0.27021191 11316911
0.77800006 -0.035264201 0.2749812 11841966
0.78000003 -0.039919212 0.27021191 10987176
0.77791995 -0.025243947 0.27495319 11381672
0.7787931 -0.015402205 0.27538842 11119011
0.78000003 -0.013746631 0.27051625 10263710
0.77881265 -0.0054450338 0.27686512 11512740
0.78035724 -0.0049668616 0.27203122 11118500
0.77875018 0.0052657761 0.27661461 11644324
0.78046668 0.0039068251 0.27219984 11315873
0.77877784 0.014533511 0.27647266 11578530
0.78050011 0.01532761 0.27175501 11248535
0.77900004 0.023959823 0.27837586 11512226
0.7809999 0.025240574 0.27380612 11445917
0.77900004 0.035914883 0.27797061 11775140
0.78114289 0.034562316 0.27365357 11577248
0.77879167 0.045298725 0.27609798 11315361
0.78066677 0.044266347 0.2715084 12168614
0.77765524 0.0549924 0.27561051 11512740
0.78000003 0.055032481 0.27021191 11247512
0.77819222 0.064295217 0.27588934 11249569
0.78045464 0.066193745 0.27136558 11119012
0.77840012 0.075327806 0.2768243 10921118
0.78093332 0.074842326 0.27248374 10658459
0.77686119 0.084816277 0.27548665 11644071
0.78000003 0.080596395 0.27021191 12366764
0.77650028 0.09477894 0.27535912 11644587
0.77880007 0.10089216 0.27672374 12434873
0.78470832 0.10550802 0.27444208 11777199
0.78900003 0.11154113 0.27748564 10724253
0.79416007 0.11597677 0.27518624 10724510
0.79255545 0.15518095 0.27548665 10856096
0.78747058 -0.15286458 0.28505489 11183520
0.79070002 -0.15800886 0.28502563 9012866
0.77880007 -0.1415914 0.28292367 13222845
0.78227782 -0.1454418 0.28585556 13156795
0.77821749 -0.13511595 0.28329927 12894395
0.78025001 -0.13445646 0.28856429 13289152
0.77900004 -0.12649156 0.28141525 11577763
0.78070849 -0.12448415 0.28584197 10855581
0.7790001 -0.11354361 0.28208399 12500148
0.78086662 -0.11564337 0.28672239 11776169
0.77900016 -0.10537926 0.28206995 12565426
0.78047061 -0.10421414 0.28681991 11973032
0.77900004 -0.094982885 0.28161791 12236461
0.78068751 -0.094553374 0.2866714 11776168
0.7790001 -0.085459359 0.28196791 12104879
0.78129411 -0.084742121 0.28723043 11119011
0.7790001 -0.075429268 0.28171918 12302256
0.78173339 -0.074779227 0.28728503 11644325
0.77853864 -0.064941026 0.28218374 12170927
0.7814616 -0.06560728 0.28774697 11578788
0.77766687 -0.055274501 0.28305948 12368305
0.78039998 -0.054555126 0.28861976 11118237
0.7779001 -0.045274619 0.28314471 11908524
0.78080004 -0.045443289 0.28876773 11382436
0.7777999 -0.035072144 0.28329042 11973803
0.78000003 -0.036267225 0.28847185 11579816
0.77812505 -0.025173841 0.28398558 11513253
0.78000003 -0.027137253 0.28847185 11251106
0.77821213 -0.014985895 0.28466508 11184547
0.77786678 -0.0052104881 0.28495365 11381927
0.77803344 0.0045021381 0.28416482 11316133
0.78000003 0.009382627 0.28847185 11053218
0.77795845 0.014973587 0.28392479 11184801
0.78000003 0.011208621 0.28847185 11908527
0.77871442 0.024472747 0.28304875 11249311
0.78066677 0.02583994 0.28810975 11250082
0.7790001 0.034570169 0.28196791 11578277
0.78171432 0.035285208 0.28740844 11315618
0.7782858 0.045409169 0.28185186 11117727
0.78168756 0.044628657 0.2874966 11315619
0.77763176 0.05496062 0.28434053 11053473
0.78100002 0.052359361 0.28884166 11316644
0.7774815 0.064764835 0.28376713 11381925
0.78050005 0.068772078 0.28865677 10658460
0.77794743 0.07501585 0.28301749 11250084
0.7815001 0.07495933 0.28872228 11249828
0.77700007 0.085071564 0.28391781 11118241
0.78060001 0.084310845 0.28869373 10855069
0.7762 0.09474086 0.28434256 11513771
0.77800006 0.10123442 0.28368533 12369333
0.78326327 0.10641544 0.28475294 11974576
0.78821063 0.1131062 0.28568074 10592924
0.79109097 0.11777239 0.28398383 10592924
0.79384863 0.12494266 0.28462923 10724253
0.7942425 0.14477482 0.28511775 10790303
0.79163337 0.15499969 0.28536224 10856096
0.78850007 -0.15221579 0.29457003 9473416
0.79093754 -0.15701546 0.29575688 9408138
0.7865715 -0.14539219 0.2952897 10723482
0.78427273 -0.13510852 0.29481348 11579307
0.78418183 -0.12507857 0.29444584 10395288
0.78500009 -0.11501893 0.29508638 11513766
0.784091 -0.10487399 0.29441047 11513767
0.78485709 -0.095023528 0.29499748 11053474
0.78578264 -0.08508157 0.2950936 10856095
0.78690004 -0.075273022 0.29563352 10920603
0.78608328 -0.065075681 0.29532683 11315102
0.78474993 -0.054859925 0.29482716 11118751
0.78437513 -0.044734046 0.29468551 11053474
0.78385001 -0.034612287 0.29448777 10593179
0.78309995 -0.025412444 0.29420626 10199191
0.77900004 -0.010689585 0.2917493 10067352
0.78245002 -0.015956579 0.29441959 9804438
0.77900004 -0.0070422795 0.2917493 10001303
0.78325009 -0.0047892337 0.29563597 9672337
0.78299993 0.0050358195 0.29428872 10066068
0.7833001 0.014923012 0.2942816 9934481
0.78445834 0.02504909 0.29471743 9869201
0.78684205 0.035060018 0.29546562 9737617
0.79000002 0.039093386 0.29956782 10790305
0.78685009 0.045291491 0.29515344 9671823
0.79000002 0.041867491 0.29956782 10790305
0.78568178 0.054928768 0.29534486 9803408
0.7855714 0.064883843 0.29500517 10000528
0.78691298 0.07506264 0.29575881 9473930
0.78600001 0.085156418 0.29516587 9605260
0.78452194 0.095036037 0.29486269 10065811
0.78614289 0.10533458 0.29512963 11382438
0.78852624 0.11392848 0.29454046 10592924
0.79000002 0.11756097 0.29719001 10592924
0.79044151 0.12488978 0.29532692 10658717
0.79210335 0.13504876 0.29499266 10724510
0.79304004 0.14506543 0.29515091 10790303
0.79269981 0.15520953 0.29502541 10790303
0.79427993 0.16574797 0.29561332 10856096
0.79387999 -0.16514917 0.30475676 10263959
0.79236358 -0.15547499 0.30501997 10263959
0.78885716 -0.14352579 0.30177277 9736845
0.79133338 -0.14572173 0.30563316 10198165
0.78845459 -0.13499011 0.30166715 9868945
0.7913571 -0.13471739 0.30736265 10263957
0.78850007 -0.12526529 0.30176845 9671566
0.79147065 -0.12508257 0.30764812 10066578
0.78846163 -0.11475252 0.3019667 9473928
0.79106677 -0.11517889 0.30738175 10066835
0.78839999 -0.10494747 0.30265322 9408905
0.79100001 -0.10529326 0.308281 9935248
0.78866673 -0.095596939 0.30198595 9934993
0.79137504 -0.095038608 0.30715442 9737614
0.78900003 -0.084709331 0.30103567 11579816
0.79133332 -0.08495985 0.30563328 9342856
0.78900003 -0.075474024 0.30103567 11118754
0.79161114 -0.074797526 0.30574068 9277063
0.78900003 -0.065315172 0.30103567 11777197
0.791421 -0.064393818 0.30644774 9342600
0.78883338 -0.054529767 0.3012799 11119267
0.79142112 -0.055520862 0.30674037 9342857
0.7885384 -0.044758029 0.30199623 10000787
0.79088241 -0.045269459 0.30741858 9342600
0.78846663 -0.034815546 0.30267879 9539979
0.79049999 -0.03490486 0.30808559 9408650
0.7884444 -0.024662927 0.30267039 9473672
0.79066664 -0.024731135 0.30815071 9145478
0.78799999 -0.014502528 0.30250043 9211016
0.79149997 -0.014566007 0.30847555 9013892
0.78814286 -0.0055429065 0.3024233 9408907
0.79163641 -0.0049668103 0.30827674 8948099
0.78850001 0.0048701414 0.30176842 9868944
0.79127795 0.0048872326 0.30746415 8684927
0.78850001 0.015022551 0.30176842 9539723
0.79100001 0.015070181 0.30735549 8750720
0.78866673 0.024257923 0.30152419 9803409
0.79138899 0.025267391 0.30658105 8421756
0.78900003 0.031655647 0.30103567 11119270
0.79268426 0.035711605 0.30537522 9211273
0.79325008 0.044823967 0.30544752 9211272
0.78900003 0.057514533 0.30103567 8816256
0.79261905 0.054598469 0.30560181 9013635
0.79304993 0.065237336 0.30537137 8948099
0.79350013 0.075065009 0.30537564 8882306
0.78900003 0.08891461 0.30103567 8815486
0.79228574 0.084866606 0.30538431 9342600
0.78900003 0.095379323 0.30103567 9210246
0.79166669 0.094775043 0.30576208 10000530
0.78900003 0.10553817 0.30103567 10395288
0.79161918 0.105359 0.30627364 10395545
0.79176009 0.11517555 0.30579939 10592667
0.79200006 0.1245542 0.30559447 10592924
0.79276919 0.13531056 0.30483106 10724510
0.79323071 0.1452425 0.30472195 10790303
0.79211104 0.15509325 0.30500314 10790303
0.79303324 0.16548772 0.30535725 10790305
0.79364997 -0.035044182 0.31488934 9605772
0.79437518 -0.0248463 0.31517655 9342600
0.7926206 0.15535201 0.3152793 10658717
0.79207993 0.16528693 0.3151907 10790303
0.79433334 -0.07505545 0.32445109 10461338
0.79420012 -0.064815246 0.32439822 10461338
