# .PCD v0.7 - Point Cloud Data file format
VERSION 0.7
FIELDS x y z rgb
SIZE 4 4 4 4
TYPE F F F U
COUNT 1 1 1 1
WIDTH 840
HEIGHT 1
VIEWPOINT 0 0 0 1 0 0 0
POINTS 840
DATA ascii
0.81318188 0.21693867 -0.11408239 4077619
0.81800002 0.22048451 -0.11301914 3682601
0.82175004 0.22510543 -0.11209285 3945772
0.80850005 0.21035303 -0.10650015 14342870
0.8140834 0.21435176 -0.10517364 5986388
0.82083344 0.2190067 -0.1034804 3946030
0.82450008 0.22403227 -0.10660539 4340530
0.83380002 0.22786757 -0.10309815 4472115
0.83635718 0.23270456 -0.10491939 4208688
0.80850005 0.21035303 -0.093726382 12498350
0.81357145 0.21303532 -0.096080348 7695463
0.82150006 0.21854496 -0.099077366 4800569
0.82500005 0.22043999 -0.096604243 5392706
0.8349092 0.22611164 -0.095273711 4537396
0.8062501 0.21212739 -0.082612887 4733491
0.81066674 0.21344741 -0.08670187 4799029
0.81600004 0.22185571 -0.070716858 5195840
0.80800003 0.21085268 -0.06686864 7695719
0.81455553 0.21574648 -0.065293439 6840667
0.8203333 0.21855317 -0.062130202 5261379
0.81900007 0.22075407 -0.067142263 5065024
0.82453853 0.22447774 -0.06432303 5196610
0.83000004 0.22857663 -0.062214915 4538681
0.83199996 0.23126993 -0.061974347 5130817
0.8120001 0.20936275 -0.055160146 14079443
0.81600004 0.21262391 -0.055754244 9209480
0.82135713 0.21795765 -0.05497409 5130054
0.82600003 0.22336835 -0.053935722 5459528
0.83087498 0.22687353 -0.055472232 5196611
0.83358335 0.23200387 -0.054840866 5459782
0.42100006 -0.082651392 -0.040920105 13881544
0.41657144 -0.073146284 -0.040837463 13947593
0.42000002 -0.079505384 -0.040822908 13815751
0.41474998 -0.065351978 -0.041162115 14012873
0.41238102 -0.055127043 -0.041070826 14209739
0.41099998 -0.04508831 -0.040429208 13287863
0.4124445 -0.03515907 -0.040571291 14144719
0.41400003 -0.027002979 -0.040724315 11645609
0.82050002 0.21827775 -0.049016997 5326664
0.82262504 0.22438234 -0.046980992 5327431
0.42900002 -0.13041961 -0.030148271 15328734
0.42999998 -0.13321626 -0.03156073 14736600
0.42794451 -0.12434267 -0.031938192 12696501
0.43000004 -0.1283748 -0.033406232 13881289
0.42540678 -0.11489808 -0.033373624 13617603
0.42352536 -0.10461123 -0.033598091 13419967
0.41845462 -0.092126533 -0.031278081 13880259
0.42134339 -0.095500931 -0.034662351 13288637
0.41749993 -0.084794529 -0.033194765 13551807
0.42037508 -0.084907174 -0.03807174 13157563
0.41526675 -0.074963473 -0.034828529 13158078
0.42000002 -0.079505384 -0.039348066 12235691
0.40900001 -0.060188524 -0.030657709 14079178
0.41281813 -0.065148175 -0.035344198 13617601
0.40865722 -0.054098509 -0.031972077 13159363
0.41130769 -0.055657081 -0.03677376 13551808
0.40838274 -0.045124792 -0.033326961 13946823
0.41043589 -0.044828586 -0.038132649 13748928
0.40848729 -0.035861436 -0.031968649 13881033
0.41135928 -0.03459239 -0.036826018 13881032
0.40900001 -0.029549286 -0.030657709 12827315
0.41315082 -0.025071559 -0.035245631 13552066
0.41548729 -0.014737034 -0.033965915 13289666
0.41745716 -0.0057792608 -0.033834025 12435387
0.42011115 -0.0010659007 -0.032910533 12368821
0.41900003 0.0020974954 -0.037292607 11645612
0.42140266 0.0047780699 -0.033877179 12368821
0.42556763 0.014420401 -0.032084394 12172214
0.42892301 0.021380071 -0.031764831 11842991
0.43004757 0.025883697 -0.031372335 12369078
0.43150002 0.030949909 -0.03032396 12698043
0.42999998 -0.14164563 -0.02312175 15985638
0.427827 -0.13349356 -0.024059722 16051683
0.4300001 -0.13780062 -0.025642922 15065047
0.42574131 -0.12479518 -0.024917498 12827572
0.42422813 -0.11496115 -0.02543336 13946310
0.42131653 -0.10481851 -0.025091019 13157562
0.41793841 -0.093583666 -0.024720255 13222844
0.42008007 -0.098362923 -0.025745727 12236462
0.41538018 -0.084958725 -0.024816642 12762807
0.41228274 -0.074615926 -0.025023149 13025463
0.40846509 -0.063154802 -0.02412764 13288381
0.41052634 -0.067469962 -0.026525632 13420479
0.40716365 -0.054853126 -0.025089245 13223100
0.40558991 -0.044971317 -0.025185732 13749702
0.4063091 -0.035056364 -0.025230829 14143946
0.40827194 -0.025967157 -0.02393895 13552578
0.41074997 -0.022302357 -0.027585726 13288891
0.40885714 -0.01914685 -0.020802353 14802130
0.41203019 -0.014818191 -0.025034484 13487302
0.41543624 -0.005393324 -0.024616683 13026496
0.42000002 -0.0013387954 -0.02951579 12695730
0.41799998 0.0019044526 -0.023032291 12238012
0.42133334 0.0059478283 -0.025873685 12434359
0.42477652 0.014594726 -0.025349196 12434104
0.42792007 0.022600634 -0.0240649 12763322
0.43029794 0.02727427 -0.025524715 12894652
0.43318659 0.034803357 -0.023681633 13486789
0.43735299 0.043661386 -0.022664072 13158341
0.44000003 0.048648417 -0.022587279 12961476
0.4428696 0.054648761 -0.021611612 13619144
0.44671431 0.063942797 -0.020935493 13749959
0.45200002 0.075805187 -0.020125072 12960445
0.43000007 -0.14183256 -0.015011126 15262428
0.42765233 -0.13378616 -0.015134209 15262171
0.43000004 -0.13861567 -0.013427828 14472913
0.42549002 -0.12494954 -0.015245081 12959930
0.42430419 -0.11498115 -0.015326744 13157308
0.42169428 -0.1049126 -0.015398835 12828343
0.4180555 -0.093203686 -0.015875807 12302512
0.42033345 -0.097718656 -0.014231167 12696755
0.41575015 -0.085033864 -0.015103313 12565170
0.40900001 -0.070720769 -0.012465659 14078922
0.41181177 -0.075295508 -0.015103728 12499632
0.40734714 -0.065109611 -0.014724622 12762805
0.41000003 -0.069933861 -0.018734951 10788500
0.40466937 -0.055103824 -0.015128701 13091256
0.4028739 -0.045062948 -0.015043806 13355456
0.40329993 -0.034821901 -0.015107146 13683908
0.40532655 -0.025051035 -0.01478336 13288895
0.40810421 -0.016378732 -0.013991447 13157565
0.41072723 -0.012365228 -0.016890474 12895166
0.41312999 -0.0051769661 -0.015014558 13025982
0.41703165 0.0043649101 -0.014819536 12500412
0.42026669 0.0092534609 -0.017401347 12630708
0.4223589 0.015083346 -0.015261793 12630451
0.4266628 0.024316106 -0.014791412 12564658
0.43000004 0.028884385 -0.017355956 12302001
0.43227988 0.035064287 -0.014694753 12893882
0.4373022 0.04501535 -0.014686551 12632508
0.44000003 0.049327314 -0.018818241 13619151
0.43900007 0.05091092 -0.012455075 12567488
0.44210023 0.055469591 -0.015340053 13223620
0.44675556 0.064997628 -0.015188095 13486273
0.44900009 0.071752779 -0.013553404 13817039
0.45119303 0.076274246 -0.01532829 13881548
0.45434794 0.084180824 -0.013593632 13815752
0.45860007 0.09190584 -0.012116591 13683396
0.43100002 -0.14111742 -0.0091002686 15395040
0.42885712 -0.13138048 -0.0084811402 15328218
0.43073165 -0.13520285 -0.0043692025 14670548
0.42779282 -0.12410686 -0.0052892896 12170669
0.42999995 -0.12847349 -0.0017366203 14868439
0.42604688 -0.11489297 -0.0051312237 12433328
0.42437243 -0.10502698 -0.0048639206 12368305
0.41873693 -0.091442406 -0.0061569326 11775395
0.42117724 -0.096081592 -0.0046851994 12236205
0.41613901 -0.085033089 -0.0049699564 12105390
0.40892303 -0.070854776 -0.0041429768 12106419
0.41190356 -0.075747252 -0.0049677351 11973289
0.40634558 -0.065040663 -0.0047763158 12433841
0.40201828 -0.05493214 -0.0047299834 12828081
0.39900008 -0.043659776 -0.00080263108 12698557
0.40037921 -0.044915099 -0.0056338571 13683907
0.39890009 -0.036336593 -0.00081196718 13355203
0.40059364 -0.03466006 -0.0056175948 13355973
0.40258342 -0.025269387 -0.0046977336 12961470
0.40614867 -0.01507271 -0.0047783442 13289665
0.40855011 -0.0078291139 -0.0034872494 13288895
0.41157144 -0.0036064941 -0.0055954237 13025467
0.41554546 0.0050094724 -0.0048869601 11909046
0.41855565 0.01145856 -0.0033415833 12303803
0.42148927 0.016198352 -0.0052652028 12040115
0.42639983 0.024996722 -0.0048003267 12369083
0.42899996 0.030267864 -0.0037496148 12894914
0.43201116 0.035356775 -0.0045252894 12828861
0.43678889 0.04514106 -0.0046219816 12302259
0.4390001 0.051369432 -0.0051188287 12895424
0.44153136 0.056255233 -0.0044770148 12435130
0.44575551 0.064851627 -0.0047162864 13026755
0.44884303 0.072709695 -0.0047997986 13092802
0.45061547 0.077723093 -0.0046996218 13355459
0.45409399 0.084947154 -0.004648366 13420994
0.45760003 0.092303753 -0.005326814 13618373
0.43356159 -0.13449325 0.004934723 14538704
0.42900002 -0.12138095 0.00098492671 10525840
0.43065393 -0.12499241 0.0051799556 13683908
0.42854178 -0.11364514 0.0036603406 12631220
0.4300001 -0.11681137 0.0068979929 11249053
0.42613304 -0.10468036 0.0052036997 12697270
0.41900003 -0.090105839 0.00096196809 9604741
0.42222479 -0.094805956 0.0054698079 11841191
0.41657153 -0.084437288 0.0052057011 11841707
0.42000005 -0.089337654 0.0073552434 10592668
0.40865722 -0.071892314 0.0055842064 11840675
0.41161817 -0.07669615 0.0050618076 11250598
0.40541005 -0.064892024 0.0051994743 12170412
0.39860722 -0.051461153 0.0064790798 12103587
0.40058327 -0.055905208 0.0046051638 12695728
0.39725971 -0.04497828 0.0050921519 12960441
0.39720881 -0.035204008 0.005091168 13027267
0.39837217 -0.027391855 0.0067685698 12961470
0.40049255 -0.023670772 0.0040662242 13025465
0.40323639 -0.014965097 0.0051675085 13092542
0.40733737 -0.0056382581 0.0056445845 12566974
0.4104616 -0.0016404551 0.0025673914 13487819
0.40900001 0.00045164162 0.0092371376 12366762
0.41323364 0.0051093269 0.0051844819 12697529
0.41758183 0.013202484 0.0058089616 12172215
0.42063174 0.017707068 0.005059415 11777201
0.42580765 0.025452133 0.0056625134 12631227
0.42900002 0.030267864 0.0060064103 10789280
0.43197694 0.035195731 0.0050020874 12631483
0.4369877 0.045162309 0.005095596 12696503
0.43900007 0.050628301 0.0037056156 13222845
0.44205496 0.055438321 0.0053098956 12960704
0.44601232 0.064888917 0.0052005928 12829374
0.44900003 0.072574735 0.0050642006 13289665
0.45042109 0.077509947 0.0054457551 13421253
0.45394447 0.084933706 0.0049972157 13025979
0.45737496 0.091930047 0.005300337 13026490
0.43649998 -0.13416237 0.014511392 14012874
0.43354425 -0.12500478 0.014701758 14144461
0.42900002 -0.11033368 0.010525746 14408658
0.43098849 -0.11517441 0.01467837 11249054
0.42736781 -0.10413787 0.014472807 12303284
0.42999995 -0.1086335 0.016757881 14144459
0.42323336 -0.094988845 0.01533966 11841960
0.41669446 -0.083872311 0.015209902 11776169
0.4201667 -0.088936135 0.014789919 11052446
0.40784794 -0.072080292 0.015274843 12168866
0.41195655 -0.077189386 0.014679174 11841189
0.40383166 -0.065016307 0.015018401 11841704
0.39765751 -0.053473353 0.015283708 12104874
0.40023065 -0.058249939 0.014083202 12301483
0.39547011 -0.045081221 0.01490201 12434869
0.39483485 -0.034994986 0.014764504 13092801
0.39632207 -0.024917832 0.014820419 12961470
0.39815214 -0.017375939 0.016473982 13092284
0.40071622 -0.013266328 0.013987395 12697784
0.40480363 -0.0050045005 0.015031935 12566719
0.40828583 0.0017267073 0.015658971 12630709
0.41197109 0.0068477914 0.014488516 12039341
0.41634339 0.013787295 0.01499083 12435389
0.42056012 0.019000622 0.014590835 12763580
0.42412081 0.02501427 0.015308579 12632253
0.42858329 0.030656926 0.015949123 11776942
0.43203893 0.036137994 0.014650861 12237494
0.43698871 0.045198273 0.014795807 12632765
0.43900004 0.050499838 0.017451195 12960441
0.44167069 0.055193838 0.014820517 12829886
0.44616666 0.065110579 0.015248249 12631994
0.44900006 0.072146952 0.015220925 12631739
0.45102182 0.077179998 0.01487772 13356227
0.45435065 0.085230842 0.014981728 13092798
0.45699996 0.091191873 0.013887353 11579816
0.43879545 -0.13265122 0.024214089 14078410
0.44000003 -0.13556629 0.025988843 13947084
0.43561912 -0.12478907 0.024969637 14342095
0.43312472 -0.11536335 0.02473139 11380125
0.42758012 -0.10296523 0.024903262 12236462
0.43025011 -0.10813791 0.024658065 13354686
0.42327783 -0.094999284 0.025249129 11710631
0.41570774 -0.083702952 0.024065012 11840160
0.42028576 -0.08911752 0.025915155 11118495
0.40674007 -0.072677568 0.025558056 11774880
0.41160527 -0.077917941 0.024753146 11577502
0.39875001 -0.060897373 0.028335823 10857124
0.40202221 -0.065172888 0.024993045 11710632
0.39655232 -0.054995243 0.025149493 12236203
0.40000001 -0.059566386 0.021285202 11842475
0.39307451 -0.044966884 0.024822213 12303028
0.39197519 -0.03474303 0.024753468 12239036
0.39313221 -0.024715222 0.024825266 12566458
0.39682555 -0.01514665 0.025426324 12961214
0.40000007 -0.011029285 0.021909473 13158850
0.39860001 -0.0085485708 0.028535167 12631739
0.40237358 -0.0047968375 0.024749072 12631993
0.40727186 0.0033871804 0.025274262 12500407
0.41121051 0.0084441816 0.024172032 11777458
0.41511112 0.014594121 0.024668952 12435130
0.42000002 0.019800596 0.021120429 12632256
0.42325562 0.024920654 0.025245961 12368826
0.42804 0.031002915 0.025429135 12697790
0.43189332 0.036276788 0.024583943 12501178
0.43714446 0.045178965 0.025053443 12434616
0.43900007 0.050499834 0.025158996 12039088
0.44203958 0.055405308 0.025087977 12500667
0.44639498 0.064945184 0.02506249 13158078
0.44900012 0.071699254 0.024661509 13224386
0.45124143 0.0767731 0.025222255 13027007
0.4541806 0.084413692 0.024609124 12763835
0.45700002 0.090015031 0.021376273 11908782
0.43900001 -0.13071914 0.031153953 13946055
0.44063628 -0.13258226 0.035149358 14406863
0.43725327 -0.12410589 0.03485243 14670290
0.44 -0.12933449 0.036546834 13419967
0.43369406 -0.11483131 0.035157673 11446688
0.42764711 -0.10298154 0.035017643 11908272
0.43042865 -0.10796712 0.034383833 12762806
0.41900003 -0.090105839 0.038235657 10657434
0.42294315 -0.095014006 0.035049479 11513770
0.41535941 -0.084866472 0.035636961 11249567
0.42012504 -0.088995539 0.032067899 11119010
0.40644455 -0.074304961 0.03528963 11511965
0.4104667 -0.079238631 0.033997238 12038565
0.39797148 -0.061495245 0.035489261 11052703
0.40175003 -0.066834539 0.034751926 11774625
0.39429632 -0.054812271 0.035131052 11776425
0.38899997 -0.042154454 0.038099892 12630964
0.39108884 -0.045264032 0.034189582 12368819
0.38875952 -0.034987871 0.036949139 12434358
0.39012501 -0.03475007 0.031699661 13027008
0.38893938 -0.027685732 0.037506327 12501436
0.39104247 -0.023904704 0.033889171 12566715
0.39409173 -0.01461715 0.03500326 12829116
0.39729318 -0.0070518586 0.035866786 12894136
0.40109614 -0.0027025747 0.0340514 12959671
0.40579629 0.0043935725 0.035152633 12236978
0.41033337 0.0095255999 0.033067603 11909303
0.4136886 0.015267513 0.035023481 12500407
0.41781253 0.021410068 0.036659036 12500157
0.42258221 0.026067339 0.034892339 12631996
0.4273684 0.032235455 0.035154372 12303290
0.43158928 0.037185453 0.034529462 12566717
0.43684089 0.04506699 0.035154071 12763837
0.43900004 0.050499838 0.036463771 13618629
0.44206345 0.055445649 0.034785397 12762811
0.44726673 0.065072685 0.035056792 12828858
0.44900003 0.070687078 0.033732262 12303543
0.45154163 0.075718075 0.034981702 13157823
0.45478478 0.084406942 0.035082955 12500664
0.44189996 -0.1314449 0.044983193 14143945
0.43808171 -0.12319993 0.044541348 14407374
0.44052929 -0.12819247 0.045146544 13354429
0.4340722 -0.11493844 0.044999551 11709860
0.42696366 -0.10305472 0.045248773 12433324
0.43051612 -0.10822127 0.044976737 11118238
0.41900009 -0.090718903 0.044856641 11119270
0.42220002 -0.095480166 0.04478604 11513254
0.41442853 -0.08518146 0.045118913 11119011
0.40550587 -0.074734472 0.045252029 11183259
0.41000003 -0.079532035 0.041733541 11446940
0.39713565 -0.063110985 0.045251377 11315103
0.40058136 -0.067739829 0.044142064 11380123
0.38900003 -0.050870731 0.048702531 11710375
0.39228567 -0.055088449 0.044888318 11512995
0.38837966 -0.044588026 0.04550666 12367020
0.39013335 -0.04827933 0.041811537 12301999
0.38678065 -0.035255503 0.045159608 12697014
0.38756603 -0.025302766 0.045002159 12632764
0.39000002 -0.021329101 0.04015426 13224896
0.3888 -0.018337335 0.046999052 13618372
0.39148912 -0.014242514 0.044020161 12764095
0.39567566 -0.005475027 0.045354471 13024952
0.40000001 -0.00099412107 0.041371137 13617086
0.39900002 0.00012924365 0.048086394 11578535
0.4034107 0.0048846332 0.045063946 12434358
0.40844828 0.011574232 0.045876972 12434358
0.41281587 0.016266257 0.044714879 11908016
0.41738641 0.022122519 0.044925887 12105911
0.42210001 0.027317083 0.044939578 12829117
0.42689359 0.032951582 0.045248456 12434874
0.43068188 0.037721362 0.044572428 12763838
0.43578655 0.045017973 0.045094866 12631994
0.43900007 0.050499834 0.044685431 12698556
0.44230014 0.055547208 0.045022126 12960702
0.4474999 0.065054029 0.045090832 13157567
0.45200008 0.075282842 0.044951353 13026235
0.45463842 0.083302572 0.044452433 12500664
0.44364712 -0.13145152 0.054049086 13223101
0.43861544 -0.12189068 0.054914337 14013387
0.4416793 -0.12676729 0.055210289 13551809
0.43441564 -0.11523467 0.055094466 11973290
0.42650902 -0.10298122 0.055185381 12695984
0.43037143 -0.10838442 0.054789163 11051674
0.41826674 -0.091188706 0.055726372 10525587
0.42142034 -0.095649891 0.054740272 11577760
0.40899998 -0.080508299 0.057004564 10986137
0.41388366 -0.085469171 0.054834522 11315876
0.40455967 -0.074628174 0.054431815 10986395
0.39604294 -0.064391881 0.05523739 11445920
0.40000004 -0.068852432 0.052420743 10723222
0.38861907 -0.052121356 0.055800676 11710374
0.39136621 -0.056836624 0.054449134 11775653
0.38615447 -0.045147616 0.055031937 11972519
0.38410905 -0.034848649 0.055122111 12564914
0.38429111 -0.02516724 0.055108123 12434614
0.38754719 -0.015577836 0.055374421 13026236
0.39025006 -0.011673688 0.051523019 12565685
0.38900003 -0.0097090807 0.05808229 13551559
0.3931779 -0.0051640179 0.054819975 12630967
0.39785719 0.0014273862 0.056161456 12302259
0.40235952 0.0061091357 0.054589048 12434617
0.4071297 0.012561251 0.055327877 11777199
0.41225493 0.01760377 0.054517049 11842222
0.41689479 0.022929288 0.055232361 12632252
0.42113051 0.027936209 0.054545086 12040376
0.42616668 0.033766177 0.055363592 12500411
0.4303793 0.0383914 0.054246977 13092546
0.43528414 0.044978801 0.055060748 12434875
0.4390001 0.050910927 0.056092981 12565948
0.44208235 0.055667944 0.054985236 12894912
0.44741249 0.064672992 0.054966368 12895166
0.45000002 0.069673993 0.055286229 12170928
0.45293331 0.075096644 0.054990653 13091516
0.4552258 0.081794001 0.054949574 12302771
0.44400004 -0.13082209 0.062344674 13288382
0.43833336 -0.12218855 0.064877056 13815497
0.44125 -0.12700273 0.064021163 13354688
0.43446153 -0.11533184 0.064942546 12433583
0.42663333 -0.10323914 0.065064594 12564913
0.43033335 -0.10866251 0.064959034 10459281
0.41705126 -0.092017837 0.065241538 11249567
0.42152283 -0.096908219 0.064727351 11315102
0.40845457 -0.081406064 0.065523602 10920348
0.4122903 -0.086317576 0.064520255 10921374
0.39875001 -0.070815384 0.068591967 12103847
0.40391999 -0.075404279 0.064505026 11183260
0.39467308 -0.064999171 0.064891927 11314845
0.38774109 -0.053722829 0.065420322 11578533
0.39048281 -0.058346823 0.063748643 11842735
0.38390598 -0.044721045 0.064981192 11907499
0.38152811 -0.034811754 0.065008476 12367021
0.38166669 -0.024784757 0.064989991 12631224
0.38459033 -0.015278715 0.065053433 13091775
0.38796616 -0.0078766448 0.065694287 12500670
0.39169699 -0.0031478873 0.064347841 12500668
0.39615378 0.0031447532 0.065419093 12434616
0.40121871 0.0084094834 0.064873293 12368569
0.40594193 0.013865948 0.06539344 12237238
0.41118184 0.018598285 0.063771948 12104878
0.41566277 0.023997102 0.065286085 12829375
0.42063165 0.028900344 0.06325984 12894399
0.42512351 0.034429509 0.065230273 12829628
0.42999998 0.039146502 0.063650422 12698817
0.43384442 0.044841286 0.064919427 12369080
0.4385938 0.051609121 0.065434627 13026495
0.44211334 0.056780681 0.064969622 13355458
0.44661033 0.064461172 0.065181665 13091774
0.45000002 0.069673993 0.063789137 11314846
0.45297498 0.074992701 0.065114431 13157821
0.4553684 0.08122237 0.063435443 12039856
0.4390001 -0.12164108 0.075002789 14735826
0.44108891 -0.12565368 0.074463993 13157308
0.43465814 -0.11539144 0.074955247 12761778
0.42639282 -0.1034305 0.07484331 11907496
0.43033344 -0.10866251 0.075033218 10261901
0.41695657 -0.092364743 0.075246729 11052700
0.42133349 -0.097538039 0.075059883 10855066
0.40799999 -0.082130343 0.075197965 11445920
0.41206002 -0.086707838 0.074759848 11118496
0.39727783 -0.071795464 0.076240212 11052962
0.40289831 -0.0765168 0.073787823 11051932
0.38900003 -0.061070085 0.078116722 9670280
0.39281625 -0.065221138 0.074735828 11117724
0.38630897 -0.054919813 0.07523571 11710119
0.39000002 -0.059218481 0.070739657 13551035
0.37828574 -0.041626681 0.078418732 11512486
0.38189813 -0.045237422 0.074431084 11907500
0.37707967 -0.034717344 0.077083923 8487293
0.38028559 -0.035266109 0.072219983 11907240
0.37692228 -0.025353368 0.076593213 9867660
0.38023257 -0.024033088 0.071772434 12565173
0.37841669 -0.018332448 0.078677796 11841708
0.38211218 -0.014636583 0.074616864 12631993
0.38661253 -0.0059222085 0.07536754 11844281
0.39047059 -0.0015397732 0.072571002 11844283
0.39487368 0.0044070659 0.074584506 11842997
0.40000001 0.0092595378 0.070914783 13289924
0.39900002 0.010403971 0.077509478 12500925
0.40398073 0.014840316 0.074943766 12236979
0.41000003 0.019329155 0.070528068 13093058
0.40900001 0.020239487 0.078494594 13618896
0.41411537 0.024972741 0.074836485 12105910
0.41850001 0.030898878 0.077279642 13551552
0.42373747 0.035390373 0.074856251 12697786
0.42820001 0.040536948 0.077466026 11974837
0.43269873 0.045135029 0.074666545 12500666
0.43787229 0.052336514 0.075375058 12566200
0.44130951 0.057335753 0.074508987 12961214
0.44617242 0.064987503 0.07493943 12829371
0.44900003 0.070570283 0.077236831 13223873
0.45242468 0.075380445 0.074638292 12631736
0.4390001 -0.12076019 0.084031902 14538192
0.44218978 -0.12536848 0.085346706 13222588
0.43434724 -0.11481114 0.084923625 12762292
0.42552242 -0.10414023 0.085198559 11578020
0.43006247 -0.10922267 0.084298193 11314847
0.41623735 -0.093530662 0.085278504 10986395
0.42082766 -0.098415129 0.08432997 10920602
0.40645903 -0.083312705 0.085331172 10920859
0.41174284 -0.088189162 0.083947755 11380897
0.39652467 -0.073027059 0.085167088 11380638
0.40096548 -0.077975355 0.08614248 11578274
0.38812247 -0.062347028 0.085888192 11184292
0.39190769 -0.067049235 0.084597856 11315361
0.38396546 -0.055211641 0.085004441 11709863
0.37675008 -0.043113336 0.085432172 10065037
0.38094223 -0.048086189 0.084065951 11184031
0.36899999 -0.032248899 0.089110851 2633514
0.37150404 -0.034913726 0.084366173 2830635
0.36899999 -0.027847156 0.089498304 2633260
0.37124634 -0.024661314 0.084469058 3291190
0.37685007 -0.016896252 0.085640982 11974063
0.38078183 -0.012403871 0.084097803 12500410
0.38439056 -0.0051978286 0.084919691 11909561
0.38834378 0.0012347759 0.086487927 12369340
0.39304242 0.0057957647 0.084610693 12171704
0.39766672 0.011414645 0.08590848 11711151
0.4025405 0.015892401 0.084750853 12237493
0.40807697 0.021592 0.085958406 12960706
0.41256174 0.02630977 0.084466591 12960188
0.41725001 0.03198085 0.085398063 12566200
0.42232698 0.036838651 0.085386708 12633282
0.42752498 0.042376719 0.085324839 12369597
0.431353 0.047129881 0.085198984 12894651
0.43741655 0.053331032 0.084329963 12829370
0.44079998 0.057931826 0.085112236 12697784
0.4456093 0.064796686 0.084943496 13091515
0.44899997 0.071188591 0.086109497 13027010
0.45084098 0.074603923 0.08381138 12171441
0.43793947 -0.12223443 0.0965949 13551552
0.44169235 -0.12574418 0.093354747 13419965
0.42866668 -0.11058271 0.098157473 10460309
0.43281811 -0.11508805 0.094834797 12762550
0.42432103 -0.10471597 0.095212303 11249310
0.43000001 -0.10958422 0.092087939 9998987
0.40875003 -0.091011621 0.09878011 12169641
0.41469237 -0.094879396 0.095003448 11249311
0.42000002 -0.099169932 0.091912806 11051417
0.39860004 -0.081053175 0.098519668 11183518
0.40421179 -0.084868044 0.094787531 11183261
0.41000003 -0.089130208 0.090684235 11051161
0.38900003 -0.070905164 0.098788619 9144712
0.3942551 -0.074776702 0.09508606 11314845
0.40025002 -0.079046503 0.09157221 11118237
0.38649091 -0.064757951 0.095225975 11446948
0.39050004 -0.068779327 0.091512367 11907757
0.37854555 -0.051477566 0.097985037 11711146
0.38154635 -0.055583064 0.094576016 12038570
0.37618023 -0.045048255 0.094949521 9802895
0.38000003 -0.049693774 0.091165498 9801609
0.36828715 -0.033344019 0.095400065 2633260
0.37080002 -0.038465716 0.094729885 2501930
0.36825001 -0.025874736 0.095720775 2764333
0.37058824 -0.021873822 0.093372136 2698540
0.37604949 -0.015401715 0.095189773 11382184
0.38000003 -0.010774349 0.09138789 12896198
0.37860006 -0.0087401075 0.097830072 11514798
0.38185343 -0.0046851835 0.094495125 11842222
0.38679272 0.0029260316 0.095473006 12302771
0.39171433 0.007709058 0.09420564 12368823
0.39584336 0.013488944 0.095546149 12106164
0.40099993 0.018021088 0.093905941 12106422
0.40646443 0.023161596 0.095517464 12566202
0.41175002 0.027511174 0.094347432 12236725
0.41609529 0.032765567 0.095252633 12369595
0.4217858 0.038084645 0.094651051 12567490
0.42643106 0.043362491 0.095415644 12699075
0.43042862 0.048190631 0.094726518 12632253
0.43567738 0.053861782 0.095025241 12895166
0.44050002 0.058535874 0.094592363 13289665
0.44511247 0.064737335 0.095034592 12829114
0.44893745 0.0725751 0.094917178 12303284
0.43650004 -0.12282527 0.10499594 13616831
0.44025001 -0.12714088 0.10871221 14143685
0.42746156 -0.11186386 0.1063572 10589840
0.43194833 -0.11665943 0.10455034 13617087
0.41700006 -0.10199732 0.10587727 11315359
0.4228929 -0.10654175 0.1042959 11117724
0.40697783 -0.092433877 0.10593931 11314333
0.41265309 -0.096907638 0.10373541 11380638
0.39657447 -0.082560331 0.10602956 11117725
0.40245283 -0.087191917 0.1043048 11183003
0.38718525 -0.07247445 0.10614412 11512740
0.39296362 -0.07740137 0.1042437 11315104
0.37900001 -0.060209952 0.10911413 10920349
0.38294402 -0.065004937 0.10498264 11973035
0.37775248 -0.053974252 0.10559188 11973548
0.38064286 -0.058371305 0.10271078 11775397
0.36900002 -0.040480748 0.10969047 2764076
0.37435898 -0.045079276 0.10491968 9605773
0.36594579 -0.034580424 0.10538581 2435882
0.3705 -0.039417047 0.1028361 2369831
0.3653999 -0.025142087 0.10509429 2566953
0.36825001 -0.019708553 0.10493882 9407881
0.37469417 -0.014524582 0.10468221 11316390
0.37776676 -0.0063694073 0.10581747 11777199
0.38078043 -0.0023538549 0.10340653 11712182
0.38432342 0.0045577241 0.10518351 12368823
0.39025 0.0090339836 0.10116118 12960958
0.38832 0.01143571 0.10772266 12237754
0.39368463 0.015433962 0.10439114 12238010
0.40000001 0.01979412 0.10064571 12830919
0.398 0.021093322 0.10774884 12633024
0.40447837 0.025094163 0.10518365 12369337
0.4106667 0.028974364 0.10284657 11843509
0.40900001 0.030771727 0.10913384 11843245
0.4152824 0.034195997 0.10499404 12369079
0.42055556 0.038970727 0.10373805 11776688
0.42519283 0.04443891 0.10534187 12500665
0.43025005 0.04907386 0.10330394 12764610
0.43529105 0.054421209 0.10519096 12698304
0.44000003 0.05962779 0.10470168 11908275
0.44373506 0.065133475 0.10505541 12763579
0.44774076 0.071615629 0.10432475 12105904
0.44200003 -0.1302328 0.11380035 13025207
0.42866668 -0.12061789 0.11906433 14275274
0.43585187 -0.12449804 0.11606286 13485244
0.44057143 -0.12789738 0.11308794 13945794
0.42528763 -0.11428256 0.11557336 11248025
0.43073338 -0.11844318 0.11298104 14012101
0.40849999 -0.10059857 0.11776558 12038826
0.41506568 -0.104192 0.11515602 11775654
0.42086366 -0.10855503 0.11372893 11249053
0.39840001 -0.090525933 0.11898813 11513253
0.40363637 -0.094779752 0.11501574 11380898
0.41050002 -0.098848782 0.11097498 10986908
0.389 -0.08080855 0.11779856 11381670
0.39440477 -0.084719047 0.11482702 11052445
0.40018186 -0.089380674 0.11257148 10920344
0.38516364 -0.074692927 0.11532804 11842219
0.39057142 -0.079159752 0.11139911 12235947
0.37842315 -0.06235091 0.11610178 12105136
0.38117105 -0.066675059 0.11406843 11973293
0.37613943 -0.054914359 0.11498056 11776171
0.36842862 -0.040541466 0.1143247 4145212
0.37400952 -0.046183784 0.11557892 9933710
0.3630437 -0.034587748 0.11518339 2238243
0.36296573 -0.025185462 0.11520042 2303780
0.36778262 -0.019083526 0.11554339 9275778
0.37326178 -0.013877441 0.11539388 10921632
0.37534285 -0.0051577319 0.11496394 11974579
0.37789398 0.0024302611 0.11613715 12699074
0.38157144 0.0068096961 0.11423434 12698559
0.38614586 0.013590128 0.11520951 12501180
0.39145717 0.018325474 0.11355843 12435388
0.3956944 0.02290803 0.11580379 12566204
0.40255767 0.027446834 0.11389419 12172988
0.40690002 0.031878877 0.11539738 12698047
0.41293749 0.036088381 0.11396284 12697784
0.41820002 0.040275026 0.11550239 13814979
0.42334569 0.044990689 0.11498642 12434359
0.42792854 0.050657954 0.11625403 12960704
0.43401614 0.055628989 0.11558896 12632510
0.44000003 0.059541952 0.11139699 12040115
0.43900004 0.061119478 0.11799518 13027525
0.44216684 0.065633915 0.11465257 12698561
0.44422224 0.070859283 0.11517909 11514025
0.42662078 -0.12198351 0.12419724 13748675
0.43209094 -0.12566358 0.12117691 13617089
0.41850004 -0.1109647 0.12528667 10394255
0.4228656 -0.11545746 0.12414435 10920342
0.40769231 -0.10169773 0.12265885 11118752
0.41472223 -0.10685681 0.12325272 11973802
0.39755562 -0.092044458 0.1243116 10723995
0.40202856 -0.096331239 0.12222017 11052447
0.3888889 -0.081202827 0.12197575 11709608
0.39310449 -0.085493684 0.12425652 10526619
0.38545164 -0.074503466 0.12395727 10986913
0.39121428 -0.077983022 0.12813519 9342088
0.37828308 -0.063272364 0.12324477 11381670
0.38111758 -0.066497207 0.12624101 10920862
0.37625709 -0.055039629 0.1247137 10723995
0.38000003 -0.059479233 0.12986253 10000532
0.36800003 -0.040371045 0.12274638 3026474
0.37371436 -0.045674246 0.12478961 9144964
0.35900009 -0.031699818 0.12768844 2239012
0.36103612 -0.035043038 0.12457788 2304805
0.35893556 -0.027070655 0.12784083 2435881
0.36111316 -0.0241441 0.12438896 2698798
0.36617142 -0.018540911 0.12598059 9211275
0.37236634 -0.013888846 0.12467343 10000275
0.37420928 -0.0054041008 0.12474702 11184550
0.37715626 0.0038359987 0.12429292 12171187
0.38045159 0.0088866465 0.12533391 11973807
0.38415739 0.01512837 0.12468198 12698048
0.38857895 0.020953167 0.1267609 12895939
0.39419577 0.025267296 0.12481304 13158599
0.40019998 0.028798208 0.12158798 12632255
0.39880002 0.030937914 0.12844443 12631997
0.4043484 0.034092735 0.12529352 13027011
0.41144001 0.038662314 0.12322787 12895167
0.40900001 0.040346488 0.12924084 13224646
0.41525009 0.043068942 0.12579049 13224389
0.42216668 0.047250349 0.1234668 12829888
0.42759255 0.052193116 0.12477318 12895170
0.4322983 0.056747407 0.12484075 12894656
0.43742856 0.062195614 0.12558711 13158081
0.44152167 0.067174003 0.12392125 12434100
0.4436667 0.070770666 0.12305626 11842734
0.39566663 -0.081795245 0.13207865 9671306
0.38835001 -0.072060905 0.13280763 9737613
0.39233339 -0.076646321 0.13269664 9671822
0.38394344 -0.065195911 0.13304298 10000274
0.37830776 -0.053402975 0.13205439 9802123
0.38045457 -0.05833688 0.13244635 9671056
0.36900002 -0.040912665 0.13949279 7565165
0.37723416 -0.046328433 0.13297792 9342340
0.3645502 -0.035150561 0.13399775 1843999
0.37049997 -0.034788664 0.13940962 922384
0.36336622 -0.024329159 0.13421832 1974303
0.37050003 -0.028069943 0.13962618 528137
0.36235714 -0.018237544 0.13109836 9278353
0.37438458 -0.012111629 0.13229455 10197651
0.37661296 -0.0052469065 0.13301462 10394519
0.3785834 0.0013419106 0.13244423 10328981
0.38129154 0.0063205236 0.13305548 10394519
0.38637146 0.014296805 0.13343531 10395031
0.39000002 0.015647277 0.13601895 10658971
0.38900003 0.020615764 0.131724 10395804
0.39347368 0.025795607 0.13159363 11513773
0.3985 0.03138167 0.1315203 12961219
0.40285185 0.036291845 0.13172987 12829892
0.40741667 0.040747266 0.13279146 13158857
0.41391888 0.046157226 0.13317783 13355721
0.42150003 0.049473487 0.13072331 12895426
0.42675003 0.054457787 0.13434471 13750221
0.43030772 0.058799073 0.13446026 13749966
0.43495584 0.063969158 0.13510829 13420999
0.44050002 0.068719104 0.13240409 11842478
0.44216672 0.070531391 0.13299043 11645355
0.36607692 -0.040948633 0.14551881 6182481
0.37 -0.04059045 0.140737 4801602
0.36604217 -0.03541182 0.14692385 922639
0.37062922 -0.034262173 0.14250101 922896
0.36529315 -0.024750594 0.14658035 1053455
0.3708286 -0.027709367 0.14324582 791052
0.36100003 -0.018897984 0.14956774 5775648
0.42900002 0.057383876 0.14058217 13881298
0.43000004 0.058636121 0.14225204 13552328
0.43216127 0.063587621 0.14217135 13355207
0.36147064 -0.04122274 0.15478551 2106395
0.359 -0.031959951 0.15917438 857358
0.36158657 -0.035136465 0.15468346 1186068
0.35900003 -0.028878393 0.15924442 791565
0.36098608 -0.024899073 0.15481186 1251603
0.36100003 -0.018958347 0.15300855 4402471
0.34794739 -0.041772049 0.16867964 2304036
0.35584995 -0.04103386 0.16674541 659470
0.36060005 -0.041078791 0.16349773 1514518
0.34780774 -0.035085093 0.16887076 2173732
0.3555032 -0.034458932 0.16527548 1383704
0.36032006 -0.03801107 0.16190435 1580566
0.34819147 -0.025034631 0.16918077 2238245
0.35467592 -0.026174204 0.16607206 1383193
0.36025634 -0.025010293 0.1625804 1646618
0.347 -0.019383598 0.16976197 2105629
0.35250002 -0.01969083 0.16832083 1645595
0.33810002 -0.040969033 0.17949468 2765098
0.34314296 -0.041762207 0.17456956 2764328
0.33830002 -0.038538519 0.17936334 2567979
0.34315249 -0.035071097 0.17415047 2304549
0.34277803 -0.025321413 0.17384599 2173222
0.34220001 -0.019649221 0.17456457 1977130
0.78900003 -0.16320953 0.26963562 9078658
0.77700001 -0.15254186 0.26917261 14277327
0.78745002 -0.16390529 0.27527812 9342345
0.7902 -0.16845231 0.27411437 9276552
0.77639997 -0.15288164 0.27523369 12697529
0.78270006 -0.15824345 0.27444318 11776171
0.77413636 -0.14506112 0.27584058 13289664
0.773 -0.13451211 0.27694142 14473164
0.773 -0.1246125 0.27683496 13355196
0.77118748 -0.11540908 0.27742571 12302255
0.76900005 -0.10596524 0.2772027 11183259
0.77000004 -0.1067039 0.27846441 11709604
0.77000004 -0.09709011 0.27936572 10396569
0.76600003 0.089909114 0.2797077 14407630
0.76800001 0.092841879 0.27864009 13616830
0.77000004 0.095786363 0.27936572 14998997
0.77700007 0.10757332 0.27917579 11119265
0.77900004 0.11149517 0.27898374 11119265
0.78000003 0.11346429 0.27934185 11053472
0.78690004 -0.16452973 0.28466797 9276550
0.79000002 -0.16927283 0.28415611 9211014
0.77635014 -0.15323643 0.28448492 11777201
0.78200006 -0.15871079 0.28616154 10131603
0.77343357 -0.14460042 0.28513828 13157052
0.77291203 -0.1348162 0.284839 12695215
0.77246869 -0.12486616 0.28489482 12368301
0.77134621 -0.11545748 0.28506497 12368303
0.76900005 -0.104165 0.28230336 11841441
0.77033353 -0.10547349 0.28542402 12302766
0.77000022 -0.095779158 0.28501937 12171954
0.76630002 0.076759003 0.28510806 11184807
0.76580769 0.084715679 0.2848784 11514283
0.76825011 0.091073029 0.28502584 12105390
0.77247071 0.096096866 0.28504866 12433843
0.77666664 0.10252813 0.28420746 11381668
0.78271431 0.10679394 0.28685811 11053215
0.78615004 0.11473031 0.28596577 10987679
0.78723818 0.12495969 0.28553635 11250851
0.78806245 -0.16370904 0.29537469 9210244
0.79049999 -0.16814624 0.29513195 9276551
0.77733332 -0.15200254 0.29233894 13486272
0.78342861 -0.15655765 0.29589772 11446948
0.77650011 -0.14439194 0.29432201 12301229
0.78000003 -0.14856586 0.29760182 9275008
0.77530771 -0.13517748 0.29330051 11709348
0.78000003 -0.13426222 0.29760182 11644329
0.77577782 -0.12546501 0.29316705 10394009
0.78120005 -0.12557058 0.29805967 10065046
0.77547061 -0.11443914 0.29406187 9474700
0.77390003 -0.10483117 0.29437214 9671819
0.77264291 -0.095034085 0.29499346 9737356
0.76654547 0.076759577 0.29230663 9606804
0.77200001 0.077962495 0.29816401 7764597
0.76772726 0.083904967 0.29242998 10066584
0.77255559 0.086258724 0.29737532 9738646
0.77464712 0.094021767 0.29449427 11053989
0.78150004 0.099046446 0.29726112 11580590
0.77900004 0.10055325 0.2917493 10395288
0.78583336 0.10511967 0.29482093 10724509
0.79000002 0.10844605 0.29864311 10921889
0.78866673 0.11318696 0.29229274 10921886
0.79150003 0.11580033 0.29643276 10922143
0.78866673 -0.16160212 0.30213988 9868428
0.79178572 -0.16577354 0.30554315 10066319
0.78715384 -0.15411267 0.30373552 10328207
0.79085714 -0.15605761 0.30862147 10329492
0.78637499 -0.14483105 0.30383569 10196625
0.79049999 -0.14501229 0.30901027 10131602
0.78662503 -0.13509393 0.30358604 10198167
0.79150009 -0.13438922 0.30909297 9934738
0.78660005 -0.12496369 0.3028838 10658204
0.79100001 -0.12515743 0.30836508 9934737
0.7865001 -0.11528076 0.30422926 10263446
0.79075003 -0.11544223 0.30910802 9145221
0.77700001 -0.10161068 0.30009514 11710630
0.78553843 -0.1054146 0.30551925 9671563
0.77775002 -0.09533827 0.3022055 10263441
0.78600001 -0.097880095 0.30786613 9342341
0.78500003 0.07835649 0.308698 9276294
0.77633339 0.087489508 0.30165505 8159102
0.78428572 0.085496865 0.30789474 10001044
0.77850008 0.092286959 0.3015863 9013898
0.78600001 0.095708594 0.30564427 10329753
0.78850007 0.10270246 0.3026914 10658717
0.79187506 0.10569391 0.30572429 10790303
0.78900003 -0.1013329 0.31027099 9211268
0.78900003 -0.099485844 0.31027099 9474440
0.78900003 0.078755759 0.31211805 10198166
0.79225004 0.07792107 0.316881 9803408
0.78860009 0.085177742 0.31195983 10461338
0.79242861 0.084795363 0.31705341 10329752
0.78900003 0.093532264 0.31119454 10724253
0.79242849 0.095528916 0.31533223 10592924
0.79142112 0.07729163 0.32506925 10198421
