# .PCD v0.7 - Point Cloud Data file format
VERSION 0.7
FIELDS x y z rgb
SIZE 4 4 4 4
TYPE F F F U
COUNT 1 1 1 1
WIDTH 819
HEIGHT 1
VIEWPOINT 0 0 0 1 0 0 0
POINTS 819
DATA ascii
0.42100003 -0.082541883 -0.040865354 13947078
0.41628572 -0.07295642 -0.040948816 13617858
0.42000002 -0.079505384 -0.040822908 13683136
0.41450003 -0.065009542 -0.041197658 13815750
0.41281825 -0.054953732 -0.041091368 13880259
0.41175008 -0.044688348 -0.040985242 14077124
0.41268432 -0.035355542 -0.04105261 13816265
0.41333333 -0.027926335 -0.040658735 12566711
0.42900002 -0.13041961 -0.030148271 15722720
0.43021742 -0.13346173 -0.03167915 14604756
0.4276765 -0.1241327 -0.032056898 12498866
0.43000004 -0.12885416 -0.032807045 14276048
0.42531654 -0.11486556 -0.033375029 13617346
0.42315015 -0.10444028 -0.033620715 13354430
0.41854551 -0.092146508 -0.031284899 13814209
0.42165282 -0.095464751 -0.03498308 13288634
0.41744286 -0.084621347 -0.033473272 13419963
0.42027783 -0.085406356 -0.038062859 13223099
0.41454127 -0.074664034 -0.034778442 13157565
0.40900001 -0.060667261 -0.030657709 14276042
0.412653 -0.065155379 -0.035374846 13551295
0.40872416 -0.053946245 -0.031726331 13356485
0.41156173 -0.055498376 -0.03658209 13354428
0.40845802 -0.045052469 -0.032920022 13683908
0.41071743 -0.044847835 -0.03774818 13946308
0.40848726 -0.035862096 -0.031968828 13815238
0.41146874 -0.034603037 -0.036836214 13749701
0.40900001 -0.029230125 -0.030976867 13419708
0.41286391 -0.025019191 -0.03526929 13420736
0.41518682 -0.014764126 -0.033781156 13223617
0.41704232 -0.0055109868 -0.03344778 12500665
0.42000002 -0.0008471816 -0.034186125 12171440
0.42153746 0.0045167981 -0.033672366 12302771
0.42482147 0.013113036 -0.032228831 12105908
0.42900002 0.020224895 -0.030650418 12237750
0.43052942 0.024864875 -0.030848714 12171698
0.4325 0.031021636 -0.030394236 12698297
0.43028572 -0.14179531 -0.023236416 15853794
0.42778441 -0.13350827 -0.023860838 15920099
0.4300279 -0.13749939 -0.025998145 14998999
0.42580867 -0.12472554 -0.024955267 12695730
0.42395604 -0.11494188 -0.025380442 13880517
0.4211013 -0.10481001 -0.025113551 13223099
0.41794655 -0.094083637 -0.024727792 13025723
0.42013338 -0.098742433 -0.026313281 12104619
0.4153102 -0.084944762 -0.024812564 12631479
0.41217107 -0.07477469 -0.025190104 13025720
0.408494 -0.063529089 -0.024133053 13288380
0.410303 -0.067744777 -0.026652643 13288638
0.40728861 -0.054869123 -0.025097061 13157049
0.40589991 -0.045005661 -0.025206311 13683908
0.40647256 -0.035071727 -0.025241485 13947336
0.40816694 -0.025721794 -0.024136819 13486529
0.41083333 -0.022274679 -0.0280076 13157306
0.40900001 -0.019655364 -0.021242527 14407119
0.41212603 -0.014849065 -0.024957879 13355459
0.41564003 -0.0052086939 -0.024835357 12960188
0.41813791 0.0017567996 -0.023041097 12105911
0.42120552 0.0058400221 -0.025835153 12368310
0.42477408 0.014569412 -0.025235951 12236981
0.4280732 0.022309588 -0.023706377 12828602
0.43037507 0.026768191 -0.025586311 12763066
0.43342662 0.034903664 -0.023668442 13223875
0.43754056 0.043859597 -0.022802604 12960960
0.44000003 0.048898131 -0.022337573 12960703
0.44300002 0.054753475 -0.021435166 13289153
0.44700003 0.06398201 -0.020948883 13881801
0.45100003 0.07510782 -0.020080548 12894906
0.43038717 -0.14208747 -0.014773359 14998999
0.42741546 -0.13354376 -0.015163274 15262170
0.43000007 -0.13870485 -0.013716877 14472398
0.42540967 -0.12490848 -0.01542351 12828598
0.42411941 -0.11493093 -0.015318338 13223100
0.42147991 -0.10485933 -0.015391136 12631220
0.41804832 -0.093582019 -0.015802737 12171184
0.42028007 -0.097898304 -0.014185785 12762292
0.41578022 -0.085039705 -0.015103826 12499376
0.40899998 -0.07103993 -0.01246566 13683650
0.41177773 -0.075455502 -0.015228217 12367789
0.4072901 -0.065188363 -0.014800771 12631219
0.40456855 -0.055090871 -0.015125738 13025206
0.40272281 -0.045046214 -0.015038594 13224127
0.40320826 -0.034814145 -0.015104145 13552579
0.40539777 -0.02510961 -0.014886224 13222843
0.40823907 -0.016810477 -0.013870512 13091257
0.41086042 -0.012660143 -0.016439104 13024953
0.41321003 -0.0051784604 -0.015016998 12959675
0.41711375 0.0040583122 -0.014856661 12303032
0.42033342 0.0091332439 -0.01670141 12828087
0.42246667 0.014979343 -0.015352509 12564658
0.42674708 0.02414629 -0.014624503 12433071
0.43000001 0.028782701 -0.017223768 12630709
0.43226007 0.035062984 -0.014694443 12762296
0.43733707 0.045151658 -0.014815064 12500923
0.44000003 0.049584828 -0.019590776 13157573
0.43900007 0.05091092 -0.012455074 12370366
0.44212514 0.055472393 -0.015341806 13026240
0.44667783 0.064985909 -0.015185936 13288898
0.44900018 0.072101906 -0.014285435 13619917
0.45102322 0.076857828 -0.014949745 13749703
0.45437786 0.084209584 -0.013375245 13750217
0.43200001 -0.14043351 -0.0040647844 14736856
0.42864281 -0.13145815 -0.0072577819 15262940
0.43072006 -0.13558272 -0.0041030576 14538962
0.42744783 -0.12454905 -0.0052764234 12368048
0.43000004 -0.12858452 -0.00064856361 14933976
0.42599019 -0.11487871 -0.0051330109 12367792
0.42414987 -0.1050681 -0.0049288287 12433329
0.41880006 -0.09117388 -0.0067498055 11972777
0.42117992 -0.095774412 -0.0045261607 11907497
0.41625971 -0.08488667 -0.005031772 12105389
0.40900001 -0.071199507 -0.0048058485 12435127
0.41188166 -0.076082736 -0.0048275408 11841444
0.40619102 -0.065015048 -0.0047729039 12302255
0.40203649 -0.054934531 -0.0047289832 12762033
0.39900008 -0.043771863 -0.00071856513 12697786
0.4003256 -0.044768032 -0.0056217378 13486528
0.39900008 -0.036397666 -0.00075543619 13355200
0.40050566 -0.034714695 -0.0055333921 13224385
0.40246287 -0.025301088 -0.0047358661 12960957
0.40618968 -0.015245906 -0.0049279192 13158078
0.4085758 -0.0076638106 -0.0029764303 13485502
0.41149336 -0.0039212285 -0.0057364996 13025208
0.41559502 0.0050108624 -0.0048886258 11777460
0.41846159 0.011514697 -0.0021303121 12171963
0.42153132 0.015911657 -0.0052831527 11842738
0.42641041 0.024944732 -0.0048012366 12303287
0.42899996 0.030267864 -0.0045387056 13092032
0.4320778 0.035552882 -0.0045711505 12828603
0.43706736 0.04512421 -0.0046417187 12236465
0.4390001 0.051270623 -0.0065714531 12763579
0.44159162 0.055871025 -0.0043432727 12434616
0.44591111 0.064874634 -0.0047162664 13026240
0.44891831 0.072616778 -0.0048453934 13157825
0.45053667 0.07760451 -0.00465139 13289408
0.4539884 0.085030161 -0.0046761371 13289150
0.45772734 0.092814915 -0.0057005081 13289664
0.43379721 -0.13468112 0.005035779 14407121
0.42899996 -0.12200862 0.001361538 11315359
0.43078387 -0.12524071 0.0053675789 13683909
0.42830008 -0.11388534 0.0037528372 12565426
0.43002871 -0.1168975 0.0070851715 11051159
0.42580405 -0.10470533 0.0051847035 12697013
0.42222235 -0.094760172 0.005419381 11644325
0.41650626 -0.084281236 0.0051942361 11775398
0.42000005 -0.089228414 0.0067543816 11381414
0.40877274 -0.071290776 0.0055917925 12169383
0.41158822 -0.076075844 0.0051680091 11249570
0.40535706 -0.064970642 0.0051205433 12104619
0.39850006 -0.051764119 0.0066269864 12037796
0.40062863 -0.056119177 0.0045494041 12629936
0.3973299 -0.04498608 0.0050929449 12960440
0.39719072 -0.035202764 0.0050910851 13092545
0.39837211 -0.027435303 0.0067251241 13026749
0.400388 -0.023637233 0.0040933103 12762807
0.40323618 -0.014965141 0.0051685306 13092284
0.407242 -0.0054762149 0.0055095279 12500922
0.41044447 -0.0013613992 0.0023295088 13553611
0.40900001 0.00051547337 0.0087903161 12695987
0.41309512 0.0051919017 0.005126148 12500408
0.41748148 0.013097186 0.0057167732 11843509
0.42073822 0.017867047 0.00511597 11842740
0.42539009 0.025274068 0.0055387691 12564919
0.42899996 0.030267864 0.0050021135 12432818
0.4321923 0.035664801 0.0050907484 12565433
0.43714815 0.045178995 0.0050975257 12762040
0.43900001 0.050499838 0.0020355922 13747649
0.44216681 0.055172492 0.0052748481 12894397
0.44644439 0.0649525 0.0052060913 12828859
0.44900015 0.07214696 0.0052353125 13486274
0.45046675 0.077129729 0.005252257 13289152
0.45407349 0.084912524 0.004748289 12829113
0.4571428 0.091534324 0.0052935528 12960700
0.43633792 -0.13428296 0.01446462 13946826
0.43367022 -0.12499276 0.014677433 14078410
0.42900002 -0.11033368 0.010525746 14408914
0.43091112 -0.11506598 0.014611357 11314332
0.42710012 -0.10409553 0.01456392 12237234
0.42999995 -0.10869601 0.016797356 14144202
0.42293337 -0.094920807 0.015328696 11644583
0.41647229 -0.083828285 0.015201648 11644585
0.42027783 -0.088959768 0.014793817 11117725
0.40787768 -0.072224244 0.015334172 12037537
0.41184089 -0.077262469 0.014662247 11644324
0.40350491 -0.065056823 0.015091396 11841705
0.39782283 -0.05361997 0.015153046 12104617
0.4001666 -0.058576796 0.013980959 12169897
0.39557764 -0.045052122 0.014915435 12369077
0.39495048 -0.035004932 0.014769033 13026752
0.39624166 -0.024950955 0.014855983 12895419
0.40000001 -0.02047139 0.010282419 12039080
0.39819449 -0.0176582 0.016915515 13223870
0.40068233 -0.013650047 0.014126423 12500150
0.40452281 -0.005054343 0.015101107 12500668
0.40809312 0.001666971 0.015819812 12302257
0.41205719 0.0068087871 0.014518783 11973548
0.41663164 0.014168526 0.015495606 12237751
0.42045841 0.018879557 0.013965475 12763323
0.42416477 0.025017314 0.015309913 12566202
0.42861107 0.030686786 0.014974737 11908528
0.43196294 0.035978053 0.014561338 12302773
0.43701103 0.045165878 0.014813709 12631993
0.43900001 0.050499838 0.016423488 13224383
0.44178179 0.055107616 0.014923043 12829373
0.44650596 0.065182604 0.015214939 12631481
0.44900012 0.071657643 0.014550386 12894908
0.45105365 0.076553382 0.015216234 13026493
0.4544324 0.085231163 0.015131849 13158078
0.45700002 0.090951443 0.013217531 11777197
0.43869379 -0.13307425 0.024356732 13947082
0.44 -0.13541178 0.028615469 13025982
0.43562809 -0.12489784 0.024922729 14210765
0.4327839 -0.11527327 0.024712484 11248539
0.42752284 -0.10272377 0.02479613 12104621
0.43022233 -0.10785118 0.024914028 13354173
0.42297783 -0.094931833 0.025230909 11776168
0.41601413 -0.084000468 0.02437993 11774366
0.42000005 -0.08924827 0.025276799 11512482
0.4069826 -0.072800733 0.025321089 11708831
0.41157892 -0.077887818 0.024651373 11774623
0.39866671 -0.06100148 0.027746668 10790559
0.40197641 -0.065274589 0.02487885 11775655
0.39639804 -0.055016063 0.025109824 12104617
0.40000001 -0.059800487 0.021051101 10921373
0.39313346 -0.044934846 0.024787446 12302771
0.39211187 -0.034866046 0.024921143 12304316
0.39323956 -0.024722133 0.024832636 12500663
0.39686778 -0.015063815 0.025508588 12895421
0.40000007 -0.011029284 0.021909475 12895935
0.39827272 -0.0085157324 0.028375797 12631738
0.4023627 -0.0047353064 0.024748674 12500406
0.40708661 0.0034451263 0.025310624 12500151
0.41132429 0.0084889624 0.024181606 11777201
0.41540858 0.014766096 0.024852751 12434871
0.42000002 0.019800596 0.021120429 12698819
0.42351112 0.024935165 0.025261281 12303031
0.42803231 0.031170659 0.025286851 12697786
0.43190145 0.036475137 0.024575369 12500663
0.43664044 0.045081433 0.024994092 12171444
0.43900004 0.050499838 0.026529273 12301744
0.44230396 0.055265799 0.024974182 12565944
0.44676539 0.064999036 0.025083229 13092286
0.44900003 0.071253508 0.025048871 13092031
0.45136362 0.07640563 0.0249862 13026238
0.45449328 0.084438786 0.024857732 12829113
0.45700002 0.090015031 0.022446116 11645611
0.43900001 -0.13071914 0.031153953 13486531
0.44079408 -0.13273025 0.034855966 14275789
0.43736216 -0.12391674 0.034630239 14801875
0.44006673 -0.12890781 0.036793109 13222331
0.43368158 -0.11468153 0.035100624 11511967
0.42748842 -0.10257027 0.035285152 11710637
0.43035007 -0.10735734 0.034334835 12697527
0.41900006 -0.090105839 0.037254773 11118238
0.4227412 -0.095111832 0.034966767 11579051
0.41506419 -0.08478535 0.035219166 11315358
0.41999999 -0.089337669 0.031444319 10395286
0.40642866 -0.074389577 0.035467207 11445914
0.41061109 -0.07911709 0.033997882 12038052
0.39784622 -0.061629575 0.035586573 11118751
0.40143478 -0.066911556 0.034682792 11577501
0.39418185 -0.054787274 0.035043895 11776167
0.38899997 -0.042310569 0.038108569 12434354
0.39102024 -0.045084979 0.03425971 12237232
0.38879457 -0.035022367 0.037273418 12499893
0.39030898 -0.034744777 0.031977996 12763580
0.38893938 -0.027740996 0.037644245 12435385
0.39115617 -0.023907671 0.033974245 12566201
0.39390084 -0.014618036 0.0350172 12762809
0.39725426 -0.0070713814 0.035680566 12828087
0.40109798 -0.0025924514 0.034222312 12696498
0.40592799 0.0044942396 0.035257626 12170929
0.41037503 0.0094999271 0.032644231 11909303
0.41421685 0.015289123 0.035067342 12434615
0.41845456 0.02115299 0.037026655 11973813
0.4226588 0.02568596 0.03494804 12566204
0.42740005 0.032209046 0.034999169 12237239
0.43176362 0.037267722 0.034620211 12631995
0.43661794 0.045078922 0.035190068 12697788
0.4390001 0.050686695 0.035576209 12829630
0.44209474 0.055730738 0.034789681 12631738
0.44723341 0.065067738 0.035053555 12894907
0.44900003 0.070675395 0.034246139 12238260
0.45166197 0.075805515 0.034933642 13223101
0.4550319 0.084356129 0.035100888 12500664
0.442 -0.13145576 0.045182012 14012616
0.43824986 -0.12316728 0.044417601 14407116
0.4406285 -0.12806119 0.045162816 13354686
0.43413249 -0.11495475 0.04500534 11709602
0.42670184 -0.10308836 0.045157429 12301740
0.43053338 -0.10831007 0.045033764 11117723
0.41859999 -0.091195956 0.046821125 10592670
0.42195779 -0.095604025 0.044680543 11447461
0.41447872 -0.085317604 0.044982526 11052960
0.40545556 -0.074623823 0.045286343 11051673
0.41000003 -0.079532035 0.042213451 11249821
0.39696723 -0.063160308 0.045363173 11314847
0.40056095 -0.067822054 0.044121865 11379866
0.38900003 -0.051098395 0.048474867 10461336
0.39220899 -0.055137429 0.04481053 11512739
0.38837969 -0.044579498 0.045498185 12301227
0.39020002 -0.048348602 0.041879579 12105391
0.38677239 -0.035255399 0.045158748 12696500
0.38773239 -0.025321437 0.045095753 12500920
0.39000002 -0.021176934 0.040458594 13027776
0.3886857 -0.018201793 0.047296762 13289150
0.39134052 -0.014415718 0.044004258 12698045
0.39533645 -0.0056971847 0.04549012 12762293
0.40000004 -0.0013270658 0.041600034 13420221
0.39883336 0.00028486733 0.047910046 11908525
0.40359813 0.0050925529 0.044736478 12171699
0.40851861 0.011431988 0.04563652 12171697
0.41274032 0.016216671 0.044765096 11908272
0.41725579 0.022126902 0.045343835 12040372
0.42208201 0.027226485 0.044638138 12631478
0.42697829 0.032888737 0.045392867 12368565
0.43073916 0.037626911 0.044589464 12566202
0.43562487 0.044965725 0.045139924 12500665
0.4390001 0.050737001 0.044171572 12501433
0.44231188 0.055689558 0.045110349 12829116
0.44736582 0.065034948 0.04507751 12960701
0.45208883 0.075297788 0.044959385 12828856
0.4550209 0.083347797 0.044650376 12171697
0.44378954 -0.13147111 0.054497231 13288637
0.43855557 -0.12191792 0.05496325 13947079
0.44169235 -0.12682554 0.055179991 13551552
0.43440256 -0.11523107 0.055092484 11907240
0.42650881 -0.10307718 0.055192992 12695984
0.43033338 -0.1084794 0.054716766 10788244
0.41806668 -0.091831252 0.055244453 10854552
0.42133975 -0.096381739 0.054677568 11445917
0.4086923 -0.080529727 0.056208119 10723224
0.41369522 -0.085609876 0.054791532 11184545
0.40414441 -0.07460773 0.05506438 10985881
0.39579105 -0.064332776 0.055254277 11314847
0.40000004 -0.068883643 0.05279531 10657172
0.38874424 -0.052150112 0.055515595 11644581
0.39128992 -0.056935877 0.054517083 11709604
0.38621125 -0.045154575 0.055040609 11906724
0.38411698 -0.03484907 0.055123232 12433327
0.38439649 -0.02517532 0.055083044 12237748
0.38750452 -0.015604192 0.055378083 12894650
0.39016667 -0.011671178 0.051512286 12433841
0.38900003 -0.0097090807 0.05808229 13222847
0.39305827 -0.0050901463 0.054855503 12499379
0.39752635 0.0015267237 0.056011431 12236464
0.40221438 0.0063601527 0.054579001 12236981
0.40680391 0.012384982 0.055173006 11711149
0.41209617 0.017520446 0.054357387 11579050
0.41650003 0.022983382 0.055086248 12500665
0.42109317 0.028107326 0.054633524 11974581
0.42622957 0.033711288 0.0554136 12303286
0.43031043 0.038385164 0.054238189 13026753
0.4351249 0.044962291 0.05504049 12434360
0.4390001 0.05098347 0.055959981 12697531
0.44207162 0.055754203 0.054902054 12763581
0.44754419 0.064659767 0.054856718 12763580
0.45011112 0.069457091 0.056412783 12170412
0.45286846 0.075146414 0.054970741 13091255
0.45524997 0.082044765 0.055065423 12236977
0.43836117 -0.12232077 0.064974815 13683909
0.44095001 -0.12703626 0.063924409 13419709
0.43441024 -0.11531828 0.064934731 12236463
0.4263621 -0.10363834 0.065012991 12499121
0.43037045 -0.1087838 0.064573146 10590865
0.41723815 -0.092311047 0.065283395 10921116
0.42135426 -0.097375803 0.064938523 11249310
0.40838897 -0.081451155 0.065151721 10920344
0.41262719 -0.086563274 0.064715043 11052447
0.39855555 -0.070988432 0.067469656 11380121
0.40399995 -0.075745136 0.064093992 11248796
0.39409989 -0.064921789 0.06493514 11182744
0.38793021 -0.05377626 0.065493032 11578275
0.39044833 -0.058215491 0.063427672 11973548
0.38391113 -0.044610579 0.064917892 11907241
0.38158411 -0.034816522 0.065018058 12235436
0.38177955 -0.024792904 0.064968094 12565428
0.38489839 -0.015254295 0.065060511 13025980
0.38807696 -0.0081361542 0.065862246 12434618
0.39185935 -0.0031375464 0.064667225 12369081
0.39603367 0.0033351085 0.065345481 12236723
0.40091422 0.0083638262 0.06404078 12302262
0.40586519 0.014 0.065333374 12236724
0.41120005 0.018760441 0.063945308 12433585
0.41554216 0.023914549 0.065259099 12697789
0.42060876 0.029034076 0.064196154 12631226
0.42517287 0.034421813 0.065286309 12894395
0.42999998 0.039146502 0.063650422 12698298
0.43366662 0.044822603 0.064893439 12303028
0.43861297 0.051549233 0.065297544 12960443
0.44200012 0.056671139 0.064816959 13158336
0.44666195 0.064159095 0.065220296 12697787
0.44999999 0.06957823 0.064432152 11249054
0.45313919 0.075013243 0.065077551 12960443
0.4552727 0.081294499 0.063732706 11842735
0.43883345 -0.12189483 0.075615264 14209480
0.44064856 -0.12573835 0.073917046 13222331
0.43449372 -0.11534763 0.074926622 12696242
0.42645004 -0.10419381 0.07502012 11774883
0.43020001 -0.10913187 0.075009272 10459280
0.41696301 -0.092690162 0.074978001 10986652
0.42115805 -0.098044276 0.074963167 10854038
0.40788239 -0.082128011 0.075385153 11183005
0.41215688 -0.086821936 0.074898787 11249824
0.39754844 -0.071564227 0.075991891 10789790
0.40275714 -0.076545738 0.074665152 10986654
0.38900003 -0.060887951 0.078298852 9538434
0.39287129 -0.065066412 0.074748456 11052188
0.3864181 -0.054882433 0.075126 11644326
0.37844452 -0.041911561 0.078289829 11052705
0.3817265 -0.045271065 0.074394584 11776170
0.37733001 -0.034694493 0.076899275 8619135
0.38032648 -0.035292581 0.071973331 11775139
0.37696967 -0.025334572 0.07687477 9604230
0.38032642 -0.024060139 0.072009631 12761778
0.37853849 -0.018281745 0.078646511 12104365
0.38205165 -0.014711252 0.074597195 12434615
0.38666663 -0.0058986759 0.075426228 11778232
0.39076477 -0.0017020341 0.07230287 11909562
0.39475241 0.004472381 0.074853674 11776945
0.40000001 0.0094936397 0.071617097 12894908
0.39900002 0.010403971 0.079377607 11843763
0.40405515 0.014806015 0.075038761 12171186
0.41000003 0.019329155 0.070048161 13027262
0.40877777 0.020547649 0.077494204 12434877
0.41431305 0.025209671 0.074835695 12171188
0.42000002 0.029632874 0.070773423 10196108
0.41844445 0.030829409 0.077366576 13551550
0.42356974 0.03528237 0.074769601 12631481
0.42820001 0.040536948 0.077465557 12040119
0.43278316 0.045143913 0.074682102 12369080
0.43776467 0.052531768 0.075532541 12566201
0.44124994 0.057346474 0.074170962 12960702
0.44637951 0.06501808 0.074975267 12894394
0.44900003 0.070570283 0.078813516 13025205
0.45277926 0.075273529 0.074698381 12434357
0.4390001 -0.12105381 0.084545776 14077896
0.44192162 -0.12546815 0.085665807 13157051
0.43437839 -0.11492876 0.084872946 12696241
0.42530885 -0.10412262 0.085220374 11511968
0.43012497 -0.10923859 0.08431004 11051160
0.41609529 -0.093755305 0.08543095 11117467
0.42079175 -0.098618753 0.084121376 11051675
0.40659437 -0.083389312 0.08535336 10920603
0.41171879 -0.088451281 0.084012464 11315103
0.3965185 -0.072640225 0.085274972 11248794
0.40143177 -0.077488594 0.084726632 11643811
0.38816279 -0.062364649 0.086473897 11249828
0.39192957 -0.066648953 0.084365092 11183775
0.38410249 -0.055267002 0.084982127 11775400
0.37687069 -0.043303441 0.08538232 10065037
0.38080424 -0.048307735 0.084010623 11052446
0.36899999 -0.031890381 0.088862427 2764329
0.37161171 -0.034992129 0.084332712 2896171
0.36899999 -0.027421584 0.08895842 2764330
0.37146506 -0.024539912 0.084233887 3290933
0.37692109 -0.016947502 0.085533433 11776428
0.38074535 -0.012386601 0.084122054 12434617
0.3845503 -0.00523399 0.085000373 11843767
0.38856256 0.0012351394 0.086537354 12106425
0.39294782 0.00583883 0.084599428 12105910
0.39778128 0.011479346 0.085795499 11711151
0.40272492 0.016072603 0.084673978 12237236
0.40783721 0.021694085 0.085685104 12566717
0.41240302 0.026494322 0.08457543 12828858
0.41727272 0.031810701 0.084903516 12697273
0.42256454 0.036857065 0.085132629 12501438
0.42727023 0.042124312 0.085134991 12172216
0.43178949 0.047050994 0.084851801 12632251
0.43716943 0.053417813 0.085008658 12894908
0.44055992 0.058106121 0.084551066 12631480
0.44576752 0.064796709 0.084916778 13025465
0.449 0.070761397 0.085789107 13026493
0.45167306 0.074594051 0.084301166 12237233
0.43811116 -0.12175681 0.095966384 13485245
0.44183341 -0.12602569 0.094200231 13354173
0.42875001 -0.11052045 0.098594859 10328208
0.43293753 -0.11508109 0.094888657 12696244
0.41866669 -0.10081533 0.098971039 10986912
0.42428768 -0.10483434 0.095015608 11314334
0.43000001 -0.10958422 0.092087939 10130316
0.40900001 -0.090827771 0.09764412 12037801
0.41452435 -0.095179386 0.094828717 11183519
0.42000002 -0.099169932 0.090437971 9670536
0.39866671 -0.080911048 0.098287195 10985883
0.40439093 -0.084897757 0.094801672 11051675
0.41000003 -0.089130208 0.090684235 10920600
0.38900003 -0.070905164 0.098788619 9210504
0.39418945 -0.074670672 0.095150165 11314588
0.40045461 -0.078874111 0.091597244 10788759
0.38630348 -0.064763866 0.095166676 11446433
0.39057145 -0.068840876 0.091414846 11906730
0.3786191 -0.051412974 0.097902648 11776426
0.38152298 -0.055609018 0.09462022 11906984
0.3762601 -0.044934791 0.094999716 9670795
0.38000003 -0.049397245 0.091017224 9275778
0.36784849 -0.03362314 0.095357306 2633257
0.37079492 -0.038364001 0.094264463 2501928
0.36790445 -0.025858972 0.095565505 2764076
0.37048143 -0.021561893 0.093393616 2895405
0.37602097 -0.015253251 0.095045187 11382183
0.38000003 -0.010551953 0.090720698 12961991
0.37853855 -0.008500075 0.097595863 11711409
0.38193631 -0.0044934093 0.094437398 11776427
0.38676462 0.0030511117 0.095461629 12105648
0.39157784 0.0077889394 0.094112553 12237236
0.39598864 0.013567762 0.095479704 11974578
0.40084851 0.018102402 0.093987539 12171444
0.40660018 0.023345148 0.095768794 12434615
0.4114615 0.027501641 0.094155833 12039602
0.41610774 0.032842375 0.095291331 12369338
0.42169058 0.038052399 0.094558306 12238779
0.42641816 0.043177057 0.095427208 12501438
0.43067509 0.048056751 0.094649814 12434875
0.4357692 0.05412513 0.095210329 12894910
0.44025001 0.058717024 0.094109923 13092285
0.44521353 0.064801581 0.094961897 12829114
0.44900015 0.071818478 0.095237203 12697272
0.44999993 0.07434871 0.094461709 11711147
0.437415 -0.1234387 0.10494862 13617087
0.44085717 -0.12739018 0.10318018 13814209
0.42727783 -0.1121709 0.10600334 10721938
0.43180859 -0.11678138 0.104614 13682880
0.41700003 -0.10194953 0.10589577 11315616
0.42267862 -0.10654018 0.10434923 11051931
0.40712771 -0.092726819 0.10609425 11314333
0.41249999 -0.097321458 0.10444779 11183261
0.39675006 -0.082459763 0.10578083 10985881
0.4021818 -0.087177821 0.10458728 11117210
0.38739625 -0.072498247 0.10630699 11511971
0.39278325 -0.077162117 0.10421555 11183518
0.37900004 -0.060209949 0.10822687 12433069
0.38306549 -0.06510704 0.10496031 12038313
0.37761158 -0.054080281 0.10561346 11973291
0.38062501 -0.058241602 0.10234088 11643555
0.3743529 -0.045040891 0.10500924 9671310
0.36588654 -0.034670204 0.10531818 2436137
0.37033331 -0.039663821 0.10324585 1909281
0.36534873 -0.025214357 0.10499551 2698024
0.36866668 -0.019730853 0.10441227 9078915
0.37472504 -0.014480701 0.10470073 11184805
0.37769163 -0.0061947964 0.10579908 11579308
0.38072971 -0.0021880819 0.10329892 11514546
0.38446704 0.004613156 0.10510501 12237236
0.39000002 0.0092562987 0.10086856 12829378
0.38838461 0.011562218 0.10779246 12105655
0.39394441 0.015374571 0.10446845 12303287
0.40000001 0.01979412 0.10158212 12501698
0.39800003 0.020976564 0.10841008 12894656
0.40448427 0.024954798 0.10522076 12237494
0.41075 0.02898044 0.10286802 11908274
0.40900001 0.030771727 0.10913384 11777195
0.4152118 0.034236901 0.10502374 12303030
0.42050004 0.038958777 0.10328018 11645872
0.42490128 0.044359732 0.10533984 12303286
0.43015382 0.048862759 0.10284869 12567230
0.43517104 0.054363314 0.10487649 12632764
0.44000003 0.059568368 0.10583736 11974577
0.44464111 0.065210946 0.10510776 12500406
0.4484334 0.071566597 0.1052699 11908525
0.45000002 0.074238978 0.10040936 11711402
0.44200003 -0.1302328 0.11380035 13156791
0.42900002 -0.12037665 0.11949195 13617344
0.43528 -0.12465508 0.11654463 13288378
0.44061539 -0.12847623 0.11304622 13682876
0.42530259 -0.11435618 0.11533686 11445146
0.43041667 -0.11901078 0.11299926 14077382
0.40837499 -0.10072756 0.11757119 11446946
0.41538775 -0.10439771 0.11521678 11906981
0.42088005 -0.10840355 0.11375868 11643553
0.39825004 -0.090538628 0.11931658 11578786
0.40360209 -0.094728678 0.11482519 11380385
0.41100001 -0.09945026 0.11159182 11644069
0.38889998 -0.080719441 0.11697108 11381670
0.39432931 -0.084812231 0.1146438 11052444
0.40020004 -0.089341961 0.11278085 10788758
0.3853097 -0.074817777 0.11530121 11710377
0.39060003 -0.079243824 0.11098923 12170157
0.37850946 -0.062256385 0.11622768 11973806
0.38115382 -0.066652499 0.1141695 11907499
0.37623182 -0.054787345 0.1149772 11644842
0.36825001 -0.040398471 0.11571512 3092009
0.37389001 -0.045824703 0.11518437 9736587
0.36310932 -0.034593143 0.11522337 2107170
0.36358774 -0.025122177 0.11529348 2434594
0.36765003 -0.019159077 0.1157444 9208959
0.37316531 -0.013945012 0.11533834 10855581
0.37543175 -0.0051592831 0.11476612 11842992
0.37812907 0.0022804488 0.11591371 12566974
0.38169444 0.0067801923 0.11442656 12632767
0.38603041 0.0135701 0.1152532 12434873
0.39131251 0.018220114 0.11377002 12238008
0.39565709 0.022748679 0.11559384 12369080
0.40217301 0.027510731 0.11427352 12303288
0.40678379 0.031947017 0.11586917 12763581
0.41394114 0.036434416 0.11422084 12566197
0.41800004 0.040675811 0.11810254 12697011
0.42348185 0.044978481 0.11488873 12500150
0.42812502 0.05050217 0.11761595 12698301
0.43428394 0.055206925 0.11515695 12632764
0.44000003 0.059713628 0.11191201 12499637
0.43900001 0.060776908 0.11816647 13159108
0.44313264 0.065456472 0.11496305 12500666
0.44638887 0.071205802 0.11381979 11382438
0.42662072 -0.12177622 0.12464391 13551293
0.43279999 -0.12570684 0.12122132 13419451
0.41862506 -0.1109732 0.12481003 9867913
0.42277458 -0.11543243 0.12434371 10788756
0.40772727 -0.10147939 0.12241471 10986909
0.41560611 -0.1071902 0.12318929 12104875
0.42000002 -0.10998544 0.12829223 12829368
0.39750004 -0.091182947 0.12199445 11184029
0.40251511 -0.096419595 0.12199073 10854809
0.3888889 -0.081506371 0.12217787 11446436
0.39244652 -0.085171603 0.12399052 10657947
0.38540745 -0.074520096 0.12384669 10986657
0.39164287 -0.078002945 0.12827563 9407880
0.37828365 -0.06352067 0.12367253 10986912
0.38091663 -0.066833369 0.12641233 10986399
0.37658486 -0.055114746 0.12471761 10657947
0.38000003 -0.059479233 0.12986253 9868944
0.36800003 -0.040371042 0.12354634 3289645
0.37402141 -0.045631155 0.12487011 9013380
0.35900009 -0.032100022 0.12762341 2370086
0.36106381 -0.035096534 0.12459091 2435621
0.35900012 -0.027075544 0.12786402 2501158
0.36126962 -0.024205059 0.12427987 2698538
0.3659319 -0.018510547 0.12572294 9145994
0.37221506 -0.013628056 0.12442813 9934479
0.37436676 -0.0051984848 0.12484838 11052707
0.37766668 0.003506639 0.12428165 12105393
0.38050002 0.0084751248 0.12542319 11908013
0.38404006 0.015027696 0.1244503 12763583
0.38869232 0.02049474 0.12618294 12829374
0.39403948 0.024993554 0.12504502 13027011
0.40037501 0.028951425 0.12229631 12631482
0.39900002 0.0305798 0.12794906 12697788
0.40411377 0.034039322 0.12517129 13026752
0.41173914 0.038815845 0.12327082 12763321
0.41515008 0.042885903 0.12561592 13158593
0.42265859 0.047610532 0.12392378 12830143
0.42760003 0.051873595 0.12414782 12698301
0.43251726 0.056603897 0.12488189 12829116
0.43742499 0.062097084 0.12580013 12961215
0.44177362 0.066940777 0.12400221 12302770
0.44380003 0.070791937 0.12517081 11447976
0.42400002 -0.11004032 0.13199554 9012606
0.42420006 -0.10850128 0.13146272 10525842
0.3958571 -0.081754074 0.13184048 9736585
0.38787502 -0.071723275 0.13266772 9803150
0.39252007 -0.07647752 0.13248426 9539979
0.38300002 -0.065027528 0.1326447 9868430
0.37839478 -0.053075891 0.13192464 9736330
0.38028577 -0.058125857 0.13263111 9933968
0.37712252 -0.04629555 0.13286223 9473158
0.36433324 -0.035700891 0.13394617 1777947
0.37039995 -0.0331771 0.13912651 791309
0.35900003 -0.026987433 0.13024974 2566439
0.36391228 -0.023906521 0.13424258 2105632
0.37050003 -0.027417969 0.13930136 724746
0.36193332 -0.018294713 0.13153857 8948108
0.37396151 -0.012064408 0.13217852 9868686
0.37662914 -0.0051752739 0.13309188 10328982
0.3786501 0.0011868787 0.13219434 10131347
0.38146663 0.005884029 0.13331994 10394262
0.38677782 0.0134827 0.13381852 10394775
0.39130777 0.017461089 0.13506682 9934735
0.39351851 0.024434173 0.13242905 10790306
0.3985 0.03138167 0.1315203 12895936
0.40340742 0.036170986 0.13198157 12764094
0.40831816 0.041496776 0.13345575 12829632
0.41195995 0.045234185 0.13287492 13027010
0.42266667 0.049281899 0.13092108 13487048
0.42764866 0.054095827 0.13526806 13552842
0.43080002 0.057828326 0.13373609 13552071
0.43553826 0.064122349 0.13517104 13157571
0.4404445 0.068882242 0.13230149 11842479
0.44120008 0.070377193 0.13321631 11447976
0.36800003 -0.040371045 0.1429915 4604473
0.37 -0.04059045 0.14117008 4999233
0.36817393 -0.036752388 0.14478219 988431
0.37083575 -0.034328755 0.14287916 857102
0.3679412 -0.022228036 0.14387929 1578255
0.37110537 -0.026798379 0.14347979 725260
0.42899999 0.056781299 0.14158647 13749964
0.43000004 0.058859818 0.14236391 13354947
0.43207145 0.063964069 0.14259844 12763067
0.36100003 -0.041225724 0.15609196 1382676
0.35900006 -0.03181988 0.15966463 791569
0.36080569 -0.034937665 0.15624301 1186068
0.36055157 -0.024825597 0.15610014 1251349
0.36100003 -0.019003622 0.15432146 2959650
0.34778953 -0.041753244 0.16860251 2370339
0.35589999 -0.04103934 0.16660073 659468
0.36060005 -0.041078553 0.16332895 1579542
0.34765387 -0.035070244 0.16879566 2107681
0.35557434 -0.034459934 0.16545561 1317911
0.36043751 -0.037196148 0.16178016 1383189
0.34838238 -0.025983103 0.16930936 2172961
0.35414416 -0.025756285 0.16666134 1186070
0.36034617 -0.025107745 0.16289163 1448984
0.34900001 -0.019086812 0.16992341 2368801
0.35381818 -0.019312648 0.1684937 1382423
0.34303081 -0.041657664 0.17442504 2699048
0.34275675 -0.034934167 0.17419322 2239268
0.34278232 -0.025222331 0.17406064 2238498
0.34247062 -0.01955417 0.17469993 2172969
0.78866673 -0.16406448 0.26952171 9144452
0.77700001 -0.15254186 0.26917261 14211534
0.78788233 -0.1635768 0.2748943 9407880
0.79000002 -0.16803989 0.27552557 9276294
0.77600002 -0.1526894 0.27552223 12829373
0.78341675 -0.15808295 0.27429587 11710891
0.77382612 -0.14483106 0.27563342 13223872
0.77299994 -0.13480344 0.27664447 14077635
0.77280003 -0.12458086 0.27676302 13355195
0.76900005 -0.11136596 0.2772027 10392460
0.77081251 -0.11557775 0.27706584 12565168
0.76900005 -0.10596524 0.27720267 12367021
0.77000004 -0.10718457 0.27864471 10392976
0.77000004 -0.097991407 0.27936572 9802891
0.76600003 0.089909114 0.2797077 14472653
0.76800001 0.092841879 0.27864009 13288632
0.77000004 0.095786363 0.27936572 14604491
0.77639997 0.1063984 0.27877927 10856350
0.77825004 0.11412272 0.27871513 10922143
0.78300005 0.12856482 0.27858326 11185058
0.78550005 0.13173419 0.27947271 11185058
0.78775001 -0.16387509 0.28488287 9079430
0.79079998 -0.16821006 0.2850633 9210758
0.77600002 -0.15301891 0.28431365 11776946
0.78228575 -0.15855157 0.28512841 10263451
0.7733795 -0.14446509 0.28496253 13091002
0.77284384 -0.13510382 0.28492177 12827057
0.7721765 -0.12511808 0.28467453 12170410
0.77073091 -0.11536475 0.28483647 12368302
0.76900005 -0.10498329 0.28276709 12499631
0.77047384 -0.10531443 0.28589961 11973546
0.77020019 -0.096123569 0.28520876 12171695
0.76540756 0.084863342 0.28466776 11579818
0.76790911 0.091931939 0.28449011 12039596
0.77258825 0.097387493 0.28509176 11841961
0.77689475 0.10468828 0.28435534 10986910
0.78049999 0.10805552 0.28728727 10724510
0.77900004 0.112407 0.28080741 10922143
0.78208697 0.1151218 0.28582364 10922143
0.78459096 0.125407 0.28516349 11119265
0.78819048 0.13433892 0.28535169 11185058
0.79000002 0.13896121 0.28662196 11053472
0.78900003 0.14063238 0.280718 11382437
0.79170847 0.14497758 0.28554547 11185315
0.78820002 -0.16230686 0.29519534 9210502
0.79166669 -0.16700678 0.29541284 9342087
0.77740002 -0.15152901 0.29260761 13354430
0.78342861 -0.15642722 0.29511014 11578536
0.77660006 -0.14519073 0.29412603 12169644
0.78000003 -0.14491387 0.29760182 10393493
0.77600002 -0.13508756 0.29335186 11841706
0.78140002 -0.13511205 0.298136 10394775
0.77610004 -0.12492939 0.29357237 10262679
0.78140008 -0.12596896 0.29813597 9736079
0.77506256 -0.1144003 0.2937932 9868943
0.78000003 -0.11113297 0.29942781 9144192
0.77380002 -0.10481741 0.29433462 9671820
0.77296418 -0.095073365 0.29511586 9605515
0.76654547 0.076596551 0.29214361 9606035
0.77100009 0.07786151 0.2977778 8092538
0.76733333 0.083929993 0.29247087 10394778
0.77212501 0.086336069 0.29730982 9474190
0.77405006 0.094211124 0.29488203 11053733
0.77750003 0.10081496 0.29255408 10461081
0.78460008 0.1058105 0.29580867 10724510
0.78710014 0.11468065 0.29497129 10856095
0.79000002 0.11769307 0.29956782 10921632
0.78808331 0.12478816 0.29453811 11119010
0.79000002 0.12601538 0.29956782 11119011
0.78900003 0.13262843 0.29303175 11119266
0.79040003 0.13616444 0.29601917 11119267
0.79280001 0.14502367 0.2950615 11119265
0.78850007 -0.16033725 0.30176842 10328726
0.79304546 -0.16531767 0.30553332 9934479
0.78726667 -0.15455994 0.30369404 10065295
0.79016668 -0.15574402 0.30857173 10329749
0.78637505 -0.14483 0.30383536 10130834
0.79066676 -0.1450419 0.30907544 10262931
0.78676927 -0.13533314 0.30316195 10395803
0.79155564 -0.13460445 0.30860093 9672080
0.7865001 -0.1249485 0.30284542 10790045
0.79145455 -0.12522943 0.30854276 9803664
0.78639996 -0.11560459 0.30397516 10394772
0.79079998 -0.11452536 0.30912757 9079428
0.77900004 -0.10187224 0.30086759 11644324
0.78583336 -0.10537217 0.30580994 9671306
0.778 -0.094458558 0.30230266 9934221
0.78460008 -0.097458549 0.30707619 9145220
0.77466673 0.077022277 0.301613 8814974
0.78400004 0.079174355 0.30830476 10066577
0.77550006 0.086488456 0.30133125 8223868
0.78366667 0.08678294 0.30756381 10395288
0.77900004 0.093258634 0.30177939 9474190
0.78578579 0.096174061 0.30598825 10263704
0.78833336 0.1044252 0.30283204 10724510
0.79133338 0.10662361 0.30686703 10724510
0.79255003 0.11529024 0.30517721 10790303
0.79231817 0.12503462 0.30491874 10987682
0.79234779 0.13534255 0.30505732 11119011
0.79268003 0.14500023 0.30429626 11119011
0.79373914 -0.15510212 0.31504628 10527129
0.78900003 -0.1013329 0.31027099 9079428
0.78900003 -0.099485844 0.31027099 9013635
0.78850007 0.078706436 0.31192029 9935248
0.79233336 0.077851646 0.31714758 9737615
0.78840005 0.085157081 0.31188071 10132373
0.79381824 0.085235015 0.31689817 10263959
0.78900003 0.095379323 0.31027099 11053220
0.793625 0.09524212 0.31557894 10592926
0.79143751 0.077146806 0.32512301 10132628
0.79183996 0.12445592 0.42446411 10593181
0.79312485 0.13510181 0.42480412 10593181
