# .PCD v0.7 - Point Cloud Data file format
VERSION 0.7
FIELDS x y z rgb
SIZE 4 4 4 4
TYPE F F F U
COUNT 1 1 1 1
WIDTH 936
HEIGHT 1
VIEWPOINT 0 0 0 1 0 0 0
POINTS 936
DATA ascii
0.45600006 -0.13044363 -0.041831169 12695471
0.45344239 -0.12448449 -0.043666102 12498092
0.44732696 -0.11398565 -0.044022374 12170669
0.45000002 -0.11919598 -0.044265565 11906983
0.44350749 -0.10505226 -0.044340178 12368307
0.43726775 -0.094059505 -0.044148933 12434616
0.44030434 -0.098631747 -0.046180379 12960444
0.42836362 -0.082091197 -0.041865252 12039346
0.43180552 -0.085327171 -0.04566595 12631225
0.42518508 -0.074620418 -0.044867486 12958899
0.43000001 -0.079385094 -0.048841342 13748670
0.41783333 -0.062753089 -0.042122174 13157568
0.42176279 -0.066237599 -0.045459423 12828603
0.41704062 -0.054802373 -0.044183947 13420224
0.42016673 -0.058225866 -0.048052371 13682880
0.41665328 -0.045240175 -0.044180527 14012875
0.42000005 -0.044436935 -0.048197117 15263711
0.41749287 -0.035775423 -0.0439067 14078668
0.42037502 -0.031108523 -0.045656983 13552322
0.41900003 -0.029290874 -0.040235266 13157563
0.42338464 -0.025736686 -0.043019611 13486531
0.42616668 -0.019149603 -0.041754913 12500923
0.4385455 -0.13413271 -0.032530293 13287867
0.44000003 -0.139944 -0.030921305 11773595
0.45300001 -0.13029245 -0.038729183 11905698
0.4355455 -0.12481268 -0.031970304 12566207
0.44392312 -0.123024 -0.035925139 13222588
0.45261544 -0.12668072 -0.038573045 12694956
0.42850003 -0.11070723 -0.030113135 12959681
0.43261543 -0.11551552 -0.031653173 12434106
0.44475555 -0.11482587 -0.037533123 12695983
0.42399999 -0.10458795 -0.031286217 13748673
0.43900001 -0.10091564 -0.038044974 12499122
0.44326094 -0.10611166 -0.03818807 12237232
0.41866669 -0.091341227 -0.030729154 12169647
0.42275679 -0.094840631 -0.032767776 12959674
0.43412504 -0.095734991 -0.038006421 12630454
0.41634998 -0.084568433 -0.032137625 13025723
0.4237693 -0.085329525 -0.036809675 12498348
0.43000001 -0.088444836 -0.039278284 12236724
0.41589996 -0.075044215 -0.034242265 12960190
0.42072225 -0.075429708 -0.038267329 12564663
0.40812501 -0.063804127 -0.031508628 14406344
0.41408071 -0.0652707 -0.03614461 12959159
0.40703925 -0.054780435 -0.032327447 13881033
0.41192457 -0.055198345 -0.037630465 13881546
0.40749174 -0.045121238 -0.033120628 14473429
0.41134873 -0.044901736 -0.037890684 14013392
0.40816006 -0.035907291 -0.03147478 14408403
0.41298684 -0.03475469 -0.036344968 14539222
0.41550013 -0.025607182 -0.033780701 14407637
0.42148006 -0.023106601 -0.038028177 13948372
0.41820002 -0.01846486 -0.031348027 14342099
0.42330623 -0.015485547 -0.034059044 13947342
0.43000001 -0.011437049 -0.036258373 12894395
0.43000001 -0.0099270912 -0.03374178 13552844
0.44000003 -0.14097404 -0.022165898 11184035
0.43841076 -0.13447909 -0.025241215 12368310
0.44000003 -0.13942897 -0.023882642 11578536
0.43455556 -0.12499373 -0.024941675 12499130
0.42833334 -0.11172298 -0.025309794 12762555
0.4308103 -0.11633173 -0.024170768 12696246
0.42449996 -0.1050131 -0.025381513 12697279
0.41819355 -0.09195485 -0.02484153 13024179
0.42079666 -0.096939288 -0.02521348 12630455
0.4142904 -0.085098632 -0.024922069 12499380
0.40810364 -0.072824456 -0.024431853 12499895
0.41105998 -0.077795312 -0.025540711 12828349
0.40498981 -0.064818807 -0.025146399 13420995
0.40255001 -0.05500203 -0.024996931 13947084
0.40171054 -0.045064975 -0.024872895 14144463
0.40347233 -0.034726962 -0.024978774 14276564
0.40715957 -0.025861418 -0.023851976 14078672
0.41181085 -0.023104504 -0.027535995 14210001
0.40883335 -0.019328063 -0.020755587 13484994
0.41500005 -0.015178884 -0.02424087 14407120
0.42092857 -0.012320879 -0.028596653 14013391
0.41813642 -0.0082282685 -0.022756869 13685967
0.4208889 -0.0075276396 -0.025310321 14079954
0.43889746 -0.13324474 -0.017275641 11972003
0.44009987 -0.13400044 -0.012520205 11446691
0.4364 -0.12491237 -0.014827696 11907498
0.44000003 -0.12964351 -0.010320346 11775142
0.42885712 -0.11058388 -0.017516466 12237751
0.43162191 -0.11532854 -0.014472244 11841966
0.42585367 -0.10505892 -0.015211458 11777198
0.43000001 -0.10958422 -0.010085792 10658462
0.41814288 -0.092160277 -0.015539895 12235433
0.42112735 -0.09719824 -0.015074996 11776171
0.41467786 -0.085303314 -0.015065412 11973034
0.40732005 -0.07243631 -0.015199941 12301226
0.41111109 -0.078465916 -0.015097384 11907241
0.40400892 -0.064662658 -0.015153291 12828342
0.40086409 -0.054771896 -0.015035895 12895164
0.39900011 -0.043045372 -0.011468971 12238004
0.40001062 -0.045297455 -0.016007235 13553864
0.39900002 -0.038790181 -0.010604098 13748155
0.40075931 -0.034711562 -0.015275559 14079181
0.40426531 -0.025304303 -0.014913322 13816269
0.40797779 -0.018139597 -0.014218619 14210256
0.41256928 -0.013217836 -0.01541561 13947340
0.41713038 -0.0078440914 -0.014902978 13159624
0.42308339 -0.0030725561 -0.01594427 13224392
0.42807141 0.00042560237 -0.013976477 13224905
0.43278441 0.0042054807 -0.014799534 12764868
0.4434 0.011981687 -0.01060704 12501953
0.45800003 0.018375522 -0.010742542 11910073
0.46900001 0.024306541 -0.01100055 11513771
0.47500002 0.027124144 -0.010862702 11447978
0.44239998 -0.13330822 -0.0046657892 12170155
0.43760651 -0.12343522 -0.0050568227 11907499
0.44027996 -0.1284072 -0.0041008354 12235949
0.43231255 -0.11473714 -0.0045726835 12039342
0.42626181 -0.10410161 -0.0047706198 12301227
0.43000001 -0.10958423 -0.0045492849 12761780
0.41834623 -0.091660939 -0.0043891193 11907753
0.4213334 -0.096247539 -0.0052480414 12038570
0.41422221 -0.085210845 -0.00486934 12104617
0.4071252 -0.073912591 -0.0047851205 12236719
0.41049999 -0.079197101 -0.0052559776 11643297
0.40303931 -0.065025851 -0.004701152 12499633
0.39841518 -0.053035565 -0.0034874664 13354170
0.40019631 -0.056953367 -0.0058074472 13026232
0.3975369 -0.044689059 -0.0048594791 13552320
0.40000001 -0.049500015 -0.0093821324 12829886
0.3980588 -0.036177963 -0.0036175488 13815493
0.4000302 -0.032703772 -0.0071127638 13815235
0.39900002 -0.029449521 -0.00032937081 14012875
0.40208489 -0.02516227 -0.0048419395 13552837
0.40703437 -0.016504649 -0.0046257395 13224131
0.41127273 -0.011593685 -0.0072402908 13290179
0.41584489 -0.0067572976 -0.0051389863 13553094
0.42265388 -0.0021043492 -0.0058095027 13027009
0.42725006 0.0013067574 -0.002521059 12632507
0.43492588 0.0055680103 -0.0058059418 12896194
0.44 0.0094129555 -0.0062001543 12829635
0.44529042 0.012493558 -0.0053650266 12632511
0.45482233 0.017426066 -0.0045660115 12632253
0.45861116 0.021383017 -0.0034206454 13224132
0.46351433 0.025055364 -0.0036155952 12961217
0.4714286 0.029634148 -0.0033405146 13553097
0.47316667 0.031724241 -0.0014989367 13158085
0.44313061 -0.13275546 0.004872567 12170672
0.43814999 -0.1226903 0.0048529878 11643298
0.44084367 -0.12750736 0.0054632714 11710120
0.43268058 -0.11483542 0.0050461339 11446948
0.42618421 -0.10405105 0.0052445368 11643552
0.43000001 -0.10948355 0.0054164282 11644838
0.41820008 -0.091696955 0.0052661998 11380640
0.42137507 -0.096327357 0.0055298149 11380382
0.41334888 -0.084953964 0.0054492196 11709605
0.40660477 -0.074898496 0.0053486438 11644324
0.41000003 -0.079532035 0.0023810314 10788755
0.39866671 -0.060845803 0.0082255043 12433326
0.40206531 -0.065601803 0.0049122083 12039339
0.39690503 -0.054960452 0.0052706106 12630705
0.40000001 -0.059425928 0.0016674723 13616572
0.39548194 -0.045240086 0.0050712372 13157821
0.39607266 -0.03510173 0.0050781062 13289921
0.39803454 -0.027180254 0.0059398776 13750986
0.40032679 -0.022757741 0.0041976473 13618887
0.40474072 -0.015101161 0.00511755 13355460
0.40900001 -0.00944228 0.0074019749 14210774
0.41409096 -0.0061092931 0.0054759546 13157827
0.42116669 -0.0013417988 0.0048540728 12698560
0.42540544 0.001811498 0.0053063552 12764097
0.43415388 0.0069021513 0.0043068985 12369595
0.43900001 0.010419269 0.0066602733 12764095
0.44445455 0.013587866 0.0066345246 12172471
0.45286962 0.01794189 0.0046310532 12369336
0.45806673 0.021167444 0.0053380644 12303543
0.46415147 0.025182862 0.0060722162 13027781
0.47000003 0.028759485 0.0076807276 12830404
0.47599992 0.032793157 0.0056279688 13947601
0.48127779 0.037089225 0.0071778107 11183775
0.48657149 0.042630367 0.008602676 15657956
0.44258702 -0.13229904 0.015161873 12235695
0.43857503 -0.12255134 0.014866556 11841707
0.44085002 -0.12731579 0.014943942 12039600
0.43307143 -0.11479675 0.014970619 11776681
0.42622381 -0.10451894 0.015573123 11709862
0.42999998 -0.10915281 0.013138778 11711659
0.41776469 -0.092028163 0.015426278 11447202
0.42126796 -0.097183406 0.015090749 11840930
0.40899998 -0.080295525 0.015779892 11907753
0.41312203 -0.085361823 0.014876501 11579046
0.40586594 -0.074871525 0.015083051 11578017
0.39812505 -0.061851703 0.015777986 11974057
0.40125728 -0.066769719 0.014499539 12104877
0.3955636 -0.054975227 0.014795654 12433840
0.3932147 -0.044981085 0.014705821 13157306
0.39358693 -0.034880608 0.014718189 13354687
0.39646542 -0.025108622 0.014994342 13158338
0.40000001 -0.020845953 0.011031544 13881801
0.39850006 -0.018728152 0.017705519 13288896
0.40291101 -0.014450602 0.014705952 13420996
0.40809378 -0.0084051369 0.015742622 13355975
0.41398513 -0.0039052069 0.01474684 12764353
0.42000002 -0.0008471816 0.011288153 13159371
0.42423812 0.0023458344 0.014358989 12567230
0.43376923 0.0075946678 0.015078899 12501437
0.43866676 0.010868119 0.015325829 12633022
0.44379547 0.014487755 0.015593381 12369851
0.4526667 0.01898662 0.01481095 12303288
0.45675007 0.021651287 0.014983548 12500411
0.46472734 0.026171587 0.015012681 13158339
0.47080001 0.029470474 0.014638667 13552583
0.47619048 0.03320463 0.014867151 12566460
0.48137504 0.038120948 0.014273399 12960959
0.4865264 0.043202635 0.014062214 14737883
0.49237505 0.046844073 0.01784822 14869471
0.44355121 -0.13308629 0.024857976 11840933
0.43807313 -0.12247516 0.025117958 11578790
0.4407692 -0.12733227 0.025247185 12170413
0.4325625 -0.11480449 0.024789702 11578791
0.42585 -0.10504778 0.025150755 11775141
0.41688007 -0.0928948 0.025510915 11447204
0.4208287 -0.09809988 0.024749776 11840419
0.40868178 -0.080842271 0.025898961 11119011
0.41217107 -0.0856722 0.024699487 11250855
0.40469056 -0.074795 0.024677683 11578275
0.39718574 -0.063249484 0.025404286 11710118
0.40035287 -0.067930862 0.024100123 11709347
0.3934561 -0.054862238 0.024961049 12236204
0.38900003 -0.040853515 0.029123429 10792877
0.39117625 -0.04481772 0.024626145 12763322
0.38900003 -0.038576879 0.029123429 11318447
0.39109302 -0.034569584 0.024580311 13289921
0.39323962 -0.024720488 0.024831735 13290180
0.39703035 -0.016921133 0.025721604 13486531
0.40137041 -0.012289871 0.024460208 13158081
0.40623087 -0.0073422943 0.024993002 13223874
0.41226676 -0.0026718834 0.024626218 12764095
0.41688883 0.00084163534 0.026331156 12895682
0.425742 0.0048729545 0.02524882 12632509
0.43138885 0.0076041999 0.023539357 12764093
0.43700004 0.011499703 0.026058977 12829888
0.44489369 0.015688868 0.025172358 12304058
0.45050001 0.019129241 0.022652419 12567229
0.44900003 0.020116664 0.027308771 12698045
0.4542093 0.02273147 0.024308329 13158340
0.46528572 0.028166011 0.025956264 13355718
0.47050002 0.029891524 0.022006566 14145493
0.47635087 0.035026025 0.02515384 12565686
0.48030001 0.038947418 0.022240695 15197917
0.4832857 0.041939199 0.026153604 15263456
0.49725008 0.047743283 0.023984246 14671321
0.50033337 0.049356222 0.024574483 14539734
0.44309449 -0.13296476 0.034443971 12301742
0.43797559 -0.1224728 0.035388809 11578790
0.44073531 -0.12737367 0.034847632 12432556
0.42862499 -0.1104883 0.037106268 11644580
0.43258339 -0.11517508 0.034636401 11709864
0.42534146 -0.10499365 0.035191927 11446945
0.41679665 -0.09339083 0.034825012 11118497
0.42067868 -0.098416395 0.034660678 11709603
0.40833336 -0.081695132 0.034903619 10921891
0.41225421 -0.087040268 0.035149351 11250086
0.40343267 -0.074802555 0.035106543 10789531
0.39670137 -0.064053588 0.035115682 11447460
0.40000007 -0.068813413 0.03574099 12235947
0.38900003 -0.051326059 0.038685314 13879741
0.39196041 -0.055189416 0.034739245 11908781
0.38849461 -0.044309255 0.036068339 12630704
0.39018521 -0.046899293 0.031512346 12171441
0.38810951 -0.035428479 0.035105471 12434870
0.39000002 -0.031067738 0.030415624 11579046
0.38875559 -0.027924156 0.036829237 12434872
0.39117971 -0.023565281 0.033966634 12698045
0.3948898 -0.015100712 0.03522402 13421251
0.40025005 -0.010528421 0.031838793 13553610
0.39842862 -0.008931349 0.038355645 13093321
0.40420789 -0.0055796653 0.034991153 12896712
0.41131252 -0.001430422 0.033439845 11712181
0.41509998 0.0015014573 0.034309324 12764096
0.42447621 0.006583991 0.034193415 12500922
0.43000001 0.0091990242 0.031689674 13027267
0.43412504 0.012296122 0.035673607 12435644
0.4431842 0.01740345 0.034571737 12829889
0.44814286 0.020903638 0.036249492 12369596
0.45566669 0.024844 0.036604434 12830405
0.46359265 0.028370008 0.034699745 13290440
0.46715003 0.031867318 0.036609638 13619146
0.47364917 0.036208346 0.034384314 12764093
0.47809094 0.040752374 0.035993062 15330020
0.48197877 0.044742152 0.034884106 14276819
0.48500001 0.050114423 0.039149184 11974574
0.44271708 -0.13328166 0.044875257 11776168
0.43733895 -0.12362491 0.045113426 11973547
0.44021735 -0.12854286 0.044427607 12170154
0.42849997 -0.11120873 0.044619702 11513511
0.43198335 -0.11606285 0.044981733 11841447
0.42389658 -0.10492659 0.045251682 11709603
0.41642427 -0.094388902 0.044851322 11315875
0.42023084 -0.098997526 0.043946423 11512481
0.40791842 -0.082814321 0.045194376 11315871
0.41183788 -0.087995172 0.045266565 11250594
0.39900002 -0.070859782 0.049020458 11053218
0.40243441 -0.07500264 0.044830125 10987167
0.39608166 -0.06505508 0.045241151 11446432
0.40000001 -0.068852432 0.040559586 11906984
0.38873917 -0.052241798 0.045581762 12039082
0.39110449 -0.056984652 0.044393618 11841958
0.38653281 -0.045162108 0.045176223 12236975
0.38541335 -0.035063237 0.045092318 12762805
0.38694254 -0.025320895 0.045192294 13026494
0.39037502 -0.021120336 0.040763788 12829632
0.38863632 -0.018814122 0.047662925 13552324
0.39250436 -0.014258165 0.044605762 13289153
0.39705011 -0.0078859236 0.045499768 12829373
0.4027878 -0.0032476182 0.044779997 12895169
0.40718183 0.00078312255 0.045251049 13026755
0.41378942 0.0046812161 0.044671167 12500411
0.42333338 0.0083997482 0.043567132 12368828
0.4265455 0.011578082 0.048091639 12699589
0.43538639 0.014932325 0.044568971 12567233
0.44147828 0.018837659 0.043563206 12172986
0.44535485 0.022278132 0.044967458 12895938
0.45425004 0.027117925 0.044485338 12698559
0.46000001 0.029224444 0.041438658 14014161
0.45842862 0.031118823 0.048118323 14079953
0.46480009 0.034678265 0.045189183 12829631
0.47072735 0.038221687 0.04245396 12238263
0.46866667 0.041112602 0.04898493 14540505
0.47446814 0.043734819 0.045626543 15263971
0.48182353 0.04680416 0.042044003 14211026
0.48314285 0.05056731 0.043436173 12040367
0.44117856 -0.13346025 0.05560267 12301744
0.4372423 -0.12466643 0.055283226 11841705
0.44000003 -0.12924734 0.053463396 12169128
0.42765632 -0.11199193 0.055040266 11381155
0.43190479 -0.11732074 0.055131324 11643557
0.41900003 -0.10089559 0.059815161 12170931
0.42305803 -0.1050626 0.054863825 11446176
0.41548285 -0.09498582 0.055342231 11315875
0.40716144 -0.08319889 0.055324037 11117722
0.41105881 -0.088286348 0.054321639 11314588
0.39825001 -0.071387731 0.055801541 10987167
0.40249988 -0.076428808 0.05437535 10986908
0.39435712 -0.064986281 0.054996785 10986909
0.38796201 -0.053509783 0.055393677 11513509
0.39061767 -0.058237664 0.054067586 11907239
0.38459659 -0.044810861 0.055030316 12105646
0.38295358 -0.034881789 0.055054013 12500150
0.3835341 -0.025046149 0.055155192 12500922
0.38678098 -0.015906896 0.055511571 13092801
0.39117393 -0.012174529 0.05233717 13159105
0.38900003 -0.009891212 0.058719747 14080727
0.39491767 -0.006093129 0.055468578 12829890
0.40083334 -0.0018498834 0.052581202 13092547
0.39900002 0.00012924365 0.059762217 13948112
0.40557784 0.0025441833 0.054859672 12632767
0.41402507 0.0073376568 0.054738838 12502464
0.42060003 0.0095888032 0.051575173 12963018
0.4245626 0.013220523 0.056255169 12567488
0.43417147 0.017747099 0.05459534 12830145
0.4384 0.021353032 0.056972135 12698818
0.44365674 0.025376983 0.055023763 13027526
0.45225003 0.029262902 0.051326882 12962246
0.44900003 0.030838061 0.058632065 14013650
0.45598042 0.034230668 0.055732172 13355721
0.46208003 0.037752982 0.05302145 11053479
0.46603504 0.0439694 0.056283202 14869472
0.47113797 0.04716292 0.052878711 15330021
0.46860003 0.051710367 0.058777727 13290185
0.47083333 0.051036879 0.055635665 12434876
0.4390001 -0.13089043 0.066927932 12039599
0.44024 -0.1343116 0.064536035 11973036
0.43611246 -0.12493642 0.065022774 11907497
0.42693618 -0.11261381 0.065368496 11972779
0.43051437 -0.11749136 0.064625226 11512485
0.41852951 -0.10118619 0.065741539 11315877
0.42222726 -0.10590286 0.064856119 11644842
0.41433704 -0.094976798 0.065006889 11578017
0.40655699 -0.08419501 0.065217309 11511710
0.41030008 -0.089003466 0.063278385 10524560
0.39735556 -0.072058938 0.065447651 11512738
0.4014906 -0.076980725 0.064601131 11643295
0.38900003 -0.060887951 0.06873697 10789020
0.39262879 -0.065059677 0.06471882 11249826
0.38698199 -0.054919269 0.064894974 11841191
0.39000002 -0.059218481 0.060696691 11512742
0.38264331 -0.044754829 0.065036274 12564655
0.37899998 -0.032451835 0.069061309 12894393
0.38080725 -0.034770858 0.064792149 12498865
0.37900001 -0.027603667 0.069188058 11712173
0.38105938 -0.024716448 0.064903326 12500665
0.38369459 -0.015162328 0.064975776 13092292
0.38779071 -0.008296337 0.066354379 12304318
0.39316276 -0.0039402745 0.064362489 12369339
0.39765388 0.00088180497 0.06596607 12895171
0.40344289 0.0055950209 0.066025071 12764609
0.41050002 0.0097428476 0.064847559 13554381
0.40850002 0.010891054 0.069074363 12565944
0.41550004 0.013128544 0.066433303 12566973
0.42244741 0.016434327 0.064835384 12764353
0.42690006 0.020926053 0.068236157 13027270
0.43516174 0.024552923 0.065511979 13027014
0.44211116 0.027918216 0.062476769 13159114
0.43900001 0.030973408 0.069864243 12237498
0.44673327 0.03354802 0.065652713 13553613
0.45335007 0.037244372 0.06319879 13158341
0.44900003 0.04008789 0.069353454 11118243
0.45660341 0.043980513 0.06635464 13421512
0.46213335 0.046888821 0.06272193 15395815
0.45900002 0.050651461 0.069823548 15330022
0.4639512 0.053105094 0.065903485 13816783
0.43882599 -0.13249198 0.075843178 11973034
0.44 -0.13551478 0.072031975 11843762
0.43512863 -0.1251606 0.074991859 11578536
0.42610604 -0.11375207 0.075214773 11906986
0.43039134 -0.11897149 0.074144237 11709864
0.41811541 -0.1015873 0.075612038 10985626
0.4214755 -0.10644496 0.074998446 11380896
0.40900001 -0.090827771 0.078494594 10658466
0.41321841 -0.095078588 0.074664153 11446692
0.40612909 -0.085151248 0.075129025 11249568
0.39686364 -0.072835721 0.075332247 11183260
0.40079993 -0.078030847 0.074551985 11249310
0.38899997 -0.061028048 0.075286679 10657689
0.39217439 -0.065598346 0.074932024 11117982
0.38559008 -0.055127792 0.074877851 11183775
0.37852013 -0.042057667 0.077783741 11119527
0.38128868 -0.045761742 0.074453965 11447978
0.37719229 -0.034745339 0.075313143 9211272
0.38008341 -0.038508363 0.07123933 11643298
0.37730202 -0.025356496 0.075469352 9606034
0.380077 -0.021846982 0.071027167 12369596
0.37851614 -0.017598594 0.077645265 12960190
0.38112086 -0.014392783 0.074208967 13026753
0.38561061 -0.0058702747 0.075508118 13026497
0.39127782 -0.0018053779 0.072394833 12566203
0.38900003 0.00035366844 0.078526512 11974066
0.39526153 0.0030666953 0.074834004 12698561
0.4020263 0.0077389018 0.073315039 12370368
0.40657148 0.012645345 0.076195344 12632770
0.4138183 0.016768295 0.074161485 12763841
0.42133334 0.019535324 0.071489714 12303547
0.41656247 0.021650352 0.078173973 12895424
0.42464447 0.023670504 0.074376404 13093322
0.43175006 0.02793768 0.073094517 12896197
0.43561289 0.033652242 0.076256581 13290440
0.44315392 0.037256964 0.072912186 13882063
0.44620746 0.043648779 0.076658338 12171443
0.45309526 0.046694562 0.073160335 14013907
0.44900003 0.051124617 0.079864629 15527399
0.45617017 0.05334112 0.076197915 15198179
0.46176472 0.056904387 0.073069997 13290439
0.45900002 0.060322206 0.079494298 11382442
0.46200001 0.061324552 0.076019496 11843246
0.43832293 -0.13385691 0.084876128 12498866
0.44000003 -0.13885337 0.086382978 11577507
0.42883334 -0.12049726 0.087654494 11579306
0.43301302 -0.12522388 0.084795579 12235950
0.42503658 -0.1147123 0.085172333 12038827
0.43000001 -0.11965061 0.081014916 11511968
0.4172281 -0.10311118 0.085092686 11316391
0.42078805 -0.10801369 0.08421912 11644069
0.40837935 -0.091613591 0.086022042 11446687
0.41241798 -0.096477427 0.084869191 11381925
0.4042424 -0.085052386 0.084934443 11118240
0.39663291 -0.074312836 0.085298061 11117982
0.40015006 -0.07897982 0.084148668 11513512
0.38799998 -0.062378682 0.086687349 11052702
0.39185068 -0.067116328 0.084552363 11380638
0.38336447 -0.05487274 0.085128866 11315618
0.37781256 -0.043298177 0.085486561 10327952
0.38063261 -0.048213758 0.084104851 11709859
0.37367433 -0.03487581 0.085107274 2830892
0.37322763 -0.02474834 0.085051902 3159604
0.37742332 -0.015480635 0.085436724 11908016
0.38030007 -0.01171698 0.08188884 12697272
0.37885714 -0.0092530577 0.088420197 12434104
0.38283727 -0.0050015282 0.084833398 12237495
0.38736174 0.0024257975 0.086453244 12764096
0.39254692 0.0068392549 0.084592007 12895683
0.39623529 0.011999583 0.087280676 12830399
0.40389663 0.01563816 0.084481582 12698816
0.4106667 0.019040646 0.08121673 12304314
0.40756252 0.021303015 0.087936133 12698048
0.41431332 0.024813382 0.084944017 13290182
0.42166671 0.028874924 0.083007768 13224388
0.41825002 0.030733757 0.089080855 12501440
0.42538783 0.03404237 0.086648904 12961475
0.43231252 0.036768727 0.083343245 13487820
0.43631026 0.043503318 0.086577766 13092803
0.44289133 0.046646569 0.083210886 12040372
0.43900001 0.051013693 0.089390673 15263714
0.44478387 0.054256994 0.085935883 15527143
0.45236361 0.055702712 0.081227586 15593191
0.44300005 0.061325416 0.088372737 14803421
0.45680004 0.061313849 0.083273731 12171444
0.46100003 0.062474251 0.080919303 11776940
0.4386 -0.14052549 0.097522929 10856096
0.43682715 -0.13506612 0.094889306 12104364
0.44000003 -0.139944 0.091139376 10985110
0.42847368 -0.12112694 0.095059611 11512742
0.43183333 -0.12627876 0.094959877 12104107
0.42374697 -0.11500493 0.095053293 11512228
0.4162651 -0.10459001 0.095254116 11446948
0.42022228 -0.10916914 0.092889518 11513770
0.40771168 -0.092637017 0.09527842 11380384
0.41148773 -0.097585492 0.09461844 11577760
0.39900002 -0.080356121 0.096813507 11774627
0.40277091 -0.085182726 0.094925456 11380383
0.39515841 -0.07491637 0.094991781 11314846
0.38718984 -0.063571334 0.09515319 11052445
0.39077422 -0.068485193 0.093997873 10987168
0.37900004 -0.050450247 0.098467171 11645100
0.38198212 -0.054896094 0.094816104 11512482
0.37711364 -0.044610851 0.095281564 10261902
0.38000005 -0.049397245 0.092499875 12169387
0.36838099 -0.032706499 0.096801348 2633515
0.37126935 -0.035954796 0.093570724 2764589
0.36843553 -0.026381398 0.097181343 2764589
0.37082523 -0.023891063 0.0933244 2961454
0.37557435 -0.015203997 0.094958976 11249571
0.37825009 -0.007132065 0.096081689 12237238
0.38099992 -0.0029893229 0.093858577 12631997
0.38499236 0.0044034985 0.095092341 12500411
0.39066669 0.0086630667 0.091132633 12369598
0.3883889 0.010986698 0.097823627 13223617
0.39479062 0.015058023 0.095104307 12632509
0.40076473 0.01872948 0.092143372 12567490
0.39850003 0.020886304 0.099101886 10790304
0.40513924 0.02459689 0.096026115 13158598
0.41224137 0.027657289 0.092589475 12830402
0.4086667 0.031065807 0.099158771 14145237
0.41538277 0.033873882 0.095831141 13093318
0.42244455 0.037555605 0.092908099 13553354
0.41800004 0.040647186 0.09900853 12763836
0.42515153 0.044069402 0.09642075 13882577
0.43236962 0.046703614 0.092741698 12302774
0.42785716 0.050936006 0.099139512 12303286
0.4346832 0.055032484 0.095121451 14013904
0.44 0.057825215 0.090624347 15132639
0.43633339 0.06268359 0.095901586 15658730
0.44000003 0.06143038 0.090624347 16053488
0.43890914 -0.14099823 0.1043168 10855839
0.43570003 -0.13493636 0.10509802 11841706
0.42767999 -0.12176997 0.10570594 11577762
0.43114039 -0.12671857 0.10478773 11579305
0.41900003 -0.11070445 0.10934994 12302256
0.42251948 -0.11503539 0.10488933 11512484
0.41558945 -0.10492089 0.10494824 11511969
0.40692204 -0.093631603 0.10509375 10987170
0.41078264 -0.098374024 0.10463166 11052701
0.39804354 -0.0815892 0.10616806 10724257
0.40231934 -0.086552054 0.10452422 10855329
0.3936758 -0.074989334 0.10491047 10986653
0.38651887 -0.064462692 0.10502875 11052446
0.39000002 -0.069261439 0.10269455 10920602
0.37858832 -0.051334538 0.10563146 10986652
0.38158619 -0.056292687 0.10488741 11512225
0.37613031 -0.04510257 0.10500715 10065038
0.36685288 -0.033951368 0.10523143 2567209
0.37087503 -0.038950942 0.10457571 2500903
0.36617246 -0.025276266 0.10521606 2698280
0.37025002 -0.020898899 0.1011773 3223083
0.37465036 -0.014799342 0.10449642 10395546
0.37763101 -0.0051835184 0.10511637 11185064
0.38000003 -0.00076649763 0.10139575 12236979
0.37900001 0.00047766356 0.10840432 10790047
0.38202357 0.0049425736 0.10486703 11974325
0.38673964 0.013647773 0.10600951 12698303
0.39252779 0.017921289 0.10289186 12895680
0.38900003 0.020160437 0.10926116 11645355
0.39515206 0.023836479 0.10596026 12829890
0.40195125 0.027239244 0.10244977 13026755
0.39900002 0.030019362 0.10880069 12369849
0.40486112 0.03437157 0.10568692 13093060
0.41230774 0.03763108 0.10180909 13421773
0.40766668 0.041488085 0.10869593 12829886
0.41527069 0.04482149 0.10567064 13750733
0.42185718 0.047543604 0.10204976 14078927
0.41804552 0.053385381 0.10847709 12434876
0.42388877 0.055223167 0.10463358 12302772
0.43030006 0.058263816 0.10111675 14474457
0.42562509 0.062937073 0.10745645 15527143
0.43192309 0.065742463 0.1038577 15790573
0.43328577 0.071830764 0.10731186 14737628
0.43402171 -0.13338499 0.11483601 11710117
0.42702705 -0.12220425 0.11526591 11643557
0.43083724 -0.12727441 0.11474801 11579046
0.41856259 -0.11095671 0.11548123 11511968
0.42230296 -0.11577878 0.11467352 11512485
0.41515064 -0.10479663 0.11499397 11380641
0.40667754 -0.093681425 0.11500703 10921377
0.41076189 -0.098409086 0.11514405 10526618
0.39820695 -0.081874527 0.11467688 10987171
0.40186882 -0.086767562 0.11475541 10987427
0.38900003 -0.070905164 0.11381444 11249310
0.39356369 -0.075503916 0.11484349 10723228
0.38661674 -0.065457553 0.11497621 10921117
0.37843189 -0.051684424 0.1147285 10855324
0.3812933 -0.05686542 0.11491486 11447202
0.37583965 -0.045352958 0.11476641 9671053
0.36472511 -0.034538094 0.11511305 2238756
0.3705 -0.039633594 0.11172552 2236962
0.36395863 -0.025107566 0.11507584 2369829
0.36690912 -0.019480154 0.11563165 7830394
0.3748062 -0.013644786 0.11521602 10855841
0.37674773 -0.0053362092 0.1147455 11119013
0.37846297 0.0017480388 0.11525903 11514287
0.38110459 0.0070049507 0.11469755 11974836
0.38440979 0.015152412 0.11511171 12501180
0.38802177 0.021927742 0.11599199 12566973
0.39284614 0.026686067 0.11383601 12895423
0.39644286 0.033504236 0.11635325 12960704
0.40110904 0.037248898 0.11344294 12830658
0.40489814 0.044682618 0.11554638 13290438
0.4114286 0.048017789 0.11136222 13947853
0.40804008 0.052710399 0.1181986 14737371
0.41373989 0.055433191 0.11412293 12763323
0.41628134 0.063711464 0.11673292 14013133
0.42233965 0.066572517 0.11281586 15921386
0.41900003 0.070759557 0.11964924 16447474
0.4243125 0.073535092 0.11621791 15921388
0.43020001 0.072853245 0.11096356 15263715
0.43330771 -0.13157414 0.12248572 11512739
0.42789289 -0.12228595 0.12404986 10986395
0.43045726 -0.12643066 0.12458859 10855323
0.41866669 -0.11061639 0.12151506 10986399
0.42292753 -0.11543997 0.1248026 10394517
0.41531438 -0.10467374 0.1241074 10394261
0.41999999 -0.10998544 0.12681739 9803151
0.40765795 -0.093924426 0.12324192 10723480
0.41068423 -0.098185793 0.12456167 9670794
0.39900002 -0.081368022 0.12397927 9736071
0.40189826 -0.085958809 0.12375489 10065292
0.39414132 -0.07494583 0.12442043 9933708
0.38732255 -0.063601546 0.12379393 9605002
0.39080006 -0.068001799 0.12638919 9276295
0.37886667 -0.050964843 0.1232083 9803156
0.38179663 -0.055692375 0.1235838 9539981
0.36900005 -0.040768694 0.12639129 5132110
0.37574264 -0.045310147 0.12455365 9013381
0.36197501 -0.034557108 0.12439238 2501927
0.36178669 -0.02476114 0.12432852 2436137
0.36487502 -0.018593274 0.12574242 9212559
0.3742809 -0.013654339 0.12425726 10066583
0.37699157 -0.0051743337 0.12482402 10198170
0.37871659 0.0023551472 0.12422349 10659491
0.38052094 0.0072765839 0.12534823 11514030
0.38329247 0.015366048 0.12503356 12302774
0.38756609 0.024913184 0.12498301 12565948
0.39020002 0.028992081 0.12129018 13158343
0.39349988 0.034909207 0.12490425 12763581
0.39789593 0.04259105 0.12607926 13026753
0.4012714 0.046659011 0.12389313 13289667
0.4056814 0.054669965 0.12501404 13750476
0.41060004 0.05934437 0.12090254 12894652
0.4085201 0.061760284 0.12767257 11907504
0.41251621 0.065930888 0.12447512 14210771
0.41626829 0.074176475 0.12600304 16316661
0.42109099 0.077087864 0.12230457 15921645
0.41800001 0.080376126 0.12817059 14868965
0.42250001 0.080252342 0.12213174 11184551
0.36760002 -0.040671296 0.13836192 7041130
0.36859998 -0.038883366 0.13925567 1317142
0.36433336 -0.02063667 0.13929206 3150607
0.37599999 -0.011572595 0.13063322 9275781
0.37751436 -0.0049490966 0.13133584 8947589
0.37899998 0.0006156796 0.13168961 8488069
0.38119355 0.006042853 0.13289045 8882822
0.38470775 0.015167096 0.13348322 8686216
0.38822976 0.024018027 0.13385631 9868948
0.38999999 0.028942797 0.13459238 10328728
0.39347994 0.035264656 0.13425516 11184551
0.39771429 0.043359451 0.13432029 11448237
0.40035701 0.048220225 0.13503468 11645871
0.40393096 0.054768659 0.13474502 12500667
0.40836793 0.063103855 0.13495988 11447465
0.41026467 0.068098575 0.13503493 13685197
0.41310668 0.074004978 0.13412772 14737630
0.41816673 0.08081688 0.13270669 15657964
0.36447367 -0.04069918 0.14599691 5459785
0.36476785 -0.03556145 0.14669244 988430
0.37078965 -0.033807561 0.14288695 922894
0.36299998 -0.02440507 0.14608972 1512719
0.37092304 -0.027800452 0.14339192 856589
0.36100003 -0.01847543 0.14914517 5775904
0.39900002 0.044964422 0.14009191 10592924
0.40000001 0.046013519 0.14044301 8947848
0.40350002 0.053512935 0.14025325 7171436
0.4086 0.063265398 0.14059292 7369587
0.4103334 0.067535892 0.14054869 11776945
0.36117867 -0.041102316 0.15504511 1909531
0.36112252 -0.035000097 0.15499693 1317652
0.35900003 -0.025516691 0.15798378 1054483
0.36053929 -0.024803055 0.15477256 1448725
0.36093754 -0.018894641 0.15307941 4008741
0.34540001 -0.041004006 0.1681643 2501925
0.3573077 -0.040805977 0.16585669 527883
0.36166668 -0.041275945 0.16263579 1843484
0.34599999 -0.034870584 0.16795452 2041375
0.35571936 -0.034601931 0.16492335 1383446
0.36038461 -0.035600837 0.16144827 1712151
0.34675279 -0.025769107 0.16819194 2041376
0.35510585 -0.025302731 0.16589747 1120532
0.36017546 -0.025295541 0.16270313 1778461
0.34900001 -0.01949532 0.16747238 1776411
0.35513335 -0.019117054 0.16757698 1317145
0.33800006 -0.040989704 0.17852812 2370342
0.34192863 -0.041550893 0.17359959 2369826
0.33833334 -0.036819443 0.17751572 2173219
0.34165618 -0.034999497 0.17328182 2172704
0.34220302 -0.025129568 0.1735362 2237984
0.34300002 -0.019963127 0.17422883 2303525
0.78866673 -0.16283311 0.25782833 9407623
0.79220003 -0.16665635 0.25700337 9473672
0.77633333 -0.15119989 0.25864276 14013645
0.78266668 -0.15732354 0.25952896 12104877
0.77527279 -0.14527421 0.25834444 14212562
0.77485716 -0.13553575 0.25910133 14145741
0.77500004 -0.12584205 0.25940832 14144199
0.77400005 -0.11661993 0.25907362 13420987
0.78752375 -0.16426785 0.26561671 9079172
0.79016668 -0.16807534 0.26386765 9408394
0.77717644 -0.15279286 0.26548773 11775400
0.78241664 -0.15803371 0.26478806 11578791
0.77515984 -0.14492275 0.26490596 12236720
0.77496648 -0.1349075 0.26483992 11512995
0.77547991 -0.12501143 0.26501513 11314590
0.77476656 -0.11492261 0.26477277 10788245
0.77484208 -0.10571875 0.26556262 11182747
0.77600002 -0.097846657 0.26882619 10260357
0.79234797 -0.17499621 0.27472878 9407881
0.78629637 -0.16534968 0.27498147 9473160
0.77686369 -0.15326233 0.27507603 12104107
0.78133339 -0.15887995 0.27524501 12564658
0.77493322 -0.14488049 0.2748054 12829112
0.77449995 -0.13482574 0.2746512 12566968
0.77526665 -0.12497696 0.27492374 12566965
0.77594483 -0.11509616 0.2751644 12235689
0.77596688 -0.10510859 0.2751728 12300973
0.77570015 -0.095933199 0.27537957 11841450
0.76900005 0.074059062 0.27750275 9801092
0.77000004 0.078436486 0.27733785 11906981
0.77149993 0.084537089 0.27720121 11513509
0.77557147 0.093370557 0.2785334 13027265
0.79340017 -0.1752689 0.28506902 9341830
0.78683335 -0.16530007 0.28478217 9670538
0.79000002 -0.16988929 0.28754666 9210244
0.77612495 -0.15328309 0.28521904 11709604
0.78160006 -0.15893419 0.28540552 12828086
0.7736336 -0.14463712 0.28520998 12565426
0.77355587 -0.1346617 0.2851814 12828856
0.77426678 -0.12481616 0.28544408 13027006
0.77461112 -0.11489826 0.28557003 12040882
0.7748 -0.10495047 0.28563893 12303800
0.77446425 -0.095451698 0.28499827 12698302
0.77300006 -0.088420354 0.2895022 11511469
0.76845461 0.073681012 0.28599972 11053991
0.77030003 0.078512557 0.28434297 12764089
0.77251738 0.085376024 0.28495634 11644581
0.77562511 0.09274397 0.28537881 11645098
0.78222221 0.098325387 0.28502107 12040113
0.78781819 0.1032021 0.28566247 10856095
0.79110003 0.10804305 0.28646576 10987681
0.79259992 0.11529716 0.28663912 10987937
0.78652942 -0.16373079 0.2946758 9933966
0.79000002 -0.16803989 0.2967937 9144708
0.77562499 -0.15409018 0.29502237 13617087
0.78183341 -0.15898164 0.29555491 11775397
0.77290022 -0.14540467 0.29489279 13421762
0.77293354 -0.13455334 0.29490551 13223612
0.77348006 -0.12468848 0.29511386 13881798
0.77396679 -0.11480324 0.29529965 13751240
0.77352005 -0.1047776 0.29512805 13224640
0.77320021 -0.094778888 0.29500645 12829112
0.77300006 -0.088420354 0.29131183 10854558
0.76200002 0.0698172 0.2978695 9343109
0.76696163 0.076144509 0.29517853 12565684
0.77000004 0.079563104 0.29018125 9932423
0.76875007 0.081683666 0.29735827 13947852
0.77176017 0.085529611 0.29467317 13026492
0.77643752 0.092955224 0.29533193 12237493
0.78440011 0.098497711 0.29468936 12040113
0.78844452 0.10259326 0.29487598 10855839
0.79169238 0.10704127 0.29464871 10921632
0.79380769 -0.17428565 0.30494255 9210757
0.78712493 -0.16374594 0.3049261 9473416
0.79000002 -0.16803989 0.305116 9276037
0.77610528 -0.15342176 0.30491376 10787993
0.78220004 -0.15905619 0.30576673 9538952
0.77369243 -0.14485666 0.30411395 11972008
0.77356684 -0.13466379 0.30420321 11839138
0.77404004 -0.12477922 0.30438974 12298659
0.77436668 -0.11486257 0.30451807 11380381
0.77376008 -0.1048103 0.30427995 12105903
0.77340001 -0.095980778 0.30323249 13223869
0.76300001 0.06990882 0.3018328 12435380
0.76584619 0.075276174 0.30516607 10986910
0.76850003 0.081882276 0.30333459 11184033
0.77122229 0.086612567 0.30508512 12105647
0.77535301 0.092824765 0.30490273 11842220
0.78346157 0.098450668 0.30484223 11513256
0.78822231 0.10235935 0.30565923 10723997
0.79193759 0.10686034 0.30516919 10855839
0.78800011 -0.16404207 0.31506631 9539722
0.79000002 -0.1680399 0.31528774 9671565
0.778 -0.15182753 0.31232107 12105906
0.78312498 -0.15626797 0.31575358 10526617
0.77725011 -0.1445162 0.31327283 10592667
0.78099996 -0.14631931 0.31809545 8882563
0.77643484 -0.13496551 0.31339362 10855582
0.78000003 -0.1348709 0.31951374 8881534
0.77728581 -0.1250415 0.31389943 11710632
0.78025001 -0.12578124 0.31915963 9013380
0.77723539 -0.11501969 0.31281787 12302512
0.78120005 -0.11495922 0.31817645 11315622
0.77706259 -0.10491574 0.31296936 11645354
0.78166676 -0.10496581 0.31836656 9276552
0.77625006 -0.097650215 0.31230125 10856355
0.78150004 -0.097624823 0.3182987 8355964
0.76766664 0.07453306 0.31221557 9145219
0.77250004 0.077787668 0.31712097 9803662
0.77323806 0.085159175 0.31424776 10526875
0.77670002 0.092985153 0.31361803 11777198
0.78209096 0.097293213 0.3153773 10658460
0.78785712 0.10327905 0.31535426 10790046
0.79130775 0.10798582 0.31445593 10855839
0.78855562 -0.1617849 0.3232244 10264213
0.79093343 -0.16564783 0.32658514 10461592
0.78680956 -0.15464628 0.32484961 10264214
0.78417391 -0.14477257 0.3248997 10329751
0.78381819 -0.13502949 0.32583612 10329751
0.78412503 -0.12495155 0.32495618 9869201
0.78578264 -0.11491298 0.3247664 9606030
0.78661901 -0.10497206 0.32486108 9737616
0.78700012 -0.098312177 0.32514915 9934995
0.77550006 0.077408813 0.32130131 9869201
0.78550005 0.078406982 0.32912219 10329752
0.77750003 0.08488901 0.32030979 10527131
0.78440005 0.086190052 0.32572779 10527131
0.78679997 0.095574908 0.32488176 10658717
0.79000002 0.09827432 0.32915828 10856096
0.78850007 0.10293364 0.32322738 10856096
0.79133338 0.10667641 0.32590538 10790303
0.79291302 -0.16486961 0.33521575 10592924
0.78866673 -0.15319175 0.3318854 10461338
0.79081249 -0.15617977 0.33632514 10658717
0.78839999 -0.14505956 0.33366045 10527131
0.79074997 -0.14598462 0.33826423 10658717
0.78812504 -0.13535213 0.33368266 10461338
0.79083329 -0.13427629 0.33845404 10658717
0.78853852 -0.12541386 0.33337817 10461338
0.79077774 -0.12439266 0.33812198 10527131
0.78866673 -0.11708573 0.3314752 10395545
0.79138887 -0.11470988 0.33601755 10527131
0.79223806 -0.1051923 0.33486438 10461338
0.79150003 -0.098874807 0.33349144 10329752
0.78833342 0.077767245 0.33215487 10198937
0.79220003 0.077775672 0.33712375 10001558
0.78866673 0.084877022 0.33106473 10395802
0.79257143 0.085606232 0.33619595 10330522
0.78900003 0.090761669 0.3305887 10592924
0.79268426 0.095092021 0.33506671 10593694
0.78866673 0.076568753 0.35875818 10395545
0.7917273 0.07826896 0.35464123 10395545
0.79355562 0.085507706 0.35478091 10593181
0.79297137 0.1050088 0.355322 10790816
0.78653842 0.078014389 0.36354387 10329752
0.78782141 0.084568039 0.36526558 10527387
0.79000002 0.087640241 0.3610605 10658717
0.78900003 0.091685206 0.36752996 10527901
0.79047841 0.095196649 0.36451656 10725023
0.79161292 0.10511259 0.36486053 10790816
0.78772229 0.086723 0.37461907 10396317
0.78900003 0.091685206 0.37491819 10593694
0.79037505 0.096587151 0.37522441 10593694
0.79158062 0.10480915 0.37447134 10593951
0.7872501 0.085679218 0.38578957 10396315
0.78900003 0.091377355 0.38415352 10527903
0.79041177 0.096040569 0.38516784 10527902
0.79188567 0.10513038 0.38476393 10593952
0.79243332 0.11527333 0.3848958 10659744
0.79346663 0.12471101 0.38539723 10791073
0.79302752 0.13485108 0.38518429 10791073
0.79246646 0.14496145 0.38491267 10856610
0.78837508 0.086999454 0.39284661 10396315
0.79049999 0.088158354 0.39876375 10396317
0.78900003 0.090761669 0.39246529 10856096
0.79066682 0.094887666 0.39491382 10593181
0.79183322 0.10499013 0.39480129 10659231
0.7922799 0.11525156 0.39502487 10659489
0.79328573 0.12450548 0.39481911 10725280
0.792862 0.13498266 0.3951872 10791074
0.79207993 0.14489029 0.39492428 10791074
0.78833342 0.087404959 0.40761414 10330523
0.79033333 0.088447608 0.40207085 10462110
0.78900003 0.09223932 0.40742651 10527902
0.79091311 0.09541034 0.40408126 10527646
0.79261279 0.10452742 0.40482724 10527903
0.7865001 0.087712854 0.4114739 10462108
0.78806669 0.095329873 0.41462937 10527901
0.79000002 0.09827432 0.41053206 10659487
0.78900003 0.10230581 0.41786245 10527900
0.79117268 0.10583068 0.41477838 10528157
0.79332262 0.17500976 0.41518983 10921890
0.78846157 0.097232066 0.42293847 10462108
0.79000002 0.097349614 0.42902607 10527903
0.78900003 0.10438377 0.42271098 10462364
0.79015785 0.10559534 0.42658108 10462109
0.78900003 0.11107937 0.42386538 10593694
0.79040754 0.11539041 0.42479113 10593695
0.79264712 0.1244744 0.42472747 10659487
0.79331589 0.13509548 0.42466411 10659487
0.78900003 0.1498677 0.42848301 10791073
0.79248577 0.1449635 0.42480311 10725280
0.78900003 0.15494712 0.42848301 10725280
0.79244447 0.15510765 0.42416322 10725281
0.78900003 0.16095006 0.42848301 10790303
0.7917273 0.16498692 0.42439786 10856097
0.79052806 0.17514193 0.42468461 10921890
0.79162967 0.18537438 0.42476344 10987684
0.79250002 0.097657688 0.43316728 10462108
0.79254168 0.10508418 0.4350467 10462109
0.79235005 0.11526022 0.43494207 10593694
0.79186666 0.12532319 0.4352935 10659487
0.78900003 0.13878532 0.4358713 10791073
0.79075873 0.13468815 0.43428853 10659487
0.78749996 0.14550324 0.43508616 10659487
0.79000002 0.14173532 0.43087548 10725280
0.7854501 0.15471049 0.43481725 10725280
0.78812486 0.16429071 0.43486589 10790816
0.78900009 0.17102496 0.43452796 10856352
0.79020005 0.17691952 0.43468434 10922145
0.79185724 0.13491489 0.44460052 10659487
0.78678948 0.14439934 0.44327605 10659488
0.79000002 0.14081062 0.44752014 10659489
0.78183335 0.15491574 0.44197872 10725281
0.78756249 0.16515422 0.44348907 10725282
0.78900003 0.17018539 0.44325957 10659489
0.79046166 0.17583969 0.44422305 10725282
