# .PCD v0.7 - Point Cloud Data file format
VERSION 0.7
FIELDS x y z rgb
SIZE 4 4 4 4
TYPE F F F U
COUNT 1 1 1 1
WIDTH 1063
HEIGHT 1
VIEWPOINT 0 0 0 1 0 0 0
POINTS 1063
DATA ascii
0.77750003 -0.10076425 0.079139292 12106160
0.78687501 -0.10405473 0.078021035 12368817
0.77545458 -0.094641559 0.079013929 12105906
0.78623533 -0.094805256 0.075315952 12171953
0.79209101 -0.09481962 0.071437649 12172209
0.77649999 -0.087911211 0.079948157 12171699
0.78615385 -0.085955672 0.077824779 12171698
0.79278958 -0.084626414 0.07321921 12040624
0.78900003 -0.076397553 0.079388089 11974319
0.78638464 -0.15311238 0.086200565 10921119
0.76900005 -0.1419701 0.089977421 13815754
0.77546155 -0.14456274 0.087379329 14013390
0.78623527 -0.14504239 0.082893424 12039857
0.76633334 -0.13520229 0.089665405 15197407
0.77394128 -0.13499583 0.086821511 14737626
0.78538471 -0.13551889 0.083121464 14013903
0.79000002 -0.13290121 0.081338115 11645610
0.7650001 -0.12391746 0.088710077 15066591
0.77341676 -0.12543112 0.08641731 14474455
0.78438473 -0.12489153 0.08315555 13882315
0.79000002 -0.12612006 0.081338115 11842475
0.7632727 -0.11459757 0.088492192 14935002
0.77369243 -0.11455273 0.085507669 14803417
0.78490919 -0.11500236 0.082646765 13421248
0.79000002 -0.11810597 0.081338115 12039595
0.76429427 -0.10468333 0.087315746 15066334
0.7740714 -0.10472302 0.083058976 13947852
0.78266668 -0.10784766 0.081192523 12697527
0.76478952 -0.095489927 0.087405957 14935005
0.77200007 -0.094450511 0.082736045 12895682
0.76516676 -0.084836431 0.087732404 14869467
0.77382362 -0.085207373 0.083184801 13027266
0.78266668 -0.082194783 0.080583073 11908014
0.76400012 -0.074869707 0.088495076 14869212
0.7742632 -0.075207241 0.084959894 14145746
0.78460008 -0.075049847 0.08169771 12040113
0.76475 -0.065097116 0.088581771 14803674
0.77535719 -0.065353528 0.085401289 14277329
0.78585714 -0.064530775 0.082221203 11908782
0.76500005 -0.056038637 0.088995047 14672086
0.7741251 -0.054569162 0.086721435 14606038
0.78610003 -0.054950081 0.083694533 12435126
0.76500005 -0.045419607 0.089509398 14737882
0.77383333 -0.045493226 0.087368131 14606040
0.78625005 -0.045150924 0.084322117 12434870
0.7663334 -0.03473321 0.089665405 14474708
0.77425003 -0.035091165 0.087870844 14474965
0.78611112 -0.034706388 0.085433513 11909040
0.76900005 -0.028554793 0.089977421 14343379
0.77460009 -0.025134623 0.088819303 14211791
0.78714293 -0.024228066 0.086833611 11514023
0.7753334 -0.015176165 0.08890339 13883342
0.78530008 -0.014635673 0.087285206 12172723
0.7748 -0.0051914258 0.088842236 13948878
0.78477788 -0.0056649302 0.087124817 12172467
0.7750001 0.0049183583 0.088604644 13488070
0.78635705 0.0053785359 0.085954942 10724508
0.77580005 0.014781525 0.0889569 13619656
0.78509098 0.014622835 0.087010406 10329751
0.77649999 0.022975199 0.089037165 13553604
0.78620005 0.02436645 0.087570541 10000782
0.77900004 0.034901738 0.089323826 13224639
0.78649998 0.035853453 0.088034749 10066577
0.7931 0.034605253 0.086110383 10395799
0.77700001 0.046635441 0.08909449 13224387
0.78669995 0.04537233 0.087442003 10395288
0.77840006 0.054921001 0.089255027 13093059
0.78718185 0.055037145 0.087412126 10527132
0.78354549 0.06495443 0.089007378 11711150
0.78463644 0.075062245 0.088964552 11579820
0.78700006 0.083534762 0.088764891 10527901
0.71900004 -0.15181544 0.098714799 14408921
0.77525002 -0.15129057 0.095239751 11184035
0.78586668 -0.15649423 0.094157234 10525849
0.71900004 -0.1495712 0.098434269 14474713
0.72228575 -0.14590375 0.099245615 14343127
0.73124999 -0.14270334 0.099255405 13685197
0.74250007 -0.14316556 0.099044211 13750733
0.75675005 -0.14281155 0.096958309 14868700
0.76408339 -0.14449061 0.095061548 15197406
0.77225006 -0.14686528 0.092389695 15657956
0.73444444 -0.13444294 0.098922446 13685197
0.74554557 -0.13525897 0.097067289 14935006
0.75581831 -0.13471231 0.094705813 15789544
0.7614001 -0.13522083 0.091760911 15394529
0.73391676 -0.1251827 0.098756067 14079953
0.74499995 -0.12485521 0.09668041 15855336
0.75599998 -0.12434816 0.093878917 15920873
0.76037508 -0.12613824 0.091193087 15395042
0.73391676 -0.11487109 0.098755479 13948110
0.74500012 -0.11525176 0.096663162 15066845
0.75585014 -0.11485529 0.093120486 15132638
0.76000005 -0.11895847 0.090703547 14408915
0.73450005 -0.10593983 0.099264622 14079696
0.74520004 -0.10501125 0.097306505 15526884
0.75733334 -0.10562288 0.093420811 15460834
0.76000005 -0.10294589 0.090703547 15395041
0.73550004 -0.098765746 0.099832281 14342098
0.74500012 -0.094807714 0.098503709 15789544
0.7566191 -0.095398881 0.095101692 15921128
0.76055562 -0.094119042 0.091362901 15263200
0.74590915 -0.084846511 0.098544888 15724005
0.75690478 -0.085060626 0.094884299 15658213
0.76000005 -0.085154161 0.090703547 15394786
0.73600006 -0.070404157 0.099900149 14935259
0.74450004 -0.075050905 0.098437794 15856104
0.75630438 -0.075193822 0.09456566 15263968
0.76066679 -0.075433254 0.090783097 14935005
0.73600006 -0.068681166 0.099900149 14935259
0.74491674 -0.06515193 0.09849298 15658725
0.75620842 -0.064809695 0.094447494 15330017
0.76020002 -0.065601446 0.090727411 14935259
0.74599999 -0.055466861 0.098811358 15593189
0.7557084 -0.054818884 0.095123686 15330017
0.76000005 -0.054908209 0.090703547 15066843
0.74800009 -0.047035348 0.099777877 16053485
0.75650001 -0.044913974 0.095592856 15461347
0.76000005 -0.045122746 0.090703547 15066845
0.75647998 -0.035173997 0.095591746 15198175
0.7601667 -0.03445429 0.090723433 15066845
0.75636667 -0.025429176 0.095577233 14869210
0.76220006 -0.024731303 0.090966105 14343379
0.77050006 -0.024099935 0.090152927 14343379
0.75576001 -0.014973123 0.096208952 14474452
0.76299995 -0.014530208 0.0918703 14343125
0.77200001 -0.015111695 0.090328433 14080207
0.74900001 -0.0023875185 0.099911265 14408148
0.75523823 -0.0049746078 0.096107736 14408918
0.76255554 -0.0053071887 0.091799289 13948367
0.7712 -0.0051673092 0.090234831 14080207
0.74900001 0.00024261526 0.099911265 14408661
0.7561667 0.0046718996 0.096437059 14408918
0.76275009 0.0047131465 0.091921717 14014160
0.7713334 0.0047656731 0.090250432 13882828
0.75725001 0.015313542 0.096576095 14211282
0.76436371 0.015049422 0.092196696 13882574
0.77300006 0.014727245 0.090445444 14014414
0.75730002 0.025065478 0.096582673 13948110
0.76522225 0.024127817 0.092318088 13553608
0.77250016 0.025566582 0.090837598 13290433
0.75750011 0.034825131 0.09660887 14013904
0.76518178 0.035587441 0.092294998 13685195
0.77333349 0.034046996 0.090784878 13619399
0.75721747 0.045254704 0.096687838 14014162
0.764889 0.04461395 0.092277795 13750988
0.77300006 0.04522904 0.090702958 13619402
0.75673336 0.055162594 0.097397603 14211541
0.76258343 0.054699291 0.093687259 13685197
0.77227283 0.054981235 0.091344431 13619404
0.75666666 0.064900123 0.097388864 14079698
0.76345462 0.065075189 0.093874834 13816526
0.77390915 0.06497898 0.091373943 13487561
0.75712502 0.075021155 0.097559199 14145493
0.76400012 0.074877001 0.093779251 13948113
0.7735455 0.074989915 0.091495469 13684940
0.75809991 0.0831258 0.097929887 14277079
0.76408333 0.085210465 0.09595602 14343129
0.77427274 0.084945209 0.092732996 13750737
0.78366667 0.087394334 0.091077425 13882577
0.77560002 0.092856288 0.097649112 14145234
0.78744447 0.095089182 0.095206164 11776942
0.79255557 0.096534468 0.092319451 11053730
0.71696013 -0.15337664 0.10529903 14211028
0.778 -0.15455952 0.10104652 9868174
0.71600002 -0.14521669 0.10559605 14935008
0.72250003 -0.14099371 0.10060189 14672092
0.71460003 -0.13512617 0.1061588 15132386
0.72416669 -0.13538429 0.10083279 14474713
0.71456754 -0.12509044 0.10620116 15132385
0.72400016 -0.12518434 0.10081017 14803419
0.71488881 -0.11496292 0.10622692 15329764
0.72425008 -0.11505312 0.1008447 14540247
0.71490914 -0.10500066 0.10681598 15395556
0.72361553 -0.10505397 0.10186319 14803163
0.73075002 -0.1032597 0.10089824 14605527
0.71729165 -0.094640918 0.10659328 15132384
0.72480005 -0.095629439 0.10278807 14935005
0.73336369 -0.093872659 0.10109866 14342868
0.71661121 -0.084487885 0.10733207 15132384
0.72258335 -0.085190661 0.10399657 15066591
0.73433334 -0.084858522 0.10138676 14342868
0.71711117 -0.074471556 0.1074067 14803419
0.72233343 -0.075014539 0.10396087 14540247
0.73343742 -0.074989282 0.10126361 14342611
0.71794438 -0.064474866 0.10753203 15066592
0.72308332 -0.064935036 0.10406873 14474711
0.73253834 -0.064923145 0.10166868 14276561
0.71800005 -0.054642268 0.10763939 15198435
0.72391677 -0.054843813 0.10446998 14408918
0.73328578 -0.05542988 0.10210282 14474195
0.74199998 -0.053603064 0.10071454 16053740
0.71818173 -0.044702996 0.10848545 14869469
0.72400004 -0.044911377 0.10627996 14540504
0.73385721 -0.044797458 0.10414468 14671832
0.74420005 -0.045052256 0.10188238 16053740
0.75033337 -0.041913226 0.10008913 15395556
0.71766663 -0.034209762 0.10917219 14540506
0.72308344 -0.034465712 0.10745364 14672092
0.73413342 -0.035282623 0.1050258 14276819
0.74478579 -0.035006292 0.10233442 15724007
0.75100005 -0.034917891 0.10017805 15592677
0.71900004 -0.025856577 0.10937501 14540506
0.72433335 -0.024826491 0.10829894 14211541
0.73330772 -0.024457686 0.10652913 13816267
0.74483341 -0.025042901 0.10341868 15000539
0.75237501 -0.024415404 0.1008007 15264224
0.71900004 -0.019965405 0.10937501 14803676
0.72279996 -0.014995364 0.10910375 14013903
0.73281819 -0.013483546 0.10694909 13684938
0.74556255 -0.014590166 0.10381153 15000283
0.75160009 -0.01541772 0.1009611 14803673
0.71900004 -0.0090246582 0.10937501 14277075
0.7233637 -0.0046920418 0.10880316 13948112
0.73328561 -0.005157853 0.10627069 13882061
0.7450667 -0.0049933312 0.10287113 14408404
0.75000006 -0.0067801154 0.10004466 14407890
0.71900004 0.0019160897 0.10937501 13421768
0.72492868 0.0047151926 0.10833149 13750732
0.73338455 0.0048590871 0.10574957 14474454
0.74427789 0.0045982408 0.10276142 14935005
0.75040001 0.0055145728 0.10009801 14671833
0.72412503 0.012951845 0.10930397 13553353
0.73333347 0.014885915 0.10731552 13816523
0.74517655 0.015223479 0.10421917 14408659
0.75236362 0.015616957 0.10115953 14342868
0.73411769 0.024904689 0.1083334 13947853
0.74600005 0.025563264 0.10503641 14474197
0.7531001 0.024927637 0.10133909 14277077
0.73525 0.033804558 0.10926249 13947596
0.74566674 0.035619311 0.10656054 14342611
0.75283331 0.03461273 0.10218225 14277076
0.74555004 0.044660792 0.10782381 14606041
0.75218195 0.045224711 0.10273322 14474454
0.74565208 0.055417798 0.10742728 14737883
0.75147069 0.054882091 0.10230779 14474454
0.74599993 0.064859249 0.10736392 14342613
0.75188231 0.064748503 0.10194987 14277075
0.74736369 0.072772987 0.10843902 14473942
0.75253582 0.075557902 0.1037125 14408406
0.75489664 0.084953606 0.10526217 14474717
0.76000005 0.089204863 0.10137859 14013909
0.76349998 0.091403045 0.10451462 14474969
0.77425003 0.095862076 0.10554495 12303543
0.78433341 0.098795317 0.10278522 10856096
0.78900003 0.10184405 0.10709404 11382694
0.70780957 -0.15347673 0.11650827 14408148
0.71149999 -0.1535631 0.11128601 14473686
0.70756251 -0.14450067 0.11560412 15329767
0.7105 -0.14697248 0.11140856 15263972
0.7071389 -0.1346886 0.11501668 15198180
0.7072221 -0.12477002 0.11503029 15132386
0.7076667 -0.1149087 0.11510323 15000802
0.70811117 -0.1058009 0.1154527 15264230
0.71020001 -0.10318255 0.11169396 15264229
0.70888895 -0.096390955 0.11871587 14738142
0.71170592 -0.095079124 0.11365019 15198435
0.70869231 -0.084128127 0.11814386 14737884
0.71164292 -0.085924044 0.11336812 15000800
0.70827794 -0.075213395 0.11769182 14803419
0.71156001 -0.075327188 0.11230398 14935007
0.70833337 -0.065270282 0.11770093 14869214
0.71225023 -0.065212749 0.1125117 14935007
0.7088334 -0.058401972 0.11833767 14737628
0.71205562 -0.054822814 0.11433114 14803420
0.71311903 -0.045437861 0.11515006 14869213
0.71309763 -0.035559472 0.11526868 14606041
0.71333343 -0.02565179 0.11518342 14145748
0.71390474 -0.015646538 0.11527418 14079955
0.71319044 -0.0056132236 0.1151568 14145748
0.70900005 0.00022965853 0.11947228 14474713
0.71360976 0.0045095054 0.11510202 14145748
0.71422493 0.014276934 0.11557464 13948112
0.72224998 0.017987646 0.11071217 13684940
0.7151143 0.024387131 0.11642712 13619148
0.72376919 0.025129547 0.11113938 13421768
0.71621746 0.033986423 0.11718395 14014163
0.72399998 0.034922626 0.11306813 13750732
0.73237503 0.037317201 0.11119249 13552839
0.71727777 0.04473041 0.11750636 13948370
0.72400016 0.04514968 0.11436954 13948369
0.73381245 0.045223136 0.11173012 13750733
0.71776474 0.054596167 0.11768568 14145494
0.72415388 0.05565691 0.11458895 13882322
0.73364699 0.054589611 0.11149792 13684943
0.7187143 0.063448317 0.11894578 14211288
0.72366673 0.065455951 0.11657213 13816273
0.73389471 0.064710833 0.11235876 13816527
0.74200004 0.068854421 0.11113676 14540506
0.72477788 0.073385336 0.11892143 13750737
0.73366672 0.074551076 0.11606716 13882320
0.745 0.075937353 0.11228013 14146518
0.73359996 0.083185986 0.11880468 14277081
0.74590898 0.083819263 0.11457106 14409437
0.75100005 0.086742006 0.11142898 14475488
0.75800002 0.090744607 0.11352996 13816530
0.76400006 0.093251437 0.11443192 11053224
0.77400005 0.096283957 0.11411777 11053475
0.78900003 0.10184405 0.11263523 11382439
0.70639384 -0.1540149 0.12474612 13552841
0.70602763 -0.14439355 0.12475616 15066594
0.70599985 -0.13447115 0.12475143 15263718
0.70599985 -0.1245546 0.12475141 15132132
0.70636111 -0.11469535 0.12481456 14868960
0.70708346 -0.10488177 0.12494238 14869216
0.70791686 -0.09506195 0.12508947 14935008
0.70793557 -0.084934659 0.12538682 14803421
0.70691669 -0.075070366 0.12491196 14540249
0.70680583 -0.065128356 0.12489189 14737627
0.70806068 -0.055624783 0.12544078 14869214
0.71000004 -0.051849868 0.12185695 14408663
0.7087369 -0.045615073 0.12754855 14342873
0.71035314 -0.045256574 0.12292757 14671579
0.70900005 -0.039605107 0.12777118 14408667
0.71021199 -0.035139117 0.12526801 14145748
0.70900005 -0.021347506 0.12943096 13684940
0.71040004 -0.025666563 0.12540944 13553354
0.70899993 -0.015001279 0.12777118 13487818
0.71021062 -0.016046429 0.12326342 13422025
0.70881236 -0.0051639611 0.12566252 13816783
0.71000004 -0.0089116935 0.12213397 14014162
0.70811117 0.004372777 0.12512285 13750990
0.70800012 0.014092063 0.1254795 13619404
0.71000004 0.016851211 0.12130291 13882576
0.70824003 0.024105079 0.12663864 13355976
0.71036363 0.024721831 0.12212053 13421770
0.70850003 0.033929512 0.12707688 13882577
0.71138906 0.03511199 0.12209305 14013909
0.70875007 0.043092642 0.12827879 13750992
0.71200001 0.044846375 0.12341753 14013908
0.71259516 0.054449353 0.12507312 14013909
0.71438098 0.064620882 0.1253839 13948116
0.71671867 0.074270874 0.12601005 14146008
0.7222501 0.077588506 0.12170179 14080472
0.71872216 0.084173784 0.12746614 14146007
0.72376925 0.083905131 0.12260425 13159113
0.73000002 0.087392561 0.121302 11250854
0.7069667 -0.15374327 0.13501786 13092550
0.70599985 -0.14438772 0.13466795 14605786
0.70563883 -0.13440219 0.13459772 14934753
0.70599985 -0.1245546 0.13466796 14868961
0.70599985 -0.11463805 0.13466795 14934754
0.70652777 -0.10479864 0.1347675 14803167
0.70738894 -0.09499047 0.13493186 14737628
0.70741677 -0.085059993 0.13493761 14803422
0.7064445 -0.075020716 0.13475296 14408410
0.70599985 -0.065055281 0.13466795 14342874
0.70708346 -0.055222381 0.13487411 14803424
0.70816678 -0.045359731 0.13508099 14671582
0.70900005 -0.039605107 0.13441031 14342872
0.71048379 -0.034857951 0.13565809 14013906
0.70900005 -0.021347506 0.13507423 12829631
0.71058077 -0.026225973 0.13556887 13356232
0.70855552 -0.015530024 0.13515522 12895681
0.70800012 -0.0055717085 0.1350494 13224389
0.70725018 0.0043674265 0.13490608 13355975
0.7070002 0.014297362 0.1348587 13158339
0.70713907 0.024232751 0.13488436 12763325
0.70710021 0.034743086 0.13504276 13355977
0.70783353 0.045246549 0.13501634 13684686
0.70826322 0.055468578 0.13492382 13684941
0.70823348 0.065443769 0.13586666 13488079
0.71000004 0.065883838 0.13127564 14013909
0.70900005 0.071600273 0.13772987 14540510
0.71203029 0.075345181 0.13467689 14277593
0.71744436 0.085054673 0.13516915 14803938
0.71899998 0.091873355 0.13668013 14738147
0.72100002 0.093066618 0.13330948 13882325
0.7070002 -0.15440552 0.1446705 13224134
0.70574981 -0.14433783 0.14453307 14408410
0.70499998 -0.13428068 0.14437968 14802910
0.70536107 -0.12444147 0.1444521 14868446
0.7059443 -0.11462878 0.14457284 15000547
0.70599985 -0.10472148 0.14458451 14868961
0.70627785 -0.094841786 0.14464013 14605789
0.70650017 -0.084948115 0.14468528 14803423
0.706361 -0.075010732 0.14465724 14474458
0.70641649 -0.06509351 0.14467047 14474203
0.70691681 -0.055210013 0.14477216 14803425
0.70808339 -0.045353185 0.14501099 14803168
0.71058345 -0.035533234 0.14552274 14145495
0.70900005 -0.021347506 0.14104944 12829888
0.71062881 -0.025675848 0.14565077 13290185
0.70884603 -0.015024912 0.14395522 12566461
0.71000004 -0.016889881 0.14856173 12632254
0.70841175 -0.0053800917 0.14483607 12961219
0.71000004 -0.0089116935 0.14955899 12698302
0.70791686 0.0043719336 0.14497735 13027011
0.70750022 0.014307277 0.14489238 12763838
0.7070002 0.024227964 0.14478931 12237751
0.70700026 0.034986112 0.14478934 12764096
0.70702797 0.045746222 0.14479485 13093316
0.70713902 0.055685222 0.14481707 13290439
0.70783353 0.065684207 0.14496046 13487821
0.70900005 0.071600273 0.14353912 14277081
0.71084625 0.075629056 0.14583305 13882579
0.71533322 0.084805489 0.14482009 14541023
0.718077 0.092302509 0.14427568 13750992
0.70611745 -0.15408719 0.15472065 13487308
0.70527768 -0.14424127 0.15434252 14605274
0.70497221 -0.1342753 0.15427597 14802907
0.70497215 -0.12437325 0.15427604 14802908
0.7047317 -0.11433207 0.1549262 14671581
0.70438111 -0.1044819 0.15496877 14934753
0.70500004 -0.094859526 0.15472436 14737629
0.70566642 -0.084847853 0.15442678 14606043
0.70597208 -0.074968725 0.15449484 14540250
0.70599985 -0.065055281 0.15450104 14474714
0.70636111 -0.05516566 0.15457933 14737629
0.70763898 -0.045325167 0.15485927 15066593
0.70888877 -0.037570406 0.15614694 14802909
0.71005559 -0.033384282 0.15437251 14473946
0.71019429 -0.025539359 0.15541953 13750222
0.71041667 -0.015569152 0.15546924 12961220
0.70900005 -0.0029515901 0.15335949 13092804
0.71016669 -0.0069054845 0.1563139 12961219
0.70844442 0.0043744454 0.15503655 13026754
0.70808339 0.014319297 0.15495743 12566718
0.7078889 0.024258807 0.15491644 12106168
0.70788902 0.034522999 0.15487053 11974581
0.70767522 0.045207396 0.15503493 12237497
0.70772237 0.055731919 0.15487926 12698049
0.70835298 0.065488547 0.15482104 13224648
0.71129996 0.074666582 0.15560555 13685198
0.71499991 0.084763482 0.15479913 14079955
0.71657145 0.091056928 0.1547785 14211284
0.70600003 -0.16008891 0.16359124 12631229
0.706222 -0.15435353 0.16447037 13750222
0.70555544 -0.14429766 0.16431545 14474456
0.70499998 -0.1342807 0.16500993 14671835
0.70499998 -0.12437817 0.16500995 14671578
0.70481086 -0.1145572 0.16563506 14868701
0.70402801 -0.10442963 0.1656072 14868701
0.70441043 -0.094399743 0.16525173 14934494
0.70480955 -0.084745251 0.16496427 14606044
0.7054047 -0.074907526 0.16510335 14737630
0.70589983 -0.065211102 0.16497202 14474459
0.70599985 -0.055138726 0.16441767 14737375
0.70691675 -0.045278903 0.16463019 15000802
0.70828569 -0.035536714 0.1650676 14737373
0.71000004 -0.031350352 0.16119385 14407893
0.70900005 -0.029646413 0.16760595 14342617
0.71048492 -0.025170755 0.16523546 14013395
0.71100026 -0.015582103 0.16558205 13289929
0.71033353 -0.0055915667 0.16542692 12895428
0.70899987 0.0043354346 0.16280133 13027014
0.7101177 0.0044354531 0.16796821 12895428
0.70900005 0.013507912 0.16138178 12698050
0.71085709 0.014614395 0.16662048 13026757
0.70900005 0.021806821 0.16096683 11974326
0.71139401 0.024605468 0.16605476 12434877
0.71108335 0.034355547 0.16560455 12566462
0.70900005 0.045597028 0.16124345 12039861
0.7105335 0.044031691 0.16625071 12303291
0.70870829 0.05601671 0.16332105 12434363
0.71000004 0.0528985 0.16753069 12105655
0.70880002 0.063947663 0.16208327 12698050
0.71031821 0.06508299 0.16708669 12895428
0.71339393 0.074631125 0.16515447 13224648
0.71742851 0.084929816 0.16528229 13553611
0.71800005 0.09099853 0.16132927 13027784
0.70857149 -0.1609091 0.17556341 13092289
0.7104286 -0.16346957 0.17649773 12236724
0.70711112 -0.15455034 0.1746088 14013906
0.70592082 -0.14419799 0.1746185 14474456
0.70502776 -0.13428634 0.17574428 14606042
0.70499998 -0.12437817 0.17573762 14606043
0.70497215 -0.11447135 0.17573059 14934497
0.70388901 -0.1044101 0.17545909 14934753
0.70330548 -0.0944423 0.1753135 14737630
0.70369464 -0.084610485 0.17541108 14671836
0.70430577 -0.074791342 0.1755632 14868961
0.70478958 -0.064769208 0.17537953 14802912
0.70541453 -0.055192873 0.17489296 14605789
0.70624989 -0.045236927 0.17439559 15000547
0.70716685 -0.035363123 0.17462124 14737375
0.70847833 -0.027027695 0.17570274 14277080
0.71023083 -0.022791155 0.17403522 13948116
0.7105 -0.015571336 0.17544384 13619151
0.71055579 -0.0055911038 0.17545828 13224393
0.71184856 0.004170585 0.17540129 13158600
0.71243328 0.01440743 0.17509025 12961221
0.71283329 0.024427814 0.17518745 12566463
0.71246666 0.034421973 0.17509818 12829635
0.71150017 0.044564668 0.17544837 12763585
0.71038902 0.054277852 0.17541891 12698049
0.71130317 0.064115085 0.17526661 12829892
0.71582347 0.074808218 0.17508608 13158856
0.71884996 0.083702207 0.17447861 13356233
0.72071427 0.087969117 0.17664173 13224647
0.72600007 0.091163822 0.1767211 11842736
0.73100001 0.092646129 0.17794053 10921891
0.708 -0.16137132 0.18477093 13158084
0.71000004 -0.16432017 0.18197039 12499896
0.70683342 -0.15448904 0.18446714 14013907
0.70562148 -0.14428954 0.18484326 14539993
0.7043668 -0.13498569 0.18547291 14539479
0.70419073 -0.12505873 0.18542622 14539479
0.70394456 -0.11430597 0.18536012 14934495
0.70261085 -0.10422049 0.18501036 14934496
0.70213866 -0.094286151 0.1848855 14737630
0.70238864 -0.084454067 0.18495052 14671581
0.70211107 -0.074558996 0.18487607 14868961
0.7027778 -0.064757064 0.18505171 15000802
0.7042433 -0.054888248 0.18528238 14737629
0.70553643 -0.045292106 0.18483286 14803679
0.70616651 -0.03531364 0.18429345 14737631
0.7076112 -0.025444407 0.18466991 14211287
0.70855159 -0.015499622 0.18585899 13882322
0.71000004 -0.015678907 0.18137679 13948116
0.70886189 -0.0063505024 0.18559812 13158600
0.71000004 -0.0023819248 0.18280147 13421772
0.71174365 0.0045912629 0.18529923 13092807
0.71299988 0.014306167 0.18456624 12829890
0.71322215 0.024441704 0.18446702 12566717
0.71347225 0.034471884 0.1845327 12764096
0.71318746 0.04426476 0.18498029 12764097
0.71230012 0.054424509 0.18506342 12895684
0.71490908 0.064899005 0.18528618 13093578
0.71824998 0.074818835 0.18444617 13356750
0.72000003 0.078891434 0.18818533 12633026
0.71900004 0.081587173 0.18063015 12962244
0.72134614 0.084865689 0.18514004 13290953
0.72650003 0.090375051 0.18109643 11185063
0.70681816 -0.16102673 0.19401526 12961220
0.70626819 -0.15426312 0.19494587 13882321
0.70564085 -0.14450648 0.19527575 14474200
0.7043668 -0.13498576 0.19536734 14408409
0.70355564 -0.12577213 0.19514139 14342360
0.70244426 -0.11570598 0.19483216 14605785
0.70178038 -0.10507756 0.19462831 14802908
0.69866675 -0.091912262 0.19896513 14606299
0.70081097 -0.095283292 0.19488771 14671322
0.69817644 -0.084957018 0.19773565 14605787
0.70026928 -0.085271373 0.19284251 14671322
0.69800007 -0.074795529 0.19614701 14671838
0.69999999 -0.074334681 0.19087844 14737628
0.69847059 -0.065658815 0.19743459 14934752
0.70032007 -0.063645773 0.19309603 15000545
0.70114636 -0.054858353 0.19517085 14934754
0.70351356 -0.044948075 0.19497149 14737632
0.70564264 -0.035286792 0.19489358 14540251
0.70656097 -0.025508393 0.19502598 14342871
0.70808339 -0.015517105 0.19474036 14145748
0.7089231 -0.0075574922 0.19273733 14013905
0.71030444 -0.0044686473 0.19661711 13948112
0.71122241 0.004394399 0.19560434 13553355
0.71291882 0.014351695 0.19482903 13158596
0.71477795 0.024496116 0.19490883 12961217
0.71558321 0.034573548 0.19512944 12961221
0.71544433 0.044615105 0.19509138 12829635
0.71480566 0.054617226 0.19491741 12830146
0.71680546 0.064840384 0.19546098 12961730
0.71899992 0.072610147 0.19383162 13487819
0.72084218 0.077594034 0.19536358 13553614
0.72400004 0.08401309 0.19512562 13356234
0.73000002 0.089101501 0.19307761 11053475
0.76000005 0.099879913 0.19211645 11316647
0.76600003 0.10156855 0.192726 11185061
0.77600002 0.10525397 0.19398105 11053475
0.78140008 0.10781354 0.19570097 11119268
0.78579164 0.11416075 0.1948057 11053730
0.79000002 0.11861777 0.19969998 10856350
0.70735294 -0.16205217 0.20491454 12303033
0.70633334 -0.15430351 0.20515731 13882578
0.70574981 -0.14433777 0.20566419 14079698
0.7046001 -0.13503057 0.20532899 14079698
0.70308328 -0.12568873 0.20488626 13882064
0.69900006 -0.11104686 0.20860583 13619147
0.70113885 -0.11553787 0.20436421 14013905
0.6985417 -0.10470655 0.20669694 14277077
0.70047069 -0.10655423 0.20195405 14605785
0.69748503 -0.095072515 0.20525751 14540506
0.70000005 -0.098096013 0.20153005 14342870
0.69705588 -0.085444875 0.20476165 14540249
0.69707721 -0.075216211 0.20457961 14540250
0.6976155 -0.064720303 0.20511322 14803421
0.69855011 -0.055946339 0.2066718 15000800
0.7000587 -0.05279468 0.20357113 15000802
0.70146161 -0.045117706 0.20485327 14935010
0.70413899 -0.035210382 0.20519263 14606300
0.70575672 -0.025267355 0.20550847 14277080
0.70752639 -0.01567773 0.20482856 14014421
0.70900005 -0.0079309354 0.20661084 14079956
0.7102918 -0.0044115768 0.20449191 13948113
0.71088904 0.004392405 0.20549588 14013905
0.71253836 0.0144753 0.2052668 13421768
0.7141667 0.024475304 0.20477088 13290440
0.71538889 0.034564838 0.20512189 13158855
0.71555549 0.044622228 0.20516908 13290185
0.71452785 0.054594569 0.2048742 13092807
0.71605545 0.064773671 0.20531289 13355978
0.71872216 0.072582752 0.20439604 13684942
0.72100002 0.077877313 0.20504414 13290441
0.72427773 0.083413333 0.20436992 13685197
0.7863847 0.10660664 0.20516139 11053730
0.79000002 0.10937075 0.20894699 11119522
0.78800011 0.11252145 0.20235713 11119267
0.79162508 0.11573634 0.20625082 10987936
0.70850009 -0.16210724 0.21206367 12631482
0.71072727 -0.16327883 0.21717419 12631738
0.70764524 -0.15453224 0.21441978 13553099
0.71033335 -0.15885456 0.21891709 13355718
0.70619351 -0.14429463 0.2150463 13750733
0.70561749 -0.13464221 0.21573173 13684684
0.70375001 -0.12529261 0.21476197 13355207
0.69900006 -0.11104686 0.21106039 13948112
0.70145446 -0.11586798 0.21458967 13421256
0.69852942 -0.10423946 0.21274649 14079699
0.70031577 -0.10642441 0.21758476 13816270
0.69761783 -0.095122121 0.21448664 14079700
0.70000005 -0.098915368 0.21955588 14277077
0.69590217 -0.085205495 0.21489185 14342874
0.69595212 -0.075532883 0.21502604 14408664
0.69627655 -0.065182522 0.21495208 14540249
0.69652277 -0.05465652 0.21538502 14672092
0.69770837 -0.046255302 0.21624804 14935007
0.7005294 -0.042603943 0.21316077 15000800
0.69900006 -0.0390465 0.21924223 14803678
0.70239997 -0.03512238 0.21512477 14737885
0.70522219 -0.025358634 0.21541421 14342870
0.70671803 -0.015422406 0.21517047 14211541
0.70819449 -0.0055723609 0.21466409 14079699
0.7087391 0.0028270863 0.21558726 13882577
0.71015388 0.0071360348 0.21391627 13750734
0.71148652 0.014503018 0.21550424 13422025
0.71315783 0.024265004 0.21480756 13224390
0.7149446 0.034542717 0.21503815 13355975
0.71438909 0.044548437 0.21487047 13355976
0.71330553 0.054500405 0.21454556 13092805
0.71511108 0.064689368 0.2150875 13552844
0.71866667 0.072577268 0.21447502 13816529
0.72057146 0.077589504 0.21456075 13750736
0.72322226 0.08244276 0.21498778 14013908
0.78850007 0.10491834 0.21408841 11119266
0.79055554 0.10862544 0.21505806 11053729
0.71423811 -0.16426963 0.22577611 12236724
0.70833337 -0.1525116 0.22392069 13750220
0.71100003 -0.1574513 0.22566901 13552841
0.70768583 -0.14485191 0.22457109 14013648
0.70660007 -0.13458695 0.22493477 13816527
0.70557123 -0.12436263 0.225316 13750990
0.70364702 -0.11450063 0.22501378 13355976
0.70199996 -0.10514092 0.22498901 13421512
0.69805557 -0.093103766 0.22393925 13684686
0.7003333 -0.097961172 0.22612803 13553100
0.69566661 -0.085277282 0.22525355 13750477
0.69499987 -0.075430721 0.22530916 14277077
0.69483316 -0.065653652 0.22525437 14540249
0.6944524 -0.055049222 0.22513001 14540249
0.69547492 -0.044383232 0.22488983 14671835
0.69694299 -0.035340261 0.22572552 14606299
0.70042861 -0.032566436 0.22156344 14737885
0.69814289 -0.027557394 0.22784519 14408920
0.70228571 -0.024759738 0.22440106 14474713
0.7046411 -0.015503095 0.2252779 14343127
0.70626169 -0.0055568316 0.22482404 14211541
0.70770276 0.0040820469 0.22488011 13948369
0.71000004 0.0085405959 0.22103028 13816526
0.70861542 0.012607938 0.22723421 13619404
0.71052176 0.015346207 0.22393994 13619148
0.71229994 0.024578717 0.22532871 13421770
0.71391654 0.034494128 0.22475423 13553356
0.71488899 0.044581756 0.22506261 13619148
0.71438909 0.05458276 0.2249061 13422025
0.71539998 0.064595141 0.22510459 13619407
0.71872222 0.072676271 0.22421315 14013910
0.72061116 0.077741146 0.22555274 13948115
0.72600007 0.082381882 0.22431402 14013654
0.79253334 0.10737266 0.22421612 10988195
0.71573907 -0.16324694 0.23462 12434617
0.70900005 -0.15081048 0.23067766 13882319
0.71214831 -0.1548804 0.23534578 13619147
0.70849997 -0.14381568 0.23389626 14079698
0.71010005 -0.14805242 0.2371866 13882319
0.70769459 -0.13479494 0.23439561 14013905
0.70649993 -0.12464457 0.23537768 13882319
0.70475006 -0.11443816 0.23507033 13684940
0.70230293 -0.10484774 0.23477475 13684940
0.69800013 -0.093664527 0.23526867 13684940
0.70015377 -0.098496109 0.23410314 13553354
0.69624329 -0.085457377 0.23533893 13816526
0.69502759 -0.075433895 0.23508075 13816271
0.69430566 -0.065604538 0.23483616 14211029
0.69400018 -0.055013862 0.23473297 14474200
0.69408345 -0.044458441 0.23476076 14474715
0.69486487 -0.034637425 0.23486967 14408921
0.69635707 -0.025040654 0.23471038 14343127
0.69754171 -0.016578563 0.23660864 14277334
0.70099998 -0.013802771 0.2326673 14343127
0.70314991 -0.0056936075 0.2351058 14277077
0.705975 0.004527255 0.23489694 14079955
0.7075367 0.014209401 0.235047 13684940
0.7086001 0.021795221 0.23718269 13290185
0.7107693 0.025318472 0.23445176 13422028
0.71267498 0.034268312 0.23495801 13553357
0.71455568 0.044560649 0.23499329 13487820
0.71438909 0.05458523 0.23493899 13290698
0.71657145 0.064748488 0.23525041 13553357
0.71899992 0.071768552 0.2347728 14409180
0.72130001 0.076559708 0.23518553 13816530
0.72700006 0.080908373 0.2358472 14079956
0.73199999 0.082921863 0.2377307 14869217
0.75600004 0.090505175 0.23535055 14342874
0.71609998 -0.16288409 0.24564426 12303031
0.71287107 -0.15497585 0.24528533 13487817
0.70900005 -0.14177388 0.24395593 13948112
0.71003693 -0.14629085 0.24542059 13948112
0.70825005 -0.13490063 0.24452765 13882320
0.70727283 -0.12470622 0.2451681 13684683
0.70552766 -0.11456348 0.2452392 13487561
0.7021333 -0.10497332 0.2450444 13619147
0.69819999 -0.094412692 0.24481672 13750476
0.70000011 -0.099500619 0.24507299 13684940
0.69680572 -0.085415184 0.24546909 13750733
0.6951943 -0.075452834 0.24490145 14013905
0.69411123 -0.065585345 0.24451981 14013905
0.6933127 -0.055062175 0.24501477 14145748
0.69255823 -0.044493079 0.244819 14079701
0.69340497 -0.034674615 0.24508099 14277078
0.69430566 -0.024967903 0.24458735 14079955
0.69594735 -0.01507694 0.24486457 14211285
0.69818181 -0.0089859655 0.24602628 14211286
0.70127589 -0.004185501 0.24474977 14343127
0.70444733 0.0041806852 0.24516395 14079955
0.70613497 0.014392967 0.24529184 13685453
0.70777512 0.024049241 0.24518839 13487563
0.71000004 0.028486071 0.24097574 13421772
0.70880008 0.030761153 0.24753721 13553357
0.71112138 0.035091504 0.24473372 13487821
0.71240473 0.044426788 0.24512491 13422028
0.71381581 0.054368377 0.24508385 13422030
0.7174117 0.064896196 0.24517 13619152
0.71899998 0.071347758 0.24403039 14342874
0.72105002 0.075435355 0.24548545 14013910
0.72666669 0.080757827 0.24568589 14474461
0.73175001 0.082893692 0.24321102 14408666
0.74349999 0.087268174 0.24710771 14474459
0.77225 0.094258405 0.24493042 14408664
0.78480011 0.098364413 0.24762085 11316392
0.78845459 0.10311654 0.2462925 10921889
0.79068422 0.10712814 0.24419788 10921889
0.79133344 0.11511292 0.24541958 10921632
0.78900003 0.12493233 0.2493179 10790303
0.79089659 0.12507153 0.24448742 10856096
0.79064536 0.13519435 0.24505936 10790303
0.71637028 -0.16374724 0.25450298 12632252
0.71255177 -0.15490659 0.25518575 13487561
0.70900005 -0.1408518 0.25059503 14079698
0.71051437 -0.1454308 0.25540876 13816526
0.70872718 -0.13363419 0.25351486 13750734
0.71000004 -0.13737002 0.25688463 13816526
0.70766675 -0.12485019 0.2548171 13421769
0.70561099 -0.11457678 0.25517863 13289927
0.70240003 -0.10501318 0.25500363 13421768
0.6980952 -0.093317166 0.25498861 13553100
0.70018744 -0.098327555 0.25526679 13816526
0.69591671 -0.085308224 0.25493038 13684686
0.694381 -0.075364657 0.25517973 13948113
0.69338119 -0.065516979 0.25481209 14145749
0.69256109 -0.055017989 0.25542223 13882319
0.6923784 -0.044502128 0.25514761 13882319
0.69330573 -0.034669071 0.25559852 13816524
0.69400018 -0.024957526 0.25504133 13882575
0.69499987 -0.015400739 0.25489402 13948115
0.69715637 -0.0059431992 0.25573969 13948114
0.70037496 -0.0028468918 0.25225991 14013909
0.69840002 0.00088030536 0.25861958 14145750
0.70172977 0.004802729 0.25450352 14013909
0.70443588 0.014058492 0.25519386 13750736
0.70628929 0.024466142 0.25537896 13685199
0.70803034 0.033581465 0.2554743 13816527
0.71000004 0.037350725 0.25205657 13619404
0.7088334 0.041991416 0.2582798 14013905
0.71073347 0.044766445 0.25464472 13685198
0.71265787 0.054456208 0.25522134 13619150
0.71686482 0.06482444 0.25491497 13816530
0.71899992 0.071768552 0.25497115 14277080
0.72170591 0.076165788 0.25458783 14079445
0.72700006 0.080957137 0.25330779 14474460
0.73000002 0.083974674 0.25118166 14342874
0.75466663 0.090345554 0.25259924 14211031
0.76800001 0.093739659 0.25796422 14013653
0.77100003 0.094105832 0.25445959 14803168
0.78366673 0.098711342 0.25374734 10789794
0.78827995 0.10514905 0.25499478 10856096
0.79000002 0.10937075 0.25148329 10921889
0.78899986 0.11512531 0.25547484 10790303
0.79000002 0.11306956 0.25194564 10987682
0.78899986 0.12303666 0.25437298 10790303
0.79009092 0.12838411 0.25605252 10724510
0.79160875 0.13529806 0.25538123 10790303
0.71673906 -0.16369264 0.26449236 12763580
0.71350008 -0.15529142 0.2650117 13750732
0.71158338 -0.1455311 0.26566809 14145491
0.70866668 -0.13215937 0.26507628 13948112
0.71009529 -0.13727002 0.26475582 14079698
0.70751369 -0.12480118 0.26484123 14013648
0.70574987 -0.11459872 0.26514223 13289926
0.70286667 -0.10508326 0.26504532 13487305
0.69785005 -0.093221769 0.26576862 13158339
0.70035297 -0.0982427 0.26451293 13552841
0.6956389 -0.085274033 0.26460052 13421513
0.69394463 -0.075316347 0.26558053 13684941
0.69288909 -0.065469533 0.26517689 14145492
0.69231582 -0.055392116 0.26478523 14079698
0.69280028 -0.044943236 0.26530397 13684940
0.69311124 -0.034660615 0.26526093 13684940
0.69355571 -0.024941158 0.26542997 13619404
0.69415009 -0.015049709 0.26508901 13882321
0.69499993 -0.0056302301 0.26492453 13948115
0.697303 0.0038888541 0.26545361 14013908
0.70014286 0.007251516 0.26198146 14014163
0.69866675 0.010585316 0.26929554 13816530
0.70232499 0.014782133 0.26512641 13750736
0.70535707 0.025038475 0.2650319 13750736
0.70628941 0.035865299 0.2650384 13882322
0.70726836 0.045419376 0.26496169 13948114
0.70836371 0.052541412 0.26665017 13816786
0.71108341 0.055929393 0.26395288 13619151
0.71541029 0.064567231 0.26505172 13816530
0.71858335 0.071727447 0.26491618 14145752
0.72257149 0.075874023 0.26239648 13882579
0.74650002 0.085001871 0.26820952 13421260
0.7856667 0.099574529 0.26297948 10461085
0.78864706 0.10473152 0.26332507 10856096
0.79025 0.10732449 0.26705688 10790303
0.78900003 0.11436304 0.2612212 10790303
0.79075009 0.1152604 0.26630145 10790303
0.78900003 0.12031468 0.2604003 10856096
0.79233342 0.12468937 0.26536915 10790303
0.71723998 -0.16337748 0.27473038 13158084
0.713875 -0.15503754 0.27524281 14079442
0.71130574 -0.14547494 0.27555412 14342613
0.70850003 -0.1340007 0.27500072 14277076
0.71000004 -0.13855726 0.27317938 14277077
0.70712829 -0.12494674 0.27514467 14013905
0.7058332 -0.1146119 0.2750873 13882319
0.70300001 -0.10515699 0.27512327 13750476
0.69754177 -0.093670338 0.27512109 13421511
0.70050001 -0.098986596 0.27464876 13684684
0.69524378 -0.085125498 0.27490917 13421768
0.69400018 -0.075322181 0.27534965 13816269
0.69261104 -0.065444835 0.27479824 14079698
0.69205391 -0.055516042 0.27468735 14079701
0.69260991 -0.045054812 0.27469972 13750480
0.69302797 -0.034656938 0.274964 13553101
0.6925 -0.024904437 0.27475321 13553356
0.69245946 -0.015283554 0.27489027 13882320
0.6939739 -0.005289353 0.27503881 13750733
0.69480431 0.0047881119 0.27506566 13684942
0.69707412 0.013948236 0.27623489 13421770
0.70073688 0.017323438 0.27322957 13618894
0.69900006 0.02149925 0.27978799 13356232
0.70270729 0.025828371 0.27480635 13750993
0.70395237 0.035660498 0.2751725 13553614
0.70538467 0.045451377 0.27535376 13817042
0.70736116 0.05529163 0.27526614 13751251
0.71000004 0.058404278 0.27089396 13225165
0.70900005 0.061641581 0.27881134 13685718
0.71386123 0.065182455 0.27491578 13882837
0.71891665 0.071900599 0.27541858 14343128
0.72320002 0.075576171 0.27508193 14146263
0.73133332 0.07899186 0.27503893 14409437
0.74650002 0.083254308 0.27694735 14080473
0.75400007 0.085854098 0.27443743 14145496
0.76100004 0.087540723 0.27788192 13751509
0.77550006 0.091936 0.27863389 12960965
0.78766674 0.097371489 0.27839652 10855841
0.79000002 0.09827432 0.27552554 10592926
0.7922222 0.10487308 0.27499682 10790558
0.71640909 -0.16298436 0.28446653 12434620
0.71322578 -0.15505293 0.28547981 13421516
0.7087273 -0.1420045 0.28609401 14342873
0.71083999 -0.14667743 0.28465968 14342615
0.70779502 -0.13462318 0.28458166 14342100
0.70630556 -0.12460986 0.2851918 14013649
0.70502692 -0.11437125 0.28483024 13619148
0.70177418 -0.10502546 0.28481793 13882062
0.69760609 -0.094942167 0.28516874 13355719
0.70000005 -0.09940698 0.28215471 13684940
0.69533318 -0.085234985 0.28537434 13355464
0.69408351 -0.075331718 0.28513214 13816528
0.69294459 -0.06547562 0.2846652 13948114
0.69285721 -0.054922268 0.28462988 13816016
0.69305903 -0.04448887 0.28466389 13487308
0.69195229 -0.034603745 0.28506523 13355976
0.69130939 -0.024860919 0.28480008 13290184
0.69163406 -0.015057277 0.28505293 13355978
0.69313174 -0.0056229122 0.28503871 13290184
0.69404781 0.0050994833 0.28511706 13421770
0.6957435 0.01576402 0.28512302 13158598
0.69820696 0.024802331 0.28578231 13224389
0.70025009 0.02782177 0.28220019 13553611
0.69900006 0.031862937 0.28906074 13487307
0.70048583 0.035601288 0.28436318 13487818
0.70197439 0.0456127 0.28464064 13553611
0.70580554 0.055584457 0.28489733 13882579
0.70816666 0.061569128 0.28428504 14277339
0.7130416 0.066171773 0.28540543 13750995
0.71857893 0.072745547 0.28532249 13750481
0.7258001 0.077719048 0.28541175 13421772
0.73000002 0.07884784 0.28251231 14211545
0.74300003 0.081991367 0.28000605 14409437
0.75600004 0.08519575 0.28225166 13554128
0.76800001 0.08834596 0.28403381 13619923
0.77000004 0.088576026 0.28657609 12369856
0.77400005 0.090848111 0.28262892 12567235
0.78572732 0.096743397 0.28506815 10593185
0.71380961 -0.16241714 0.29534116 12171188
0.71099997 -0.15500818 0.29526132 13487051
0.70836359 -0.14429465 0.2946915 13882064
0.71000004 -0.14894554 0.29333264 14079703
0.70746166 -0.13494222 0.2951501 13618891
0.70627779 -0.12460497 0.29510155 13421770
0.70494276 -0.11458721 0.29466283 13092805
0.70179993 -0.10492341 0.29487583 13158341
0.69772422 -0.094456226 0.29442826 12829375
0.70000005 -0.099188484 0.29684851 12500667
0.69580537 -0.085294351 0.29534087 13092804
0.6945833 -0.075386569 0.29509458 12961218
0.69425005 -0.0655981 0.29495311 14013648
0.69409537 -0.055021916 0.29488647 13684426
0.69358355 -0.044428296 0.29466927 13158083
0.69202846 -0.034491733 0.29551268 13158597
0.69183326 -0.024879225 0.29554561 13027011
0.69212902 -0.015298644 0.2950182 13027011
0.6932649 -0.0052623712 0.29477218 13290439
0.69400018 0.0050987997 0.29484552 13027268
0.69551337 0.015805842 0.29533416 12961219
0.69800001 0.025556169 0.2949115 13158853
0.699 0.031862937 0.29451531 13421768
0.70000017 0.036701314 0.29525381 13356232
0.70143247 0.045277316 0.29487476 13684942
0.70578384 0.055471569 0.29505095 13750991
0.70833343 0.062275004 0.29554573 13750991
0.71181828 0.066660896 0.29506478 14013908
0.71618748 0.072014473 0.29389039 12303033
0.72500002 0.078307785 0.2918922 10000789
0.77300006 0.08892113 0.29855025 13816530
0.77800006 0.091317616 0.29380322 12633027
0.78744441 0.09611585 0.29552448 10461598
0.79000002 0.09827432 0.29864311 10329754
0.7132501 -0.161732 0.30427879 12236727
0.71211123 -0.15517776 0.30485845 13355722
0.70890915 -0.14234263 0.30321667 13684687
0.71086371 -0.14659424 0.30579361 13750480
0.70750022 -0.13475883 0.3055495 13487308
0.70608318 -0.1245698 0.30493784 13092807
0.70558327 -0.11457205 0.30472249 12829636
0.7032581 -0.10471649 0.30544415 12500670
0.69772226 -0.09305954 0.30386809 12171706
0.70053852 -0.098046139 0.3048768 12171705
0.6964848 -0.085302152 0.30501854 12237498
0.69544435 -0.075480126 0.30522901 12961218
0.69547349 -0.065413356 0.30541357 13487562
0.69502485 -0.054851711 0.30488151 13618891
0.69391686 -0.044449002 0.30455756 13289668
0.69227767 -0.034620766 0.30518809 13290183
0.69222218 -0.024892688 0.30543399 13224646
0.69351369 -0.015263279 0.30479753 13290438
0.69400018 -0.0054615322 0.30459371 13027010
0.69400018 0.0050987992 0.30459371 12961473
0.69491655 0.015681472 0.30499473 12961473
0.69697577 0.025418485 0.3052007 13158852
0.70000005 0.02972357 0.30149153 12895424
0.69790322 0.03490575 0.30659428 13750990
0.69999999 0.036442295 0.30247477 13290439
0.69866675 0.043024804 0.30854973 13092803
0.70077151 0.045835368 0.3044934 13684940
0.70444989 0.055478543 0.30505291 14145234
0.70752382 0.063644685 0.30591354 14210767
0.71145463 0.067610487 0.30461007 14868442
0.7170909 0.071655251 0.30504012 11249570
0.77300006 0.08892113 0.30035985 14211288
0.78791672 0.095559031 0.30538318 11053223
0.79000002 0.09827432 0.30326664 10198168
0.71500003 -0.16045587 0.31129971 12632256
0.71378958 -0.1544698 0.31341037 13224393
0.70875001 -0.14142455 0.31376272 11513778
0.71136373 -0.14677443 0.31387776 12500671
0.70716673 -0.13469627 0.31368336 12237500
0.70600009 -0.1245546 0.31316599 13290186
0.70524997 -0.11451743 0.31283313 13750994
0.70362502 -0.10471524 0.31369111 13290443
0.69900006 -0.091410391 0.31087905 13355722
0.70108002 -0.094965994 0.31410262 12566463
0.69792008 -0.084931545 0.3138628 12698049
0.70014286 -0.087813556 0.31794384 11776691
0.69611758 -0.07536234 0.31506047 13092550
0.69621408 -0.06496755 0.31534526 13487564
0.69580543 -0.054345246 0.31515977 13553100
0.69436115 -0.044478182 0.31450558 13355976
0.69279999 -0.034578901 0.31502622 13290183
0.69227779 -0.024894685 0.31518283 13290697
0.69369459 -0.015201371 0.31474391 13553868
0.69400018 -0.0054615322 0.31434166 13487818
0.69404781 0.0050994279 0.31436342 13224390
0.69480544 0.015678706 0.3147074 12895681
0.69616663 0.025488723 0.31532422 13158599
0.6969732 0.035416458 0.31553394 13355978
0.69794744 0.044858944 0.3150529 13422027
0.70000005 0.049388126 0.31132379 12237494
0.69880003 0.052248456 0.31831509 12895428
0.70163172 0.055731453 0.31459597 13355974
0.70593339 0.064298116 0.31539172 14210508
0.71100003 0.068473324 0.31288552 15261656
0.71631247 0.071713105 0.31563592 13155505
0.72490007 0.076093629 0.3159408 9009513
0.73083335 0.078937851 0.31562597 9340019
0.73379999 0.080976129 0.31604832 9800830
0.74375004 0.084252447 0.31859183 10263698
0.75000006 0.086275354 0.31951511 10001041
0.78853858 0.095680363 0.31307107 10066325
0.79000002 0.097041376 0.31867829 9934994
0.79109687 0.10474712 0.31497866 10263959
0.69654554 -0.063664168 0.32194325 13553360
0.69559258 -0.053935878 0.32371661 12435135
0.6945172 -0.044628534 0.32340619 12633284
0.69365227 -0.035077866 0.32325673 13159113
0.69335729 -0.024701903 0.32437047 13225162
0.69397235 -0.015208761 0.32461825 13290956
0.69442111 -0.0056345705 0.32458639 13422285
0.69558817 0.0044407309 0.324164 13422027
0.69654554 0.015198279 0.32461348 13290439
0.69742328 0.025093913 0.32443354 13421770
0.70025003 0.028505152 0.32905757 13290956
0.69780004 0.035674892 0.32374173 13356236
0.70049989 0.034828328 0.32892939 13488335
0.69790322 0.045551341 0.32441089 13224906
0.70000005 0.042833269 0.32934964 13619921
0.69809377 0.054259017 0.3248764 13159370
0.70020002 0.058909573 0.32354203 13422795
0.70457137 0.065506041 0.32419115 13750215
0.71669227 0.0739301 0.32429674 11312268
0.7233637 0.077670924 0.32401466 10127476
0.72780007 0.080314018 0.32709163 10324599
0.73327279 0.083495617 0.32486576 9471090
0.74325007 0.085933723 0.32316154 9670013
0.76100004 0.089322239 0.32509089 10066579
0.79062498 0.09719561 0.32502401 10000787
0.69400001 -0.018458864 0.3314006 11252143
0.6952858 -0.0044243806 0.33108455 11119787
0.69833338 0.0034971258 0.33147168 12040634
0.7015385 0.0064183343 0.33563519 11514287
0.69816667 0.015752561 0.33012149 13422026
0.70071429 0.014872551 0.33519435 11645614
0.69850004 0.021483872 0.33109728 12500413
0.70292008 0.025769694 0.33546594 12106167
0.70387506 0.035653744 0.33529571 12434875
0.69900006 0.049317569 0.3305155 12831175
0.70158339 0.044638027 0.33461443 12106168
0.69833332 0.052539367 0.33129081 10660004
0.72600001 0.080115385 0.33223492 9009516
0.7316364 0.084945239 0.33208612 9538175
0.74200004 0.088829152 0.33087057 9802631
0.73800004 0.090077959 0.33340722 9869455
0.74400008 0.090810299 0.33350411 10001041
0.75100005 0.0934228 0.33752218 10001041
0.70500004 0.0084804511 0.34160465 8487297
0.70300001 0.016132591 0.34063554 10395808
0.70583326 0.026668869 0.34200883 12172471
0.70668441 0.034445595 0.34277096 11974835
0.70525008 0.042740159 0.34213895 13027013
