# .PCD v0.7 - Point Cloud Data file format
VERSION 0.7
FIELDS x y z rgb
SIZE 4 4 4 4
TYPE F F F U
COUNT 1 1 1 1
WIDTH 1069
HEIGHT 1
VIEWPOINT 0 0 0 1 0 0 0
POINTS 1069
DATA ascii
0.78900003 -0.10595056 0.079388089 12434353
0.78900003 -0.096715242 0.079388089 12237744
0.77900004 -0.15111086 0.089323826 10197139
0.78673339 -0.15384188 0.086277969 10986912
0.76700002 -0.14160085 0.089743406 13684940
0.77461541 -0.14440617 0.087284096 13947854
0.78535306 -0.14487994 0.082799532 11908785
0.76611114 -0.13485771 0.088839293 15395558
0.77407688 -0.1350999 0.086247593 14342870
0.78557152 -0.13543914 0.082978882 13882317
0.79000002 -0.13197652 0.081338115 11777195
0.76550007 -0.12519139 0.088667788 15198435
0.77450013 -0.1248543 0.086086392 14540248
0.78463644 -0.12515122 0.083621286 14276818
0.79000002 -0.12550358 0.081338115 11973804
0.76481825 -0.11482906 0.088670678 14935006
0.77492321 -0.11473331 0.085643381 14672091
0.78600007 -0.11520362 0.082608305 13158335
0.79000002 -0.11903067 0.081338115 12039597
0.76550007 -0.10432832 0.088028006 15000798
0.7745626 -0.10491349 0.084275767 14079696
0.78471434 -0.10655509 0.081578806 12894906
0.76507139 -0.095445976 0.088106282 15131871
0.77400005 -0.094877429 0.084215663 13882574
0.7852 -0.092019692 0.081576183 11908781
0.76441669 -0.084753774 0.088543557 15131871
0.77456248 -0.085308917 0.085296154 14079696
0.78581816 -0.084866576 0.081908666 11908780
0.76520008 -0.074987069 0.088633612 14803419
0.7750001 -0.075562321 0.085751608 14606040
0.78535718 -0.074863516 0.082561508 12566968
0.76566672 -0.065177195 0.088687479 15000285
0.77450013 -0.065021388 0.086086392 14408918
0.78512502 -0.065454982 0.082898341 12435127
0.79000002 -0.061699148 0.081338115 11974831
0.76514292 -0.056048959 0.089011751 14737111
0.77393758 -0.054556344 0.086700648 14474452
0.78630006 -0.054965001 0.083715819 12435382
0.76466674 -0.045398261 0.089470394 14737623
0.77375001 -0.045488764 0.087358572 14672087
0.78600001 -0.045059897 0.084603727 12500662
0.79272729 -0.044788662 0.082459554 11711402
0.76616669 -0.034725074 0.0896459 14737625
0.77416664 -0.035087679 0.087861486 14408915
0.78625005 -0.034028649 0.085320652 11777452
0.79427278 -0.034729663 0.082449906 11711401
0.76900005 -0.026754551 0.089977421 14540247
0.77514285 -0.024892122 0.088360839 14211535
0.78687501 -0.025534941 0.086080872 11316642
0.77450007 -0.015160437 0.088807829 14211536
0.7842223 -0.014027227 0.08706294 12171951
0.77550006 -0.0045880754 0.088618554 14013900
0.78500009 -0.0050898422 0.086665444 12171437
0.77633345 0.0046936814 0.088410169 13225156
0.78676915 0.0052107847 0.085818969 10790555
0.77600002 0.0147844 0.088979833 13554123
0.78527278 0.014626301 0.087030835 10330265
0.77700001 0.020260366 0.08909449 13685195
0.78618187 0.024681481 0.087801412 10329749
0.78512508 0.03540558 0.088873781 11184543
0.79390907 0.035061713 0.086298771 10461591
0.77900004 0.046755485 0.089323826 13092545
0.78609103 0.044925079 0.088125542 10921887
0.77900004 0.054050103 0.089323826 13159367
0.7869091 0.055013653 0.087715194 10724511
0.78490919 0.065067679 0.089163095 11711406
0.78581828 0.075175196 0.089099415 11645099
0.79372728 0.075086683 0.086448394 10790303
0.78833342 0.08330375 0.088548534 10789276
0.79407692 0.085766487 0.086758099 10724510
0.71900004 -0.15181544 0.098714799 14408661
0.76900005 -0.15097131 0.098978639 11513253
0.77622223 -0.15218967 0.09486071 10525848
0.78500003 -0.15678866 0.093685724 10525848
0.71900004 -0.1495712 0.098434269 14540247
0.72233337 -0.14687912 0.098888665 14277076
0.73200005 -0.14199221 0.09935721 13750733
0.74600005 -0.1429631 0.098927386 13947855
0.75583333 -0.14396383 0.097576566 14868443
0.76408345 -0.14404622 0.094466947 15328994
0.77200007 -0.14726947 0.092586644 15197407
0.73544443 -0.13462444 0.099056624 13619147
0.74554545 -0.13462454 0.097067505 15132130
0.75616664 -0.13443869 0.09452074 15658473
0.76100004 -0.13554555 0.091614157 15263716
0.73475003 -0.12532426 0.09886723 14079698
0.74545461 -0.12493064 0.09673956 15658730
0.75629407 -0.12483411 0.093692765 15592680
0.7601667 -0.125214 0.090723433 15592936
0.73490906 -0.11549762 0.098966546 13882319
0.74550003 -0.11450643 0.09696877 15132384
0.75637501 -0.11517889 0.093918353 15197921
0.7601667 -0.11453506 0.090723433 15132639
0.73449999 -0.10550586 0.099696547 13948110
0.74457139 -0.10546214 0.098071434 15329248
0.7562778 -0.10509953 0.094974369 15592676
0.76055568 -0.10440625 0.091560572 15329504
0.73600006 -0.098833479 0.099900149 14211282
0.74566668 -0.094892949 0.098591864 15724004
0.75699997 -0.095449753 0.095911615 15921382
0.76046669 -0.094464079 0.092182726 15394785
0.74618185 -0.084877074 0.098580837 15855589
0.7567777 -0.084792994 0.095333315 15657955
0.76062512 -0.085891373 0.091445312 15460579
0.74481827 -0.075210385 0.098559193 15790566
0.75630444 -0.075194113 0.094565995 15329759
0.7610001 -0.075467877 0.090822883 15131871
0.73600006 -0.066958174 0.099900149 15330015
0.74458343 -0.065123938 0.09844891 15658981
0.75562519 -0.064760238 0.094373785 15395552
0.76020002 -0.065601446 0.090727411 15000796
0.74640012 -0.055495758 0.098864242 15527397
0.75579172 -0.054823916 0.095134698 15395810
0.76000005 -0.054908209 0.090703547 15263197
0.74849999 -0.04794389 0.099844567 16185071
0.75696671 -0.044941679 0.095653035 15592419
0.76000005 -0.045122754 0.090703547 15000795
0.75724 -0.035209432 0.095689341 15132126
0.76033336 -0.034461256 0.090743326 14869212
0.75710016 -0.025454532 0.095671482 14869468
0.76200008 -0.024725281 0.090942241 14539990
0.77000004 -0.02228288 0.090094425 14079696
0.75610715 -0.014929814 0.095796354 14605526
0.76312494 -0.014490981 0.091521293 14473684
0.77099997 -0.01509017 0.090211429 14013902
0.74900001 -0.0050176522 0.099911265 14211282
0.75450009 -0.0050543798 0.096223213 14408661
0.76250011 -0.005109027 0.091891482 14079440
0.77140009 -0.0051691174 0.090258226 14276559
0.74900001 0.00024261526 0.099911265 13948110
0.75637501 0.0046736249 0.096463494 14606042
0.76350003 0.0047167055 0.092011809 14079698
0.77166671 0.0047673415 0.090289436 13816780
0.75725007 0.015314029 0.096576303 14145746
0.76409096 0.015044653 0.092163727 14014418
0.77300006 0.014727245 0.090445444 13816780
0.75749999 0.025071859 0.096608862 13948110
0.76442862 0.024016304 0.092507258 13422279
0.77240002 0.025383834 0.091096744 13488069
0.75711113 0.034807254 0.09744709 14014160
0.76216674 0.035040066 0.093635954 13685195
0.77279997 0.034624666 0.091324493 13684934
0.75735009 0.045278899 0.097122036 14079955
0.76200002 0.04506503 0.093393281 13750990
0.77250004 0.044554774 0.091289014 13619145
0.75739998 0.055211656 0.097483404 14277077
0.76283342 0.054717124 0.093717478 13750733
0.77281821 0.055020366 0.091409303 13685452
0.75799996 0.065014482 0.097561255 14079698
0.76411116 0.064641893 0.094172224 13816526
0.77423072 0.065498747 0.091840468 13487560
0.75782347 0.075381823 0.097642824 14079699
0.76490009 0.075454138 0.093969986 13816527
0.77441674 0.074731894 0.09181682 13750476
0.75788891 0.083436951 0.097941548 14277336
0.76325005 0.085113622 0.095849544 14211288
0.77454543 0.084972546 0.09276405 13750993
0.78416675 0.087449908 0.091135539 13882321
0.76900005 0.090261236 0.0971784 14408410
0.7743333 0.092703082 0.097850025 14408410
0.78840005 0.093647018 0.093724512 11908531
0.79270005 0.096757986 0.092747644 10921634
0.71503448 -0.15359239 0.10547142 14013392
0.77700007 -0.15436086 0.10091664 10327442
0.78500003 -0.15778784 0.10195686 10130832
0.71535003 -0.14529242 0.10570891 15000543
0.7234 -0.14235568 0.10055808 14606042
0.70900005 -0.13255288 0.10951358 15197924
0.71518755 -0.13537997 0.10585348 15198179
0.72480005 -0.13533053 0.10109083 14737628
0.73049998 -0.13742694 0.10086372 13948112
0.70900005 -0.12342408 0.10951358 15329765
0.71465623 -0.12534614 0.10567041 15132385
0.72533339 -0.12541528 0.10099544 14737628
0.70900005 -0.11844474 0.10951358 15395558
0.71432352 -0.11490526 0.10589749 15329764
0.72533339 -0.11522543 0.10099525 14671835
0.71433324 -0.10526986 0.1066788 15329764
0.72354549 -0.10447235 0.10221043 14935005
0.73100001 -0.10500523 0.10093275 14342869
0.71673065 -0.095015571 0.10676634 15132643
0.72480005 -0.095630378 0.10278783 14803421
0.73363632 -0.093908526 0.1011361 14211282
0.71710539 -0.08476638 0.10722938 15066850
0.72290915 -0.084844597 0.10396644 15132386
0.73335713 -0.084250286 0.10174447 14211282
0.74000001 -0.087244138 0.10044308 14473938
0.71716666 -0.074478164 0.10741528 14803677
0.72266674 -0.075049534 0.10400844 14474711
0.73382354 -0.074742891 0.10121604 14343122
0.71749997 -0.064435087 0.10746481 15001057
0.72258329 -0.064891495 0.10399657 14540504
0.73250002 -0.065167092 0.10150274 14211022
0.7173332 -0.054344188 0.10743998 15198436
0.72327274 -0.055177186 0.10417265 14474710
0.73250002 -0.055492807 0.10228094 14276815
0.74220002 -0.053617049 0.1007417 15855848
0.71783334 -0.045000043 0.10821587 14869471
0.72380006 -0.04450006 0.10620435 14475225
0.73385715 -0.044918854 0.10414433 14606551
0.74459994 -0.045076709 0.10193714 15987946
0.75174999 -0.042872194 0.10027809 15461603
0.71716666 -0.034184173 0.10909612 14737884
0.72300005 -0.03446262 0.10744134 14606556
0.73371422 -0.035345811 0.1051055 14211537
0.74466681 -0.034974881 0.10246677 15658212
0.75260007 -0.034991816 0.10039148 15724519
0.71880007 -0.025007088 0.10934458 14474711
0.72508341 -0.024375863 0.10775027 14014161
0.73422223 -0.023818992 0.10595799 13882060
0.74540001 -0.025583567 0.10326625 15263711
0.75288892 -0.024433838 0.10101554 15395810
0.71900004 -0.015757425 0.10937501 14079955
0.72500002 -0.014309234 0.1081029 13685196
0.73333335 -0.013685795 0.10658907 13948110
0.74562514 -0.014265621 0.10349316 14935260
0.75155556 -0.015594323 0.10083794 14869466
0.71900004 -0.0056582745 0.10937501 14211541
0.72420001 -0.0050165551 0.10846646 13882319
0.73315394 -0.0053073089 0.10611062 13882317
0.74473339 -0.0049909423 0.10282494 14342867
0.71900004 0.0044408776 0.10937501 13684940
0.72591668 0.0044836961 0.10787451 13553353
0.73341662 0.0045304089 0.10555714 14540502
0.74422222 0.0045982222 0.10275361 14803419
0.75040001 0.0055145728 0.10009801 14540249
0.71900004 0.01033205 0.10937501 13882319
0.7245 0.014653203 0.10907687 13619148
0.73358339 0.014261491 0.10672296 13948111
0.74547058 0.015126905 0.10395271 14474197
0.75239998 0.015921282 0.10106827 14277075
0.73393339 0.024750536 0.10831869 13948111
0.7452144 0.025535922 0.10550881 14474198
0.75250006 0.025157198 0.10201101 14342868
0.73471439 0.033409543 0.10930607 13750732
0.74529409 0.035444953 0.1068009 14277075
0.75266677 0.034603182 0.1021595 14342868
0.74595648 0.044581424 0.10747197 14606040
0.75236845 0.045387898 0.10230412 14474456
0.74541658 0.05520894 0.1072785 14671833
0.75266671 0.054865994 0.10216002 14474455
0.74538094 0.065054528 0.10739834 14342870
0.75255561 0.064547755 0.10214392 14211284
0.74717653 0.074016996 0.10769111 14408663
0.75222737 0.075405233 0.10273875 14408920
0.74849999 0.081722751 0.10860582 14343129
0.75385714 0.085148051 0.10464951 14540509
0.76216674 0.091243424 0.1043352 14606046
0.77442867 0.096081756 0.10433932 12303291
0.78200006 0.099109821 0.10614391 11053224
0.70711529 -0.15327421 0.11545824 14407894
0.70719427 -0.14463222 0.11502496 15395303
0.70705557 -0.13467282 0.11500287 15263716
0.70672226 -0.12468226 0.11494943 15197922
0.70733339 -0.11485353 0.11504862 15066337
0.7080645 -0.10537466 0.11578386 15263972
0.71020001 -0.10318254 0.11169394 15461608
0.70857143 -0.095742181 0.11809611 14935007
0.71175015 -0.094920121 0.11308805 15263972
0.70855558 -0.084366806 0.11884412 14935007
0.71203047 -0.085536599 0.11376461 15000800
0.70858341 -0.074555077 0.11843386 14671835
0.71213341 -0.0755658 0.11338148 14803678
0.70849991 -0.065285452 0.11772864 14869214
0.71200013 -0.065426275 0.11258157 15000800
0.70878571 -0.056185436 0.11813206 14540506
0.71153557 -0.055155329 0.11305343 14737885
0.70900005 -0.04624423 0.11914031 14672092
0.71178383 -0.045479525 0.11430447 14935264
0.7127381 -0.035642002 0.11508701 14540506
0.7128334 -0.025635444 0.11510207 14145747
0.71266669 -0.015618628 0.11507472 14079954
0.70900005 -0.0039197961 0.11947228 14079955
0.71289474 -0.0057851882 0.11458441 14211541
0.70900005 0.0043791132 0.11947227 14145491
0.71313882 0.0044045793 0.11431696 14079698
0.7139762 0.014440805 0.11528444 13882319
0.71581817 0.024304552 0.11604329 13619148
0.72383338 0.024809496 0.1109544 13355976
0.7171818 0.034346897 0.11687987 14145491
0.72375005 0.03496851 0.11320022 13882319
0.73230004 0.036757085 0.1113954 13553354
0.71828574 0.044313371 0.11815352 14014162
0.72418755 0.04558346 0.11503229 13948113
0.73412502 0.045242257 0.11177767 13750734
0.71853852 0.054577686 0.11836167 14145750
0.72294128 0.055484541 0.11494713 13816530
0.73352951 0.054579791 0.11148003 13750735
0.71887499 0.063552417 0.11882221 14277081
0.72311121 0.065407254 0.11620176 13750737
0.73333341 0.064711519 0.11212296 13816528
0.74100006 0.069627799 0.11098698 14671835
0.72490007 0.073037654 0.11858197 13685458
0.73352951 0.074884407 0.11582138 13882578
0.74378574 0.076482706 0.11251905 14342871
0.73409086 0.083663583 0.11869628 13684945
0.74626082 0.084173843 0.11389469 14474460
0.75050008 0.087211922 0.11065295 14671839
0.75866669 0.090824418 0.11185626 14145495
0.76600003 0.093495548 0.11293826 11119017
0.70599991 -0.154046 0.12475141 13552329
0.70519441 -0.14449888 0.12442504 15066594
0.70540524 -0.13451271 0.12475671 15263974
0.70599985 -0.1245546 0.12475143 15001057
0.70602763 -0.11464238 0.12475616 14935007
0.7064721 -0.10479072 0.12483326 14935007
0.70730585 -0.094979562 0.12498023 15000286
0.70733345 -0.084883265 0.12531643 14803164
0.70738906 -0.07511951 0.12499519 14606042
0.7074725 -0.065190248 0.12501015 14737372
0.70800012 -0.055294599 0.12510476 14869215
0.70899981 -0.045532886 0.12525783 14474457
0.71000004 -0.041323088 0.12628928 14079702
0.70900005 -0.039605107 0.1261114 14803425
0.71017128 -0.03539497 0.12546565 14145493
0.71024996 -0.02554246 0.12550324 13619146
0.70899987 -0.01449188 0.12640008 13553352
0.71000004 -0.017414089 0.12347646 13487560
0.70858324 -0.0055773067 0.12520744 13816783
0.70836121 0.0043748086 0.12516741 13750990
0.70832264 0.013869266 0.12572205 13684940
0.71000004 0.017183635 0.12196776 14145491
0.70847625 0.023923824 0.12720211 13290439
0.71111119 0.02520276 0.12232301 13487818
0.70900005 0.032713961 0.12895674 13816526
0.71165729 0.034694187 0.12400806 13882322
0.71319044 0.044476647 0.12517665 13882323
0.7139048 0.054548554 0.12530172 14013909
0.71497607 0.064673536 0.12548937 13948116
0.71690321 0.074350283 0.12588775 14211545
0.722 0.077561788 0.12165996 14211545
0.71883327 0.084186569 0.12748617 14342617
0.72400004 0.08436887 0.12295788 13092806
0.73000002 0.087392561 0.121302 11053477
0.70616663 -0.15356997 0.13486575 13092549
0.70520586 -0.14446938 0.13471144 14539994
0.70499998 -0.13458364 0.13430417 14803423
0.70591652 -0.12453946 0.13465208 14869215
0.70599985 -0.11463804 0.13466793 15000800
0.70599985 -0.10472149 0.13466793 14869214
0.7064445 -0.094863646 0.13475208 14737628
0.7070002 -0.085008621 0.1348587 14803421
0.7070002 -0.075078018 0.1348587 14408663
0.7070002 -0.065147407 0.1348587 14474200
0.70775014 -0.055274196 0.1350013 14737630
0.70869994 -0.046112914 0.13473986 14540252
0.71000004 -0.041877132 0.13764711 14606046
0.71097237 -0.03555204 0.13561741 14079700
0.71122241 -0.025579147 0.13566518 13224389
0.70900005 -0.013186909 0.1334421 13093061
0.71008331 -0.016739836 0.13634756 12829888
0.70886093 -0.005579167 0.13521411 13224393
0.7080279 0.0043729446 0.13505456 13355979
0.70800012 0.01431758 0.1350494 13092550
0.70766681 0.024249958 0.1349849 12632255
0.70791686 0.034203853 0.13503242 13224391
0.70823085 0.044654548 0.13536857 13619404
0.71000004 0.048431545 0.13127564 13882576
0.70827276 0.05539785 0.13552728 13684940
0.71000004 0.055080034 0.13127564 14014162
0.70852178 0.065567419 0.13691522 13487822
0.71045452 0.064640895 0.1321152 13816529
0.70900005 0.071600273 0.13772987 14211288
0.71230561 0.074856907 0.1346613 14342875
0.71769446 0.085083827 0.13521688 14935010
0.71899998 0.09196686 0.13630609 14868961
0.72000003 0.094623066 0.13481012 11119270
0.70700002 -0.15452486 0.14479007 13092548
0.70561099 -0.14430977 0.14450511 14539995
0.70505548 -0.13429093 0.14439081 14802908
0.70549989 -0.12446613 0.14448039 14868702
0.7058332 -0.11461026 0.14454974 14869216
0.70599985 -0.10472149 0.14458455 14869216
0.70599985 -0.094804935 0.14458452 14540507
0.70619428 -0.084911272 0.1446234 14803422
0.70650005 -0.075024858 0.14468524 14408666
0.70661128 -0.06511113 0.14470844 14474203
0.70736128 -0.055243425 0.1448631 14803424
0.70849997 -0.047039747 0.14509651 14934754
0.71008331 -0.042158995 0.14542104 14737375
0.7110002 -0.035555083 0.1456084 14211288
0.71074998 -0.025560962 0.14555556 13290185
0.70900005 -0.011388814 0.14602879 12763838
0.71005696 -0.015680492 0.14539137 12632255
0.70899981 -0.0055795768 0.14519888 12961220
0.70800012 0.0043729357 0.14499411 12961221
0.70800012 0.014317582 0.14499411 12698049
0.70783353 0.024256187 0.14496078 12303291
0.70800012 0.034206863 0.14499411 12632254
0.70800012 0.044980235 0.14499408 13092804
0.70800012 0.055753596 0.14499414 13421768
0.70811117 0.065709203 0.14501683 13487561
0.70900005 0.071600273 0.14602879 14079698
0.71144003 0.075847022 0.14513178 14079699
0.71611106 0.084897339 0.14497694 14803167
0.71850002 0.092384234 0.14461972 13619150
0.7065295 -0.15417813 0.15481077 13487051
0.7058332 -0.14435446 0.15446509 14540250
0.70519429 -0.13431825 0.15432574 14671322
0.70502776 -0.12438317 0.15428847 14802653
0.70502776 -0.11448003 0.15428816 14737373
0.70522219 -0.10460606 0.15432975 14869216
0.70513892 -0.094689459 0.15431182 14737629
0.70523673 -0.084969461 0.15463652 14671580
0.70588881 -0.074959569 0.15447611 14606043
0.70622206 -0.065074593 0.15454939 14539995
0.70719463 -0.05523099 0.15476203 14737375
0.70844823 -0.046264101 0.15540829 15000804
0.71000004 -0.041797984 0.15383303 14869218
0.70900005 -0.039605107 0.15930705 14408410
0.71060014 -0.035416573 0.15538742 14474460
0.71038878 -0.025546644 0.15546276 13619151
0.71041638 -0.015569023 0.15546927 13027014
0.70900005 -0.003542573 0.15266789 12961221
0.71003997 -0.0064855423 0.15648241 12895428
0.70883322 0.0043776925 0.15512188 12961219
0.70861757 0.014134904 0.15483125 12566974
0.71000004 0.017682273 0.15953173 12435130
0.70867854 0.024048746 0.15402187 12040632
0.71000004 0.025161825 0.15911619 12435645
0.70856667 0.03451037 0.15429002 11974325
0.71000004 0.032918397 0.15925471 12172472
0.70821965 0.044872396 0.15488681 12369081
0.70829737 0.055619944 0.15511726 12763839
0.70828575 0.065607227 0.15488346 13224649
0.70900005 0.071600273 0.15183802 13816526
0.71135724 0.075172678 0.15555346 13619407
0.71569431 0.084846362 0.15494877 14079700
0.717125 0.091307253 0.15483795 13619405
0.70652795 -0.15442146 0.16454178 13684941
0.70599985 -0.14438772 0.16441764 14474456
0.70599985 -0.13447112 0.16441764 14671835
0.70544732 -0.12428445 0.16459301 14671835
0.70499998 -0.11447568 0.16500995 14803165
0.70509517 -0.10458751 0.16503187 14869216
0.70488095 -0.094655365 0.16498175 14737374
0.70420015 -0.084506445 0.16506861 14605789
0.70532495 -0.075063169 0.16483709 14868704
0.70619434 -0.065072127 0.16446304 14474203
0.7070002 -0.055216815 0.16465053 14737375
0.70736128 -0.045308147 0.16473342 15000547
0.70849997 -0.037163798 0.16567773 14802911
0.71007144 -0.032778181 0.16429687 14605789
0.7110002 -0.025568098 0.165582 14079444
0.71105587 -0.015583577 0.16559491 13289928
0.71011096 -0.0055889715 0.16537479 13027013
0.70899987 0.0040018898 0.1633056 13027014
0.71000004 0.004978905 0.16819851 12961221
0.70900005 0.011294872 0.16152008 13093060
0.71054548 0.014647423 0.16580476 12961219
0.71141678 0.024380319 0.16568027 12369084
0.7115429 0.034306001 0.16559145 12500925
0.70900005 0.045873657 0.16096683 12106165
0.71087497 0.044121716 0.16607496 12434876
0.70900005 0.055998325 0.16146477 12500409
0.71028572 0.054032277 0.16648522 12171447
0.70900005 0.064592309 0.16170451 12698046
0.71032 0.064417332 0.16692135 12895426
0.71281832 0.074571617 0.16502093 13224907
0.71748567 0.084937312 0.16529478 13488078
0.71800005 0.09099853 0.16216969 12961221
0.70857143 -0.1609091 0.17556176 13092034
0.7104286 -0.16346957 0.17649773 12236468
0.70711118 -0.15455031 0.17460878 13948113
0.70599985 -0.14438771 0.17433412 14671835
0.70599985 -0.13447113 0.17433412 14605786
0.70562488 -0.12465426 0.17531401 14671323
0.70483333 -0.11444931 0.17569534 14934496
0.70450014 -0.104499 0.17561124 14868961
0.70411128 -0.094552532 0.17551444 14803168
0.70299983 -0.084528521 0.17523761 14671582
0.70434213 -0.074619241 0.17526755 14934497
0.70564276 -0.065021731 0.17507008 14868705
0.7058779 -0.055229843 0.17500849 14539996
0.70630562 -0.04524048 0.17440894 14935011
0.70805722 -0.035525553 0.17495929 14737375
0.71000004 -0.031350352 0.17116658 14539996
0.70866656 -0.025944985 0.17738841 14079702
0.7102223 -0.0250783 0.17297477 14276824
0.70900005 -0.019687723 0.17922443 14079702
0.71031427 -0.015448716 0.17527936 13619150
0.70900005 -0.0064094691 0.17860201 13553101
0.70999992 -0.0053500012 0.17431274 13224389
0.71019435 0.0043873033 0.17537065 13158598
0.7112779 0.014384191 0.175639 13027268
0.71175003 0.024391802 0.17575455 12566461
0.71270967 0.034516577 0.17499539 12829889
0.71216136 0.044543508 0.17518452 12829889
0.71111131 0.054333359 0.17559764 12763839
0.71181262 0.064179204 0.17525062 12829891
0.71576458 0.074801743 0.17507231 13224393
0.71881819 0.083989367 0.17466974 13290443
0.7203334 0.08848425 0.17646851 12961221
0.7256667 0.09140522 0.1772057 10921638
0.70816678 -0.16140951 0.1848148 13092294
0.71000004 -0.16432017 0.18197039 12630972
0.70694441 -0.15451355 0.18449627 14013906
0.70592088 -0.14419799 0.18453404 14540249
0.70531696 -0.1344423 0.18477573 14474456
0.70450014 -0.12456516 0.18550688 14671579
0.70362175 -0.11440895 0.18538687 14868958
0.70313883 -0.10429752 0.18514873 14868958
0.70252776 -0.094340064 0.1849869 14737374
0.7015 -0.084347971 0.18471664 14671581
0.70188892 -0.074534357 0.18481787 14869216
0.70249999 -0.064731658 0.18497759 15000546
0.70359451 -0.054837953 0.18511009 14803679
0.70523804 -0.04517176 0.1848748 14737886
0.70652771 -0.035331085 0.18438664 14671837
0.7076391 -0.025446545 0.18467711 14277081
0.70886099 -0.01553454 0.18499689 13816274
0.70899987 -0.0068563316 0.18458682 13421515
0.71000004 -0.0022632019 0.18645813 13224135
0.71111763 0.0041991961 0.18534255 13158597
0.71249998 0.014408934 0.18511449 12764096
0.7129001 0.024431041 0.18521895 12632256
0.71427786 0.034512267 0.18474182 12829634
0.71448582 0.044434737 0.18491508 12763842
0.71283334 0.054465275 0.18520164 12961221
0.71511763 0.06488622 0.18520564 13224393
0.71848154 0.074677624 0.18448791 13487565
0.72025001 0.079059482 0.18754856 13092805
0.71900004 0.082148239 0.18119121 13553615
0.72109091 0.08494693 0.18535104 13355977
0.70727271 -0.16113044 0.19414018 12960964
0.70634997 -0.15421687 0.19484182 13816272
0.70584983 -0.14452305 0.19520038 14474200
0.70487499 -0.13477299 0.19571467 14408664
0.70402956 -0.12561381 0.1950805 14407895
0.7027564 -0.115602 0.19485331 14605531
0.70166653 -0.10515366 0.1948051 14671837
0.69866675 -0.09327551 0.19896513 14737373
0.70057154 -0.095692664 0.19447614 14671836
0.69826084 -0.085272372 0.19697729 14605788
0.70009989 -0.085408486 0.19197074 14474457
0.6982187 -0.075270198 0.19641922 14539995
0.69999993 -0.073843069 0.19137004 14737628
0.69838887 -0.064898297 0.19752322 14868961
0.70020825 -0.064111285 0.19277865 15000544
0.69900006 -0.057455681 0.1991967 14737375
0.70057923 -0.054412693 0.19465962 15000546
0.70281076 -0.04512471 0.19508813 14737632
0.70561892 -0.035285182 0.19488728 14540251
0.70648783 -0.025505682 0.19500598 14277335
0.70842421 -0.015900707 0.1949088 14211288
0.71000004 -0.011404877 0.19443631 13948116
0.70900005 -0.0088991411 0.19084288 13882323
0.71073544 -0.0053951773 0.19571486 13882323
0.71275753 0.0044805328 0.19504026 13422026
0.71375012 0.014434738 0.19462866 13027267
0.71438909 0.024482794 0.19480193 12895683
0.71549994 0.034570858 0.19510461 12961477
0.71566653 0.044628382 0.19515021 12764096
0.71497232 0.05462886 0.19496125 12829633
0.71705705 0.064744033 0.1954097 13027013
0.71899992 0.072129242 0.19389527 13422029
0.72104543 0.077268906 0.19523726 13684944
0.72390002 0.084122643 0.19485752 13487564
0.7069999 -0.16146149 0.2049458 12368827
0.70652771 -0.15442091 0.20533817 13750992
0.70599985 -0.14438771 0.20573662 14079185
0.70533323 -0.13434544 0.20554303 14079184
0.70393348 -0.12501614 0.20513394 14013136
0.69900006 -0.11104686 0.20860583 13816273
0.70148629 -0.11557243 0.20461893 14144979
0.69857699 -0.10500509 0.20652896 14342870
0.70028579 -0.10645036 0.20161168 14606042
0.697743 -0.095214292 0.20507948 14540249
0.70000005 -0.099734724 0.20153005 14671835
0.69669461 -0.085400969 0.20465438 14540249
0.69655001 -0.075516447 0.20493679 14539995
0.69721973 -0.064942397 0.20490819 14803167
0.69781828 -0.054820176 0.20530589 14935008
0.70000005 -0.051119592 0.2020763 15000800
0.69850004 -0.048829772 0.20845601 14935264
0.70147222 -0.044791207 0.20473477 15000800
0.7045278 -0.035229757 0.20530672 14737629
0.70583761 -0.025270557 0.20553213 14343128
0.70720524 -0.015687387 0.20487553 14080214
0.70844996 -0.0066525275 0.20653275 14211801
0.71037501 -0.0042383145 0.20316538 13750994
0.70900005 0.00078291912 0.20854723 14079702
0.71189469 0.0047936719 0.20473175 13882323
0.71373707 0.014259621 0.20495531 13421772
0.71430576 0.024479 0.20481199 13224392
0.71502787 0.03454658 0.20501955 13159369
0.71502787 0.044589605 0.20501953 13159113
0.71458358 0.054599266 0.20489044 13092807
0.71636117 0.064801671 0.20511991 13290186
0.71899992 0.07176856 0.20447536 13684944
0.7215001 0.077088147 0.20518632 13421772
0.72538894 0.083634771 0.20402676 13882323
0.73200005 0.089345619 0.20046109 10921891
0.70812505 -0.16202146 0.2142313 12697533
0.71000004 -0.16432017 0.21853709 12302517
0.70684391 -0.15469821 0.21477371 13553356
0.70599985 -0.14438771 0.21565308 13816526
0.70572209 -0.13441947 0.21556881 13619147
0.70373338 -0.1249814 0.2149619 13355464
0.69900006 -0.11104686 0.21187857 13882066
0.70119351 -0.11600419 0.21468933 13421515
0.69844443 -0.10450948 0.21271017 14145237
0.70035291 -0.10605413 0.21773843 13948113
0.69765723 -0.095203146 0.21462199 14079442
0.70000005 -0.099734724 0.21955588 13882319
0.69590217 -0.085205778 0.21489231 14342872
0.69512796 -0.075381741 0.21514793 14408666
0.69527876 -0.065562584 0.21470465 14605788
0.69545811 -0.055025991 0.21497488 14737628
0.69722223 -0.045897763 0.2164447 14803678
0.70075005 -0.042731576 0.21292022 15000800
0.69866675 -0.03739151 0.21913767 14606299
0.70252633 -0.035042096 0.21489015 14803421
0.70516658 -0.025356699 0.21539725 14277334
0.706128 -0.015284118 0.21524636 14277334
0.70697564 -0.0056635109 0.21499985 14014162
0.70817244 0.0036036056 0.21525808 13882576
0.71028572 0.0075942487 0.21280493 13619150
0.70900005 0.01018835 0.21905918 13619404
0.71158975 0.0146699 0.21498562 13421770
0.71292675 0.024331136 0.21513993 13224392
0.7145834 0.03452595 0.2149276 13355979
0.71500009 0.044588037 0.21505463 13355979
0.71422237 0.05457047 0.21482114 13027013
0.71577787 0.064749733 0.21500866 13355978
0.71899992 0.072273508 0.21507949 13750992
0.72149998 0.077181406 0.21466349 13619407
0.72574997 0.083203889 0.21404141 14079699
0.71258825 -0.16364647 0.22547066 12368824
0.70804167 -0.15343986 0.2236675 13619147
0.71072727 -0.15783383 0.22700535 13487561
0.70710009 -0.14461365 0.2250952 14079698
0.70625818 -0.13438798 0.22498603 13816526
0.70545703 -0.12457798 0.22551605 13816527
0.70374292 -0.11467262 0.22492281 13355977
0.70241374 -0.10501302 0.22513501 13290439
0.69794118 -0.09290719 0.22400363 13750476
0.70031244 -0.097525582 0.22559717 13619147
0.69566655 -0.08527723 0.22525334 13816270
0.69499987 -0.075430721 0.22530924 14211284
0.69461107 -0.065633178 0.22518212 14474713
0.69409537 -0.055021241 0.22501524 14606042
0.69478947 -0.044331171 0.22493887 14671835
0.69643581 -0.035096709 0.22529 14540506
0.70074999 -0.031351592 0.22143042 14606299
0.69816667 -0.028102899 0.22769766 14474713
0.70238882 -0.024754398 0.22459334 14474713
0.70454055 -0.015549236 0.22525553 14277334
0.70591873 -0.0054430575 0.22538666 14277334
0.70712829 0.0041790102 0.22471875 14014162
0.70857137 0.012473714 0.22548229 13685196
0.71013337 0.016965497 0.22417454 13487818
0.71182859 0.024324598 0.22536032 13487563
0.71369445 0.034484442 0.2246872 13619151
0.71497232 0.044586137 0.22508867 13619151
0.71425021 0.054573987 0.22486056 13421772
0.71660012 0.064751446 0.22519402 13488077
0.71899998 0.071768552 0.22349544 14146006
0.72104168 0.076475732 0.22545205 13882836
0.72783333 0.082590044 0.22402792 13882837
0.71591997 -0.16348055 0.23487554 12368824
0.70900005 -0.15081048 0.23150755 13750990
0.71216005 -0.15488827 0.23564176 13685197
0.70859993 -0.1443117 0.23408762 14079443
0.71000004 -0.14825299 0.23820555 13882576
0.7077716 -0.13492738 0.23453982 14079442
0.70675755 -0.12446419 0.23536415 13816526
0.70561099 -0.11457632 0.23535722 13684940
0.70342427 -0.10476702 0.23460186 13619147
0.69795001 -0.092990331 0.23492488 13619147
0.7003125 -0.098140389 0.23522826 13553354
0.69586468 -0.085411817 0.23521014 13816525
0.69491655 -0.075422168 0.23504271 13882320
0.69411123 -0.065585345 0.2347707 14211285
0.69400018 -0.055013862 0.23473297 14474456
0.69400018 -0.044453528 0.23473297 14606042
0.69461113 -0.03473518 0.23493809 14540249
0.69635886 -0.025311943 0.23504636 14343127
0.70033336 -0.021632796 0.23168314 14277334
0.69800007 -0.017134599 0.23751408 14277334
0.70142859 -0.014432333 0.23343049 14343127
0.70352501 -0.005697465 0.23523188 14211541
0.70610249 0.0045536002 0.23507366 14079955
0.70769238 0.014037039 0.23509285 13553609
0.71000004 0.018513333 0.23100302 12961472
0.70866674 0.021797089 0.23738912 13356230
0.71113795 0.025376435 0.2342986 13487817
0.71355003 0.034311444 0.23524526 13553355
0.71475017 0.044571441 0.23505791 13553358
0.71372229 0.054535918 0.23472047 13487565
0.71699989 0.064859957 0.2352376 13618894
0.71900004 0.070926957 0.23477282 14343388
0.72176003 0.075596206 0.23503128 13948631
0.72714293 0.080729105 0.2348756 13882582
0.73140001 0.082767166 0.23728207 14277597
0.79258329 0.10609622 0.235525 10987682
0.71736842 -0.16319962 0.24586347 12237238
0.71316677 -0.15504132 0.24521996 13619148
0.70900005 -0.14118375 0.243292 14013907
0.71003217 -0.14582914 0.24538332 13882321
0.70869428 -0.13498551 0.24468109 13882320
0.70773548 -0.12495958 0.24488506 13619149
0.70622212 -0.11467584 0.24548057 13553354
0.70346665 -0.10517344 0.2448516 13619147
0.69783336 -0.093505792 0.24480893 13684940
0.70028573 -0.098604925 0.24552478 13684940
0.69583327 -0.085297979 0.24512632 13816526
0.69474989 -0.075404666 0.2447447 14013905
0.69400018 -0.065574199 0.24448092 14013905
0.69362521 -0.054883767 0.24505776 14145749
0.69333357 -0.044410534 0.24505593 14145491
0.6937145 -0.034691125 0.24519071 14277334
0.6943056 -0.024967514 0.2445876 14145748
0.69635135 -0.015279763 0.24510829 14211542
0.70000005 -0.011244245 0.24167851 14803678
0.69825 -0.0085593723 0.2480204 14211542
0.70156252 -0.0047474136 0.24457695 14343127
0.70489186 0.0042453879 0.24517131 14145748
0.7063157 0.014458975 0.24520603 13685196
0.70735717 0.02424201 0.24504344 13553354
0.70841169 0.032423012 0.24677671 13487819
0.71109098 0.0358718 0.24353828 13553611
0.71254748 0.044436306 0.24517362 13421771
0.71388882 0.054549173 0.24480207 13487565
0.71705878 0.064865433 0.24504928 13619151
0.71899998 0.071600236 0.24419871 14146265
0.72173691 0.075913213 0.24540271 13948629
0.72720003 0.080247805 0.24511203 14474460
0.73266667 0.083332807 0.24504577 14408667
0.74500006 0.087444246 0.24413455 14606305
0.76900005 0.093861721 0.24659856 14343646
0.77475005 0.095019467 0.24436906 13488076
0.78750008 0.099501379 0.24607293 10593180
0.78900003 0.10266497 0.24603422 11053731
0.79052383 0.10697683 0.24459937 10921889
0.79362959 0.11565729 0.24479285 10921889
0.71746433 -0.16413124 0.25454471 12697275
0.71251631 -0.15489903 0.25517157 13618634
0.70900005 -0.14417136 0.25059503 14013905
0.71003211 -0.14534658 0.25578576 13684940
0.70899999 -0.13293591 0.25302088 13422025
0.7100001 -0.13642541 0.25607941 13882319
0.70811433 -0.125048 0.25454491 13421769
0.70636111 -0.11469828 0.25545004 13289669
0.70377415 -0.10516566 0.25501829 13487561
0.69745469 -0.093436293 0.25579101 13421768
0.70040005 -0.098480746 0.25444216 13684940
0.69518405 -0.085046127 0.25496128 13619147
0.69409537 -0.075333253 0.25507551 13948112
0.69376212 -0.065552369 0.25495237 14276821
0.6930235 -0.055049792 0.25536105 14013650
0.69272244 -0.044372838 0.25538248 13947859
0.69266701 -0.034638979 0.25536084 13947857
0.69371444 -0.02494603 0.25493559 13882321
0.69469231 -0.015410455 0.25491914 14013652
0.69714707 -0.0058195842 0.25552347 13948116
0.70033336 -0.0025055069 0.25190327 14014422
0.69816667 0.0013162834 0.2584793 14013909
0.70186496 0.0047595575 0.25428534 14014422
0.70399994 0.014239199 0.25541523 13619664
0.70587164 0.024635317 0.25546274 13684943
0.70746166 0.034755696 0.25501746 13750736
0.70859998 0.042254232 0.25653544 13948114
0.71061909 0.045702334 0.25393873 13619405
0.71285003 0.054304272 0.25504059 13619150
0.71708322 0.064866997 0.25485003 13750738
0.71899998 0.071488023 0.2558127 14277081
0.72240001 0.075748086 0.25465339 14013909
0.72837508 0.08080411 0.25531101 14474460
0.73128569 0.083633967 0.25309089 14145751
0.74200004 0.087092116 0.25704774 12500670
0.75000006 0.08978688 0.25104031 14408412
0.75400001 0.090265736 0.25326174 13881810
0.76300001 0.093129374 0.25538933 11579056
0.77800006 0.096781544 0.25130594 10856617
0.78525007 0.099521711 0.25364137 10461341
0.78878564 0.10353152 0.25505325 10856096
0.79018188 0.10821902 0.25490391 10856096
0.7924 0.1152709 0.2550272 10790303
0.71730769 -0.16381806 0.26489827 12763326
0.71334481 -0.15507968 0.2654897 13882062
0.71041667 -0.14529251 0.26523241 14211285
0.70899999 -0.13231577 0.2657702 13882319
0.71000004 -0.13697068 0.26439655 14145490
0.70810819 -0.12481648 0.26452616 13882320
0.70636106 -0.11469828 0.26537141 13158599
0.70396668 -0.10524779 0.2651298 13355977
0.69700009 -0.093598135 0.26511809 13092547
0.70050001 -0.098986603 0.26480952 13487561
0.69483328 -0.085174866 0.26483557 13421768
0.69338912 -0.075257622 0.26536715 13816269
0.69277787 -0.065458633 0.26513368 14211284
0.6926586 -0.055025723 0.26514789 13948112
0.69283795 -0.044532977 0.26509169 13816271
0.6925 -0.03462993 0.26502892 13684941
0.69377798 -0.0249485 0.26551712 13553357
0.69433343 -0.015027966 0.26529065 13882322
0.69544733 -0.005642246 0.26482511 13948116
0.69728577 0.0040056719 0.26520035 14013909
0.70000005 0.0077648214 0.26183468 13948116
0.69840002 0.010690107 0.2684294 13816530
0.70175666 0.015105305 0.26517269 13684944
0.70480496 0.025221981 0.26488602 13750993
0.70597219 0.035762277 0.26522467 13882579
0.70710003 0.045545422 0.26502568 13882580
0.70866674 0.052027173 0.26577577 13817044
0.71168005 0.056079537 0.26453483 13685201
0.71623075 0.064682931 0.2650556 13817044
0.71883327 0.071752109 0.26500824 14211801
0.72462505 0.076576777 0.26375145 13619665
0.72900003 0.080446437 0.26278383 13619153
0.73466665 0.08336518 0.26369029 13224394
0.74500006 0.087444246 0.26331919 10855588
0.75700003 0.090624891 0.26401624 10461087
0.78500003 0.099490032 0.26367614 10526621
0.78844452 0.10238803 0.26390848 10856096
0.79029417 0.10712648 0.26485491 10856096
0.71688467 -0.16339771 0.27519754 13092549
0.71267742 -0.15493517 0.27524886 14079443
0.70873678 -0.14376916 0.27643681 14342613
0.71017653 -0.14656268 0.27301463 14277077
0.70831424 -0.13460502 0.27479756 14276821
0.71000004 -0.13855726 0.27089396 14408663
0.70726836 -0.1248806 0.2749382 13948113
0.70597208 -0.11463434 0.27514112 13882065
0.70332259 -0.10515168 0.27492961 13684684
0.69696546 -0.094072774 0.27531567 13552585
0.70000005 -0.099188484 0.27363339 13750477
0.69457495 -0.085304931 0.27500814 13486792
0.69338912 -0.075257875 0.2751081 14012880
0.69213885 -0.065399021 0.27461129 14145491
0.69231695 -0.054997623 0.27462268 14145491
0.69297314 -0.044540662 0.27500772 13685197
0.69347245 -0.03467799 0.27514112 13619148
0.69377792 -0.02494999 0.27526033 13553355
0.69386125 -0.015206065 0.27529377 13750990
0.69420016 -0.0052999961 0.27485892 13816528
0.69482601 0.0047880677 0.27507466 13619404
0.69731027 0.014132163 0.27584535 13487563
0.70074999 0.017658204 0.27300289 13553358
0.69900006 0.02149925 0.27978799 13421772
0.70257497 0.025888175 0.27488154 13684944
0.70402366 0.03566426 0.27520117 13619151
0.70549989 0.045475286 0.27525932 13882323
0.70763648 0.054848716 0.27536133 13751251
0.71000004 0.057850238 0.27144799 13422543
0.71381086 0.064777702 0.27473596 13751252
0.71883327 0.071752116 0.2751058 14408667
0.72350007 0.076034755 0.27519411 14342874
0.73100001 0.078955851 0.27719501 14145495
0.74600005 0.08406882 0.27502543 13554130
0.79276931 0.10540182 0.27506658 10790304
0.71599996 -0.16316023 0.28498733 12237241
0.71251726 -0.15489945 0.28519833 13618637
0.70837504 -0.14435667 0.28416249 14277335
0.71000004 -0.14936107 0.28668413 13948116
0.7072252 -0.13470499 0.28473455 14276564
0.70636106 -0.12461992 0.2852146 14013650
0.70521605 -0.11440223 0.28490692 13750221
0.70181251 -0.10507978 0.2846584 13881549
0.69705552 -0.095239162 0.28499261 13355464
0.70000005 -0.099734724 0.28018826 13947089
0.69497216 -0.085190102 0.28549773 13420743
0.69411123 -0.075335108 0.28514397 13881807
0.69355577 -0.065532722 0.28491682 13947859
0.69340497 -0.054967292 0.28485462 13750221
0.69302797 -0.044391409 0.28469837 13487561
0.69233328 -0.034622293 0.28522152 13290183
0.6922195 -0.024952967 0.28505647 13355720
0.69261003 -0.015276616 0.28521642 13421515
0.69366682 -0.0054578041 0.28495967 13224391
0.69423819 0.0051019425 0.28519511 13290439
0.69582915 0.015802413 0.28515175 13224390
0.69796437 0.024795486 0.28584984 13224136
0.70023072 0.027590256 0.28217164 13553358
0.69900006 0.032544758 0.28919712 13224136
0.70060009 0.035606947 0.28440914 13553101
0.70247501 0.045620415 0.28471062 13487565
0.70655268 0.055817321 0.28498572 13948116
0.70866674 0.061889231 0.28586832 14474460
0.71342313 0.06620799 0.28478646 13882323
0.7187857 0.072107933 0.28566337 13816274
0.72242868 0.075979985 0.28481206 13684689
0.73000002 0.07884784 0.28536054 14276570
0.73800004 0.081439607 0.28330475 12961221
0.74100006 0.081770666 0.28966051 13750482
0.75700003 0.08530844 0.28351226 13421773
0.76500005 0.088000864 0.28292429 13685716
0.77300006 0.08892113 0.28769261 13751509
0.7856667 0.095287345 0.28750476 10396065
0.79133338 0.098440193 0.28587279 10527132
0.71450007 -0.16235238 0.29552454 12236727
0.70900005 -0.15081048 0.29706895 13684943
0.7117666 -0.1552345 0.29489377 13355978
0.70821959 -0.1447417 0.29520431 13882321
0.71000004 -0.14936107 0.29083943 14606299
0.70702726 -0.13477874 0.29525787 13553356
0.70647228 -0.1246395 0.29518321 13421769
0.70525712 -0.1146381 0.29479414 13224133
0.70196551 -0.10460769 0.29480433 13224132
0.69783336 -0.094594359 0.29382077 13027010
0.70028579 -0.097199976 0.29786727 12434874
0.69603217 -0.085190371 0.29505369 13224136
0.69494432 -0.075425282 0.29524747 13026756
0.69449991 -0.065621957 0.29505968 13882320
0.69400018 -0.055014201 0.29484591 13553101
0.6932503 -0.044406548 0.2945281 13157828
0.69261289 -0.034714356 0.29522505 13289927
0.69277424 -0.024834532 0.2949793 12961220
0.6925807 -0.015047101 0.29489741 13027011
0.693528 -0.0054562879 0.29464576 13290182
0.69402397 0.005099141 0.29485586 13093060
0.69522208 0.015687877 0.29536474 12961218
0.69740546 0.025423735 0.29481357 13224390
0.69892591 0.034344479 0.29581726 13422026
0.69999999 0.038463373 0.29316142 13224648
0.69900006 0.04113571 0.29942444 13619151
0.70100003 0.045273114 0.29483896 13684944
0.70515382 0.055342637 0.29507425 13816529
0.70795828 0.06369324 0.29559508 13882320
0.71125001 0.067665555 0.29356682 14474203
0.71412504 0.07138817 0.29429388 12566205
0.75600004 0.08519575 0.29021463 12961221
0.77000004 0.088576026 0.29739159 12829378
0.77750003 0.091258928 0.29573965 12829635
0.78671438 0.094972752 0.29700619 10658722
0.79200006 0.09852311 0.29568827 10395803
0.71300006 -0.16093434 0.30430877 12171703
0.70900005 -0.15081048 0.30121839 13553358
0.71127588 -0.15508631 0.30542997 13355978
0.70830768 -0.14390416 0.30494216 13619151
0.71000004 -0.14825299 0.30801472 13750736
0.70755571 -0.13476826 0.3055748 13356235
0.70727795 -0.12478033 0.30545506 13158600
0.70624983 -0.11467998 0.30501086 12895429
0.70490623 -0.10476845 0.30494702 12369084
0.70224142 -0.094670765 0.30546412 12105655
0.69775009 -0.08406128 0.30370787 12303034
0.70022225 -0.08738137 0.30650514 12237241
0.69588876 -0.075529419 0.30542415 12961218
0.69535112 -0.065547876 0.30529833 13487562
0.69480485 -0.054959536 0.30484894 13619147
0.69366682 -0.044433929 0.3044481 13289412
0.69219506 -0.034555893 0.30472931 13290182
0.69249988 -0.024902945 0.30474406 13224645
0.69327527 -0.015354617 0.3048436 13290182
0.69397241 -0.0054611508 0.30458152 13027011
0.69423819 0.0051017758 0.30469841 13026754
0.69499987 0.015681697 0.30503261 12961219
0.69639027 0.025596324 0.30494463 13158597
0.69780493 0.035249196 0.30532524 13487565
0.69861537 0.042622849 0.30630362 13421771
0.70038456 0.046893701 0.30443063 13684943
0.703421 0.055484999 0.30486846 14013651
0.70700008 0.063916706 0.30544129 14145233
0.71149999 0.068521477 0.30561429 15328224
0.71630001 0.071836278 0.30532771 11051166
0.72400004 0.07735467 0.30928367 9736072
0.76900005 0.088460997 0.30060583 11381932
0.78740007 0.094636478 0.30594581 10724256
0.79100001 0.097705185 0.30619669 10132116
0.71300006 -0.16000704 0.3112635 13026240
0.71180004 -0.15407436 0.31323853 13092805
0.70861536 -0.14269033 0.31349605 12171961
0.71040004 -0.14767198 0.31473011 11513775
0.70800012 -0.13485207 0.31405303 12172473
0.70795846 -0.12490034 0.31403455 13158600
0.70658332 -0.11473443 0.31342471 13750737
0.70552003 -0.1044869 0.31311816 13355979
0.70387882 -0.094298407 0.31489587 12500670
0.69825 -0.082322411 0.31463134 12697793
0.70095003 -0.086826049 0.31527323 12237498
0.69632345 -0.07538411 0.31515422 13092549
0.69652379 -0.064996772 0.31548616 13553100
0.69644457 -0.054393355 0.31545097 13487564
0.69486111 -0.044510797 0.31473336 13290185
0.69310004 -0.034662355 0.31474724 13224647
0.69286692 -0.02491576 0.31464157 13356490
0.6937815 -0.015000812 0.31475061 13488077
0.69405574 -0.0054616444 0.31436694 13553356
0.69478559 0.0051053534 0.31469816 13224646
0.69502759 0.015682483 0.3148073 12829634
0.69583327 0.025475871 0.31517261 13224393
0.69697326 0.03541645 0.31553373 13355979
0.69794112 0.044390552 0.3152602 13487821
0.70000005 0.049060382 0.313618 13092806
0.69866675 0.051475096 0.31836331 12698819
0.70189744 0.055551317 0.31481886 13290183
0.7061379 0.064360276 0.31530634 14276045
0.71033335 0.068409123 0.31259292 15130582
0.71617651 0.071835883 0.31555191 12761004
0.72435725 0.07703156 0.31548974 9273195
0.73287499 0.081520461 0.31736448 9866619
0.74200004 0.083618045 0.31784397 9934991
0.78766674 0.0936836 0.31281886 9737364
0.79108334 0.097021051 0.31541201 10066580
0.69700003 -0.063855119 0.32215306 13750483
0.69700032 -0.054202735 0.32444158 12303292
0.6962415 -0.044740267 0.32420966 12763842
0.69455552 -0.034825005 0.32317549 13224905
0.69452947 -0.024784952 0.32409939 13224393
0.6943056 -0.015217172 0.32423338 13357262
0.69455552 -0.0054640844 0.32434994 13553872
0.69584841 0.0045203157 0.32414144 13488078
0.69627279 0.015191663 0.32448655 13356235
0.69721448 0.025293205 0.32454327 13356235
0.70050001 0.028925445 0.3295849 13225163
0.69768196 0.035044271 0.3239547 13421772
0.70074999 0.036316413 0.32929283 13422285
0.69780004 0.045639049 0.3242313 13159371
0.70000005 0.042833269 0.32934964 13093578
0.69810003 0.052931804 0.32494134 13159885
0.70049995 0.057726104 0.3241511 13290700
0.70523524 0.065157466 0.32447657 13815756
0.71560001 0.073501602 0.32361811 10983818
0.72175002 0.077535369 0.32373899 10127734
0.72728574 0.080257274 0.32515565 10325368
0.73266673 0.084190004 0.3258487 9273712
0.74233341 0.088290833 0.32841367 9669760
0.75600004 0.088735364 0.32738063 10527126
0.79100001 0.097704604 0.32448116 10066580
0.79309678 0.10423298 0.32487512 10066580
0.69600004 -0.02177076 0.331541 10922412
0.69516677 -0.016863083 0.3308731 10857644
0.69533342 -0.0053802058 0.33095217 11053996
0.69850004 0.0014529508 0.33150578 12304061
0.70184219 0.0058499714 0.3348904 11514545
0.69850004 0.017191323 0.33089274 12434877
0.70104003 0.0143378 0.33535522 11777201
0.69850004 0.022302058 0.33027908 13684944
0.70300001 0.025707636 0.33556965 12105910
0.70437497 0.035679374 0.33553383 12434618
0.70192307 0.044969175 0.33474585 12040375
0.69814289 0.053459216 0.3305774 11647416
0.72766668 0.081437036 0.33157703 9076081
0.78777778 0.097383231 0.33601469 10000786
0.79066664 0.098357253 0.33313718 10000787
0.79190004 0.10481762 0.33532423 10066580
0.70600003 0.00849248 0.34208918 8093311
0.70600003 0.010145239 0.34208918 8159104
0.70633334 0.027054001 0.34206784 12303543
0.70725 0.034499485 0.34302819 12106164
0.70533341 0.04315884 0.34176615 13224389
0.77500004 0.099127449 0.34195143 9803921
0.78550005 0.099553406 0.34107193 10000787
0.77750003 0.10127147 0.34579527 9935764
0.78721428 0.10411794 0.34537095 9935508
0.7905333 0.10710121 0.34319735 9935508
0.79284853 0.11516809 0.34484953 9935765
0.78850007 0.10639483 0.35068399 9935764
0.79014289 0.10886212 0.35590744 9935507
0.79187995 0.11519477 0.35515377 9935508
0.78900003 0.099381298 0.36691427 9738385
0.7876001 0.10314006 0.36245188 9804178
0.79111767 0.10702086 0.36557469 9869971
0.79233325 0.11546569 0.36496022 9935764
0.79229999 0.10505091 0.37463325 9869715
0.79287994 0.074504092 0.38493037 9278349
0.79113352 0.065078512 0.3953751 9277836
0.79188889 0.075027987 0.39544126 9409678
0.79330766 0.085114442 0.39524394 9541264
0.79032022 0.065010518 0.40514895 9343628
0.78899986 0.075985156 0.40447125 9475214
0.79000002 0.073307365 0.40498382 9409421
0.79020017 0.085351013 0.40508649 9672335
0.79179311 0.094663933 0.40481597 9803665
0.79093558 0.075392231 0.41490212 9475214
0.79003358 0.08533226 0.41517293 9606800
0.79106915 0.094641976 0.4151724 9738385
