# .PCD v0.7 - Point Cloud Data file format
VERSION 0.7
FIELDS x y z rgb
SIZE 4 4 4 4
TYPE F F F U
COUNT 1 1 1 1
WIDTH 1022
HEIGHT 1
VIEWPOINT 0 0 0 1 0 0 0
POINTS 1022
DATA ascii
0.78720003 -0.043975271 0.13909794 11842216
0.78689998 -0.034743562 0.13904482 11776165
0.79359382 0.074916512 0.13488327 11185319
0.78900003 -0.14381535 0.1495765 10855064
0.78700006 -0.13405654 0.14882603 11644834
0.77840006 -0.12548442 0.14938922 13550775
0.7865001 -0.1249485 0.14817996 12038563
0.77633333 -0.11515564 0.14899258 12566196
0.78586668 -0.11454272 0.14726043 11710890
0.77662504 -0.10383068 0.14836471 12762807
0.78546149 -0.1054004 0.1467784 12236975
0.77429414 -0.094218776 0.14806251 12434612
0.78621435 -0.094793677 0.14483656 11909297
0.76762503 -0.084212936 0.14866854 13026494
0.7741251 -0.084923387 0.14584485 13158850
0.78590006 -0.085843392 0.14291222 11580073
0.79080003 -0.084904924 0.14066134 11842986
0.76670009 -0.075136408 0.14804059 13092291
0.77394462 -0.074940071 0.14490618 12829370
0.78592306 -0.075605206 0.14191215 11184542
0.79000002 -0.071870863 0.14051905 11974572
0.76521438 -0.064629771 0.14813547 12828594
0.77406669 -0.064985164 0.14492886 12960696
0.78541666 -0.065019019 0.14245902 11842730
0.79000002 -0.064473256 0.14051905 11579814
0.76366669 -0.05457446 0.14774697 13090741
0.77417648 -0.055077262 0.1442026 12828855
0.78550005 -0.055064019 0.14139947 12105389
0.79000002 -0.05892504 0.14051905 11710630
0.75900006 -0.040621296 0.14921968 11774627
0.76240915 -0.04526509 0.14720729 13090484
0.77356255 -0.044796176 0.14279614 12828598
0.78300005 -0.04704383 0.14073801 12105388
0.75900006 -0.036179218 0.14921968 13813696
0.76339126 -0.034797255 0.14603467 13222585
0.77472222 -0.035118323 0.14202788 12959924
0.78100002 -0.031741712 0.14074653 11710370
0.76338893 -0.0253645 0.14799173 12960955
0.77421427 -0.025383532 0.14430888 12960955
0.78592861 -0.024451524 0.14202468 11381923
0.79133338 -0.021971637 0.1407562 11382437
0.76733333 -0.017712517 0.14906166 12763064
0.77383345 -0.015146997 0.14760226 12960441
0.78616673 -0.013702691 0.14504696 11710889
0.77714294 -0.0059844065 0.14862691 13158847
0.78616673 -0.0051129102 0.14704208 11250851
0.79381257 -0.0050844876 0.14328304 11119522
0.78833336 0.0024090928 0.14883442 10593178
0.78900003 0.068596907 0.1495765 10856868
0.7930969 0.064756013 0.14519447 10988196
0.78900003 0.070443973 0.1495765 10922659
0.79097164 0.07538189 0.1451865 11119781
0.7876364 -0.15278743 0.15702631 11512742
0.79180008 -0.15637603 0.15334788 10789789
0.76900005 -0.14016984 0.15838665 16052455
0.77515382 -0.14352687 0.15685876 11842220
0.78505886 -0.14612515 0.15347159 12368304
0.75900006 -0.13183205 0.15928841 15789027
0.76400018 -0.1345263 0.15619458 15459806
0.77425009 -0.13523693 0.15232742 14408401
0.78300005 -0.13630907 0.15027204 12566196
0.759 -0.12502085 0.15899225 14276561
0.76234776 -0.12491102 0.15437189 14012617
0.77330005 -0.12466155 0.15112437 13813947
0.75900006 -0.11791353 0.15988068 11382441
0.7613793 -0.11456393 0.15515317 13092803
0.77200007 -0.11492248 0.1507878 13882056
0.76296777 -0.10496018 0.15431127 13224134
0.77300006 -0.10470681 0.15016247 13421764
0.76268548 -0.095145963 0.15452911 12829110
0.77300006 -0.099277996 0.15016247 12236976
0.76372248 -0.084676929 0.15461388 12762806
0.76400006 -0.074872203 0.15467282 12894908
0.76223516 -0.065097257 0.15457757 12499631
0.75884604 -0.05304873 0.15711485 12103850
0.76033342 -0.056119498 0.15363446 12695472
0.7575714 -0.044853516 0.15526882 12235697
0.76000005 -0.049570683 0.15119545 13353661
0.75689995 -0.035192687 0.15500332 13419197
0.75803339 -0.02601701 0.15594772 13223872
0.7601667 -0.022887709 0.15211819 13027004
0.75900006 -0.018588573 0.15845922 12961213
0.7620666 -0.014439293 0.15380082 12499891
0.76355547 -0.0053121541 0.1550722 11973549
0.77287507 -0.004497821 0.15081562 12829368
0.76583332 0.0039368621 0.15753259 12039855
0.77405268 0.004923156 0.15388994 12763318
0.78427273 0.0059318612 0.15151508 12237231
0.76775002 0.01238043 0.15947646 11974320
0.77431583 0.014944769 0.15661313 12500662
0.78626668 0.01498094 0.15273498 11447203
0.77556258 0.02431074 0.15814713 12435127
0.78578264 0.02504815 0.15431792 11184552
0.79116672 0.028038695 0.15091194 10527390
0.77700001 0.031779736 0.15942648 12632512
0.78600007 0.035215709 0.15691267 10592671
0.7927143 0.035782896 0.15200095 10395804
0.78614289 0.045036536 0.15761745 11776171
0.79275012 0.044679653 0.15237136 11251369
0.78664291 0.055236716 0.15622617 12105391
0.79140002 0.053241551 0.151327 10856354
0.78629041 0.064857498 0.1556455 11910070
0.78718168 0.074805342 0.15581538 11515312
0.79000002 0.078855574 0.15161547 10790303
0.78792316 0.084396631 0.15745804 11842218
0.79176474 0.086066611 0.15271457 11645611
0.78900003 0.092608728 0.15881181 12698300
0.78900003 -0.16043893 0.16620007 10000275
0.79190916 -0.16558503 0.16453557 10460826
0.78662497 -0.15535842 0.165235 10197398
0.76725 -0.14164701 0.16610564 13354945
0.77425009 -0.14623035 0.16467687 11447721
0.78000003 -0.14947885 0.16065225 8880768
0.75843751 -0.1331404 0.16530965 14867411
0.76175004 -0.13780992 0.16417222 16249065
0.75803334 -0.12486141 0.16500059 14342098
0.75899994 -0.11715204 0.16546503 11645359
0.76005018 -0.11220483 0.16419454 13947600
0.76093322 -0.10485314 0.16474169 13421253
0.76161087 -0.095139645 0.16488932 13025461
0.76288915 -0.084584415 0.16516483 12631476
0.76353347 -0.074825376 0.16530347 12697270
0.76180547 -0.06485071 0.16492933 12432043
0.75825006 -0.053896051 0.16504744 11709862
0.76000011 -0.058212388 0.16390383 11905698
0.75463891 -0.044809546 0.16514196 12039604
0.75280005 -0.035001975 0.16473934 12368565
0.75534278 -0.025516493 0.16516979 12895163
0.75864995 -0.016536549 0.16549 12961469
0.76007158 -0.011954851 0.16341054 12632247
0.76086652 -0.005096525 0.16472654 11644838
0.76211095 0.0047098179 0.16499446 11776168
0.76511443 0.015245065 0.16566701 11382440
0.77000004 0.018275257 0.16039521 12303285
0.76637506 0.024691595 0.16688596 11382443
0.77150005 0.025536409 0.16212499 12303286
0.7667222 0.034651175 0.16778606 11185063
0.77333343 0.035424184 0.16289361 12238007
0.76828575 0.044443604 0.16851661 12631483
0.77446902 0.045066502 0.16352601 12697531
0.76900005 0.050655898 0.16918811 13091780
0.7739687 0.05494573 0.16562809 12170930
0.78050005 0.055982508 0.16075523 13882572
0.77551866 0.064466886 0.16597612 11447206
0.78120011 0.065907121 0.16163005 14211282
0.77627784 0.074658893 0.16654502 11380896
0.78208333 0.075471215 0.16245279 13882570
0.77642107 0.084530972 0.16699153 11840418
0.78300005 0.085248105 0.16232584 13420477
0.77755558 0.093896493 0.16823806 11512228
0.78525001 0.095452443 0.16376065 12895422
0.78676468 0.10448537 0.16745828 12237235
0.79162502 0.10623959 0.16269691 11645869
0.78900003 0.11107937 0.16989419 11974320
0.79157156 -0.16467157 0.17508069 10131861
0.77900004 -0.15111086 0.17457961 9999502
0.78670591 -0.15596901 0.17546397 10131603
0.76550007 -0.14132392 0.17469044 11117467
0.7728824 -0.14641581 0.17483075 10393746
0.75850004 -0.13292962 0.17486931 14539216
0.76054555 -0.13765834 0.17493504 16183270
0.75850028 -0.12493744 0.1748697 14210254
0.75900012 -0.11829428 0.17333384 10723230
0.76044828 -0.11362524 0.17571694 12236466
0.76180768 -0.10510923 0.17494561 13551551
0.76300031 -0.095314369 0.1750128 12893623
0.76300031 -0.084597193 0.17501283 12369848
0.76280022 -0.07475426 0.17496641 12104878
0.75900006 -0.06016646 0.17853743 11578017
0.76097059 -0.065040708 0.17522718 12301227
0.75810015 -0.054773513 0.17477636 11512226
0.74875003 -0.040511075 0.17744051 12630707
0.75263339 -0.044986073 0.17457215 11841963
0.74773079 -0.03456549 0.175883 12236978
0.75000006 -0.034872331 0.17077684 12829117
0.74833339 -0.027056796 0.17704917 12895424
0.75232011 -0.024197288 0.17361553 13223360
0.75708348 -0.015257116 0.17507881 12763066
0.76000005 -0.010428865 0.17165595 12566714
0.75900006 -0.0086383093 0.17853743 12434875
0.76067847 -0.0048403828 0.17511599 12369081
0.76196754 0.0045644837 0.17494917 11382696
0.76333356 0.015436485 0.17509051 11184033
0.76300025 0.025253903 0.1750128 10789277
0.76333356 0.035175387 0.17460014 11184808
0.76440018 0.044985004 0.17443447 11710635
0.76444733 0.055017401 0.17477046 12171183
0.76363641 0.065091074 0.176286 12236975
0.77150011 0.065948822 0.17086563 12698297
0.76496017 0.074602537 0.17638628 12566196
0.77205896 0.075523861 0.17155997 12764090
0.7665 0.08436165 0.1773825 12894391
0.77247381 0.085434563 0.1725187 12959670
0.76800007 0.092242591 0.17915583 13092027
0.77351618 0.095115699 0.17467405 13025977
0.77644444 0.10305198 0.17556807 13289923
0.78325003 0.10690933 0.17338724 13552837
0.78728569 0.11281585 0.17610298 11579818
0.79114294 0.11707056 0.17352836 11645612
0.79176927 -0.16485532 0.18510571 10131602
0.77900004 -0.15111086 0.18233013 9144191
0.78668749 -0.1557149 0.18504624 10591893
0.79000002 -0.15879287 0.18860355 10196880
0.76740003 -0.1416747 0.18500784 10394259
0.77337497 -0.1462893 0.18497545 10459795
0.75900006 -0.13242432 0.18357177 14473683
0.76141179 -0.13669287 0.18565693 15328991
0.75899994 -0.12713085 0.1838679 15394525
0.76000017 -0.12277098 0.18601643 13419967
0.76069993 -0.11461495 0.1851708 12104620
0.76203436 -0.10488062 0.18475658 13419710
0.76305586 -0.09532164 0.1848506 12632251
0.7629447 -0.084591284 0.1848231 12565945
0.76179993 -0.074657306 0.18454453 12038572
0.75890905 -0.061128434 0.18586425 11511706
0.76040006 -0.066419676 0.18474047 12235177
0.75739992 -0.054723553 0.18525137 11446172
0.74787498 -0.043419346 0.18543909 11971228
0.75250006 -0.047762483 0.18427114 12103588
0.74524325 -0.035549548 0.18503484 12695985
0.74558538 -0.025171207 0.18484877 12895680
0.74774998 -0.017407699 0.18653834 12763066
0.75414819 -0.013415384 0.1842899 12763323
0.75861537 -0.0074039968 0.18616401 12697528
0.76050001 -0.0033135123 0.18448552 12433843
0.76248574 0.0048396597 0.18483952 11579820
0.76424998 0.015454809 0.18514019 11119524
0.76336682 0.025265651 0.18492699 11052445
0.76300031 0.035077982 0.18483689 11117467
0.76249993 0.044871464 0.18471523 11250339
0.76149976 0.054407217 0.18473521 11185061
0.76066661 0.065242335 0.18516132 11382952
0.7609998 0.075261585 0.18466894 12236719
0.76152766 0.084927611 0.18447663 12500149
0.76299995 0.094794817 0.18498249 13092800
0.77066666 0.098876722 0.18098052 14277074
0.76683336 0.10137764 0.18755661 12763836
0.77459091 0.10559501 0.18475743 13224644
0.78000003 0.1098123 0.18439017 11579819
0.78631574 0.11390374 0.18452543 11579819
0.79000002 0.11861776 0.18490474 11514026
0.7865001 -0.1545269 0.19478752 9933708
0.79066664 -0.15892686 0.19524266 9999502
0.76900005 -0.1419701 0.19169115 9144706
0.77457905 -0.14605999 0.19532321 10657175
0.76214284 -0.13516679 0.19501661 14275789
0.76047224 -0.12526184 0.19490691 14999507
0.7613427 -0.11483931 0.19500312 12367276
0.76252007 -0.10507036 0.19453956 13026495
0.76346672 -0.095373139 0.19478117 12172217
0.76244825 -0.084876068 0.19470462 12171702
0.75900006 -0.070827454 0.198971 12236211
0.76063633 -0.075298339 0.19502902 11841706
0.75828135 -0.064383231 0.19489801 11643809
0.76000005 -0.068548538 0.19093032 12302511
0.7486667 -0.051168587 0.19918291 11643294
0.75367743 -0.05491199 0.19500966 11380123
0.74662071 -0.045085259 0.19500051 11906719
0.75000006 -0.048918441 0.19134437 10788236
0.73900002 -0.031477515 0.19834137 12763582
0.74297065 -0.035828646 0.19481656 12434354
0.73900002 -0.026575815 0.19891803 13157821
0.74209088 -0.024605559 0.19469175 12763576
0.74554294 -0.015112238 0.19523926 12763834
0.75125003 -0.010747736 0.19166152 12303796
0.74850005 -0.0080804508 0.19840786 12698554
0.75621432 -0.0049976744 0.19488347 12764346
0.76000005 -0.0015329953 0.19122687 11973292
0.75900006 0.00083813205 0.19837873 12500661
0.76148474 0.0050569549 0.19481315 12236205
0.76425809 0.015314351 0.19515376 11447720
0.76484001 0.025313964 0.19513258 10922404
0.76380002 0.035113204 0.19486721 10922144
0.76280016 0.04488945 0.19461155 11315358
0.76148546 0.054743014 0.19503887 11381153
0.76063889 0.065239355 0.19494927 11119268
0.75900006 0.078426495 0.198971 12763838
0.76000017 0.074848764 0.19463184 11316391
0.75899994 0.085324787 0.19719416 12171699
0.76000017 0.084148273 0.19239734 12039598
0.75899994 0.093856879 0.19616546 12632763
0.76008344 0.095887512 0.19258212 12895166
0.76358825 0.10214304 0.19480763 12961216
0.7731539 0.10773684 0.19432539 12040370
0.77850008 0.1114236 0.19770479 11448233
0.78681827 0.11546253 0.19470693 11579819
0.79000002 0.11861777 0.19507647 11514026
0.78623533 -0.15425086 0.20491651 10393745
0.79040003 -0.15887327 0.20535071 9736844
0.76900005 -0.14016984 0.20879346 11840935
0.77465212 -0.14570175 0.20512024 10327953
0.76347995 -0.13552527 0.20486197 14143688
0.76099986 -0.12535028 0.20483977 15065303
0.76219344 -0.11469559 0.20498841 11776938
0.76345181 -0.10502579 0.20469248 12633026
0.76411426 -0.095325954 0.20470738 12369337
0.76235712 -0.085612141 0.20463058 12566196
0.75886655 -0.072236486 0.20568626 11644071
0.76050001 -0.077466562 0.20497164 11907754
0.75629038 -0.065210946 0.20499481 11775139
0.74772722 -0.052988816 0.20588017 11182744
0.75153339 -0.057933982 0.20381363 11183257
0.7446453 -0.044974342 0.20498911 11315616
0.7369656 -0.033793472 0.20568325 11842994
0.74163646 -0.038588319 0.2034131 11185834
0.7359525 -0.02474262 0.20498215 12696498
0.73706257 -0.016906576 0.20680413 12961213
0.74283999 -0.013111892 0.2038431 12632250
0.74655002 -0.0063096345 0.20592861 12698302
0.75276935 -0.002601041 0.20370263 12698301
0.75759089 0.0025864162 0.20585352 12369336
0.76053339 0.0074874312 0.20447654 12303283
0.76342869 0.015570792 0.2047255 12038825
0.76593345 0.025351306 0.20527093 11250080
0.7661472 0.03532736 0.20506558 10856870
0.76486677 0.045009341 0.20498738 10856868
0.7620644 0.054512408 0.20495409 11184547
0.76074189 0.065391965 0.20494275 11381666
0.759 0.077715762 0.20590062 12039341
0.76000017 0.073548131 0.20510444 11051934
0.75880587 0.084622785 0.20513682 11908527
0.75884998 0.092978559 0.20479384 11842478
0.76050007 0.097498089 0.20537391 12500921
0.76466668 0.1016892 0.20443729 12171958
0.77600002 0.10924915 0.20403697 11514026
0.78680009 0.11464097 0.20441611 11514026
0.79028571 0.11813227 0.20611605 11514026
0.79336661 0.12469824 0.20519228 11514026
0.78900003 -0.16105461 0.21760999 9671824
0.79234779 -0.16564059 0.21424265 9803153
0.78582609 -0.15524106 0.21495803 9934738
0.76900005 -0.14016984 0.21239394 11315361
0.774261 -0.14531206 0.21526338 10263447
0.76359087 -0.13455762 0.21496421 14144457
0.76099986 -0.12535031 0.21463817 14803418
0.76250005 -0.11488453 0.21506177 11449268
0.76396155 -0.1054078 0.21478723 13290182
0.76362866 -0.095317632 0.21525107 12303538
0.76149982 -0.085323937 0.21477824 12368302
0.75800002 -0.073317342 0.21548463 11709606
0.76018196 -0.078865275 0.21416396 12169899
0.74850005 -0.06167084 0.21695244 11118495
0.75348002 -0.065731995 0.21438347 11380897
0.74599999 -0.054798346 0.21491057 11249567
0.73738468 -0.042653281 0.21707018 10858406
0.74245453 -0.046137191 0.21422316 11053731
0.73399997 -0.035190012 0.21514665 11777455
0.73255563 -0.024629394 0.21518674 12566201
0.73425651 -0.014301265 0.21522045 12698302
0.74150002 -0.010175004 0.21087351 13093059
0.73825008 -0.0079696467 0.21815832 12895422
0.74434489 -0.0046207029 0.21471241 12698046
0.74800009 0.00082637533 0.21680732 12829630
0.75535482 0.0051584709 0.21489497 12631996
0.76000005 0.0091420468 0.21168737 11711407
0.75900006 0.010906851 0.21762775 11185063
0.76176471 0.015670756 0.2146429 11776943
0.76443344 0.025303453 0.2156039 11841960
0.76578808 0.034962017 0.21492746 11512224
0.76515394 0.045163963 0.21511997 11250597
0.76283336 0.054711338 0.21515614 10725540
0.761114 0.065153614 0.21479847 11120296
0.75900006 0.077636786 0.21456763 11841702
0.76006263 0.073420577 0.21548611 11513510
0.7585001 0.084588498 0.21482134 12105131
0.75900006 0.091654032 0.21456763 11908528
0.76253331 0.096290387 0.2148913 12106165
0.77000004 0.099391535 0.21988046 11382440
0.76800001 0.10093127 0.21121995 11514027
0.77435726 0.10423183 0.21542647 11448234
0.78250003 0.10833243 0.21887094 11382440
0.78690004 0.11207573 0.21531168 11382440
0.79078579 0.11701725 0.2149729 11514026
0.792 0.12448127 0.21503776 11448233
0.78877783 -0.16121466 0.22483295 9671823
0.79100001 -0.16609405 0.22495121 9803152
0.78542864 -0.15507725 0.22498553 10132374
0.77454168 -0.14436071 0.22457516 10066323
0.78000003 -0.14947885 0.22730103 8289657
0.76572222 -0.13439901 0.22502987 14012616
0.77000004 -0.13854954 0.22709079 15065560
0.76155162 -0.12528734 0.2244774 14144976
0.7638334 -0.11508463 0.22527364 11119017
0.76493108 -0.10528225 0.22485416 13026752
0.76309383 -0.095272787 0.22505191 12237489
0.75900006 -0.081932664 0.22784454 12236723
0.76088458 -0.085734181 0.22481304 12434356
0.75633347 -0.074814752 0.22511908 11513255
0.76000005 -0.079816639 0.22147281 13222592
0.74699998 -0.063736103 0.22591597 11053217
0.75154549 -0.067573085 0.22340369 11776169
0.73800004 -0.05228262 0.22836342 11777199
0.74325806 -0.055555519 0.22430822 11053731
0.73464108 -0.04523205 0.22538713 11316390
0.72900003 -0.0304827 0.22865176 10987425
0.73145741 -0.03499037 0.22501718 12170668
0.72900003 -0.023918847 0.22747026 11842739
0.73060876 -0.024898445 0.22313178 11974840
0.72900003 -0.017967619 0.2280829 12303288
0.73118198 -0.013973276 0.22471762 12566459
0.73503715 -0.0057477173 0.22569655 12369333
0.74222231 -0.0024613752 0.22314405 12961216
0.74595839 0.0025740645 0.22538118 12566461
0.75349998 0.0075236149 0.22442602 12435131
0.75833338 0.011933561 0.22527625 12631995
0.76099998 0.017098518 0.22495526 12171699
0.76371992 0.025280077 0.22523884 11448489
0.76502836 0.0352998 0.22485782 11644579
0.76506889 0.044899579 0.22489569 11381407
0.76330012 0.054745913 0.22511496 11250082
0.76164502 0.065469138 0.22479948 10922405
0.75900006 0.078426495 0.22206981 12171701
0.76051855 0.074625865 0.22548193 11579824
0.75900012 0.084518492 0.22371976 11644839
0.76000011 0.085201718 0.2285895 11250342
0.75900006 0.090864323 0.22029299 11579044
0.76284212 0.093868472 0.22516745 11974317
0.77180004 0.099623874 0.2258186 12237747
0.77590907 0.10312929 0.22470589 12500920
0.78412509 0.10764147 0.22575024 11448233
0.78837508 0.11168402 0.22443613 11382440
0.79150003 0.11647727 0.22499138 11448233
0.79307997 0.12464999 0.22461736 11514026
0.78887504 -0.16087528 0.23588866 9671050
0.79147369 -0.16601603 0.23469162 9803149
0.78586364 -0.15537395 0.23494582 10394772
0.77472728 -0.14393777 0.23483168 10263186
0.78000003 -0.14947885 0.23460503 10657430
0.76594442 -0.13274343 0.23465998 13814980
0.77055556 -0.13784835 0.23567295 15065045
0.76286691 -0.12476449 0.23481008 14342612
0.76499993 -0.11526209 0.23520252 11644590
0.76336658 -0.10519227 0.23496021 13815750
0.75887501 -0.092356667 0.23868813 12368308
0.76106441 -0.095620058 0.23387866 12697270
0.75779176 -0.084317565 0.23583223 12040112
0.7601667 -0.087545842 0.23249508 12434872
0.74735719 -0.072866067 0.23615588 11250338
0.75339997 -0.077274695 0.23409334 11447717
0.73685712 -0.061861504 0.23752187 11644838
0.74388236 -0.065630667 0.2343379 11250081
0.73450005 -0.054884274 0.23547935 11447975
0.74133331 -0.058187779 0.23136289 11382437
0.72900003 -0.041291181 0.23832251 11974837
0.73129427 -0.045585789 0.23485711 11974576
0.72782862 -0.034183361 0.2359245 11974580
0.73042858 -0.03738289 0.23178664 12566456
0.72671419 -0.02443275 0.23473601 12038572
0.72717655 -0.015034088 0.23523448 12039340
0.73019999 -0.011387097 0.23142114 12566710
0.72781825 -0.0079722814 0.2381923 12303541
0.73230779 -0.0041768714 0.23449823 12566711
0.73580003 0.0011014729 0.23715214 12435126
0.74441385 0.0051154522 0.23468474 12434866
0.75133342 0.0090377955 0.23213655 12368563
0.74799997 0.01074878 0.23811175 11974315
0.75630003 0.014532759 0.23543879 12631990
0.76057148 0.018814983 0.23321232 12433845
0.75900006 0.021567848 0.23983815 11777193
0.76246667 0.025238672 0.23468328 11710890
0.76497227 0.035171025 0.23545501 11448747
0.76513326 0.045027994 0.23550691 11251113
0.76341683 0.054753795 0.23497812 11315616
0.76185685 0.06521713 0.23462582 11184544
0.76099992 0.07507012 0.23512559 11119782
0.7608667 0.084855147 0.23508602 11447978
0.76558334 0.093298174 0.23460215 11711406
0.77233338 0.098288365 0.2348098 12895937
0.77657139 0.10153904 0.23578204 12764608
0.78578573 0.10708372 0.23502962 11382440
0.78900003 0.11107937 0.23177081 11448233
0.79304177 0.11575306 0.23535495 11382440
0.78877783 -0.16121465 0.244324 9539976
0.79176474 -0.16612875 0.24517651 9802893
0.78481823 -0.15483417 0.24482046 10197649
0.77535725 -0.14503005 0.24480991 10262929
0.76635301 -0.13261886 0.2451157 13552321
0.77099997 -0.13791013 0.24494167 14868181
0.76260722 -0.12453174 0.24512105 14342866
0.76396972 -0.11497346 0.24481989 11645360
0.76143324 -0.10492507 0.24506201 13092028
0.75810719 -0.093945049 0.24538592 12302771
0.76000005 -0.099091023 0.24311942 13289151
0.74777782 -0.081256934 0.24698785 11315616
0.75396305 -0.085265882 0.24425612 11644838
0.73766667 -0.070563592 0.24863665 11119012
0.74512911 -0.074883334 0.24490178 11249823
0.75000006 -0.07876642 0.24050574 10855321
0.73455173 -0.064696409 0.24538979 11579304
0.74183339 -0.068647675 0.24222636 10986395
0.72900003 -0.050961923 0.24827769 12960699
0.73133355 -0.05583524 0.24512257 12039342
0.72796881 -0.044128835 0.2454742 12171181
0.73016667 -0.048194852 0.24212231 13024690
0.72599995 -0.034606852 0.24555458 11646122
0.72511131 -0.02437943 0.24525534 11447459
0.72433347 -0.015027566 0.24499041 11447719
0.72510815 -0.005726052 0.24504218 11974581
0.73049998 -0.0014734908 0.2419475 13619146
0.72740006 0.0012581752 0.24738912 12565944
0.73340005 0.0049916236 0.24484776 12632249
0.742625 0.0078479806 0.24204996 12435125
0.7373333 0.0105955 0.24852352 12368562
0.74579161 0.013484812 0.24569817 12369074
0.75333339 0.017784486 0.24372332 12829881
0.7576471 0.023723071 0.24639857 12698299
0.76050007 0.026697841 0.24285448 12434354
0.76222205 0.035045091 0.24531442 11645353
0.76340747 0.044793896 0.2452001 11449007
0.762788 0.054952919 0.24509245 11250597
0.76149976 0.065313049 0.24508442 11250081
0.7608332 0.075053208 0.2448696 11447460
0.76181233 0.084462121 0.24479437 11251115
0.76757145 0.091634624 0.24460004 11645356
0.77280009 0.09601716 0.24528413 12764092
0.77800006 0.10072812 0.24493329 12698558
0.78619999 0.10636668 0.24502566 11316648
0.79196417 0.11514248 0.2448885 11382441
0.79353321 0.12472084 0.24424574 11448235
0.7935161 0.13508771 0.24499243 11448748
0.78900003 -0.16043893 0.25301203 9341573
0.78481823 -0.15491889 0.25492641 11051676
0.77485716 -0.14486985 0.25482556 10327952
0.76600003 -0.1323463 0.25523543 13288892
0.7705 -0.13773821 0.25519645 14670288
0.76237029 -0.12488376 0.25478378 14737624
0.76183331 -0.11478767 0.25440365 11449005
0.7588889 -0.10200595 0.25677884 11775656
0.76042867 -0.10588674 0.25461483 13223616
0.74900001 -0.090935349 0.2594727 11908009
0.75615638 -0.095295444 0.25508368 12039084
0.74630767 -0.084496707 0.25557944 11117980
0.75188893 -0.088549182 0.25264749 11118236
0.73537052 -0.073345892 0.25576654 11446690
0.74249995 -0.077871948 0.25341561 11117467
0.72875005 -0.062460504 0.25885499 11842220
0.73137939 -0.065122291 0.25442812 12171185
0.72709388 -0.054235365 0.25592041 12630448
0.73037499 -0.057897918 0.25259268 11841449
0.72448897 -0.044769321 0.2553432 12698045
0.72309542 -0.034469027 0.25557035 12565943
0.72254783 -0.024292914 0.25537696 12236976
0.72217143 -0.014981956 0.25524646 11317165
0.72152376 -0.0056790276 0.25501746 12236207
0.72349989 0.0042735026 0.25538716 12499892
0.73100001 0.0083659692 0.25152516 12631734
0.72850001 0.010468565 0.25833941 12040370
0.73409528 0.012926106 0.25520417 12303288
0.74440914 0.017433671 0.25431064 11908784
0.74783331 0.021834617 0.25702444 12501178
0.75531042 0.025493752 0.254457 12369334
0.75877786 0.031430226 0.25674111 12369336
0.76061535 0.035996608 0.25466087 12500406
0.76174986 0.044956591 0.25439799 11513510
0.76209074 0.054417446 0.2545999 11513768
0.76156658 0.065318801 0.25491226 11185061
0.76059997 0.075029634 0.25458899 11381153
0.76246142 0.084282316 0.25500578 11776426
0.76800001 0.090143859 0.25526971 10921890
0.77352178 0.09536346 0.25505432 12369079
0.77900004 0.10055325 0.2534526 11776432
0.78591305 0.10561329 0.2550562 11908529
0.78900003 0.11107937 0.25855324 11316647
0.79137039 0.11546364 0.25486925 11316649
0.7927857 0.12440574 0.25482363 11448235
0.77900004 -0.15111086 0.26986548 9539459
0.78600001 -0.15531944 0.26534423 11183773
0.77503455 -0.14484167 0.2652356 10788501
0.76720005 -0.13265984 0.26517832 13354942
0.77079999 -0.1377922 0.26521963 14670802
0.76217234 -0.12453149 0.26477364 14079950
0.75900006 -0.11228689 0.26767519 10723991
0.76051724 -0.11541826 0.26383013 10724768
0.74900001 -0.10145588 0.26999325 11645355
0.7567941 -0.10486093 0.26539731 12434099
0.76000005 -0.10828342 0.2615042 14671063
0.74631035 -0.093804941 0.26618767 11249827
0.75308341 -0.097455323 0.26264381 11908011
0.73685724 -0.082316823 0.26721367 11052449
0.74325007 -0.086035617 0.26400116 11184033
0.72850007 -0.071818806 0.26814535 11185316
0.7327742 -0.075633593 0.26458099 11251627
0.7250976 -0.064688526 0.26542333 12040111
0.7306 -0.069203556 0.26130751 11515059
0.71893328 -0.053400159 0.26768228 12370621
0.72217244 -0.055501755 0.26311526 12894903
0.71858335 -0.044346362 0.26659787 12829110
0.72038472 -0.044782989 0.26201254 12961209
0.7185927 -0.034159392 0.26588452 12499894
0.72000003 -0.03516297 0.26164648 12631990
0.71825933 -0.025051549 0.26594636 12105906
0.72000003 -0.025049772 0.26122507 12434612
0.71824998 -0.015740989 0.26594663 11974834
0.72000003 -0.015779341 0.26122507 11448491
0.71816671 -0.005371769 0.26560006 12105907
0.72000003 -0.0081944428 0.26122507 12039339
0.71843749 0.0040700105 0.26533386 12172212
0.72060001 0.0076567843 0.26144183 12369848
0.71900004 0.010893114 0.2687172 12631734
0.72409093 0.01256522 0.26532042 12303283
0.73329997 0.016464766 0.26424244 12171698
0.7420001 0.019347737 0.26225728 12105908
0.73900002 0.020999525 0.26984856 11974574
0.74587995 0.023644479 0.26544234 12236979
0.7529 0.027916586 0.26381233 12632505
0.75741941 0.033938933 0.2655884 12369077
0.7601667 0.038803581 0.26245075 12172470
0.75900006 0.041113008 0.26826745 13289929
0.76062065 0.044885878 0.26423445 12106162
0.76177752 0.054639861 0.26479062 11579560
0.7618053 0.065339804 0.26480034 11119269
0.76099986 0.075070128 0.26452062 11381927
0.76376915 0.083946362 0.26486492 11315875
0.76900005 0.090261243 0.26280072 12368305
0.77329177 0.094918795 0.26547214 11974061
0.77900004 0.10055325 0.26530635 13289666
0.78591305 0.1060912 0.2646572 11842478
0.78900003 0.11107936 0.26501796 11382440
0.79119045 0.11588819 0.26509213 11382440
0.78842866 -0.16085045 0.27576742 9540239
0.79360884 -0.16630849 0.27475795 9540237
0.77733338 -0.15139492 0.27595794 12237745
0.78429413 -0.15635301 0.27493411 10921632
0.7739259 -0.1448964 0.27495065 10658458
0.76663643 -0.13321681 0.27496067 13816006
0.77037501 -0.13816637 0.27409053 14671829
0.75900006 -0.12057877 0.27892849 11774625
0.7613793 -0.12464732 0.27482253 14079434
0.75816673 -0.11416239 0.27558777 11249307
0.76000011 -0.11762409 0.27217925 10790042
0.74693751 -0.10270814 0.27580461 11250598
0.75344443 -0.10735212 0.27403921 12434354
0.73720002 -0.09243767 0.27712733 10790052
0.74331999 -0.096235387 0.27413598 10987427
0.72850001 -0.081624739 0.2788046 10986648
0.73372227 -0.085172504 0.27483249 10593181
0.74066669 -0.089345388 0.2710346 10855326
0.71883339 -0.071566962 0.27819052 12235181
0.72463638 -0.074924797 0.27513358 11906980
0.73119998 -0.077819243 0.27179289 11844271
0.71706253 -0.063925594 0.27641326 12367793
0.72092319 -0.066496663 0.27181473 12630191
0.71506393 -0.054900743 0.27530482 12500664
0.71469545 -0.045159709 0.27525619 13092285
0.71423906 -0.035535328 0.27522674 12631736
0.70900005 -0.022177398 0.27881134 11974577
0.71342224 -0.025898417 0.27456334 11843507
0.7084167 -0.014835372 0.27802828 11908272
0.71325707 -0.015750624 0.27336884 12301999
0.70800006 -0.006518817 0.27841678 12105907
0.71311432 -0.0054933997 0.2736004 12303547
0.70900005 0.0018894402 0.27881134 12566458
0.71413326 0.0045795804 0.27457684 12500666
0.71733332 0.012674694 0.27598721 12105649
0.72280008 0.017382868 0.27486905 12434870
0.73100001 0.01906091 0.27205959 11843758
0.72650003 0.021070972 0.27888721 12040367
0.73435718 0.022835717 0.27637339 11842990
0.74508703 0.026636528 0.27494937 12106163
0.74816674 0.031476986 0.27698901 12500921
0.7542122 0.035456762 0.2742731 12566456
0.75833333 0.043107003 0.27555338 12368306
0.76009101 0.047157444 0.27350554 12566200
0.76116657 0.054595828 0.27526841 11645612
0.76119423 0.065287657 0.27527916 11578790
0.76132137 0.074912108 0.27500728 11250084
0.76592314 0.084527716 0.27491859 11447720
0.77000004 0.088576026 0.27756315 9869198
0.77348143 0.094415218 0.27519563 12632249
0.77900004 0.10055325 0.27533641 13158596
0.78547615 0.10594806 0.27464622 11448234
0.78900003 0.11107936 0.27517682 11316904
0.79186964 0.11624143 0.27545136 11251367
0.78841668 -0.16308954 0.28512421 9342347
0.79154551 -0.16752778 0.28482166 9539468
0.7766667 -0.152358 0.28529975 11579306
0.78353846 -0.15792067 0.28455928 10132635
0.77290004 -0.14450306 0.28494024 11249310
0.76570839 -0.13434696 0.28497648 13552322
0.77000004 -0.13854954 0.28297091 14736851
0.75843751 -0.1223767 0.28615549 12039597
0.76078951 -0.12714486 0.28445947 14474194
0.74875003 -0.11193904 0.28786927 12566199
0.75467736 -0.11510943 0.28451163 11052189
0.73775005 -0.1012266 0.28752327 11053470
0.74484384 -0.10520292 0.2849462 11316646
0.75200003 -0.10890403 0.28075594 11974317
0.72900003 -0.090213776 0.28838286 10854808
0.73350006 -0.094796591 0.28509438 11447972
0.74166673 -0.098726295 0.28123748 10922147
0.72443348 -0.084057599 0.28583291 11447460
0.73069996 -0.087003693 0.28221232 11052700
0.71763331 -0.074139036 0.28517315 12039598
0.72137505 -0.0785053 0.28198516 12433843
0.70850009 -0.062383562 0.28538689 12236978
0.71220845 -0.06667266 0.28430662 12434099
0.70744741 -0.055209655 0.28508362 12565942
0.71000004 -0.054620072 0.28086671 12894648
0.70700002 -0.045286234 0.28546861 13026492
0.71000004 -0.045478392 0.28086671 13093313
0.70708346 -0.035359707 0.2855022 12763834
0.71000004 -0.035505656 0.28086671 13158592
0.706738 -0.025416482 0.28453439 12106162
0.70550001 -0.015462659 0.28485981 12238006
0.70519048 -0.0055474807 0.28501111 12698557
0.70660973 0.004264514 0.28460503 12961216
0.71000004 0.0085405959 0.28086671 12961217
0.70775002 0.01182812 0.28660169 12829632
0.71396786 0.01587176 0.28420582 12237493
0.71807694 0.021828851 0.2870335 12303542
0.72380006 0.024383927 0.2847963 12106163
0.73287499 0.027368035 0.2837981 11645867
0.74300003 0.02923028 0.2820318 12237746
0.73550004 0.03180648 0.28836694 11448491
0.74582613 0.034329657 0.28539354 12435381
0.7519092 0.038009711 0.28336036 12566968
0.75683784 0.045312792 0.28511882 12105905
0.75893748 0.054434992 0.28723353 12303541
0.76028574 0.056438897 0.28321433 12237493
0.75900006 0.061546583 0.28958946 11382444
0.76038241 0.065428309 0.28540343 11118758
0.76153564 0.075188927 0.28501716 11447718
0.76658338 0.084375136 0.28463116 12171186
0.77000004 0.088576026 0.28747737 11578281
0.7735185 0.094351858 0.28500065 12631735
0.77789992 0.10114072 0.28569245 11908013
0.78382623 0.10628644 0.28437653 11250597
0.78733331 0.11419057 0.28558123 11185574
0.79049999 0.1173052 0.28171402 11185831
0.7885384 0.12294313 0.28793699 11316904
0.79254168 0.12549493 0.28351703 11317417
0.78730774 -0.16321574 0.2957105 9604746
0.79110003 -0.16753411 0.29461464 9474188
0.77583337 -0.15241688 0.2949011 11380896
0.78245455 -0.15827709 0.29453731 10920348
0.76900005 -0.14137001 0.29640529 14144461
0.77200001 -0.14496274 0.29462764 11249313
0.75900006 -0.13123977 0.29758522 14341067
0.76329619 -0.135563 0.29479742 13946823
0.75606257 -0.12498513 0.29504481 12828342
0.76050007 -0.12971878 0.29105136 13815750
0.74669564 -0.11391463 0.29507712 11973291
0.75144452 -0.11879216 0.29373863 9801096
0.73626673 -0.10283653 0.29470405 11052444
0.74268758 -0.10777517 0.2945562 11447459
0.72900003 -0.091237739 0.29350263 10789530
0.73160011 -0.095676772 0.29537159 10723736
0.72411543 -0.084857941 0.294469 10263445
0.71739286 -0.073907256 0.294707 10790045
0.7202 -0.078671657 0.29670414 10066067
0.70862508 -0.061564844 0.29359487 10330006
0.71161908 -0.065774612 0.29530933 10921887
0.70662177 -0.055301834 0.29508814 11447460
0.70477509 -0.04498104 0.2950488 11842216
0.70333332 -0.035172887 0.2946901 11514024
0.70280927 -0.025275175 0.29447079 11184288
0.70210791 -0.015498837 0.29484689 11053218
0.70299983 -0.0054627932 0.2949551 11514025
0.70519441 0.0043578506 0.29464969 11316649
0.70711762 0.013962492 0.29491633 11842736
0.71033335 0.018522026 0.29430023 12698302
0.71566665 0.023304503 0.29499817 12632509
0.72233343 0.02855932 0.29376632 12106164
0.72622228 0.031405114 0.29691234 12501179
0.73368174 0.034750212 0.29538473 12237750
0.74350005 0.037374262 0.29295382 12171956
0.74688888 0.042499907 0.29671901 12500921
0.75382149 0.046760373 0.29397202 12435127
0.75759995 0.055227872 0.29525989 11907757
0.75880945 0.063011944 0.2955218 11578791
0.76000017 0.068501756 0.29498503 10855324
0.76185179 0.075091027 0.29497162 11315361
0.76714289 0.083461657 0.29483429 12104106
0.7704286 0.088367812 0.295497 11710120
0.77418518 0.094433397 0.29504651 12632250
0.77840006 0.10120527 0.29298303 12829629
0.78335297 0.10543485 0.29564443 11119269
0.78633332 0.11438674 0.29465276 11250854
0.78838092 0.12347352 0.29464841 11316647
0.7902 0.12845221 0.29668459 11382440
0.7925185 0.13590336 0.29454252 11448233
0.7873078 -0.16335765 0.30492544 9539206
0.79112506 -0.16758567 0.30601344 9473415
0.77547067 -0.15224423 0.30494994 11380639
0.78190005 -0.15808126 0.30473179 11249052
0.7688334 -0.14193933 0.30504093 12894139
0.77181262 -0.14621811 0.30497992 10065039
0.75900006 -0.13123977 0.30291572 11973289
0.76254553 -0.13591638 0.3048149 12433584
0.75572008 -0.12537171 0.30496812 11380638
0.74699992 -0.11398063 0.30470777 10986909
0.75057143 -0.11873812 0.3052004 8815227
0.7384001 -0.10209421 0.3031655 9999503
0.74325007 -0.10633551 0.30585209 9999758
0.73469567 -0.094661891 0.30454761 9736332
0.72720009 -0.083183348 0.30350402 10066324
0.73158336 -0.087251939 0.30581999 9605260
0.71753335 -0.072560295 0.30321994 10330266
0.72122222 -0.077434592 0.30462646 9606030
0.70866674 -0.061153501 0.30190626 10198682
0.71221435 -0.065870456 0.30293971 10067094
0.70636362 -0.054944731 0.30182725 10856098
0.70394742 -0.044529531 0.30301693 10921886
0.70221734 -0.035296973 0.30316103 11382179
0.70162958 -0.024957398 0.3034713 11974062
0.70237118 -0.015274375 0.30486277 11382696
0.70450002 -0.0055410187 0.30508 10856350
0.70649987 0.0041716737 0.30487669 10987935
0.7082727 0.012289283 0.30309555 8618622
0.71286672 0.015478118 0.3066991 8158071
0.71735299 0.023251733 0.30392897 10592671
0.72111112 0.02724503 0.30627096 11579567
0.72646677 0.032551825 0.30495438 12698302
0.73230004 0.037784208 0.30494094 12632509
0.73700005 0.042222545 0.30668715 12238007
0.74463332 0.04580139 0.30473042 12303287
0.75050008 0.049437258 0.30127972 12303799
0.74777782 0.052370712 0.30786884 12303285
0.75368971 0.055430248 0.30434886 12303542
0.75766671 0.063707992 0.30523783 12105393
0.76000011 0.069189161 0.3042044 12171185
0.76244825 0.075217985 0.30518296 11117725
0.76770002 0.083731607 0.305399 12433584
0.77028573 0.088093869 0.3039414 11841708
0.77425009 0.094574414 0.30498439 12566202
0.78559256 0.1050908 0.30524933 11646127
0.78887504 0.11313971 0.30214238 10988453
0.79100001 0.11582843 0.30670181 10988452
0.79266667 0.12441031 0.30544171 11185831
0.78766674 -0.16339608 0.31574029 9276550
0.7907778 -0.16738337 0.31426078 9408133
0.77675003 -0.15226717 0.31318173 13289408
0.78278577 -0.15708509 0.31554776 10592153
0.77347374 -0.14480102 0.314937 10327957
0.76507694 -0.13477579 0.31353706 12630451
0.77100003 -0.13737637 0.31808376 10722971
0.75773335 -0.12357194 0.31417802 10788502
0.76075011 -0.12775692 0.31586 13288635
0.74800009 -0.11211955 0.31311756 11447460
0.75299996 -0.11622943 0.31537977 9407621
0.74595243 -0.1050363 0.31405127 9934738
0.75033337 -0.10690691 0.31965712 9341832
0.73900002 -0.092316285 0.31223387 9013637
0.74340016 -0.096056357 0.31485099 9474188
0.73516673 -0.084957756 0.31204832 9868946
0.74425 -0.085563675 0.31750268 9276808
0.705625 -0.0041064145 0.31114155 12436159
0.70755559 0.0031765327 0.31192327 9936281
0.71142852 0.0078447731 0.31426662 9738901
0.71700007 0.013368391 0.31463912 10001300
0.72183341 0.017133234 0.31680977 9803919
0.72507697 0.024003042 0.31346864 7895159
0.73137498 0.02699123 0.31778765 7105385
0.72900003 0.031808276 0.31142199 13027269
0.73263639 0.03610139 0.31477076 12105911
0.7366668 0.043930862 0.31431463 12764095
0.74144453 0.048262771 0.31471252 12435130
0.74596965 0.054807078 0.31520247 12501180
0.75033337 0.058794249 0.31263015 12040628
0.75594115 0.065002859 0.31485873 12369337
0.76000005 0.069633953 0.31132108 11579564
0.7623077 0.075204529 0.31494173 11315365
0.7671001 0.084653646 0.31512573 12303028
0.77000004 0.088576026 0.31000966 11119013
0.76900005 0.090261236 0.31770813 14079696
0.77311128 0.094638437 0.31454545 12172216
0.77900004 0.10055325 0.31545681 12895941
0.78627276 0.10601762 0.31480205 10988199
0.79204172 0.11506623 0.31502092 10922915
0.7936666 -0.17460369 0.32469872 9737620
0.78850007 -0.16195285 0.32345739 9277070
0.79081255 -0.16578361 0.32614213 9606291
0.78658831 -0.15507546 0.32492411 9145741
0.79000002 -0.15879287 0.32915828 9541008
0.77750009 -0.14323656 0.32243428 8685447
0.78362501 -0.1465046 0.3260459 8882826
0.76900005 -0.13296887 0.32040852 13091518
0.77430779 -0.13500457 0.32471249 9934742
0.78200006 -0.13887808 0.3294864 9211792
0.76428574 -0.12423439 0.32278922 10986398
0.77140003 -0.12688379 0.32718754 10329239
0.757375 -0.11456171 0.32265732 11381411
0.76233339 -0.1148617 0.32715017 13027007
0.7561667 -0.10508605 0.32391241 9802127
0.76060009 -0.10480915 0.32759207 9671310
0.755 -0.094808578 0.3243998 9737358
0.71850002 0.011166461 0.32123366 10923178
0.72500002 0.015271535 0.32316923 9343630
0.73160005 0.018048847 0.3264074 9408910
0.73493755 0.024113812 0.32428414 9013891
0.74175006 0.028459484 0.32772189 9145476
0.73699999 0.034006912 0.32137209 7039594
0.74316669 0.035180811 0.32719004 7500657
0.73900002 0.04175967 0.3208839 13158599
0.74315 0.04521402 0.32486409 12237497
0.74600005 0.055258289 0.32450676 12698815
0.75525939 0.065608025 0.32495788 12304059
0.76353842 0.075190872 0.32480156 9277069
0.76749998 0.083668776 0.32363555 10526362
0.77071428 0.086597763 0.32756692 10592669
0.77380008 0.093909159 0.32440159 11250343
0.78610003 0.10460504 0.32467917 11316905
0.79025 0.10940535 0.32648835 10922146
0.79260719 0.11523559 0.32487607 11053989
0.78900003 -0.1512036 0.3305887 9080457
0.79328585 -0.15538597 0.335484 9540753
0.78788894 -0.14443451 0.33237806 9211790
0.79150003 -0.14519784 0.33701116 9409169
0.77850008 -0.13279022 0.33074486 9408656
0.78620005 -0.13502106 0.33586079 9540755
0.79000002 -0.13844942 0.33840528 9540755
0.7755 -0.12531944 0.3324984 9408652
0.78366679 -0.12755325 0.33752847 9474449
0.76900005 -0.1167667 0.33120999 13618629
0.77428573 -0.11394607 0.33633688 11250085
0.76825005 -0.10676317 0.33268541 11710638
0.7732501 -0.10428944 0.33666083 9276809
0.76600003 -0.097482353 0.33171105 10527132
0.77442855 -0.094279118 0.33691579 9080457
0.77550006 -0.087796822 0.33582497 9803151
0.78440011 -0.083840437 0.33820987 9079429
0.73900002 0.017539499 0.332129 10658468
0.74433345 0.018826446 0.33569023 10461088
0.745 0.025946066 0.33427778 9737616
0.74738467 0.035100933 0.33347633 9803409
0.75100011 0.034527864 0.33840123 9145476
0.74710006 0.044142172 0.33122286 9276558
0.75281817 0.045106269 0.33673912 8881797
0.74849999 0.051934473 0.33114183 13224391
0.75458336 0.05544446 0.33531073 11316649
0.76000005 0.057179738 0.33978787 12829631
0.75692856 0.064673342 0.3333517 12435645
0.7610001 0.067944735 0.33667293 11053737
0.7654286 0.074489817 0.33363625 8028289
0.77116674 0.07848154 0.33665624 9277327
0.77380002 0.085121557 0.33463877 10132118
0.77733332 0.093365394 0.33206797 12237750
0.78522223 0.097276539 0.33717492 10856354
0.7883001 0.1030464 0.33435637 10725026
0.79092866 0.10764889 0.33576205 10725282
0.79228556 0.11545086 0.33507839 10922661
0.79314291 0.1244622 0.33477697 11053733
0.78820002 -0.12521717 0.34280136 9737363
0.79188889 -0.12518591 0.34704331 10000790
0.7865001 -0.11482383 0.34519371 9474958
0.79100001 -0.11177436 0.34994411 9804180
0.77875006 -0.10275137 0.34087852 9277836
0.78528583 -0.10583991 0.34505501 9540751
0.79039997 -0.10521339 0.3496787 9738387
0.78680009 -0.095335931 0.34514055 9409422
0.79050004 -0.0913468 0.34787235 9475215
0.78742868 -0.085325196 0.3420434 9145737
0.75600004 0.019712789 0.34330893 8618626
0.76900005 0.016451279 0.34921241 7697781
0.75580007 0.025015131 0.34321812 9803668
0.76080006 0.025178749 0.34726971 9540495
0.7561112 0.035646312 0.34277076 10132626
0.76000005 0.034940068 0.34690455 10396312
0.75788891 0.044800267 0.34219554 9869199
0.76177788 0.045823772 0.3467268 10263957
0.75900006 0.051774006 0.34111762 9868944
0.76327288 0.054501608 0.34417793 9671310
0.77033335 0.057357103 0.34861538 9474191
0.76524997 0.064071923 0.34280899 11185324
0.77283341 0.065683737 0.34884349 9277582
0.76800007 0.07216718 0.34096658 9738388
0.77350003 0.075513989 0.34480613 10132889
0.77771431 0.082182527 0.34380624 10330524
0.78370005 0.086668327 0.34598228 10264474
0.7877143 0.09443564 0.34401283 10330267
0.79066664 0.095890202 0.34825432 10659489
0.79207391 0.10547069 0.34520149 10791075
0.79311997 0.11537328 0.34531215 10857125
0.77450001 0.017020173 0.35352314 8224122
0.78425002 0.014478645 0.35797179 8224636
0.79050004 0.011359505 0.35805109 7896185
0.76733333 0.027191332 0.35204825 8685699
0.77483338 0.024734909 0.3570011 8684929
0.76483339 0.035160515 0.35090125 9343370
0.77320004 0.035544813 0.35727611 9211529
0.76675004 0.044229072 0.35178059 10461335
0.77316672 0.045351129 0.35729066 9671823
0.76900005 0.050655898 0.35101262 10329752
0.77492321 0.054675724 0.35483563 9935509
0.78200006 0.05883494 0.35877723 8949641
0.77657145 0.064141944 0.3529112 9738133
0.78299999 0.065326519 0.35770884 9475472
0.77771431 0.074120402 0.35160953 10133145
0.78377783 0.076501876 0.35674039 10330524
0.78704762 0.084750637 0.35504031 10527903
0.79000002 0.0890273 0.35782403 10593696
0.78900003 0.090761669 0.35090637 10527903
0.7913847 0.095099725 0.35538638 10659489
0.79261094 0.10509364 0.3552942 10791075
0.79329628 0.11519394 0.35508496 10922404
0.78783339 0.016237715 0.36299077 8488063
0.778 0.028481174 0.36058465 9409422
0.78577781 0.024579266 0.36480597 9145993
0.79000002 0.024298152 0.3686122 9146250
0.77700001 0.031174192 0.36012116 9212043
0.78570002 0.035198875 0.36691561 9541008
0.77875006 0.04309405 0.36275536 9738387
0.7845 0.046162061 0.36681354 9935766
0.77700001 0.051182874 0.36012116 10264731
0.78556252 0.056002881 0.36558738 9738901
0.78839117 0.064853728 0.36548284 9673364
0.79000002 0.068683848 0.36799577 9804950
0.78859991 0.075207531 0.36483428 10199708
0.79000002 0.074232064 0.36947528 10265501
0.78871417 0.084750734 0.36458382 10462880
0.79000002 0.087794363 0.36768749 10462623
0.79060006 0.094648935 0.36457425 10659746
0.79170012 0.10497417 0.36508226 10791075
0.79281479 0.11539839 0.36483967 10856868
0.78900003 0.045508619 0.37122408 9935764
0.78900003 0.054743934 0.37122408 9870742
0.79238892 0.054976664 0.37653112 9936534
0.78900003 0.061208658 0.37122408 9936536
0.79078948 0.065244652 0.37499103 10068120
0.79104358 0.075055525 0.37484458 10265242
0.7922858 0.085311621 0.37568828 10594209
0.79333335 0.094798878 0.37441614 10594210
