# .PCD v0.7 - Point Cloud Data file format
VERSION 0.7
FIELDS x y z rgb
SIZE 4 4 4 4
TYPE F F F U
COUNT 1 1 1 1
WIDTH 747
HEIGHT 1
VIEWPOINT 0 0 0 1 0 0 0
POINTS 747
DATA ascii
0.76600003 -0.44088393 -0.4106819 14934508
0.76833338 -0.43922809 -0.41133282 15987194
0.77900004 -0.70367771 -0.40853342 9867941
0.78060001 -0.70512307 -0.40388894 9933219
0.773 -0.69554543 -0.40538338 11840961
0.76350003 -0.68342364 -0.40487018 13223384
0.75771427 -0.67393583 -0.40471965 13749984
0.75643349 -0.59563565 -0.40378189 14473704
0.75722855 -0.58473957 -0.40420657 14473705
0.75800002 -0.57468969 -0.40461823 14473961
0.75799996 -0.56508303 -0.40449592 14539497
0.75765389 -0.55512178 -0.4045687 14605289
0.75700009 -0.54518443 -0.40388626 14407911
0.75603861 -0.53514999 -0.40356901 14473703
0.75634384 -0.52512705 -0.40389848 14802669
0.75793326 -0.51519787 -0.40458211 15066096
0.75893348 -0.50521833 -0.40511626 15197682
0.76000005 -0.50148082 -0.4003484 15132144
0.75900012 -0.49460208 -0.40515214 14671595
0.76000005 -0.49881205 -0.4003484 15395316
0.75812012 -0.48426783 -0.40468207 14474213
0.75744009 -0.47496781 -0.40431851 14473960
0.75851732 -0.4660275 -0.4047716 14737388
0.76000005 -0.46055982 -0.40212759 14803179
0.75900006 -0.45936152 -0.40633667 14869485
0.76041377 -0.45442498 -0.40400392 15330036
0.76299995 -0.44417882 -0.40479392 15329522
0.76800007 -0.43933707 -0.40546036 16184829
0.77420831 -0.4376725 -0.40480804 15066348
0.78615791 -0.43727338 -0.40550271 14014171
0.78700006 -0.71274662 -0.39430511 9867172
0.78120005 -0.70566499 -0.39505914 9932966
0.77349997 -0.69599509 -0.39478263 12366793
0.76372737 -0.68370825 -0.39531898 13551835
0.75718176 -0.67430156 -0.39483517 13749983
0.76000005 -0.67939818 -0.39145252 14144486
0.75369227 -0.66507459 -0.39505857 14012898
0.75389177 -0.65452242 -0.39465037 14078949
0.75544465 -0.64496469 -0.39529413 14144741
0.75538701 -0.63505894 -0.39534989 14276327
0.75419343 -0.62494278 -0.39478299 14210790
0.75421035 -0.61474782 -0.39446357 14210790
0.75625628 -0.60500485 -0.39524135 14342376
0.75776482 -0.59517181 -0.3945249 14539499
0.7581315 -0.58487666 -0.39511204 14539498
0.75872225 -0.57434869 -0.39523363 14539753
0.75900012 -0.56478691 -0.39537948 14473962
0.76000005 -0.56019354 -0.39145252 14737134
0.75896442 -0.5551787 -0.39624915 14473961
0.76000005 -0.554856 -0.39174905 14342376
0.75864011 -0.54519641 -0.3963629 14210533
0.7601251 -0.54538274 -0.39151663 14079203
0.75841945 -0.53497368 -0.3955045 14342376
0.76000005 -0.53706431 -0.39145252 14276581
0.7583124 -0.52522016 -0.3950192 14671341
0.75808561 -0.51517558 -0.39503011 15066097
0.75888246 -0.50544536 -0.39510977 15263731
0.76000005 -0.50148082 -0.3985692 15197683
0.75900018 -0.49400017 -0.39489233 15263474
0.76000005 -0.49910858 -0.39797616 15329269
0.75883347 -0.48472348 -0.39529189 14737386
0.7586472 -0.47509682 -0.3949852 14540008
0.75891304 -0.46654364 -0.39653131 14737131
0.76000017 -0.46259314 -0.39412126 15000558
0.76016682 -0.45443133 -0.39491937 15395316
0.76362497 -0.44415841 -0.39502764 15330036
0.7713334 -0.44034222 -0.39187205 16514047
0.7743479 -0.43858856 -0.39552805 15659256
0.78547621 -0.43816495 -0.39511457 13883100
0.78730005 -0.71412605 -0.38505551 9736099
0.77866673 -0.70337659 -0.3828392 9867943
0.78000003 -0.70458102 -0.38805896 10064553
0.77310002 -0.6956352 -0.38462576 12499408
0.76372737 -0.68370825 -0.38475358 13683679
0.75685722 -0.67329943 -0.38451776 14012641
0.75390011 -0.66476882 -0.38513055 14078690
0.75384992 -0.65452927 -0.38488641 14144483
0.75575012 -0.64463633 -0.3848407 14210534
0.75590026 -0.63503325 -0.38491637 14407912
0.75523543 -0.62501067 -0.38436785 14276583
0.7556054 -0.61476707 -0.38495114 14210788
0.75717646 -0.6052916 -0.38530552 14342374
0.75885326 -0.59555614 -0.38490516 14605290
0.75900024 -0.58522052 -0.38471863 14736876
0.75900024 -0.57468641 -0.38479471 14736875
0.76000005 -0.57086855 -0.38255668 14934254
0.75900006 -0.56715614 -0.38797608 14737133
0.76006687 -0.56403834 -0.38460654 14803183
0.76062852 -0.55455095 -0.38541555 14605804
0.76083314 -0.5448963 -0.38564694 14407910
0.76075757 -0.53533328 -0.38536546 14079202
0.75900006 -0.52214295 -0.38782805 14803180
0.76024008 -0.52598631 -0.38467002 14079202
0.75887495 -0.51480305 -0.3856909 14605800
0.76000011 -0.51546001 -0.38103169 14408422
0.75896305 -0.50553429 -0.38598284 14934766
0.76000011 -0.504372 -0.38144469 14671593
0.75900006 -0.4970699 -0.38777864 15329269
0.76033336 -0.49464661 -0.38437152 15197681
0.75900006 -0.48838314 -0.38916066 15263476
0.76048565 -0.48476142 -0.3853429 15132146
0.76016676 -0.4748978 -0.38530916 14737644
0.76000017 -0.46500772 -0.38522545 14736874
0.76028574 -0.4546293 -0.38524258 15197681
0.76488626 -0.44548196 -0.38509148 15329779
0.7709167 -0.44130647 -0.3845917 15593462
0.77487499 -0.43884632 -0.38494152 15725563
0.78578269 -0.43730533 -0.3847301 14211808
0.78750008 -0.71473712 -0.37549934 9867423
0.77639997 -0.70132911 -0.37445512 9866402
0.78300005 -0.70912403 -0.37397084 9801375
0.76900005 -0.69104415 -0.37088475 13090515
0.77211118 -0.69484591 -0.37539604 12498893
0.76290005 -0.68288583 -0.37508333 13683422
0.75785732 -0.67342764 -0.37488738 14078691
0.76000005 -0.67939818 -0.37010244 13946591
0.7566334 -0.66499382 -0.37489673 14078948
0.75547242 -0.65535551 -0.37550914 14144997
0.75618774 -0.64478815 -0.37499401 14276583
0.75691432 -0.63512558 -0.37467456 14276840
0.75686115 -0.62461811 -0.37477416 14211045
0.75721216 -0.61470115 -0.37486681 14276325
0.75780559 -0.60499471 -0.3752417 14342118
0.75876683 -0.59563798 -0.37536269 14473703
0.75900012 -0.58522058 -0.37494591 14473703
0.76000005 -0.58243322 -0.37010244 14276581
0.75899994 -0.57646322 -0.37646893 14671337
0.76000017 -0.57410342 -0.37301385 14473702
0.76025009 -0.56482583 -0.3746739 14737134
0.76099986 -0.55469525 -0.37504309 14934512
0.7610665 -0.54494494 -0.37507629 15000303
0.76094276 -0.53518611 -0.37514251 14802923
0.76093531 -0.52542806 -0.37486768 14408167
0.76074994 -0.51533288 -0.37491867 14473703
0.76113874 -0.50490409 -0.37510994 14539753
0.76194268 -0.49486208 -0.37537876 14802925
0.76187086 -0.48505333 -0.37561384 15263474
0.76097208 -0.47451019 -0.37502897 15197937
0.76069999 -0.46454546 -0.37489405 14934252
0.76185346 -0.45471844 -0.37496001 15263471
0.76681256 -0.44701013 -0.37537795 15527156
0.77086669 -0.44163853 -0.37527376 15527670
0.77547616 -0.43812039 -0.37513056 15330033
0.78575003 -0.43660903 -0.37482053 14606050
0.78675002 -0.71298194 -0.36608997 9932703
0.79050004 -0.71776694 -0.36367247 9801116
0.77740002 -0.70223248 -0.36583319 9801119
0.78000003 -0.70458102 -0.36158204 10261670
0.76900005 -0.69104415 -0.36638415 13156305
0.77262509 -0.69565976 -0.36404186 12103618
0.76300001 -0.6838662 -0.36441857 13419991
0.75713336 -0.67329121 -0.36516291 13947104
0.76000005 -0.67939818 -0.36476496 13618139
0.75682759 -0.6651985 -0.3651371 14210533
0.75620717 -0.65476453 -0.36514229 14144997
0.75629437 -0.64530849 -0.36538118 14276327
0.75703228 -0.63495475 -0.36494103 14473705
0.75788879 -0.62517017 -0.36463779 14539498
0.7586391 -0.6151337 -0.36499807 14407912
0.75890005 -0.60515922 -0.36589473 14342119
0.76000005 -0.60319018 -0.36179963 14342119
0.75899994 -0.59530663 -0.36742058 14342375
0.76000017 -0.59420717 -0.3629857 14276582
0.75900006 -0.58758968 -0.3690232 14276581
0.7602309 -0.58473116 -0.36453262 14276581
0.76042861 -0.57532251 -0.36516002 14210788
0.76079983 -0.5652352 -0.36514813 14276582
0.76099986 -0.55469525 -0.36524487 14473961
0.76099992 -0.54489702 -0.36524487 14802926
0.76078558 -0.53526676 -0.36495066 15000048
0.76088876 -0.52561873 -0.36538905 15131633
0.76099986 -0.51550198 -0.36524487 15131888
0.7615332 -0.5051657 -0.36550185 14737132
0.76219982 -0.49490243 -0.36582145 14868972
0.76231039 -0.48503721 -0.36513633 15329521
0.76163852 -0.47492632 -0.36465868 15329523
0.76117218 -0.46495712 -0.36458933 15197936
0.76289994 -0.45512286 -0.36499459 15329523
0.76751435 -0.44626853 -0.3649312 15592693
0.77045459 -0.44082373 -0.36486331 15592691
0.77473915 -0.4377878 -0.36481941 15592433
0.7851429 -0.43657747 -0.36518699 14474979
0.7872858 -0.71353275 -0.35442856 9932191
0.79033333 -0.7176156 -0.35712206 9800862
0.77900004 -0.70367771 -0.35017654 11642553
0.78100002 -0.70548433 -0.35656109 10195621
0.77289999 -0.69527447 -0.35557562 12432839
0.76428574 -0.68476409 -0.35506159 13551833
0.75666678 -0.67287678 -0.35519278 13815775
0.76000005 -0.67939818 -0.35551322 13749725
0.75600034 -0.66520345 -0.35488096 14078947
0.756405 -0.65493333 -0.3550711 14210534
0.75700003 -0.64481753 -0.35535038 14341864
0.75737131 -0.63550776 -0.35539731 14539501
0.75861776 -0.62556183 -0.35459435 14539755
0.759 -0.61681253 -0.3552587 14737133
0.76000017 -0.61199886 -0.35388058 14736877
0.76057142 -0.60436314 -0.35511795 14671084
0.76148629 -0.59472489 -0.35492423 14605291
0.76151264 -0.58503217 -0.35506615 14473961
0.76137483 -0.57513165 -0.35539731 14408424
0.76111746 -0.56521004 -0.35571069 14342374
0.76099986 -0.55469519 -0.35544673 14342631
0.76099986 -0.54489702 -0.35544664 14276837
0.76099986 -0.53509885 -0.35544667 14473960
0.76099986 -0.5253002 -0.35544664 14934511
0.76099986 -0.5155021 -0.35544664 15132146
0.76099986 -0.50481296 -0.35544667 14868973
0.7608332 -0.49490604 -0.35536972 15000302
0.76118737 -0.48555771 -0.35497817 15263730
0.76166654 -0.47494254 -0.35486749 15461109
0.76180756 -0.46508497 -0.35513765 15329267
0.76336575 -0.45557654 -0.35491452 15395061
0.76746446 -0.44704917 -0.35512799 15592694
0.77094454 -0.44172233 -0.354274 15526385
0.77535003 -0.43809313 -0.35524917 15460848
0.78614998 -0.43812084 -0.35485882 13882842
0.787 -0.71520543 -0.34517312 9933213
0.79000002 -0.71916234 -0.34957305 10064541
0.77650005 -0.70141947 -0.34451115 10326438
0.78100008 -0.70731276 -0.34376457 10129824
0.76900005 -0.69104415 -0.34118074 13024976
0.77180004 -0.69428456 -0.34512991 12300997
0.76350003 -0.68364632 -0.34633484 13683415
0.75705886 -0.67333013 -0.34500453 13881568
0.76000005 -0.67939818 -0.34252524 13947101
0.75575018 -0.66513163 -0.34518102 13947362
0.75526673 -0.65518677 -0.34481469 14276326
0.75580639 -0.64488345 -0.34494707 14473705
0.75690323 -0.63484567 -0.34538901 14539755
0.75800002 -0.62548286 -0.34461954 14736877
0.75895834 -0.61635506 -0.34435093 14802925
0.76000017 -0.61130434 -0.3460027 14671082
0.76099992 -0.60436624 -0.34501937 14934255
0.76287502 -0.59557325 -0.34504825 14802669
0.76340008 -0.58503926 -0.34494984 14802923
0.76270974 -0.57486242 -0.34567466 14802668
0.76159984 -0.56494033 -0.34502858 14868718
0.76096863 -0.55506223 -0.34524441 14934511
0.76053846 -0.54477227 -0.34530303 14803181
0.7602309 -0.53524232 -0.34543663 14605545
0.76038712 -0.52539283 -0.34491089 14803181
0.76099986 -0.51550198 -0.34475741 14869487
0.7605769 -0.50556076 -0.34525126 14737902
0.759 -0.49229223 -0.3427853 14540780
0.76000017 -0.49641019 -0.34617263 14803181
0.759 -0.48554024 -0.34225225 14541293
0.76010019 -0.48384133 -0.34648529 15001329
0.76084834 -0.47418907 -0.34509397 15198451
0.76179981 -0.46521598 -0.34511957 15263987
0.76400006 -0.45537466 -0.34504241 15526900
0.76775002 -0.44790921 -0.34502861 15789815
0.77137512 -0.44292077 -0.34516713 15263471
0.77518743 -0.43868232 -0.34471783 15460848
0.78572226 -0.43792075 -0.34542549 13949405
0.78700006 -0.71526021 -0.33567986 9932703
0.79000002 -0.71916234 -0.33200371 9735580
0.77700013 -0.70278299 -0.33518165 9867424
0.78150004 -0.70776558 -0.33208996 9997985
0.77262503 -0.69656336 -0.33555454 11906751
0.76450008 -0.68610841 -0.33470529 13485527
0.75710529 -0.67373443 -0.3347353 13881568
0.76000005 -0.67939824 -0.33807731 13946590
0.75450003 -0.66492933 -0.33515027 14144740
0.7526297 -0.65479988 -0.33499679 14079204
0.75270975 -0.64468431 -0.3348372 14407913
0.75451505 -0.63515133 -0.33526522 14671084
0.75621623 -0.62505549 -0.33448228 14802669
0.75841182 -0.61473894 -0.33496946 14868462
0.76000005 -0.61001039 -0.33985648 14736875
0.75900006 -0.60854143 -0.3334125 14868461
0.76044828 -0.60392308 -0.33526874 14802668
0.76251429 -0.59494084 -0.33486122 14802667
0.76375002 -0.58530688 -0.33527651 14605544
0.76296693 -0.57488376 -0.33493245 14473960
0.7616784 -0.56518966 -0.33468479 14540009
0.76059264 -0.55509216 -0.33517498 14802924
0.76000017 -0.54507059 -0.33540857 14737131
0.76000017 -0.53528512 -0.33540863 14802922
0.76026481 -0.52589095 -0.33526298 15000558
0.7608332 -0.51538986 -0.33488604 15132144
0.75900006 -0.50082099 -0.33230197 14868971
0.76003861 -0.50533861 -0.33556253 14868716
0.75900018 -0.49432439 -0.33491173 14671593
0.76000005 -0.49970165 -0.33629814 14671593
0.75851613 -0.48469144 -0.3347261 14672363
0.75899994 -0.47810289 -0.33407882 14935535
0.76040006 -0.47326168 -0.33554944 14936049
0.7611199 -0.46480164 -0.33501235 15133428
0.76229399 -0.45507038 -0.33511022 15658485
0.76676935 -0.44739661 -0.33453 15855608
0.77161115 -0.44270632 -0.33551443 15066091
0.77556527 -0.43809539 -0.33473638 15066344
0.78627264 -0.43673241 -0.33495197 14475748
0.78719997 -0.71385127 -0.32529518 9867679
0.77766663 -0.70247334 -0.32499573 9734813
0.78300005 -0.70912403 -0.32997844 9932705
0.76850003 -0.69059479 -0.32656574 13945307
0.77255559 -0.69544673 -0.32437071 12366532
0.76287502 -0.68397862 -0.32528934 13551832
0.7575295 -0.67500097 -0.32571182 13947104
0.76000005 -0.67939818 -0.32117516 13815517
0.75340915 -0.66492981 -0.32504433 14210532
0.75068009 -0.65518194 -0.32451218 14210532
0.75016135 -0.64493954 -0.32503393 14276325
0.75221628 -0.63531339 -0.32481217 14539242
0.75540918 -0.62456656 -0.3249414 14868461
0.75778133 -0.61465764 -0.32500476 14999790
0.75899994 -0.60755783 -0.32494083 15000047
0.76043999 -0.60252959 -0.32509968 15000304
0.76180625 -0.59465939 -0.32478654 15000815
0.76264292 -0.58477724 -0.32516274 14671593
0.76229614 -0.57477516 -0.32462499 14474214
0.76181465 -0.56490064 -0.3250128 14605801
0.76099986 -0.55482244 -0.32503363 14671595
0.76061285 -0.54479229 -0.32513753 14934766
0.76032358 -0.53488451 -0.32466105 14868717
0.76093733 -0.52559072 -0.32535654 14934766
0.76097202 -0.51548332 -0.32514879 15131888
0.7604 -0.50530601 -0.32490334 15000558
0.75899988 -0.4933098 -0.32559848 14671593
0.76000017 -0.49778557 -0.32288593 14803179
0.75884002 -0.48472705 -0.32512531 14737386
0.76000005 -0.48226577 -0.3206414 14868972
0.759 -0.47789985 -0.32661611 14803179
0.76000017 -0.47412601 -0.32406631 15000558
0.76041675 -0.46526104 -0.32491201 15132657
0.76147205 -0.45506144 -0.32481658 15593206
0.76634485 -0.44775704 -0.32549274 15855865
0.77210724 -0.44265172 -0.32461116 15329518
0.77615386 -0.43847927 -0.3254126 14409185
0.78490919 -0.4379791 -0.32484743 14475233
0.79389673 -0.43398592 -0.32469568 12370113
0.78666669 -0.71336776 -0.31494808 9736607
0.77820003 -0.70295513 -0.31520545 9538718
0.77272725 -0.69521761 -0.3152889 12499145
0.76340008 -0.68333399 -0.31456941 13749468
0.75728577 -0.6739338 -0.31445679 14078946
0.76000005 -0.67939818 -0.31850642 13881568
0.75388461 -0.66510832 -0.31505907 14276324
0.7522974 -0.65485275 -0.31474942 14210531
0.75136131 -0.64499676 -0.31517366 14210532
0.75159991 -0.63493598 -0.31480759 14408169
0.75506818 -0.62492621 -0.3151536 14737133
0.75761104 -0.61429858 -0.31484568 14934255
0.75891668 -0.60617948 -0.31457344 14934254
0.76018196 -0.60206658 -0.31680325 15131633
0.76060712 -0.59504372 -0.31501028 15000560
0.76109666 -0.58491135 -0.31523129 14803179
0.76130277 -0.57492512 -0.31484133 14605800
0.76130271 -0.5652045 -0.31435537 14540007
0.76105535 -0.5547359 -0.31449497 14474216
0.76099986 -0.54489702 -0.31447166 14737131
0.76085281 -0.53525782 -0.3144106 14802925
0.76093739 -0.52559072 -0.31444582 14802925
0.76105535 -0.51553947 -0.31449443 15000303
0.76111412 -0.50501633 -0.31439111 14868972
0.75900006 -0.49015999 -0.31986418 14737386
0.76045167 -0.49483064 -0.31438717 14803179
0.75900006 -0.48749474 -0.31897575 14737386
0.76000017 -0.48432451 -0.3146939 14868972
0.76000017 -0.47479317 -0.31494811 15000814
0.76016682 -0.46510878 -0.31501743 15066863
0.76190227 -0.4547036 -0.31473556 15593205
0.76723534 -0.44888282 -0.31498748 15987449
0.77332431 -0.44386777 -0.31493652 15527153
0.78377783 -0.44071379 -0.31236255 14343391
0.77733332 -0.43952012 -0.31758094 14211808
0.78670007 -0.43870205 -0.31569231 15198955
0.7942425 -0.43391302 -0.31504729 12238013
0.78689998 -0.71357954 -0.30490795 9867168
0.77733332 -0.70217222 -0.30484188 9670046
0.77218193 -0.69489169 -0.30504057 13026001
0.76362503 -0.68398106 -0.30572253 13486296
0.75718755 -0.67322904 -0.30525175 14013154
0.76000005 -0.67939824 -0.30249384 13815518
0.7556898 -0.66505355 -0.30504781 14210789
0.75422561 -0.65498585 -0.30475184 14210788
0.75370365 -0.64573586 -0.30488867 14079204
0.75293773 -0.63518792 -0.3053008 14210790
0.75402701 -0.62448627 -0.30512667 14605548
0.75672978 -0.61480284 -0.30478394 14671340
0.75848401 -0.6042096 -0.30527031 14671339
0.759 -0.59527743 -0.30394369 14934766
0.76000011 -0.59323537 -0.30910224 15131888
0.75899994 -0.58712429 -0.30234963 15000558
0.76000017 -0.58421242 -0.30649698 15000558
0.76059997 -0.57576913 -0.30451354 14802922
0.76099986 -0.56538451 -0.30467334 14474471
0.76099986 -0.55469519 -0.30467328 14277093
0.76107985 -0.544954 -0.30470505 14540008
0.76099986 -0.53509879 -0.30467331 14540264
0.76099992 -0.52530026 -0.30467328 14737387
0.76129979 -0.51570415 -0.30479372 15197937
0.76146638 -0.50512356 -0.30486032 15132144
0.76083994 -0.4949111 -0.30460975 14934765
0.75900006 -0.4821642 -0.30031902 15132142
0.76006073 -0.48486021 -0.3055914 14934764
0.75900006 -0.47949901 -0.30031902 15197678
0.76000017 -0.47479323 -0.30516261 15197936
0.76000017 -0.46500772 -0.30516258 15329266
0.76121867 -0.45472401 -0.30442557 15592436
0.7661429 -0.44890368 -0.30510756 15855607
0.77417642 -0.44462007 -0.30509412 15658483
0.78517401 -0.44184408 -0.30539834 14277087
0.78900003 -0.43934545 -0.30480105 16185079
0.79415798 -0.43491429 -0.30507675 12698049
0.78680003 -0.71330428 -0.29566163 9867168
0.77800006 -0.70277447 -0.29508767 9735071
0.77181822 -0.69440025 -0.29504144 13485784
0.76319999 -0.68404543 -0.29483509 13486809
0.75653332 -0.67311186 -0.2954469 14144740
0.76000005 -0.67939812 -0.29448757 13815774
0.75503999 -0.66506612 -0.29521868 14407912
0.75359255 -0.65465784 -0.29445535 14342119
0.7530002 -0.64474708 -0.29498598 14144740
0.7530002 -0.63524073 -0.29530063 14144997
0.75332355 -0.62513822 -0.29516792 14473962
0.75618601 -0.61488914 -0.2952536 14736877
0.7582432 -0.60461646 -0.29526997 14605546
0.759 -0.59499311 -0.29498845 14803182
0.75900012 -0.58553791 -0.29479811 15000560
0.76000005 -0.58154362 -0.29804593 15000303
0.76048571 -0.57555532 -0.29480308 15131889
0.76099986 -0.56538427 -0.29487512 14737645
0.76097131 -0.5548017 -0.29499146 14409192
0.76080644 -0.5449307 -0.29465753 14475498
0.76097208 -0.53507918 -0.29486454 14869742
0.76099986 -0.5253002 -0.29487512 14803692
0.76099986 -0.51550198 -0.29487512 14935021
0.76068741 -0.50516284 -0.29497772 14672362
0.759 -0.49267718 -0.29306355 14672105
0.76011783 -0.4964295 -0.29615605 14803691
0.75851995 -0.4845235 -0.29480341 14935276
0.7585187 -0.47518203 -0.2946713 15197935
0.76000005 -0.47212443 -0.2989355 15460850
0.75893331 -0.46583521 -0.29294914 15197936
0.76000017 -0.46400696 -0.29704511 15329265
0.76173162 -0.454557 -0.29478818 15658228
0.76676464 -0.44860822 -0.29504955 15790326
0.77396977 -0.44408715 -0.29492822 15198190
0.78437507 -0.4410111 -0.2957837 14211295
0.7881667 -0.43918809 -0.29464141 16185597
0.79439408 -0.43596837 -0.2949892 12632771
0.78800011 -0.71365231 -0.28504202 9932706
0.77900004 -0.70367771 -0.2890842 10591404
0.78260005 -0.70692968 -0.28400365 10261670
0.77316666 -0.69569516 -0.28510591 13091538
0.76500005 -0.68565881 -0.28477824 13223380
0.7566154 -0.67351192 -0.28411472 14144994
0.76000005 -0.67939818 -0.28470212 13947102
0.75417227 -0.66523987 -0.28531921 14408168
0.753389 -0.65497094 -0.28487131 14539496
0.75300014 -0.6447652 -0.28458169 14276582
0.75328583 -0.63535517 -0.28495672 14342376
0.75386095 -0.62537766 -0.28504887 14539754
0.75551277 -0.61538339 -0.28506178 14737132
0.75811905 -0.60494816 -0.28488487 14540266
0.75900012 -0.59499305 -0.28521588 14671598
0.75900024 -0.58522052 -0.28521588 14934511
0.759 -0.57787091 -0.28384292 15329269
0.76000017 -0.57371533 -0.28523585 15131890
0.76030004 -0.56486422 -0.28481564 15000304
0.7600801 -0.55491471 -0.28473237 14671596
0.75900006 -0.54257655 -0.28166229 14803180
0.76000017 -0.5457378 -0.28536931 14737645
0.75900006 -0.53783828 -0.28136614 15066352
0.76021749 -0.53458631 -0.28555793 14869488
0.76042861 -0.52547747 -0.28467321 14738158
0.7608332 -0.51538843 -0.2850149 14803949
0.76024008 -0.50519961 -0.28479153 14408932
0.75888902 -0.49502367 -0.28527281 14013918
0.76000005 -0.49970165 -0.28203335 14211040
0.75744444 -0.48472399 -0.28463131 14408676
0.75706667 -0.47473273 -0.28448981 14803434
0.75819451 -0.46567568 -0.28491437 15132143
0.759 -0.45924312 -0.28450519 15921658
0.76120687 -0.45385176 -0.2851547 15461107
0.76652008 -0.4478524 -0.28470522 15987450
0.77344829 -0.44304079 -0.2849305 14935016
0.78100002 -0.44037575 -0.28891221 14409189
0.77700001 -0.43993926 -0.28470403 14277598
0.78534627 -0.43899801 -0.28478867 15067114
0.78833342 -0.71364743 -0.27532291 9801635
0.77840006 -0.7013135 -0.27519232 9998500
0.78500003 -0.70909756 -0.27569032 9801378
0.77281821 -0.69398445 -0.27453777 12038596
0.76366675 -0.68307549 -0.27554345 13552347
0.75749999 -0.67350739 -0.27522966 13947617
0.76000005 -0.67761898 -0.27046871 13421017
0.75512505 -0.66531944 -0.27492031 14473705
0.7538054 -0.65533221 -0.27443966 14539754
0.75372219 -0.6446715 -0.27440917 14473960
0.7539258 -0.63533562 -0.27497494 14210788
0.75394428 -0.62515265 -0.27449107 14408167
0.755907 -0.61507362 -0.27489385 14540267
0.75856435 -0.60489422 -0.27460104 14408680
0.75900006 -0.59533477 -0.27516997 14474474
0.76000005 -0.59355307 -0.27091351 14277095
0.75900024 -0.58522046 -0.27455491 14737389
0.75900012 -0.57525748 -0.27411076 14869231
0.76000011 -0.57287019 -0.27647343 14869231
0.759 -0.56478691 -0.2736665 14803694
0.76000005 -0.56553108 -0.27936459 14869488
0.75900024 -0.55501437 -0.27455485 14540265
0.75900012 -0.54524177 -0.27455494 14606315
0.75900012 -0.53623927 -0.27414036 14869744
0.76000005 -0.53231984 -0.27699235 15132914
0.76000017 -0.52549964 -0.27491665 15264243
0.76036114 -0.5150677 -0.27504739 15395572
0.76083332 -0.50559348 -0.27521732 15132142
0.75899994 -0.49233165 -0.27564076 14145503
0.76000017 -0.49752712 -0.27382934 14803434
0.75849998 -0.48451084 -0.27437213 14211297
0.75760001 -0.47506744 -0.27493387 14934762
0.75803334 -0.46557808 -0.27509275 15132142
0.75894117 -0.45793235 -0.27427262 15855606
0.76060867 -0.4531084 -0.27533031 15460591
0.76533341 -0.44745922 -0.27481991 16053240
0.77296162 -0.44293642 -0.27521995 14539999
0.7771818 -0.43888301 -0.27443516 15000291
0.78530425 -0.43671885 -0.27483618 15724782
0.79472005 -0.43299529 -0.27523044 12566977
0.78800005 -0.71365219 -0.26475322 9670560
0.77733332 -0.70035243 -0.26753932 9736355
0.7828334 -0.70714045 -0.26485169 9736356
0.77290916 -0.69423133 -0.26469567 11051704
0.76533341 -0.68446594 -0.26430234 13222871
0.75741673 -0.67265671 -0.26511702 13947618
0.76000005 -0.67761898 -0.26513118 13421020
0.75530428 -0.66490012 -0.26518491 14342375
0.75482857 -0.65493256 -0.26423377 14473961
0.75418508 -0.64484018 -0.26493278 14474216
0.75405878 -0.63447058 -0.26461312 14277094
0.75613338 -0.62511301 -0.26507545 14211557
0.75848013 -0.61596316 -0.26658809 14277606
0.76025003 -0.6132139 -0.26243684 14014433
0.75900006 -0.60787511 -0.26789179 14409191
0.7603215 -0.60473824 -0.26403412 14145763
0.76000017 -0.59520513 -0.26494056 14211812
0.759 -0.58447421 -0.26520872 14409191
0.76000005 -0.5886603 -0.26246244 14343398
0.75900012 -0.57471275 -0.26490486 14474728
0.76000005 -0.57086855 -0.26157284 14409191
0.759 -0.56463891 -0.26493043 14343398
0.76000005 -0.56908941 -0.26157284 14409191
0.75900012 -0.55501437 -0.26478234 14211299
0.75888008 -0.54515588 -0.26474103 14474727
0.75900012 -0.53546923 -0.26478231 14869485
0.759 -0.52540052 -0.26404199 15066350
0.76000005 -0.52312744 -0.26809648 15066351
0.759 -0.51645714 -0.26282781 15132143
0.76000017 -0.51366818 -0.26610973 15197680
0.76015401 -0.50493592 -0.26497981 15000814
0.76014298 -0.49521953 -0.2644175 14803691
0.75899994 -0.48441947 -0.26683253 14605799
0.76033336 -0.48568138 -0.26208225 14474725
0.75835723 -0.47535244 -0.26576144 14540007
0.76000005 -0.47835156 -0.26157284 14474982
0.75763875 -0.46533564 -0.26519406 14737384
0.75847822 -0.45670277 -0.26460055 15131368
0.76020014 -0.45196024 -0.26626918 15065576
0.76371419 -0.4463501 -0.26463723 15328743
0.77177787 -0.44189796 -0.26542681 12101278
0.77536011 -0.43639129 -0.2642464 12496292
0.78577781 -0.43386558 -0.26502445 13749705
0.79463166 -0.43209478 -0.26526451 12566460
0.78800005 -0.71180755 -0.25571173 9670556
0.778 -0.70095307 -0.25592828 9406106
0.78471434 -0.7064777 -0.25354061 9867938
0.77410007 -0.69544756 -0.25500923 11052214
0.76510006 -0.68467736 -0.25526756 13420761
0.75770003 -0.67432821 -0.2547487 14079460
0.76000005 -0.67761898 -0.2589041 13947104
0.75374186 -0.66424066 -0.25503841 14277353
0.75575006 -0.65554422 -0.25465494 14343147
0.75642103 -0.64446247 -0.25493073 14474219
0.7573902 -0.63507026 -0.25504795 14408680
0.75869566 -0.6266464 -0.25610361 14342886
0.7601251 -0.62267792 -0.25416398 14342629
0.76081806 -0.61536187 -0.25521508 14211042
0.76099986 -0.60457784 -0.25479093 14079712
0.76084846 -0.59460676 -0.25543937 14013920
0.75900006 -0.5834437 -0.25945187 14343142
0.76064289 -0.58502406 -0.25479692 14211555
0.75900006 -0.57633638 -0.25945187 14342885
0.76048273 -0.57497585 -0.25516868 14211812
0.75900006 -0.56229937 -0.25838578 14080226
0.76014829 -0.56570762 -0.25450513 14145506
0.75900024 -0.55475295 -0.25521883 14079969
0.7585668 -0.54493082 -0.25486267 14408677
0.75896895 -0.53589123 -0.25544348 14803178
0.76000005 -0.53261638 -0.25178739 14606569
0.75899994 -0.52445287 -0.25731966 14934765
0.76000017 -0.52594441 -0.25245461 14738155
0.75899994 -0.51610172 -0.2569643 14934765
0.76000017 -0.51342672 -0.25394782 14935021
0.76034296 -0.50450301 -0.25533274 14935022
0.76153314 -0.4945277 -0.25443304 14803433
0.7618928 -0.48514897 -0.25546959 14540773
0.75900006 -0.47194743 -0.25900766 14540260
0.76080763 -0.47564146 -0.25499898 14343137
0.75849992 -0.46472478 -0.2550942 14671076
0.76000005 -0.46945569 -0.25178739 14341854
0.75827783 -0.45507705 -0.25476766 15197931
0.75900006 -0.44929284 -0.25323293 15132393
0.76351291 -0.44534934 -0.25512287 14407637
0.77135724 -0.44151467 -0.25425765 10061948
0.77473551 -0.43593091 -0.25485352 11179915
0.78550011 -0.43270758 -0.25479773 10853270
0.7922858 -0.43083781 -0.25705379 11119014
0.78760004 -0.70480937 -0.24783888 9803165
0.77583343 -0.69324994 -0.24794768 11382714
0.78633338 -0.69495374 -0.24317031 9474200
0.79050004 -0.69741118 -0.24153568 9671321
0.76650006 -0.68251842 -0.24676445 12698317
0.77350008 -0.68512559 -0.24376087 9211285
0.78428572 -0.68562937 -0.24133919 10263972
0.75766677 -0.67258185 -0.2468735 14014692
0.76250005 -0.67484152 -0.24421807 11514041
0.77376938 -0.67539793 -0.24094693 8421770
0.78333336 -0.6764183 -0.24026282 11316403
0.75553828 -0.66452003 -0.24574351 14277864
0.76418757 -0.66512859 -0.24165167 9211030
0.7725715 -0.6642828 -0.24083667 8223879
0.75703222 -0.65558612 -0.24728517 14343915
0.76265001 -0.65480256 -0.2429305 12040900
0.77136368 -0.65491599 -0.24118628 8618892
0.75850004 -0.64520568 -0.24803431 14409196
0.76336008 -0.64486206 -0.24349158 12633293
0.77128571 -0.64563638 -0.24069379 8882065
0.75900012 -0.63560641 -0.24853703 14409196
0.76290905 -0.63496131 -0.24394761 12896467
0.76243591 -0.62500358 -0.24464485 13422555
0.7628333 -0.61495823 -0.24468201 13422810
0.76430225 -0.60525852 -0.24548475 13620187
0.77125001 -0.60278898 -0.24182101 10001831
0.76483339 -0.59545738 -0.24771254 14014432
0.77195013 -0.59520429 -0.24291265 11317178
0.76522225 -0.58480388 -0.2471063 14146275
0.77178574 -0.58591551 -0.24201034 10725296
0.76453584 -0.57516545 -0.24586464 13948638
0.77100003 -0.57768714 -0.24081084 9737885
0.76297283 -0.56527859 -0.24496627 13751002
0.75900006 -0.55234909 -0.24879086 13948640
0.76220596 -0.55514997 -0.24384992 13553622
0.75900006 -0.54524183 -0.24849473 14277603
0.76206076 -0.54505765 -0.24351525 13751514
0.75900006 -0.53902286 -0.24879086 14277603
0.7621026 -0.53493243 -0.24421787 14146273
0.76227486 -0.52497113 -0.24436851 14409702
0.76264989 -0.51514208 -0.24475637 14409702
0.76284993 -0.50505376 -0.24481992 14474983
0.76328945 -0.49532619 -0.24478322 14474981
0.76199991 -0.4849633 -0.24531367 14541028
0.76108807 -0.47484443 -0.24481103 14146270
0.75900012 -0.46350747 -0.24777552 15000550
0.76072735 -0.4655329 -0.24376908 13685203
0.7587499 -0.45580533 -0.24715418 15395051
0.76183337 -0.45423388 -0.24235804 12763590
0.75900006 -0.44929284 -0.24879086 14737632
0.7639311 -0.4473311 -0.2459601 13816272
0.77359462 -0.44412148 -0.24431914 11051417
0.78328568 -0.44166258 -0.24155585 9866887
0.7769286 -0.43729779 -0.2471312 10523265
0.78578055 -0.43426657 -0.24486603 9667707
0.78880006 -0.42852348 -0.24489391 9865863
0.78800011 -0.68413621 -0.23948005 10526884
0.77600002 -0.67008507 -0.23983018 8749962
0.78750008 -0.67494345 -0.23892629 9935261
0.77560008 -0.664294 -0.23970656 9210513
0.78523535 -0.66464061 -0.23845987 10330279
0.77622229 -0.65452653 -0.23908915 10264230
0.78593338 -0.65473944 -0.23627074 9080469
0.79288244 -0.65495825 -0.23215933 6580334
0.77523082 -0.6447109 -0.23791394 11119798
0.7860589 -0.64488149 -0.23427214 7895425
0.76900005 -0.63343644 -0.23946702 9407899
0.77414995 -0.63495481 -0.23662362 11580349
0.78606671 -0.63497388 -0.23398107 7830146
0.7678889 -0.62413043 -0.23832089 10066598
0.77442122 -0.62472743 -0.2359025 12173512
0.78658825 -0.62506342 -0.23378272 8357260
0.79262495 -0.62506306 -0.23105006 6054251
0.76742858 -0.61417359 -0.23897767 9474718
0.77395236 -0.61524695 -0.23660162 12304841
0.78556263 -0.61443132 -0.23370096 9870754
0.79150009 -0.61490989 -0.230722 5725285
0.77482158 -0.60570258 -0.23725669 11974849
0.78589469 -0.60444981 -0.23397306 10396840
0.79150009 -0.60471886 -0.230722 5790563
0.77564716 -0.5947957 -0.2380098 11185077
0.7851364 -0.59500366 -0.23454222 11646905
0.79216671 -0.59502643 -0.23091634 6382437
0.77594453 -0.58475983 -0.2371846 11645882
0.78619993 -0.58502334 -0.23377539 11120562
0.79230005 -0.58492881 -0.23095496 7040371
0.76900005 -0.57042789 -0.23946702 8948370
0.77399999 -0.57465297 -0.23670451 11711416
0.78500003 -0.57507145 -0.23328695 11054513
0.79210007 -0.57457221 -0.23070915 6645101
0.76840001 -0.56458771 -0.23928018 8750991
0.77388006 -0.56447548 -0.23576027 11645367
0.78561538 -0.56506115 -0.23289524 10330533
0.79394114 -0.5649727 -0.23060861 6710892
0.76800007 -0.55440277 -0.23825547 9474200
0.77480954 -0.55486459 -0.2347905 11843517
0.78610003 -0.55458629 -0.23282795 9475994
0.7923637 -0.55521101 -0.23071861 6843249
0.76790911 -0.54494071 -0.238309 9605786
0.77445465 -0.54504639 -0.23481299 11777981
0.78649998 -0.54473877 -0.23248494 9080982
0.79075003 -0.54768723 -0.2309666 7632510
0.76800013 -0.53534591 -0.23825547 10000798
0.77422732 -0.53524864 -0.23507275 11580859
0.78649998 -0.5351885 -0.23202395 8094344
0.76790011 -0.52556849 -0.23840435 10066592
0.77403861 -0.52474838 -0.23503497 11317689
0.78629416 -0.52499747 -0.23196238 8817553
0.76850003 -0.51518351 -0.23931132 11448502
0.77342296 -0.51485902 -0.23540479 11120053
0.78625 -0.51477081 -0.23194963 8817554
0.76842862 -0.50395817 -0.23877469 10460838
0.77325004 -0.50554192 -0.23520146 11449017
0.78600001 -0.50471473 -0.23175997 9541275
0.76810008 -0.49513847 -0.23828709 9868701
0.77354175 -0.4950206 -0.23453712 11975616
0.78543746 -0.49481469 -0.23182386 10791339
0.76594114 -0.48440862 -0.23808816 10592680
0.77361131 -0.48520312 -0.2342564 12238274
0.78599989 -0.4851653 -0.23187542 10922669
0.76529402 -0.4750393 -0.23820378 10197922
0.77358347 -0.4751254 -0.23454972 11646394
0.78576922 -0.47546339 -0.23251659 12304321
0.79227275 -0.4753935 -0.23069224 5922403
0.76588893 -0.46501997 -0.23849379 11119538
0.77390915 -0.46486652 -0.23464817 12699595
0.7860769 -0.4643251 -0.2324658 10331044
0.79120004 -0.46798244 -0.23081985 5658716
0.76633334 -0.45601967 -0.23893236 12894921
0.77371436 -0.45470101 -0.23588215 12304835
0.78610533 -0.45477638 -0.23297109 8949649
0.79166669 -0.4528749 -0.23077078 6777968
0.77600008 -0.44728455 -0.23775187 11778231
0.7863704 -0.44557789 -0.23682633 9672084
0.79252636 -0.44491929 -0.2322394 6580078
0.78863639 -0.4362897 -0.23853193 7827826
