# .PCD v0.7 - Point Cloud Data file format
VERSION 0.7
FIELDS x y z rgb
SIZE 4 4 4 4
TYPE F F F U
COUNT 1 1 1 1
WIDTH 1010
HEIGHT 1
VIEWPOINT 0 0 0 1 0 0 0
POINTS 1010
DATA ascii
0.78675014 -0.15292303 0.086217918 11447464
0.76800001 -0.14178547 0.089860409 14145491
0.77441669 -0.14403097 0.087284811 14606300
0.78544438 -0.1452077 0.083108261 12303286
0.76566672 -0.13508193 0.089587398 15461352
0.77329409 -0.13488106 0.086748265 15132641
0.78481829 -0.13519859 0.083473787 15263970
0.76633334 -0.12443322 0.089665405 15526886
0.77371424 -0.12550235 0.087290391 15198434
0.78538471 -0.12491138 0.084393896 14803674
0.76660001 -0.11460905 0.089696601 15395556
0.77428573 -0.11459084 0.087225653 15395813
0.78615379 -0.11568822 0.084051885 14671829
0.76529998 -0.10456159 0.088647187 15724521
0.77341676 -0.10491229 0.085963547 15132640
0.78561538 -0.10513851 0.082720414 13947593
0.76346153 -0.09530548 0.088088468 15592678
0.77466673 -0.094778642 0.084832244 14803420
0.78722221 -0.09516646 0.081664428 12566711
0.76358336 -0.084658839 0.088448584 15658728
0.77393752 -0.085241526 0.08522699 14672091
0.78590912 -0.084877618 0.081918232 12303540
0.76450002 -0.07492058 0.088553578 15329763
0.77527791 -0.075068519 0.085261688 14935518
0.78666669 -0.075250819 0.081811666 12763576
0.7654168 -0.06515231 0.088659011 15330019
0.77454549 -0.065355718 0.085843153 14869470
0.78523535 -0.064732864 0.082571909 12829884
0.76609093 -0.054857496 0.088655107 15395813
0.77474999 -0.055065934 0.086114101 14737627
0.78554553 -0.055248532 0.083383307 13093057
0.76300001 -0.045298915 0.089275382 15461349
0.77308345 -0.045297798 0.087283313 15198176
0.78716677 -0.044892136 0.0838084 12566711
0.76483339 -0.034661517 0.0894899 15263970
0.77255559 -0.035921607 0.087980367 14935005
0.78466672 -0.035107296 0.084916405 12829629
0.76900005 -0.027654672 0.089977421 14803419
0.7748751 -0.02446196 0.088168725 14737880
0.78654552 -0.02501864 0.085499331 11908526
0.77641678 -0.015197664 0.088115968 14408915
0.78727269 -0.014990335 0.08574681 11580073
0.76900005 -0.0015511492 0.089977421 14343125
0.7755 -0.0056505073 0.088239513 14408915
0.78720009 -0.0052742613 0.085654855 11842986
0.76900005 0.0038495795 0.089977421 14277332
0.77400011 0.0047805835 0.088750504 14408918
0.78691667 0.0048616305 0.085623689 11382437
0.7748 0.014762474 0.088842236 14277332
0.78571445 0.015755726 0.086938031 10987681
0.77580005 0.025315639 0.088956907 13750986
0.7853334 0.025074638 0.087289192 10593178
0.7766 0.03479562 0.089048631 13684936
0.78655553 0.035038147 0.087322965 10527128
0.7768333 0.044806272 0.089075387 13684939
0.78536361 0.04487909 0.087376446 10724253
0.77639997 0.054779887 0.089025699 13620174
0.78581816 0.054940298 0.087259792 11053222
0.77633333 0.064769536 0.089018047 13619403
0.78639996 0.064689614 0.087407835 10987684
0.77825004 0.074040979 0.089237824 13750731
0.78587508 0.075683922 0.088270061 11447976
0.7847001 0.084755331 0.089055754 12500667
0.78900003 -0.16043893 0.099705793 10788763
0.77622223 -0.15117835 0.096269757 12368566
0.78546673 -0.15616943 0.094475955 10854813
0.76356256 -0.14253341 0.096038118 15000287
0.77210003 -0.14706242 0.093590632 15987182
0.75891662 -0.13403867 0.097976744 15790316
0.76061118 -0.1355748 0.093248218 15592681
0.75889993 -0.12562582 0.097234219 15921389
0.76050007 -0.12448896 0.092431478 16052974
0.75900006 -0.11569248 0.098802052 15263971
0.76073068 -0.11455143 0.093802743 15461349
0.75879997 -0.10491554 0.098020695 15724521
0.76070601 -0.10513644 0.092986286 15592935
0.75854546 -0.094435282 0.096986264 15855851
0.76050007 -0.095510826 0.092034213 15723751
0.75810003 -0.08494208 0.096686564 15658472
0.76050013 -0.085210182 0.091652788 15790316
0.75784612 -0.074881755 0.096312337 15461606
0.76060015 -0.076139882 0.091486804 15395557
0.75785714 -0.064511336 0.095767394 15461605
0.76042861 -0.065367065 0.091008857 15395810
0.75742853 -0.054721836 0.095459037 15461606
0.76000005 -0.056687385 0.090703547 15264481
0.75722235 -0.044958085 0.094799548 15526886
0.75680774 -0.035325721 0.09543056 15131872
0.7604 -0.03357438 0.090751275 15329763
0.75673354 -0.025442636 0.095624201 14869469
0.76260006 -0.024745218 0.091013849 15066591
0.77000004 -0.023184173 0.090094425 14803676
0.75500005 -0.014780388 0.096289732 14540247
0.76216668 -0.0149196 0.091851711 14737885
0.77033335 -0.015079851 0.090133429 14474711
0.75588006 -0.0050628996 0.095514134 14408920
0.76280004 -0.0051110364 0.091037713 14474711
0.77000004 -0.0060596266 0.090094425 14672090
0.7565667 0.0046742721 0.095602669 14737884
0.76200008 0.0047080261 0.090942234 14277332
0.77000004 0.0092623364 0.090094425 14606297
0.75665385 0.015027636 0.096158534 14540249
0.76340008 0.01615403 0.091821454 14343125
0.77120006 0.014695292 0.090234831 14540760
0.75690001 0.025053177 0.096531428 14211797
0.76490009 0.025318196 0.092179805 14013904
0.77283335 0.024675347 0.090425946 13948621
0.7578333 0.034841951 0.097540073 14212055
0.76300007 0.034897964 0.093199402 14079955
0.77225006 0.035276163 0.09103366 14145745
0.75788903 0.045487612 0.097547472 14278107
0.76400012 0.044960916 0.092962459 14146262
0.77366668 0.044624988 0.090523452 14145747
0.75755006 0.05522104 0.096615776 14409950
0.76515388 0.054538038 0.092415862 14014675
0.77333337 0.05546692 0.090484448 14014930
0.75709099 0.064613447 0.096799061 14474460
0.76491672 0.065454096 0.092627443 14079955
0.77320004 0.065414093 0.090468846 13751501
0.75700009 0.075008392 0.097543411 14277081
0.7632727 0.074808456 0.093690105 14277337
0.77254558 0.074895509 0.091376975 14277334
0.75822228 0.082882494 0.097984985 14869218
0.76350003 0.085399501 0.095966503 14672095
0.77442867 0.085459396 0.092033423 14408665
0.76700002 0.090026483 0.096925654 14540253
0.7750715 0.09343946 0.096126504 12895426
0.78487504 0.097181007 0.092979789 11711404
0.78820008 -0.16027626 0.10513933 10328726
0.77550012 -0.15315688 0.1052593 12039088
0.78328574 -0.15718208 0.10474426 10262933
0.75900006 -0.14119002 0.10479887 14671065
0.76353335 -0.14549494 0.10506583 15658216
0.77149999 -0.14965601 0.10381272 15460581
0.75761765 -0.1351745 0.10570188 15526886
0.75799984 -0.12485613 0.10554805 15461094
0.75810009 -0.11511138 0.10556137 15000801
0.75711113 -0.1052147 0.10542218 15395558
0.75621229 -0.09486904 0.105055 15592680
0.75478786 -0.085053332 0.10533813 15527143
0.75424999 -0.074797928 0.10502321 15264230
0.75463325 -0.065120302 0.10507656 15198179
0.75402772 -0.055360205 0.10499241 15330021
0.75372207 -0.044749755 0.10495007 15395815
0.75389987 -0.035053123 0.1049756 15066593
0.75363886 -0.025339499 0.10493965 14540506
0.75247246 -0.014730907 0.10477789 14343126
0.75156677 -0.0050348467 0.10464983 13816784
0.75205582 0.0046447832 0.10471598 14343127
0.74900001 0.017776839 0.10867837 13553358
0.75142437 0.014954784 0.10422813 14079955
0.74900001 0.023037108 0.10867837 13882323
0.75170374 0.025076926 0.10417751 14079955
0.75386107 0.034660533 0.10496406 14211287
0.7544446 0.045280624 0.10504643 14474716
0.75326669 0.054909036 0.10488325 14540510
0.75297219 0.064583011 0.10484295 14211288
0.7525 0.075113028 0.10477705 14474460
0.75503451 0.084968835 0.10528217 15197926
0.76000005 0.089204863 0.10137859 14540253
0.75900006 0.090864323 0.10835253 14737632
0.76300001 0.091343187 0.1035556 15198183
0.77166671 0.0941872 0.10293249 14671582
0.78800005 0.10171498 0.10511359 11711405
0.78757149 -0.16067617 0.11427502 10065811
0.77333331 -0.15242706 0.11461878 12894912
0.78260005 -0.15767345 0.11538903 9934227
0.75854546 -0.14262323 0.11490526 14408406
0.76315391 -0.14694124 0.11485227 15263459
0.75736672 -0.13538913 0.11521155 15000544
0.75849992 -0.12493729 0.11538443 14869216
0.75860006 -0.11518837 0.11539986 14738142
0.75713336 -0.10521863 0.11517636 14540507
0.75576013 -0.095295697 0.11496783 14803678
0.75419986 -0.085387707 0.11473078 14671835
0.75371414 -0.074619673 0.11541248 14606300
0.75310016 -0.064988062 0.11544325 14671838
0.75308353 -0.055289689 0.11544178 14671837
0.75333339 -0.044726927 0.11548117 14803423
0.75368953 -0.03492143 0.11538316 14540508
0.7541666 -0.025355754 0.1147254 13948112
0.75345457 -0.014509675 0.11509915 13816528
0.75243348 -0.0050422125 0.11534525 13356234
0.75063896 0.004634311 0.11506835 13553356
0.74899995 0.016303966 0.11442961 13487563
0.75000006 0.012533284 0.11584654 13619405
0.74900001 0.024669604 0.1149665 13290185
0.75000006 0.028335158 0.11057924 14211288
0.74899995 0.032208856 0.11677109 12961990
0.75008696 0.035744403 0.1138747 13619664
0.75030547 0.045033086 0.11501402 13816530
0.74899989 0.056900077 0.11667835 14079959
0.75005007 0.054411896 0.11348363 14342874
0.74899983 0.064934678 0.1167072 14079702
0.75000006 0.06552542 0.11169655 14277081
0.74899989 0.072854936 0.11651721 14211032
0.75005269 0.076578006 0.11345166 14276824
0.74900001 0.080900043 0.1191989 14671584
0.75167853 0.084712856 0.11491013 14737373
0.75883341 0.09084437 0.1145457 14737117
0.76550007 0.09343452 0.11286337 12171190
0.77300006 0.096159555 0.11035112 11447982
0.78000003 0.098856337 0.11135042 11447982
0.78775007 0.1016827 0.11522152 11842991
0.78833342 -0.16214886 0.12453309 10066071
0.76900005 -0.15097131 0.12598228 14145238
0.77480006 -0.15447181 0.12366416 11184553
0.78366667 -0.15935443 0.12562734 10066072
0.75849992 -0.1426955 0.12515092 14605788
0.76136374 -0.14671931 0.12521647 14934753
0.75738883 -0.13539535 0.12496638 15066337
0.75758332 -0.12478706 0.12499685 15131873
0.75793338 -0.11508662 0.12505455 15000286
0.75733334 -0.10524526 0.12495665 14869217
0.75669456 -0.094527476 0.12485308 14343129
0.75623357 -0.084732518 0.12477777 14671579
0.7551291 -0.075030535 0.12530844 14342870
0.75352007 -0.065024912 0.12521185 14342870
0.75436664 -0.055381358 0.12535256 14474458
0.75636679 -0.044906989 0.1256852 14408663
0.75588489 -0.035282355 0.12540057 14145237
0.7559725 -0.025416132 0.12473331 13816527
0.75609112 -0.01504222 0.12515682 13553355
0.7555601 -0.0050628162 0.12555194 12500670
0.75313336 0.004648814 0.12514834 12895428
0.74900001 0.019530261 0.12095232 12171958
0.75068969 0.015028549 0.12486321 12829634
0.74900001 0.024790529 0.12182905 13027267
0.75040001 0.024836557 0.12644947 12500666
0.74900001 0.030050797 0.12182904 12764612
0.75032145 0.034809265 0.12486798 12698819
0.75076669 0.045060419 0.12475407 13290697
0.75003231 0.055693291 0.12480079 13487563
0.74899989 0.066150673 0.12363402 13553615
0.75000006 0.063855596 0.1277317 13290442
0.74899989 0.073813289 0.12467835 13619409
0.75000006 0.076764964 0.12682004 13290444
0.74900001 0.080900043 0.12095232 13421517
0.75276923 0.084975995 0.12522036 14343388
0.75900006 0.090864323 0.12079035 14540253
0.76325011 0.092269726 0.12593514 12171705
0.77399999 0.097493477 0.12740384 11908784
0.78570002 0.10234139 0.12650941 11842989
0.78736365 -0.16278879 0.13502012 10065811
0.76900005 -0.15097131 0.13318326 13290188
0.77361542 -0.15410969 0.135792 11250604
0.78100002 -0.15881217 0.13525872 9737107
0.75900006 -0.14190076 0.13500503 14539996
0.76192856 -0.14640073 0.13552576 14803425
0.75771427 -0.13513604 0.13458714 14737374
0.7572 -0.12472472 0.1346857 15197926
0.75703704 -0.11495004 0.13504985 15263461
0.75766659 -0.10528985 0.13476902 15329512
0.75783336 -0.094669461 0.13479821 14869215
0.75730771 -0.084716991 0.1349093 14869214
0.75675005 -0.075047359 0.13549145 14474456
0.75593549 -0.065062135 0.13549019 14474713
0.75614291 -0.055386212 0.13525745 14606299
0.75700003 -0.044944633 0.13553533 14474713
0.75693333 -0.035195015 0.13552348 14342871
0.75619477 -0.025423601 0.13539118 14145492
0.75694442 -0.01481666 0.13552514 13882319
0.75700003 -0.0050712456 0.13553534 13487821
0.75566667 0.0046641626 0.13529935 12698563
0.75361115 0.015238849 0.13493195 12566977
0.75303334 0.024923325 0.13482814 12434621
0.75247222 0.034593493 0.13472788 12500672
0.75227803 0.045151174 0.13469164 12960965
0.75183362 0.054804467 0.13461177 13092806
0.75070012 0.064385727 0.13528708 13224650
0.75000006 0.074862882 0.13515994 13421772
0.75417864 0.084999755 0.13503024 14343387
0.76312506 0.091807321 0.13417405 13882580
0.77444452 0.097146899 0.13372378 11711406
0.78646672 0.10336301 0.13497928 11842991
0.79009998 0.10845989 0.1349884 11777198
0.78706253 -0.16373336 0.14517736 9869201
0.79042858 -0.16786686 0.14455864 9803151
0.7743637 -0.15475255 0.14498664 11381935
0.75900006 -0.14056815 0.14388917 14935009
0.76225001 -0.14527954 0.14530651 15131874
0.75836653 -0.13468155 0.14465806 15263973
0.75802767 -0.12486085 0.14459229 15263716
0.75789279 -0.11508024 0.14488356 15263972
0.75797206 -0.10533269 0.14458153 15066850
0.75799984 -0.094689801 0.14458685 14935264
0.75799996 -0.085052446 0.14473979 15000800
0.75720006 -0.075092047 0.14532097 14671836
0.75700003 -0.064438291 0.14528213 14869471
0.75727999 -0.054711036 0.14533682 14737628
0.7577666 -0.044990811 0.14543019 14737628
0.75756001 -0.035224024 0.14539103 14474456
0.7573666 -0.025463495 0.14535388 14146261
0.75723332 -0.014822447 0.145328 14014162
0.75760007 -0.0050749844 0.14539823 13816783
0.75730002 0.004676539 0.14534146 13553611
0.75643343 0.015295665 0.14517544 13158343
0.75599998 0.02502156 0.14509287 12895172
0.75516665 0.034715716 0.14493339 12632256
0.75403327 0.045255858 0.14471528 12961222
0.75331998 0.054912686 0.14457712 13027015
0.75191438 0.064615734 0.145063 13027014
0.75100005 0.074962951 0.14501253 13618896
0.75486374 0.084270567 0.14487122 14277082
0.76020002 0.089228332 0.14589676 14474205
0.76450002 0.091972813 0.14582144 14408412
0.77425003 0.096320324 0.14632462 11842740
0.78000003 0.098856337 0.14695731 11448237
0.78788894 0.10293174 0.14342226 11842991
0.79088897 0.10723212 0.14571775 11777197
0.78730774 -0.16350009 0.15435964 9868945
0.79100001 -0.16772421 0.15630582 9803151
0.77335298 -0.15374689 0.15502198 12105912
0.78079998 -0.15877149 0.15533575 9868950
0.75900006 -0.14071622 0.15612958 15197157
0.76275003 -0.1457319 0.15459868 14934241
0.75900012 -0.13479346 0.15543859 15263205
0.75844449 -0.1249304 0.15532416 15263717
0.75803334 -0.11510132 0.15524082 15460838
0.75802767 -0.10534074 0.15523964 15132386
0.75777763 -0.094663061 0.15518779 15066594
0.75723344 -0.084844388 0.15507558 15066594
0.75763875 -0.07513316 0.1551597 14869216
0.75799984 -0.064523406 0.1552338 14935009
0.75826663 -0.054782111 0.15528904 15132387
0.75897241 -0.045061566 0.15543307 14671836
0.7589668 -0.035289407 0.15543197 14408662
0.75894314 -0.025643479 0.1553003 14342870
0.75869703 -0.014609281 0.15497419 14145748
0.75866693 -0.0050824103 0.15537189 14145491
0.75863904 0.004685543 0.15536617 13882576
0.75805563 0.01532892 0.15524627 13685198
0.75766665 0.025077069 0.15516703 13355722
0.75733328 0.034816097 0.15509865 13158343
0.75672233 0.045417923 0.15497339 13224136
0.75546664 0.055067915 0.15471742 13026758
0.75390309 0.064519256 0.15510792 13026759
0.75320017 0.075181983 0.15513343 13355980
0.75578576 0.085177861 0.15509661 14540510
0.76000005 0.089204863 0.15119545 14869222
0.76380002 0.092335805 0.15552756 13158600
0.77312505 0.09708225 0.15538879 11645612
0.77900004 0.10055325 0.15862264 11843245
0.78611118 0.10331693 0.15638873 11777452
0.79084617 0.10820717 0.15462491 11711659
0.7925666 0.11529396 0.15488996 11645866
0.78762507 -0.16246495 0.16406542 9802639
0.79338461 -0.16719279 0.16569456 9802638
0.77275008 -0.15340811 0.16492438 12434621
0.78180009 -0.15897486 0.16468437 9868437
0.75900006 -0.14012393 0.16521117 15525863
0.76249999 -0.14523841 0.16507949 14868191
0.759 -0.13479343 0.16521116 15131107
0.75826663 -0.12490067 0.16505171 15263719
0.75844008 -0.11516211 0.16508888 15592684
0.75840002 -0.1053934 0.16508059 15724270
0.75773335 -0.094657697 0.16493577 15395304
0.75719994 -0.084840052 0.16482019 15198181
0.75793326 -0.075163446 0.16497928 15066594
0.75799996 -0.064523414 0.16499349 15197666
0.75804001 -0.054766413 0.16500202 15263459
0.75836658 -0.04502558 0.16507199 15066336
0.7584402 -0.035264663 0.16508789 14606299
0.75888467 -0.026128815 0.16552728 14408664
0.76000005 -0.02145974 0.16258216 14342874
0.75900006 -0.013968808 0.16840947 14079958
0.76000017 -0.015321591 0.16428506 14145495
0.759 -0.004936574 0.1652852 13948116
0.76000005 -0.0086496901 0.16364966 14211288
0.75880015 0.004685686 0.16516727 14014162
0.75796664 0.015327838 0.16498607 13882321
0.75796008 0.025086902 0.16498461 13750991
0.75753325 0.03482534 0.16489139 13553613
0.75700003 0.045435056 0.16477585 13487564
0.75607425 0.055310074 0.16496792 13289929
0.75538898 0.06478896 0.16531132 12960706
0.75391656 0.075253151 0.16498783 13224136
0.75581485 0.084852763 0.16497555 14539997
0.76000005 0.089204863 0.16898718 15132135
0.76345462 0.092212699 0.16488129 13553101
0.77240002 0.096990883 0.16523467 11645102
0.77733332 0.10033811 0.16465044 11777197
0.78694439 0.10536974 0.16535674 11777452
0.79000002 0.10906252 0.16394484 11711659
0.79148 0.11513567 0.16486794 11645866
0.78730774 -0.16321628 0.1759069 9867661
0.7925455 -0.16757129 0.17419575 9867917
0.77368426 -0.15418486 0.175175 12039861
0.78125006 -0.15886301 0.17279567 9736334
0.75900006 -0.14012393 0.17516145 15329255
0.7624166 -0.14500041 0.17509919 14737375
0.75900012 -0.13479343 0.17498377 15000291
0.7585001 -0.12494031 0.17486805 15395562
0.75783324 -0.11507111 0.17471348 15592684
0.75786114 -0.10531746 0.17471951 15658477
0.75791657 -0.094679475 0.17473346 15592684
0.75783324 -0.08491154 0.17471385 15461098
0.75799984 -0.075170368 0.1747532 15329510
0.75799984 -0.064523421 0.17475317 15526888
0.75796664 -0.054761376 0.17474566 15526632
0.75780547 -0.04499197 0.17470807 15263461
0.75793332 -0.035240959 0.17473777 14671835
0.75813884 -0.025488712 0.17478454 14342872
0.75863874 -0.014850188 0.17489889 14079701
0.75829989 -0.0050803442 0.17482099 13816529
0.75808316 0.0046819174 0.17477198 13882578
0.75794435 0.015327324 0.17474066 14013906
0.75796664 0.025087157 0.17474572 13356232
0.75772214 0.034834825 0.17469026 13882576
0.75716668 0.045444675 0.17456186 13553613
0.75700003 0.054991998 0.17483914 13553611
0.75616682 0.064855479 0.17521599 13158595
0.75416654 0.075277813 0.17475218 13158342
0.75638103 0.084483199 0.17501256 14145750
0.76000005 0.089204855 0.17521429 14934754
0.76570004 0.092566296 0.17563191 13224392
0.7741819 0.097296603 0.17527218 11579820
0.77900004 0.10055325 0.17230004 11777198
0.78649998 0.10459601 0.17549115 11645611
0.79000002 0.10937075 0.17565772 11645610
0.79073352 0.11502618 0.17489578 11580073
0.79028606 0.12500389 0.17466524 11514281
0.78687495 -0.16515589 0.1847861 9736844
0.79000002 -0.16988929 0.18490475 9605515
0.76900005 -0.15097131 0.18268993 15263719
0.77410531 -0.15484183 0.18471044 11710639
0.78000003 -0.15860882 0.18986815 9539209
0.75900012 -0.1406316 0.18450248 14145238
0.76221061 -0.14551103 0.18487853 14145494
0.75860733 -0.13453428 0.1852303 14868961
0.7573055 -0.12474285 0.18522917 15132134
0.7567001 -0.11489935 0.18508092 15461097
0.75700003 -0.10519776 0.18515557 15460841
0.75700003 -0.094564833 0.1851555 15592684
0.75703335 -0.084821925 0.18516351 15395305
0.75727773 -0.075098485 0.18522213 15395305
0.75755548 -0.064485319 0.18528976 15329512
0.75779998 -0.054749567 0.18535061 15329512
0.75749999 -0.04497328 0.18527743 15263719
0.75799996 -0.035244294 0.18540016 14868961
0.75799984 -0.025484594 0.18540016 14408666
0.75802767 -0.014838031 0.18540701 13948116
0.75836009 -0.0050801681 0.18460184 13487820
0.75815141 0.0049240692 0.18503436 13684942
0.75799984 0.015328707 0.18540014 13882064
0.75799996 0.025088413 0.18540016 13355978
0.75791651 0.034843862 0.18537955 13685457
0.75766665 0.045474742 0.18531911 13948116
0.75770003 0.055232588 0.18532805 13750479
0.75652778 0.064885564 0.18504101 13158342
0.7543053 0.075292237 0.18449642 13486534
0.75656527 0.08426135 0.18485637 14606300
0.76000005 0.089204863 0.18499975 14474973
0.7650001 0.092400476 0.1849131 14145752
0.77466673 0.097376138 0.18454078 11514031
0.78633326 0.10346816 0.18465911 11711405
0.79089999 0.10857065 0.18511587 11645611
0.79263991 0.11530317 0.18552369 11580074
0.78775007 -0.163183 0.19406059 9802123
0.79133338 -0.16724391 0.19525374 9736331
0.77443761 -0.15385605 0.19485946 12236722
0.78275001 -0.15916803 0.19512071 9604744
0.75900006 -0.14012393 0.19275208 14013906
0.76275998 -0.14489713 0.19516844 13881806
0.75822216 -0.13485456 0.19482245 14539996
0.75624269 -0.12448737 0.19524354 14934497
0.75548375 -0.1148854 0.19547985 15197925
0.75594461 -0.10505062 0.19551373 15197925
0.75633359 -0.094481558 0.19561443 15132133
0.75651741 -0.084825434 0.19550963 15131878
0.75594479 -0.074967235 0.19551469 15066597
0.75611782 -0.064621791 0.19534998 14869475
0.75725925 -0.055102877 0.19529665 15198694
0.75739998 -0.044967908 0.19500628 15000801
0.75780004 -0.035235278 0.19510758 14869215
0.75766659 -0.025473779 0.1950734 14540250
0.75813329 -0.01483948 0.1951943 13882577
0.75900012 -0.0050846436 0.19452888 13619406
0.75881845 0.0044437367 0.19488645 13684941
0.75806659 0.015329664 0.19517726 13553357
0.75760001 0.025074234 0.19505614 13421773
0.75793326 0.034844745 0.19514303 13948116
0.75799996 0.045495071 0.19515978 13948116
0.75800002 0.055254769 0.19515984 13618894
0.75736672 0.06495785 0.19499713 13158339
0.75527769 0.075389504 0.19534513 13092292
0.75742853 0.0845998 0.19475946 14408666
0.76000005 0.089204855 0.19478519 14869216
0.76600003 0.09268406 0.19493623 12961732
0.77433342 0.097333878 0.19594102 11382441
0.77900004 0.10055325 0.19418387 11843245
0.78650004 0.10447417 0.19503811 11580074
0.79028571 0.10914611 0.19448517 11579818
0.79170376 0.11496209 0.19498083 11514025
0.7881251 -0.16256778 0.20614459 9670796
0.79321438 -0.16713586 0.20462267 9736588
0.7748825 -0.15394485 0.2049458 11908015
0.78350002 -0.15932052 0.20447402 9670796
0.76361537 -0.14462961 0.20499204 13618636
0.75880945 -0.13366042 0.20433542 14211032
0.76000011 -0.13754095 0.20733827 14013652
0.75703233 -0.12507097 0.20520201 14737632
0.75434601 -0.11474691 0.20481515 14869218
0.75429988 -0.10482108 0.20480165 14803426
0.75576693 -0.094409652 0.20519999 14474460
0.75646174 -0.08468882 0.20518479 14540253
0.75590026 -0.074963018 0.20523715 14671582
0.7555601 -0.065198883 0.20514479 14803422
0.75688577 -0.055441551 0.20474456 14869216
0.75763875 -0.044983897 0.20482184 14671836
0.75746655 -0.035220128 0.20477663 14606299
0.75774992 -0.025475638 0.20485292 14540249
0.75844443 -0.014845633 0.20504056 14211283
0.7589668 -0.0050842636 0.20518069 14013648
0.75897241 0.0046878615 0.20518225 13487563
0.75844449 0.015336073 0.20504019 13355977
0.75786662 0.025083456 0.20488407 13093318
0.75799984 0.034848116 0.20491958 13553613
0.75799984 0.045495067 0.20491953 13882321
0.75799996 0.055254772 0.20491955 13750736
0.7570278 0.064929426 0.20465602 13224389
0.7561003 0.075472355 0.20529117 13421257
0.75804168 0.084540524 0.20493136 14146006
0.76020002 0.089228339 0.20462544 14737885
0.76527286 0.092433333 0.20468491 13290439
0.77420002 0.097035483 0.20585385 11448489
0.7860834 0.10315896 0.20438103 11580330
0.79109097 0.10800757 0.20570102 11514280
0.78809094 -0.1631065 0.21531807 9539981
0.7923637 -0.16770138 0.21462768 9474188
0.77531254 -0.15402943 0.21504401 11776690
0.78300005 -0.15921886 0.21534418 9342348
0.76312006 -0.14382148 0.21462473 13882319
0.77000004 -0.14936504 0.21717659 13421768
0.75900006 -0.13202947 0.21456763 14013905
0.76000017 -0.13652781 0.21546808 14079698
0.75800008 -0.1247158 0.21485129 14276823
0.75576681 -0.11475934 0.21493301 14803425
0.75480539 -0.10489231 0.21466051 14934754
0.75625014 -0.094469368 0.21507047 14671839
0.75696665 -0.084814139 0.21527287 14145495
0.75666678 -0.075039253 0.21518831 14474203
0.75645733 -0.064517699 0.21525557 14606043
0.75712907 -0.054871365 0.21517597 14869215
0.7579354 -0.044971701 0.21483265 14934752
0.75796008 -0.035242341 0.21466818 14606043
0.75860018 -0.025503289 0.21484976 14277079
0.75893342 -0.014856309 0.21494381 14145749
0.75835997 -0.0050807302 0.2147823 14079698
0.75870013 0.0046867463 0.21487826 13816526
0.75873363 0.015343226 0.21488756 13421769
0.75823998 0.025096077 0.21474811 13290185
0.75796765 0.034932382 0.21484162 13421770
0.75796765 0.045350216 0.21484168 13750733
0.75800002 0.055254765 0.21467926 13947857
0.75700003 0.065169148 0.21487999 13355461
0.7562781 0.075489968 0.2150773 13224388
0.75785005 0.084075347 0.21543439 14408925
0.76075011 0.088848099 0.21412288 14474717
0.76560003 0.09237431 0.21467495 13882579
0.7741819 0.097296827 0.2151408 11316393
0.78550005 0.10297328 0.21563366 11580075
0.79221427 0.10822253 0.21430048 11645611
0.78800005 -0.16346523 0.2254817 9474186
0.7906 -0.16742775 0.22409594 9474186
0.77568752 -0.15421805 0.22479518 11513518
0.78300005 -0.15921886 0.22542576 9342605
0.76304752 -0.14342859 0.22486861 13816526
0.77060002 -0.14948143 0.22546515 13290182
0.75900006 -0.13168398 0.22562347 14277079
0.76022738 -0.13614465 0.22477525 14342870
0.75825721 -0.12502706 0.22464149 14211286
0.75672013 -0.11490283 0.22494656 14408666
0.75636685 -0.10510948 0.22484197 14737373
0.75703335 -0.094568409 0.22503924 14868961
0.75756001 -0.084880583 0.22519664 14474202
0.75753337 -0.07512439 0.22518884 14211285
0.75716668 -0.064452991 0.22507915 14803164
0.75700003 -0.054691453 0.22502898 14934753
0.75742859 -0.044994097 0.22439583 14803425
0.75846678 -0.035264909 0.22457801 14540252
0.75900024 -0.025518216 0.22473508 14013651
0.75900024 -0.014857224 0.2247351 14014162
0.75900012 -0.0050846427 0.22473504 14211541
0.75900024 0.0046879356 0.22473505 14014162
0.75900024 0.015348933 0.22473502 13684940
0.75860006 0.02510687 0.2246166 13356232
0.75734282 0.034740884 0.22437008 13553356
0.75751412 0.04559404 0.22442101 13750990
0.75799996 0.055254772 0.22443895 13948112
0.75775748 0.0647505 0.2247704 13684682
0.75670016 0.075530462 0.22494039 13289924
0.75750005 0.084641404 0.22469257 14211543
0.76033336 0.089243986 0.22512829 15000805
0.76437503 0.092181131 0.22610402 14277082
0.77381819 0.097086437 0.2250865 11316396
0.7854445 0.10363951 0.2234696 11449002
0.79045451 0.10859304 0.22471119 11448744
0.78815389 -0.1633905 0.23429006 9474186
0.79037499 -0.16742612 0.23564453 9473929
0.77541667 -0.15329191 0.23428489 12829119
0.78255558 -0.15831615 0.23567864 9276296
0.76452631 -0.14350514 0.23461016 14013648
0.771375 -0.14895579 0.23607293 13092034
0.75900006 -0.13123977 0.23273081 14079185
0.76050001 -0.13554667 0.23521391 14737371
0.75867647 -0.12470725 0.2350878 14540250
0.76000005 -0.1296335 0.23837495 14737628
0.75766665 -0.11504637 0.23498423 14342873
0.7570833 -0.10520977 0.23480207 14540252
0.7570278 -0.094568141 0.23478423 14803168
0.75793326 -0.084921665 0.23506507 14869215
0.75891691 -0.075261176 0.2353707 14540249
0.75855577 -0.064570963 0.23525991 14671835
0.7579335 -0.054759439 0.23506759 14869471
0.75811106 -0.045009498 0.23512238 14672093
0.75899994 -0.036179218 0.23406342 14408665
0.76000005 -0.032965068 0.23718883 14276819
0.75899994 -0.024249056 0.23273079 13618892
0.76000017 -0.026663825 0.23637338 13816270
0.75900024 -0.014730307 0.23526916 13750990
0.75900012 -0.0050846431 0.23539607 13948113
0.75900024 0.004687936 0.23539609 13882576
0.75900024 0.015348931 0.23539607 13816525
0.75856674 0.025105765 0.23526147 13553609
0.75741667 0.034820285 0.23490614 13553610
0.75727773 0.045452248 0.23486257 13882574
0.75769991 0.055232987 0.23499203 14145490
0.75761104 0.064980209 0.23496419 13882062
0.75683337 0.075544268 0.23472343 13619146
0.7569201 0.084593095 0.2349278 14672092
0.76000005 0.089204863 0.2348166 14869217
0.76481819 0.092377856 0.23500113 13685199
0.77388889 0.097278066 0.23568423 11185061
0.77866673 0.10051023 0.23693752 11645611
0.78653336 0.1043539 0.23503593 11514281
0.79025 0.10871183 0.23421858 11382951
0.78833342 -0.16214992 0.245005 9474188
0.79178572 -0.16670074 0.24543302 9408394
0.77645451 -0.15342781 0.24485713 12565946
0.78387499 -0.15825145 0.24448481 9342089
0.7650001 -0.14313793 0.24497962 14342098
0.77181822 -0.14889795 0.24520124 13881547
0.76076657 -0.13510913 0.24484923 14539221
0.759 -0.12413244 0.24516869 14737113
0.76000005 -0.1296335 0.24460207 15000028
0.75819999 -0.11512736 0.24490964 14540250
0.75753325 -0.10527351 0.24469526 14606043
0.75700003 -0.094438255 0.2452821 15000544
0.75767857 -0.085083082 0.24531126 15132387
0.75893348 -0.075262532 0.2451469 14737628
0.75900012 -0.064608537 0.24516863 14672092
0.759 -0.05483596 0.24516863 14737885
0.75899994 -0.046662532 0.24362874 14672091
0.76000017 -0.043521497 0.2470336 14671835
0.76025015 -0.034736447 0.2450728 14540247
0.76018196 -0.025153954 0.24441878 13750476
0.75899994 -0.013028132 0.24422795 13553355
0.76000017 -0.017418476 0.24625418 13882320
0.759 -0.0050846431 0.24516864 13750734
0.75893348 0.0046872119 0.24514678 14079955
0.75863332 0.015341321 0.24504898 13750989
0.75816 0.025093149 0.24489671 13553354
0.7577222 0.034835018 0.24564168 13684939
0.75741667 0.045459643 0.24554279 13816525
0.75696671 0.055179287 0.24539764 14013903
0.75650007 0.064885482 0.24524471 14145490
0.75541663 0.075401045 0.24489257 13816526
0.75620693 0.085102171 0.24499667 14803421
0.76410007 0.092193566 0.24484441 14408407
0.77375007 0.097159997 0.24359274 11381672
0.77875006 0.10052098 0.24334526 11579816
0.78704345 0.10592349 0.24485072 11382694
0.79000002 0.10937075 0.24963389 11448230
0.78822231 -0.16130693 0.25419819 9408395
0.77466673 -0.15329614 0.25542456 12960448
0.78350002 -0.15809971 0.25522491 9211017
0.76440746 -0.14424339 0.25486305 14407891
0.77149999 -0.149656 0.25371864 14078670
0.75900006 -0.13123977 0.25849491 12960957
0.7603572 -0.13528946 0.25514165 14079438
0.75880015 -0.12486202 0.25494993 14408404
0.76000005 -0.1296335 0.25260836 13750731
0.75796664 -0.11509137 0.254594 14737628
0.75799984 -0.10533671 0.25460541 14606043
0.75722575 -0.094737224 0.25506008 14869214
0.75755554 -0.084681958 0.25494891 15066592
0.75866675 -0.075234979 0.25482911 14737628
0.75900018 -0.064850837 0.25453737 14474456
0.76000005 -0.062024903 0.25972506 14408662
0.75899994 -0.056020509 0.25286826 14540506
0.76000017 -0.053722091 0.2573528 14671834
0.75900006 -0.049505461 0.25227597 14540506
0.76000017 -0.04515342 0.25555322 14672090
0.7608332 -0.034307294 0.25490385 14540246
0.76038712 -0.024848048 0.25554976 13882317
0.75900006 -0.01100742 0.25346053 14013905
0.76000017 -0.015227242 0.25541189 13684940
0.75900012 -0.004962103 0.25503314 13750989
0.76000005 -0.0086496901 0.25260836 14079698
0.75841677 0.0046828054 0.25474465 13882575
0.75766659 0.015321447 0.25449193 13816524
0.75730008 0.025064854 0.25436884 13487560
0.75673348 0.034789335 0.25506467 13684940
0.75620598 0.045594119 0.25550947 13882319
0.7548666 0.05502551 0.25531504 13948369
0.75309998 0.064768247 0.25533319 14145492
0.74900001 0.073886357 0.2594727 14211284
0.75202453 0.075086668 0.25510439 14408664
0.75520009 0.08511135 0.25507647 14868961
0.76490009 0.092470527 0.25512752 14868963
0.77437502 0.097012132 0.25466603 11184551
0.78646666 0.1037318 0.25428474 11447976
0.78814286 -0.16237356 0.26538703 9473673
0.7733531 -0.15374759 0.26481628 13223103
0.78316671 -0.15925275 0.26488712 9341831
0.76183873 -0.14433585 0.26460719 15066334
0.759 -0.13316466 0.26412156 14277075
0.76000017 -0.13647649 0.26561001 14408662
0.75890011 -0.1250049 0.26467931 14079440
0.75832003 -0.11514539 0.26447773 14277077
0.75796962 -0.10509057 0.26483849 14211284
0.75741649 -0.094617203 0.26504895 14342870
0.75799996 -0.084930062 0.26525229 14474711
0.7585001 -0.075427301 0.26516533 14737626
0.75899994 -0.06592001 0.26530606 15001056
0.76000011 -0.061629534 0.26367876 14672091
0.76012009 -0.054916412 0.26510489 14935263
0.76074189 -0.045022823 0.26514998 15001056
0.76075858 -0.035434242 0.26459047 14540247
0.76000017 -0.025551843 0.26506251 13948110
0.75900006 -0.011303559 0.26582432 13027010
0.76000017 -0.016170742 0.26465821 13421767
0.75827605 -0.0049589477 0.26519391 13290695
0.7571944 0.0046762973 0.26496857 13553352
0.75700003 0.015308484 0.26490232 13553096
0.75663346 0.025042241 0.26477388 13158852
0.75513524 0.034832954 0.26441476 13487561
0.74900001 0.049338445 0.26911652 13289667
0.75262165 0.044858851 0.26467484 13487561
0.74852175 0.055934049 0.26722962 13355718
0.75094444 0.054739159 0.26229301 13816526
0.74803686 0.065229826 0.26575196 13619147
0.75040001 0.062429398 0.26101115 14079698
0.74808568 0.074547365 0.26540795 14211030
0.75000006 0.079252295 0.26157489 15066340
0.74883336 0.08175876 0.26817974 14539739
0.7523334 0.085178949 0.26434183 14934497
0.76157147 0.091429003 0.26381975 13158342
0.77400005 0.096283957 0.26179153 10987683
0.78771442 0.10246969 0.26339987 11513770
0.78810006 -0.16302441 0.27486336 9473417
0.76900005 -0.15097131 0.27270207 15789031
0.77381825 -0.15422674 0.27399781 12828346
0.78220004 -0.1590562 0.27463681 9209733
0.76229167 -0.14415604 0.2746388 15197922
0.76072007 -0.13509926 0.27422005 14737628
0.75900006 -0.12413243 0.27063659 14277077
0.76051992 -0.12530686 0.27606988 14474456
0.759 -0.11524828 0.27093273 14277077
0.76039129 -0.11476292 0.27688676 14474456
0.7589047 -0.10516687 0.27322528 14474456
0.76022232 -0.10574491 0.27838922 14540249
0.75843334 -0.094744578 0.27517048 14671835
0.75832009 -0.084966108 0.27512923 14737628
0.75818753 -0.074967511 0.27474716 14803164
0.75866663 -0.06498275 0.27460718 15132129
0.76000005 -0.060245734 0.27217928 15066335
0.76075852 -0.055084582 0.27496922 15198179
0.76149982 -0.045212153 0.2745004 15001056
0.76099986 -0.034493037 0.27520955 14606041
0.75900006 -0.021076137 0.27892849 13816526
0.76034486 -0.024797356 0.27481973 14013904
0.75879169 -0.013373476 0.2752246 13816526
0.76000017 -0.017842086 0.27321711 13816525
0.75737929 -0.0050143721 0.27515295 13948112
0.75602812 0.0046694153 0.27518156 13948112
0.75705713 0.015184865 0.27542919 13356231
0.75776011 0.025080282 0.27492589 13158851
0.75585711 0.034619011 0.27524638 13355974
0.74900001 0.049338445 0.27350008 13882317
0.75164527 0.045080237 0.27508989 13618889
0.74774188 0.055746239 0.27501646 13684426
0.75000006 0.051160086 0.27913254 13355205
0.74676663 0.064924374 0.27530614 13684685
0.74655557 0.074519664 0.27522746 14803423
0.74815381 0.082022198 0.27494115 14737633
0.75466675 0.086964153 0.27556464 13356235
0.76100004 0.089322239 0.27966347 11777200
0.76200002 0.091223456 0.27289709 11250603
0.78300005 0.099236555 0.27491722 11316647
0.78900003 0.10184405 0.27517682 11382440
0.78825009 -0.16259348 0.2850644 9276552
0.77514297 -0.15360698 0.28473011 11184295
0.78225005 -0.15860985 0.2856403 8947589
0.76728576 -0.14396368 0.28390023 14145490
0.77100003 -0.14775477 0.28694892 15001057
0.76533341 -0.13485812 0.28477785 13816525
0.76282614 -0.12499177 0.28460747 13619404
0.76183337 -0.11478766 0.28532237 13948370
0.76119977 -0.10489109 0.28508401 13882320
0.75900006 -0.09244559 0.28129759 14935007
0.76045841 -0.095590554 0.28554803 13816782
0.759 -0.085042119 0.28159374 15132385
0.7603333 -0.085191511 0.28653905 13948110
0.75882339 -0.074364245 0.2825214 15000799
0.76012516 -0.075826481 0.28746083 13948368
0.75894117 -0.066118717 0.28319201 15263971
0.76000017 -0.063507542 0.28710455 14145492
0.76131988 -0.054859452 0.28505668 14935007
0.76199967 -0.045241486 0.2844905 15000801
0.76123321 -0.034504823 0.2850956 14672092
0.75900006 -0.021865843 0.28643066 14014162
0.76004779 -0.025850138 0.28498998 13685196
0.75883353 -0.014854742 0.28508538 13948112
0.75833344 -0.005278036 0.28539196 14014162
0.75723332 0.0046751122 0.28537166 14079698
0.75674206 0.015446411 0.28501222 13421767
0.75688225 0.025154978 0.28507715 13027010
0.75522208 0.03471677 0.28549331 13158853
0.75224239 0.044904899 0.28476915 12961217
0.74811542 0.056350768 0.28476289 12961217
0.75000006 0.051599029 0.28571668 12895424
0.74646431 0.065084487 0.28536752 13290183
0.74522245 0.074386239 0.28520423 14671582
0.7477001 0.081635639 0.2844018 15066854
0.75480002 0.085419632 0.28443989 13948118
0.76800001 0.090143859 0.28942752 12567235
0.78500003 0.098966651 0.28611991 11053475
0.78900003 0.10184405 0.28164151 11250854
0.78814298 -0.16158295 0.29596472 9145222
0.7765556 -0.15184985 0.29406726 13487306
0.78341669 -0.15716702 0.29523644 9079430
0.77300012 -0.14452152 0.29493415 14342102
0.76860011 -0.1329004 0.29325292 14737883
0.77073348 -0.1362768 0.29707441 14013904
0.76708001 -0.12538376 0.29475859 14277333
0.76510721 -0.11496196 0.29531366 14211540
0.76375997 -0.1052447 0.29498535 14211285
0.76220012 -0.095215388 0.29438224 14474712
0.76162964 -0.084940337 0.29435918 14737885
0.76134467 -0.075225621 0.29497221 14606299
0.76099986 -0.065242074 0.29612505 14474714
0.7610665 -0.054984953 0.2948319 14606556
0.76188856 -0.045234758 0.29515016 15000800
0.76158309 -0.034521069 0.29503274 14606297
0.75900006 -0.02178687 0.29314309 13093059
0.7603001 -0.025384944 0.29586983 14343125
0.75899994 -0.015567956 0.29367614 13092802
0.76000011 -0.013453459 0.29779935 14343125
0.75900006 -0.0050846436 0.29136628 11842993
0.76045012 -0.0050941235 0.29637486 13553609
0.75852633 0.0055715167 0.29342803 12698045
0.76090914 0.0031623172 0.29793039 13816781
0.75692594 0.01560122 0.29372251 12698301
0.76066667 0.012710755 0.29912904 14079953
0.7553333 0.024830487 0.29417053 12435387
0.75499994 0.034709025 0.29425272 12435131
0.75329632 0.045503948 0.29407918 12435133
0.7482143 0.057041977 0.29260603 12763841
0.75170004 0.053386945 0.29578224 11908533
0.74670005 0.064917639 0.29381263 12434876
0.75166672 0.061829418 0.29910913 11118503
0.74584621 0.074314468 0.29451245 14145495
0.74771434 0.081262156 0.29328543 14935270
0.75550002 0.084553361 0.29650381 14540255
0.76166672 0.08761742 0.29773918 12566464
0.77266669 0.091598757 0.29540899 12632513
0.7869091 0.098061137 0.29571274 11053221
0.79109693 0.10564066 0.29550266 10987683
0.78860009 -0.16072699 0.30309907 9079429
0.77900004 -0.15111086 0.30086759 8881028
0.78517652 -0.15501755 0.30563235 9079175
0.77612513 -0.14396803 0.30407605 14144978
0.78133339 -0.14790447 0.30786788 13355466
0.77447617 -0.13503902 0.30551371 14408918
0.76875007 -0.12302842 0.30050811 12829887
0.77216679 -0.1252819 0.3049604 14474454
0.76812506 -0.11416201 0.30273709 14013902
0.77227283 -0.11562023 0.30763939 14803676
0.76731575 -0.10403272 0.3039203 14013905
0.77060002 -0.10835115 0.3077262 14803676
0.7665 -0.094705068 0.30486619 14211539
0.76549995 -0.084875599 0.30461958 14343126
0.76368749 -0.075064346 0.30367178 14145491
0.76383334 -0.065019771 0.30395436 13684942
0.76391667 -0.055638697 0.30354086 13093831
0.77050006 -0.052960005 0.30840719 14738653
0.76520002 -0.046147596 0.30342177 12632509
0.77183336 -0.044623014 0.30834007 14146003
0.76500005 -0.03377597 0.303074 12960702
0.77142864 -0.036383707 0.30774882 13553352
0.76390004 -0.024791151 0.30308589 12829630
0.77225006 -0.025965743 0.30910769 14013904
0.76350003 -0.014942772 0.30292678 12961217
0.77183336 -0.015105896 0.30894092 13225160
0.76616669 -0.0057288334 0.30338553 13685711
0.77200007 -0.0051717325 0.30780393 12303804
0.76800001 0.0056424751 0.30381072 13949138
0.77300006 0.0065840138 0.30759826 13291209
0.76500005 0.016362585 0.30322325 13554380
0.77280009 0.014000528 0.30824345 12435644
0.75900006 0.026009928 0.30025047 13160393
0.76250005 0.024642346 0.30312347 13291210
0.77080005 0.023704335 0.30852729 10790050
0.76325011 0.035090748 0.30282849 13291466
0.77275002 0.035075292 0.30930781 10791592
0.75900006 0.045851231 0.30084273 12764354
0.76287508 0.045117985 0.30379513 13028038
0.77200007 0.04181562 0.30900761 12172731
0.75728577 0.055959523 0.30185243 12631486
0.76322234 0.054440234 0.30648857 12500666
0.75660002 0.065242976 0.30373093 12697279
0.76140004 0.0651256 0.30797383 10394781
0.7547273 0.074608393 0.30354449 13092550
0.76033336 0.076785095 0.30789772 13948367
0.75700009 0.082206585 0.30300531 12105913
0.76200002 0.084087461 0.30589861 11645361
0.77425003 0.092238754 0.30583018 10461085
0.78622222 0.097809181 0.30518517 10724512
0.78900003 0.10332171 0.30768511 10856096
0.79035002 0.10627439 0.3045103 10856353
0.78813326 -0.15399155 0.31362137 9474192
0.78644443 -0.14478132 0.31571528 10526623
0.79000002 -0.14862114 0.31991127 10066580
0.7852667 -0.13516964 0.31616083 11382186
0.77714294 -0.12450247 0.31158686 14803677
0.78299999 -0.12520726 0.31667084 10987685
0.77600008 -0.11431089 0.31390426 12369081
0.78166676 -0.11625224 0.31897601 9342602
0.77342862 -0.10459464 0.31432599 11842738
0.77336365 -0.095538303 0.31556585 10987430
0.774077 -0.085892424 0.31500036 11908532
0.77322233 -0.075374037 0.31322306 13422282
0.78066665 -0.076503649 0.31978682 9014413
0.77446145 -0.064596236 0.31334502 13816783
0.78100002 -0.060082078 0.31809503 11184553
0.77516675 -0.055094481 0.3129991 14474969
0.78299999 -0.054735012 0.31890962 10855588
0.77600008 -0.04661816 0.31279007 14737883
0.78220004 -0.045527112 0.31712016 13553355
0.77649999 -0.038830601 0.3126266 15066591
0.78260005 -0.034557439 0.31691465 14145491
0.7750001 -0.024546586 0.31202269 14474454
0.78100002 -0.025346518 0.31626672 13948112
0.77600008 -0.016101118 0.31279007 13685196
0.78220004 -0.014393444 0.31675267 13553352
0.77500004 -0.0024703962 0.31020841 12369854
0.78412503 -0.0045638219 0.31684655 12961473
0.77633333 0.0057044798 0.31074211 11843508
0.78533334 0.0048513631 0.31710535 12435643
0.7766 0.014796768 0.31194067 12040629
0.78485721 0.01416389 0.31730527 11579821
0.77620012 0.024967426 0.31323531 10592416
0.78149998 0.024033789 0.31646919 9606032
0.77600002 0.035675645 0.31242532 10659750
0.78280008 0.03507293 0.31699562 8356483
0.77625006 0.04568065 0.31388903 9014155
0.78240001 0.044945337 0.31756681 8817033
0.76800001 0.059579529 0.31100234 8684676
0.77422225 0.055023842 0.31432968 8816260
0.78100002 0.051446363 0.31809503 8750469
0.76766664 0.065548241 0.3120667 9276043
0.77455556 0.064317793 0.31647974 9277068
0.78000003 0.06051046 0.31951374 9212043
0.76500005 0.071882173 0.31157836 9605518
0.77316672 0.075366311 0.31671458 10000532
0.77516669 0.08524058 0.31602153 10329752
0.78100002 0.088015407 0.31900805 10527131
0.78583342 0.096842736 0.31556571 10658974
0.78881812 0.10442326 0.31439629 10725023
0.78900003 -0.13273297 0.32135338 9540500
0.78810012 -0.12464833 0.32246399 9671824
0.79154551 -0.1252443 0.32761315 10198166
0.78682351 -0.11492335 0.32523766 10132374
0.79000002 -0.11903067 0.32823357 10067093
0.778 -0.1044746 0.32051575 10066582
0.78358346 -0.10507092 0.32511252 10066580
0.77800006 -0.093851447 0.32112363 9869202
0.78440005 -0.094311811 0.32609299 10000787
0.77900004 -0.089106664 0.32092774 9869203
0.78575003 -0.084702484 0.32555255 9934994
0.78649998 -0.074776031 0.32448182 9737874
0.7906 -0.075257182 0.32903841 9934994
0.78658336 -0.065112479 0.32313341 9277581
0.79160005 -0.06460055 0.32797179 9804178
0.78783345 -0.055689286 0.32303038 9211277
0.79200006 -0.054954283 0.32731554 9738386
0.78766674 -0.045229539 0.32163095 9539985
0.78780001 -0.034786113 0.32086462 10000532
0.78700006 -0.025539819 0.32053879 9605774
0.78750008 -0.015412566 0.3207424 9079430
0.78866673 -0.0071288869 0.3212176 8947844
0.78866673 0.016871229 0.32121763 8224378
0.78750008 0.025142448 0.32074243 8158587
0.78840005 0.035323359 0.321109 8159615
0.78783339 0.044827003 0.32149389 8751238
0.78625005 0.055469062 0.32253543 9211786
0.78542864 0.065915287 0.32383999 9474444
0.79166669 0.065429591 0.32861742 9409421
0.77820003 0.074946001 0.32059816 10066323
0.78800011 0.074964933 0.32648024 10066580
0.79200006 0.075347044 0.32999161 10066580
0.78620005 0.084919691 0.324449 10526874
0.79150003 0.086106203 0.32947502 10395803
0.78820002 0.094546139 0.32250401 10593181
0.78900003 0.10184405 0.32135338 10527903
0.78900003 -0.11056822 0.3305887 10395545
0.78860009 -0.10497519 0.33042109 10198166
0.78866673 -0.094826542 0.33044901 10066580
