# .PCD v0.7 - Point Cloud Data file format
VERSION 0.7
FIELDS x y z rgb
SIZE 4 4 4 4
TYPE F F F U
COUNT 1 1 1 1
WIDTH 742
HEIGHT 1
VIEWPOINT 0 0 0 1 0 0 0
POINTS 742
DATA ascii
0.71900004 -0.030064557 0.099275865 14276557
0.72000003 -0.031791907 0.099413939 14933972
0.71900004 -0.027539769 0.099275865 14210764
0.72000003 -0.015779341 0.099413939 14144971
0.72000003 -0.0056661437 0.099413939 14079178
0.71900004 0.0086488575 0.099275865 14539729
0.72000003 0.0036042877 0.099413939 14276557
0.71900004 0.013698434 0.099275865 14145228
0.72000003 0.018774085 0.099413939 13685190
0.71900004 0.026322372 0.099275865 13750985
0.72000003 0.021302383 0.099413939 13750983
0.71900004 0.033055142 0.099275865 13882571
0.72000003 0.038157713 0.099413939 14013900
0.72025007 0.045337405 0.099026494 14342352
0.72000003 0.055013046 0.099413939 14276559
0.72200006 0.066156939 0.099266656 14144202
0.72560006 0.072940029 0.099165998 13749187
0.72200006 -0.15104038 0.10983138 14144973
0.72090012 -0.14490493 0.10881964 14737108
0.72138888 -0.13514689 0.10795233 14671314
0.71899998 -0.12285052 0.10832302 15328730
0.72030008 -0.12724634 0.10738017 15000022
0.71857136 -0.11463632 0.10714604 15394523
0.71875006 -0.1049301 0.1068122 15329244
0.72000003 -0.10342705 0.102785 15065559
0.71861541 -0.09488216 0.10646857 15329243
0.71823347 -0.084678739 0.10589395 15329244
0.71811128 -0.07429491 0.10624936 15066073
0.71876007 -0.064380117 0.10664541 15329502
0.72045463 -0.065084226 0.10192945 14736849
0.71841192 -0.054228812 0.10532603 15460574
0.72000003 -0.057917666 0.10109947 14999765
0.71858823 -0.044543538 0.10535234 15329244
0.72000003 -0.041062336 0.10109947 14933971
0.71867651 -0.034257356 0.1051181 15131866
0.72000003 -0.038534034 0.10109947 14933972
0.71848381 -0.025159307 0.10522466 14737367
0.71878779 -0.015574363 0.10551737 14606296
0.72000003 -0.017745795 0.10109947 13619397
0.71866667 -0.0056557814 0.10511664 14540248
0.71861118 0.0044382168 0.10510829 14671319
0.71819448 0.014523187 0.10504588 14605526
0.71791667 0.024601765 0.1050044 14145489
0.71797216 0.034689557 0.10501265 14277075
0.71847045 0.044606447 0.10533446 14671063
0.72000003 0.048270911 0.10109947 14539477
0.71870589 0.054666907 0.10532059 14736856
0.72000003 0.059226874 0.10194223 14736856
0.71888232 0.064184107 0.1075749 14671063
0.72047377 0.065925054 0.10320724 14671317
0.71899992 0.074752398 0.10860991 14934233
0.7218799 0.075403072 0.1039957 14671060
0.71900004 0.08186771 0.10937501 14802390
0.72173339 0.084710978 0.10730854 14276303
0.73200005 0.085918374 0.10621171 11644326
0.74500006 0.085700184 0.10635393 12433842
0.75700003 0.08353629 0.10452271 14472653
0.71849996 -0.15333664 0.11804476 14341585
0.72027278 -0.15382142 0.11386013 14144205
0.7175625 -0.1445493 0.1157651 15328990
0.7202 -0.1484724 0.11191777 15197404
0.716317 -0.13510522 0.11558124 15723747
0.7152195 -0.12509754 0.11544315 15723491
0.71395123 -0.11509163 0.11527945 15789542
0.71411628 -0.10508564 0.11530774 16052971
0.71488363 -0.094925433 0.11547264 16052972
0.71453846 -0.084821217 0.1152079 15592680
0.71378571 -0.075080618 0.11525746 15592681
0.71392852 -0.065066926 0.11528004 15592937
0.71436834 -0.055349544 0.11500039 15527143
0.71395111 -0.045384161 0.11536648 15461350
0.7141217 -0.035609495 0.11543475 15329766
0.7138809 -0.025673239 0.11527213 15066851
0.71376193 -0.015641958 0.11525187 14803424
0.71404755 -0.0056190784 0.115299 14869217
0.71442866 0.0044129207 0.11536201 14737629
0.71378565 0.014433441 0.11525937 14605786
0.71228588 0.024408141 0.11501789 14277077
0.71245247 0.034424242 0.11504474 14605787
0.71395224 0.044523548 0.11528503 14671835
0.71442854 0.054588523 0.1153613 14737372
0.71527481 0.064699523 0.11524653 14736859
0.71641666 0.074866422 0.11484628 15066334
0.71821213 0.084810935 0.11546859 15461089
0.72033334 0.089046091 0.111826 15921128
0.71900004 0.092471823 0.1188009 15657955
0.72255558 0.093646392 0.11611569 15460832
0.74600005 0.10153282 0.11697508 12762807
0.76000005 0.10165908 0.11561197 11908781
0.77400005 0.10625318 0.11774166 11908781
0.71491665 -0.15332478 0.12506169 14078673
0.70850009 -0.14254978 0.12726574 15921131
0.71192318 -0.14636998 0.12419118 15723495
0.70804167 -0.13486026 0.1267681 15921131
0.7105 -0.13532825 0.12221941 16250349
0.70790333 -0.12475736 0.12575386 15855596
0.71000004 -0.12609135 0.12130292 16052971
0.70805722 -0.11508978 0.12523156 15790318
0.71000004 -0.11113225 0.12130291 15855339
0.70851845 -0.10549384 0.12633182 15856113
0.71000004 -0.10411439 0.12204164 15921389
0.70900005 -0.097420834 0.1288777 15790322
0.7106334 -0.094982617 0.12484757 15592940
0.71121639 -0.085629039 0.12551294 15527404
0.71083355 -0.075485371 0.12560441 15461356
0.71105582 -0.065520868 0.12564413 15395564
0.71189737 -0.055405799 0.12534396 15330027
0.71188885 -0.045599967 0.12579237 15001319
0.71113908 -0.03556291 0.12565944 14935270
0.71083361 -0.025563404 0.12560476 14737634
0.70900005 -0.014044464 0.12843511 14277853
0.71007687 -0.016137041 0.12425676 14474462
0.70900005 -0.0058059115 0.12867652 14409439
0.71035993 -0.0054901312 0.12402409 14737634
0.70900005 0.0035492219 0.12901601 14343646
0.71064281 0.0046269563 0.12450039 14606048
0.70900005 0.014930583 0.12919386 14277083
0.71072412 0.014229021 0.12463751 14342876
0.70899987 0.024296496 0.12777118 14014168
0.7101112 0.024334051 0.12298401 14145239
0.70899993 0.033529036 0.12787493 14014425
0.71020001 0.034895726 0.12341483 14342617
0.70900005 0.044213876 0.12860106 14343646
0.71058345 0.044312522 0.12389652 14606044
0.70900005 0.05409712 0.12882739 14409182
0.71061546 0.054552428 0.12422175 14605789
0.70900005 0.06413126 0.12943096 14211290
0.71081829 0.064421944 0.12461625 14539997
0.71171427 0.074375704 0.12492298 15000546
0.71534204 0.084629849 0.12503174 15329765
0.71872729 0.094966784 0.1256488 15395300
0.77350003 0.10889719 0.12037767 11711145
0.77800006 0.11135204 0.12381408 11448230
0.70857143 -0.15190454 0.13764594 13552333
0.7105 -0.15295951 0.13336289 13749456
0.70745462 -0.14436147 0.13527031 15328997
0.71000004 -0.14880703 0.13182968 15262948
0.70619422 -0.13450833 0.13470393 15987182
0.70619428 -0.12458876 0.13470396 15790317
0.70708346 -0.11481288 0.13487428 15724271
0.70819449 -0.10504599 0.13508695 15527149
0.70899987 -0.096590936 0.13537854 15724529
0.71000004 -0.092571877 0.13515393 15592942
0.70900005 -0.086078994 0.13938966 15461357
0.71009076 -0.085304543 0.13507013 15461355
0.71077788 -0.075478487 0.13557921 15395562
0.71100026 -0.06551601 0.13562171 15329770
0.71166676 -0.055580001 0.13574833 15395563
0.71191663 -0.045601454 0.13579607 15198185
0.71102804 -0.035558194 0.13562663 14738147
0.70900005 -0.022177398 0.13772987 13685716
0.71017635 -0.025735362 0.13531731 14343646
0.70896649 -0.0152611 0.13468069 14277853
0.71000004 -0.016945286 0.13820116 14014683
0.70899981 -0.0055795778 0.13524015 14212061
0.70844442 0.0043739905 0.13513446 14277598
0.70847225 0.014327619 0.13513856 14079961
0.70833331 0.024273258 0.1351117 13882840
0.70800012 0.034206867 0.13504943 14014683
0.70802397 0.044981696 0.13505383 14277855
0.708139 0.055764958 0.13507524 14408926
0.70825005 0.065721728 0.13509583 14474205
0.70865214 0.074162446 0.13593034 14803170
0.71014291 0.077415727 0.13296418 15329514
0.71273685 0.08449772 0.13511461 15526634
0.71774298 0.095049098 0.1351541 15329764
0.70800006 -0.15101212 0.14416537 13157576
0.70669442 -0.14453237 0.14472638 14736606
0.70572209 -0.13441825 0.1445273 15395047
0.70599985 -0.1245546 0.14458451 15526891
0.70708346 -0.11481281 0.14480647 15724271
0.7083056 -0.10506215 0.14505632 15658478
0.70896536 -0.09557499 0.14556363 15329771
0.71000004 -0.093798675 0.14386027 15329771
0.70900005 -0.087923199 0.14381576 15198698
0.70999992 -0.084476717 0.14586538 15132905
0.71061122 -0.075461045 0.14553002 15264491
0.71041679 -0.065461643 0.14548905 15198697
0.71116686 -0.055541921 0.14564289 15330026
0.71111131 -0.045549948 0.14563157 15395562
0.71061122 -0.035537791 0.14552884 14935013
0.70900005 -0.025572402 0.14512345 14343133
0.70999998 -0.025499683 0.14543691 14277596
0.70899993 -0.013712509 0.14702465 14014681
0.71000004 -0.016866136 0.14409773 13948888
0.70899981 -0.0055795773 0.14519893 14146267
0.70863879 0.004375353 0.14512485 14212062
0.70800012 0.01431758 0.14499414 13817561
0.70794463 0.024259992 0.14498262 13685718
0.70788902 0.034201823 0.14497128 14014683
0.70800012 0.044980235 0.14499412 13948890
0.70800012 0.055753596 0.14499414 14014940
0.70800012 0.065698236 0.14499414 14212061
0.70843333 0.074861363 0.14508303 14606305
0.71156776 0.08442463 0.14529561 15527148
0.71683329 0.095049672 0.14512447 15132130
0.71900004 0.10122442 0.14977163 11316390
0.70900005 -0.15081048 0.15515758 13487055
0.71000004 -0.15268531 0.15786959 12237243
0.70694453 -0.14458412 0.15470813 14408412
0.70538878 -0.13435508 0.15436679 15526374
0.70597208 -0.12454954 0.15449476 15658475
0.70666677 -0.11474494 0.15464638 15526891
0.70763898 -0.10496339 0.15485883 15658478
0.70838892 -0.095124155 0.15502353 15198441
0.70900005 -0.088734642 0.1551576 15000806
0.71007699 -0.084035665 0.15539362 15066598
0.71102804 -0.075505652 0.15560143 15132133
0.71136123 -0.065549314 0.15567587 15198183
0.71136123 -0.055558376 0.15567471 15329512
0.71144456 -0.045572266 0.15569252 15263719
0.7108891 -0.035550762 0.15557125 14935269
0.70899993 -0.023117939 0.15587683 14146269
0.71000004 -0.027234618 0.15486193 14540769
0.70880538 -0.015533583 0.15511468 13948890
0.70899987 -0.0061328388 0.15418942 13949147
0.71000004 -0.0044793659 0.15731557 13883098
0.70852774 0.004374472 0.15505439 13949403
0.708139 0.014320618 0.15496977 13489366
0.70824999 0.024271213 0.15499464 13225939
0.70822227 0.034217868 0.15498848 13422805
0.70877767 0.044200283 0.15511003 13817561
0.70876175 0.054983269 0.15510648 13817304
0.70822227 0.06571801 0.15498823 14014683
0.70840627 0.075169548 0.15523493 14672614
0.71114707 0.08455205 0.15513703 15263976
0.71628571 0.09485817 0.15519421 15197922
0.71825004 0.10111883 0.15381812 11644841
0.70900005 -0.15081048 0.16096683 13224138
0.71028572 -0.15155955 0.16505818 12961222
0.70747226 -0.14469248 0.16476117 14407897
0.70561093 -0.13439813 0.16432819 15395305
0.70591652 -0.12453941 0.1643986 15460841
0.70650017 -0.11471747 0.16453409 15724270
0.70763904 -0.10496312 0.16479963 15658477
0.70860863 -0.096200362 0.16376382 15592941
0.71007693 -0.093498044 0.16760501 15263976
0.71080565 -0.085464805 0.16553842 15197928
0.71155888 -0.075757444 0.16546851 15000549
0.71199995 -0.065412059 0.1655698 15197928
0.71133351 -0.055556759 0.16565955 15066341
0.71102804 -0.045544323 0.1655881 15132135
0.71052778 -0.035532609 0.16547062 14869220
0.70899987 -0.023531428 0.16594616 14343133
0.71000004 -0.027732788 0.16442034 14606305
0.7089141 -0.015654774 0.16497777 13948889
0.71000004 -0.011404877 0.16950446 13422546
0.70999974 -0.005587447 0.16534919 13883097
0.70899987 0.0057622651 0.16420732 13686234
0.71000004 0.002446146 0.16662346 13685719
0.70896286 0.014183412 0.16403207 13357268
0.71000004 0.014819726 0.16858107 13422803
0.70900005 0.023328289 0.16221169 13291731
0.71000004 0.02481555 0.16680349 13291216
0.70899993 0.035188813 0.16262662 13225682
0.71000004 0.033555545 0.16734369 13357010
0.70899993 0.043280244 0.16262662 13685975
0.71000004 0.045024194 0.16734368 13619925
0.70892292 0.05691117 0.16446018 13685718
0.71000004 0.051963557 0.16638798 13554132
0.70805568 0.065703146 0.16489607 13883097
0.70825011 0.075670868 0.16494128 14409440
0.70900005 0.081558965 0.16843584 15198185
0.71114284 0.08537586 0.16502051 15198185
0.71608329 0.094952084 0.16509125 14934751
0.70900005 -0.15114245 0.17690071 12960707
0.71000004 -0.15202045 0.17349356 12434365
0.7076112 -0.14471944 0.17473215 14605016
0.70599985 -0.13447112 0.17433412 15395045
0.70599985 -0.1245546 0.17433411 15723498
0.70624995 -0.11467746 0.17439549 15855341
0.70758349 -0.1049545 0.17472476 15855085
0.70900005 -0.099357247 0.17507495 15789293
0.71083343 -0.094619833 0.1755285 15526378
0.7120645 -0.085750774 0.17516074 15066084
0.71299994 -0.075506538 0.17491515 14737632
0.71233326 -0.065640427 0.17534168 14869219
0.71130574 -0.055554558 0.17564446 14671841
0.7103889 -0.045504019 0.17541866 14606048
0.71041667 -0.035526138 0.17542587 14606048
0.70900005 -0.022177398 0.17092551 14277596
0.71032363 -0.025740063 0.17564775 14211804
0.70899999 -0.016131045 0.17246673 14014939
0.71004546 -0.01518369 0.1769955 13948889
0.7102499 -0.0055892528 0.17538488 13686488
0.70900005 0.0035492221 0.17092551 13948890
0.71059984 0.0044131083 0.17559138 13686488
0.7106111 0.014370124 0.1754752 13620438
0.71041679 0.024344623 0.17542633 13225167
0.71069455 0.034338124 0.17549579 13356753
0.7110278 0.0443401 0.17557797 13422546
0.70893747 0.058524206 0.17464481 13225681
0.71011531 0.052914724 0.17560667 13357009
0.70800006 0.065697588 0.1748285 13554387
0.70829034 0.07505998 0.17460577 14277596
0.71000004 0.078349754 0.17947721 14474462
0.71206456 0.084604882 0.17526843 15066599
0.7175588 0.094899006 0.17531128 15066082
0.70900005 -0.15081048 0.18420376 13420741
0.70744455 -0.14468572 0.18462771 14539479
0.70569986 -0.13424972 0.18474931 15460579
0.70570707 -0.12460296 0.18487811 15723751
0.70611101 -0.11465551 0.18427931 15921130
0.70758349 -0.10495345 0.18466385 15986923
0.70900005 -0.099357247 0.18420376 16315889
0.71127278 -0.095131755 0.18570234 15724009
0.71321034 -0.085446648 0.18485866 15198181
0.71323538 -0.075494915 0.18432279 14868961
0.71254051 -0.065726675 0.18552855 14803167
0.7117222 -0.055586483 0.18574513 14868961
0.71108359 -0.045548204 0.18557775 14671841
0.71116686 -0.035563286 0.18559982 14343389
0.7116667 -0.025592856 0.1857311 14014681
0.71169442 -0.015597481 0.18573827 13883352
0.71223325 -0.0056038918 0.18504554 13817560
0.71296668 0.0044044321 0.18523638 13751510
0.7129001 0.014416165 0.18521929 13488338
0.71240002 0.024413006 0.18509039 13356751
0.71303326 0.0344515 0.18525465 13291473
0.71306676 0.044465914 0.18526201 13357009
0.70900005 0.059981801 0.1808842 13291730
0.71118206 0.054564409 0.18522644 13422545
0.70865375 0.06671536 0.18398717 13553874
0.71020007 0.062299643 0.18728696 13488337
0.70866668 0.073115431 0.18400745 13816789
0.71040004 0.076842569 0.18634087 14079961
0.71351349 0.084566362 0.18523902 14935013
0.71700001 0.094651431 0.18491521 14869217
0.71900004 0.10122442 0.18006907 11316647
0.71000004 -0.15102319 0.19277419 13355205
0.70783335 -0.1440473 0.19423024 14539478
0.7105 -0.14891221 0.19762279 13684171
0.7055788 -0.13456647 0.19539919 15328993
0.70502698 -0.12427127 0.19539383 15460322
0.70573795 -0.1145943 0.19492067 15854824
0.7065475 -0.10480068 0.19514325 15986667
0.70836359 -0.09632764 0.19617309 16315375
0.71050006 -0.093507402 0.19326563 15921388
0.70900005 -0.089398563 0.1991418 15986410
0.7122559 -0.08503662 0.19481705 15657960
0.71271777 -0.075364448 0.19543524 15197922
0.71202695 -0.065723494 0.19566667 15000545
0.71233326 -0.055632662 0.19507636 14869218
0.71250004 -0.045639277 0.19512285 14671840
0.71240002 -0.035625286 0.19509508 14408668
0.71273333 -0.025631063 0.19518593 14079704
0.71278125 -0.015412604 0.19551125 13948118
0.71330553 -0.005611998 0.19450647 13882581
0.71477783 0.0044167503 0.1949089 13948629
0.71569431 0.014473539 0.19515994 13817044
0.71594417 0.024534276 0.19522908 13488336
0.71630549 0.034608308 0.19532749 13554129
0.71569419 0.044630017 0.19516081 13488337
0.71357584 0.054291349 0.19496216 13422545
0.71161771 0.0645625 0.19546908 13553874
0.7107777 0.07427606 0.19548289 13948888
0.71213514 0.084446274 0.19515483 14803684
0.71515393 0.093472689 0.19526911 14803682
0.71200001 -0.15144861 0.20165125 13289159
0.7076897 -0.14356473 0.20499916 14408149
0.71025002 -0.14899814 0.20448014 13092036
0.7054444 -0.13436693 0.20557426 15197662
0.70491672 -0.12436344 0.20542043 15591907
0.70530546 -0.11452422 0.20553333 15657445
0.70591658 -0.10470872 0.2057119 15855079
0.70664275 -0.094890177 0.20509398 16052458
0.70780021 -0.085648097 0.20552409 15986922
0.71000004 -0.082460627 0.20150034 15789288
0.70856249 -0.076176338 0.20731212 15658471
0.71050012 -0.074700929 0.20338777 15460837
0.71130562 -0.06554193 0.20561607 15132386
0.71372986 -0.055852272 0.20480551 15000546
0.71488893 -0.045792382 0.20498061 14737631
0.71338892 -0.035676233 0.2045497 14671839
0.71319431 -0.025648221 0.20449436 14342874
0.7129705 -0.015821761 0.20467532 14079702
0.71305543 -0.0056111682 0.20445399 14079703
0.71422225 0.0044133193 0.20478609 14079702
0.71558321 0.01447168 0.20517668 14145495
0.71580535 0.024530133 0.20524144 14013909
0.71641648 0.034614131 0.20541634 14014166
0.71663857 0.044689629 0.20548046 13882838
0.71530557 0.054652113 0.20510006 13619923
0.71331245 0.064310431 0.20505121 13619410
0.71219993 0.074424334 0.20504345 13882325
0.71346867 0.084789991 0.20509697 14738147
0.71658057 0.094501205 0.20527726 14672352
0.70666665 -0.14446273 0.2149004 14013135
0.70477426 -0.13490373 0.21514501 14868698
0.70414662 -0.12493121 0.215187 15328479
0.70463896 -0.11441647 0.21523681 15196894
0.70480561 -0.10454396 0.21528664 15789030
0.70550001 -0.094737209 0.21549883 15920871
0.70612812 -0.084712408 0.21524605 16052715
0.70725656 -0.075294308 0.21482471 15789542
0.70845836 -0.066179834 0.21605743 15789798
0.71033335 -0.063652582 0.21268041 15592422
0.70900005 -0.05753075 0.21872723 16052457
0.71141666 -0.055144452 0.21429645 15460837
0.71242845 -0.045633618 0.21511082 14934750
0.71242839 -0.035627104 0.21511309 14803421
0.71315789 -0.025820272 0.21480663 14606042
0.7145279 -0.015660292 0.21491271 14606043
0.71308321 -0.0056120045 0.21447822 14211284
0.71276182 0.0044021253 0.2152143 14277078
0.71323067 0.014232838 0.21496959 14145494
0.71488899 0.024498884 0.21502073 14211288
0.71525002 0.034558348 0.21512938 14277338
0.71597201 0.044648841 0.21534681 14014680
0.71569431 0.05468332 0.21526287 13948374
0.71433347 0.064610943 0.21485469 13816788
0.71341664 0.074552953 0.21457966 13948375
0.71580559 0.084858119 0.21529929 14672611
0.71822596 0.095205799 0.21496792 14474977
0.708 -0.15059777 0.22040765 12433850
0.7066471 -0.14452258 0.2249494 13815242
0.70446682 -0.13500577 0.2250797 14933722
0.70339459 -0.12543844 0.22456221 14999515
0.70377511 -0.11485227 0.22502272 15131101
0.70400029 -0.10442483 0.22493063 15328736
0.70402789 -0.094539426 0.22493771 15592420
0.70483339 -0.084746629 0.22519411 15920871
0.70602554 -0.074782617 0.2251313 15855079
0.7072565 -0.065360278 0.22475876 15854823
0.70857686 -0.056678653 0.22473367 15920872
0.71000004 -0.051960669 0.22518559 15855592
0.71113902 -0.04554956 0.2255463 15197921
0.71177775 -0.035594821 0.22574824 14868957
0.71155012 -0.025422622 0.22509113 14408663
0.71152371 -0.015593133 0.22483085 14408663
0.71180946 -0.0056016319 0.22492222 14013649
0.70888895 0.0055765081 0.2282443 14211029
0.710926 0.0039899577 0.22433662 14277079
0.70875007 0.012881609 0.2283147 14211286
0.71132267 0.015003821 0.22412436 14145495
0.71276188 0.024426911 0.22522281 14211288
0.71363419 0.034378219 0.22537625 14277338
0.71480566 0.044576854 0.22503482 14080472
0.71500009 0.054631013 0.22509758 13817302
0.71488899 0.064663328 0.22506303 13751251
0.71491683 0.074709751 0.22507304 14014424
0.71697128 0.084875874 0.22559865 14737891
0.71866673 0.094907895 0.22464544 14409183
0.70704174 -0.14329226 0.23417832 13947341
0.70513338 -0.13513353 0.2351983 14933722
0.70284194 -0.12547183 0.23473585 15262428
0.70226645 -0.11529163 0.23484069 15130842
0.70232546 -0.10499842 0.23507881 15262941
0.70135719 -0.094885461 0.23475507 15460833
0.70135552 -0.08471068 0.23497276 15658212
0.70394731 -0.074923024 0.2351018 15789285
0.70597434 -0.06486091 0.23503086 15723749
0.70726186 -0.055235755 0.23507565 15724007
0.70825917 -0.045948979 0.23633048 15526629
0.71009094 -0.044652626 0.23193918 15395556
0.70900005 -0.039605107 0.23897657 15329765
0.71074307 -0.035422951 0.23528484 15000286
0.71086138 -0.025564436 0.23544425 14671579
0.70900005 -0.012716641 0.23831268 14211284
0.71006435 -0.01601772 0.23461673 14276821
0.70848 -0.0050119553 0.23594747 13947856
0.71000004 -0.0068718148 0.23221184 13882321
0.70770741 0.0044707637 0.23510428 14079699
0.7077896 0.014140211 0.23473012 14211286
0.70861107 0.023086065 0.23672543 14145750
0.7103889 0.025545616 0.23325375 14211287
0.71129739 0.034480445 0.23542829 14408666
0.71259522 0.044439662 0.23518158 14277338
0.71436119 0.054583471 0.23492868 14014680
0.71525002 0.064697593 0.23522207 13685716
0.7158609 0.074807674 0.23542404 14211290
0.71697205 0.084995747 0.23550886 14869219
0.71870583 0.09504804 0.23447907 14145238
0.70804173 -0.14314933 0.24486892 13749962
0.71000004 -0.14769895 0.24513106 12829120
0.7057777 -0.13443094 0.2453261 14999771
0.70342857 -0.12510291 0.24480386 15131613
0.70141667 -0.11553718 0.24545257 14868184
0.70066684 -0.10557094 0.2451897 14933978
0.700028 -0.095641904 0.24496572 15131612
0.70064306 -0.085061684 0.24518104 15329247
0.70289177 -0.074661292 0.24501045 15526627
0.7044723 -0.064913236 0.24487011 15657957
0.70572209 -0.0551158 0.24530564 15723750
0.70747387 -0.045314223 0.24508521 15592166
0.7088421 -0.037150662 0.24608439 15197409
0.7102353 -0.03360977 0.24369574 14606042
0.70888895 -0.024663463 0.24834296 14145490
0.71040726 -0.025824549 0.24406932 14408663
0.70840621 -0.014852392 0.24520122 14013905
0.71000004 -0.019050639 0.24230544 14408663
0.70740497 -0.0055679432 0.24506152 13882576
0.70702726 0.0042549372 0.24560292 14079955
0.70755023 0.014475395 0.2453607 14145750
0.70816678 0.024268845 0.24449778 14277080
0.70900005 0.030520674 0.24561569 14211544
0.71057159 0.035401952 0.24509089 14277337
0.71212488 0.044202086 0.24534494 14408666
0.71336102 0.054506216 0.24462271 14145752
0.71425027 0.064607203 0.2449252 14014167
0.71533334 0.074753202 0.2452973 14211032
0.71667624 0.084861949 0.24521472 14738145
0.71826935 0.093879335 0.24455741 14935264
0.70741391 -0.14345045 0.25500071 13289671
0.70588231 -0.13469328 0.25508198 14802648
0.70332432 -0.12517419 0.25530732 15065563
0.70261085 -0.11573309 0.25573862 14934234
0.70127779 -0.1056639 0.25525397 14934235
0.69900006 -0.091737673 0.25589696 15131613
0.70009685 -0.096259639 0.25458589 15066076
0.69900012 -0.086415149 0.25653428 15460320
0.70021737 -0.083729111 0.25312069 15526113
0.70107692 -0.074258752 0.25473437 15723492
0.70207131 -0.064691693 0.25471586 15789542
0.70447481 -0.055181243 0.25534096 15723749
0.70639473 -0.045071486 0.25515521 15855079
0.70757169 -0.035383206 0.25505653 15328992
0.70788103 -0.025456857 0.25516948 14605527
0.70736605 -0.015605173 0.25510466 14013904
0.70627761 -0.0055590002 0.25541872 13882576
0.70586091 0.0043596281 0.25526822 13948369
0.70605534 0.014278846 0.25533751 14211541
0.70700026 0.024229189 0.25485015 14277334
0.70814282 0.03279436 0.25567824 14474456
0.71036363 0.037269473 0.2536464 14540252
0.71292102 0.04446261 0.25531593 14408666
0.71405572 0.054559112 0.25488898 14342874
0.71463901 0.064642772 0.25509804 14211288
0.71519446 0.074738331 0.25529602 14342617
0.7165553 0.084946007 0.25494251 14803424
0.71776682 0.094330281 0.25453347 14606044
0.70625001 -0.14185625 0.2646057 14078929
0.70509672 -0.13502029 0.26508042 14605269
0.70227003 -0.12565291 0.26532176 15000027
0.70205534 -0.11564083 0.26539719 14868185
0.70155549 -0.10570629 0.26520833 14736856
0.699 -0.092291519 0.26606765 14802649
0.70026928 -0.096999697 0.26446974 14671063
0.69847614 -0.085619949 0.26486105 15000027
0.70000005 -0.080070175 0.26052371 14867929
0.69802505 -0.075187556 0.26534289 15263198
0.70000005 -0.074334681 0.26052371 15460320
0.69773346 -0.065054916 0.26653829 15591906
0.70007139 -0.063689202 0.26183787 15591906
0.69822234 -0.054985307 0.26794282 15657955
0.70123076 -0.054195859 0.26318839 15657699
0.69840002 -0.047514152 0.26908392 15592419
0.70292497 -0.044858094 0.26464957 15789285
0.70536822 -0.035445798 0.26530001 15460577
0.70611101 -0.025393071 0.26527664 14868442
0.70536822 -0.015286739 0.26529923 14145232
0.70373809 -0.0055395337 0.26520297 14145490
0.70297623 0.0043409867 0.26491722 14342870
0.70254344 0.014708695 0.2649695 14145492
0.70499992 0.025229178 0.26495835 14474456
0.70678389 0.0356474 0.26523712 14539993
0.70796305 0.044057518 0.26594064 14474714
0.71116668 0.046431322 0.26204175 14606299
0.70900005 0.051682897 0.26802275 14605789
0.7121352 0.05479734 0.26444948 14408666
0.71436852 0.064443551 0.26534018 14276824
0.7151112 0.074728481 0.26530969 14408667
0.71561539 0.085027918 0.26504377 14869218
0.71703446 0.093713708 0.26466221 14934755
0.70475 -0.14124471 0.27383891 14013392
0.7031281 -0.13546683 0.27519175 14671064
0.70116681 -0.12534431 0.27491009 15197148
0.70105571 -0.11547635 0.27486566 15197149
0.69900006 -0.10286499 0.27978799 14934235
0.70030582 -0.10551716 0.27457145 14868442
0.6982258 -0.094790682 0.2756286 14802906
0.70000011 -0.09879832 0.27199468 14934235
0.69747239 -0.085496366 0.2750929 14802906
0.69700021 -0.075648703 0.27490708 15065819
0.69628882 -0.065193549 0.27511388 15131613
0.69597667 -0.054903958 0.27531585 15460321
0.6976667 -0.045865797 0.27544275 15789286
0.70027274 -0.041650794 0.27359036 15723748
0.70282495 -0.034978501 0.27498084 15460320
0.70428568 -0.025327645 0.27530557 14802649
0.702425 -0.015562286 0.27482483 14079697
0.69900006 -0.0042014103 0.27767035 14145750
0.70033336 -0.0062629376 0.27321604 14079955
0.69875008 0.0039072963 0.27815396 14211287
0.70030785 0.0045775343 0.2733112 14277079
0.69883341 0.011133169 0.27863038 13948116
0.70082068 0.015331438 0.27449995 14079702
0.70309991 0.02590766 0.27508944 14211543
0.70550001 0.035739686 0.27495638 14474460
0.70678955 0.045993879 0.27489233 14408410
0.70800006 0.05497646 0.27535236 14342617
0.71000004 0.057850238 0.27144799 14408410
0.70885718 0.063288949 0.27780673 14408410
0.7112667 0.065170087 0.27375993 14211031
0.71200001 0.074404821 0.27498555 14408410
0.71386492 0.084516548 0.2750327 14869219
0.71657127 0.094353572 0.27453971 14211547
0.70400006 -0.14150657 0.28261337 13618894
0.70227772 -0.13540863 0.28520873 14408407
0.69900006 -0.12086508 0.28960621 15197407
0.70061135 -0.1252448 0.28453186 15131870
0.69900006 -0.11513779 0.28960621 15328993
0.70011133 -0.11532125 0.28432953 15328480
0.69860005 -0.10389689 0.28714988 14802905
0.70000005 -0.10635261 0.28378075 14999771
0.69742113 -0.09498705 0.28542638 14802906
0.70000005 -0.099734724 0.28100762 15065821
0.69573802 -0.085284889 0.28499454 14737112
0.69502372 -0.075433441 0.28470278 14671575
0.69486475 -0.065765813 0.28529787 14802905
0.695068 -0.054913234 0.28527704 15131871
0.69633335 -0.044600982 0.28523678 15395043
0.70000005 -0.040741075 0.28018826 15854824
0.69723338 -0.035302062 0.28712949 15131616
0.70055556 -0.034303095 0.28223208 15197151
0.69762498 -0.025903884 0.28821814 14671579
0.70135707 -0.024987416 0.28377762 14933979
0.69793332 -0.014804509 0.2878561 13882576
0.70062977 -0.015629806 0.28335485 13816783
0.69851619 -0.0049961717 0.28560618 13948629
0.70000005 -0.0087861763 0.28346568 14080213
0.69800007 0.004310587 0.28510499 14079959
0.69809371 0.013760719 0.28560412 14013909
0.70007682 0.018254768 0.28274015 13948116
0.70155555 0.025686795 0.28491503 14079958
0.70412487 0.035506111 0.28488627 14342873
0.70597202 0.0456785 0.2850571 14474460
0.70735151 0.055727128 0.28491953 14277337
0.70859993 0.065636978 0.28457811 14408410
0.70900005 0.071600273 0.28545046 14342616
0.71065372 0.075544268 0.28496498 14539996
0.71431422 0.084565006 0.28524867 14934753
0.71744829 0.094172843 0.2846829 14342876
0.69800001 -0.13275903 0.29710957 13618893
0.70066673 -0.13436779 0.29230013 13882065
0.69800001 -0.12464652 0.29556772 14934235
0.69999999 -0.12595412 0.29083985 15329250
0.69680953 -0.11477865 0.29521933 15197150
0.69607145 -0.10487888 0.29490635 15065821
0.69535887 -0.095192783 0.29498276 14868956
0.69466662 -0.085152417 0.29512739 14606297
0.69400018 -0.075322188 0.29484567 14803419
0.69400018 -0.065574199 0.29484558 14737628
0.69402397 -0.055015583 0.29485559 14803421
0.6943056 -0.044472937 0.29497397 15066339
0.6945278 -0.034731571 0.29506817 14803169
0.69512492 -0.024834204 0.29475087 14605787
0.69552368 -0.015242539 0.29467553 13816528
0.69573796 -0.0054750717 0.2947661 14145751
0.69626188 0.0043013562 0.29498857 14145752
0.69770277 0.014266601 0.29489562 14079958
0.70000005 0.019891294 0.2941173 13882323
0.70089483 0.025489828 0.29479489 14145752
0.70284188 0.035778426 0.29500693 14211288
0.7049737 0.045441914 0.2948592 14408667
0.70663178 0.055821951 0.29494309 14408664
0.70780969 0.06568151 0.294911 14277592
0.70832145 0.074789278 0.29666448 14342614
0.71039999 0.076731302 0.29266587 14803163
0.70900005 0.081558965 0.29872873 15263202
0.71354049 0.084931634 0.29494846 14868186
0.71781826 0.094797395 0.29511148 14866898
0.71900004 0.10122442 0.29705089 10324605
0.69645005 -0.13191843 0.3046059 13881811
0.69639522 -0.12462316 0.30494112 14737374
0.69516647 -0.1145074 0.30510491 14935010
0.69410014 -0.10441979 0.30520356 14935011
0.69385016 -0.094959669 0.30509531 14869218
0.69400018 -0.085070178 0.30459374 14606047
0.69400018 -0.075322188 0.30459362 14474460
0.69391686 -0.065566413 0.30455694 14408410
0.69400018 -0.055013862 0.30459374 14605789
0.69400018 -0.044453532 0.30459356 15066340
0.69394755 -0.034745585 0.30486935 14803169
0.69400018 -0.024957528 0.30459368 14540253
0.69400018 -0.015018395 0.30473697 14145495
0.69416678 -0.0054623242 0.30466598 14212059
0.69472492 0.0048610698 0.30507326 14212317
0.69633341 0.015333704 0.30458266 14014681
0.69805884 0.023105571 0.30613357 14212060
0.70045835 0.02748883 0.30407861 14146267
0.70252752 0.035589613 0.30504692 14277853
0.70508564 0.045693975 0.30490842 14343646
0.70627785 0.055619001 0.30502284 14080475
0.7070002 0.065605432 0.30533391 14014681
0.70697242 0.07553374 0.30532125 14014424
0.70829421 0.082843684 0.30594099 14474461
0.71127778 0.08700271 0.30421802 14605531
0.71619999 0.094675049 0.30490035 14538706
0.71875006 0.10161002 0.30283558 9930621
0.69500011 -0.13210481 0.31434265 13487567
0.69492847 -0.12504208 0.31476158 14474205
0.69421053 -0.11417901 0.31473458 15000548
0.69247371 -0.10450872 0.31497076 14935013
0.69265801 -0.094461925 0.31505483 15001063
0.69400018 -0.085069858 0.31434166 15000806
0.69447225 -0.075373285 0.31455722 14671841
0.69444448 -0.065616451 0.31454483 14408669
0.69416684 -0.055027638 0.31441805 14408669
0.69386125 -0.044445187 0.31427866 14737634
0.69339406 -0.034650322 0.31418997 14672098
0.69400018 -0.02495753 0.31434155 14408926
0.69400018 -0.01520953 0.31434166 14014937
0.69405574 -0.0054617096 0.31436706 14080988
0.6944524 0.0051033497 0.31454763 14015709
0.69633335 0.015493391 0.3150292 13949915
0.6985833 0.023122415 0.31355602 14146524
0.70043474 0.027105032 0.31643707 14146781
0.70254052 0.035481211 0.31507626 14475232
0.70565701 0.045776892 0.31478387 14606818
0.70666671 0.055650081 0.31511581 14738404
0.70767665 0.065473668 0.31532428 14409696
0.70755565 0.07562609 0.31437874 14474462
0.70823532 0.083617434 0.31420577 14277084
0.71060002 0.0880647 0.31404123 13159374
0.7137143 0.093564391 0.31204838 13554130
0.69500005 -0.13156249 0.32130259 13224652
0.69450003 -0.12465341 0.32250917 14672099
0.69365007 -0.11498852 0.32238308 14803942
0.69205892 -0.10536993 0.32218233 14803943
0.69269997 -0.094313882 0.32169902 15067115
0.69409525 -0.085350193 0.32223797 14475748
0.69626319 -0.075435676 0.32287389 14080733
0.69669574 -0.06494379 0.32339883 13619926
0.69492006 -0.054502286 0.32279542 13619154
0.69400012 -0.044667296 0.3218236 14277084
0.69400012 -0.034898944 0.32273576 13948121
0.69400012 -0.025196454 0.32165265 14343905
0.69400007 -0.015615698 0.32111105 14080989
0.69442862 -0.0055792811 0.32138687 13687003
0.69505882 0.0053945235 0.32176092 13687004
0.69718182 0.013879285 0.32223585 13095380
0.70039999 0.018591691 0.32396293 12240071
0.70138466 0.025994416 0.32280248 13160403
0.70283341 0.035422653 0.32282144 13291990
0.70555556 0.045652486 0.3220531 13883612
0.70624995 0.054790679 0.32181886 13751768
0.70840001 0.064907581 0.32136121 14541281
0.71000004 0.068377018 0.32241976 13620693
0.70900005 0.074089944 0.32030585 14081245
0.71020001 0.072053887 0.32217816 13094350
0.73200005 0.077350244 0.33412385 14476002
